ply                 
format ascii 1.0    
element vertex 1291
property float x    
property float y    
property float z    
property uchar red  
property uchar green
property uchar blue 
end_header          
-0.934153 -0.453982 3.79779 79 64 59 
-0.917753 -0.461273 3.76366 13 1 1 
-0.87069 1.01802 3.65894 18 9 12 
-0.841487 -0.583864 3.60541 169 133 107 
-0.840507 -0.602101 3.61049 199 160 101 
-1.0716 -0.168491 4.16504 29 2 7 
-0.865022 -0.650128 3.71065 83 70 51 
-0.912622 -0.443894 3.83525 108 74 39 
-0.860131 -0.64812 3.72252 23 4 0 
-0.861219 -0.660042 3.72908 106 100 84 
-0.905529 -0.0915085 3.84411 27 14 8 
-0.912448 -0.428396 3.86831 48 14 0 
-0.805318 -0.607201 3.64759 76 38 0 
-0.890548 -0.0934644 3.85651 32 18 15 
-0.93493 -0.339221 3.96701 68 23 0 
-0.876583 -0.0790805 3.84587 68 53 46 
-0.80544 -0.609784 3.67541 192 146 97 
-0.902497 -0.290077 3.96911 56 4 0 
-0.853356 -0.11688 3.86209 40 10 8 
-0.713785 0.0756213 3.51348 30 11 4 
-0.861586 -0.541538 3.89423 148 90 42 
-0.84541 -0.0855547 3.85582 34 21 15 
-0.844711 -0.114165 3.87085 96 68 64 
-0.897999 -0.632678 4.02657 30 6 2 
-0.832235 -0.120898 3.87231 47 20 11 
-0.830607 -0.45553 3.90001 103 58 17 
-0.828475 -0.472402 3.90476 14 4 2 
-0.811764 -0.502295 3.87324 17 0 0 
-0.842999 -0.178557 3.96214 111 83 59 
-0.732974 0.969922 3.68281 103 77 60 
-0.804646 -0.487473 3.87836 42 28 17 
-0.802483 -0.102457 3.87616 88 75 67 
-0.800036 -0.419568 3.87123 15 0 0 
-0.805607 -0.578724 3.91681 226 179 39 
-0.71309 0.952525 3.68276 122 97 90 
-0.820734 -0.15854 3.97173 22 12 10 
-0.780883 -0.126018 3.89351 41 28 19 
-0.762572 -0.419747 3.85952 95 76 62 
-0.779359 -0.529333 3.92236 142 101 45 
-0.700412 -0.334858 3.71488 154 102 0 
-0.777821 -0.510979 3.93815 8 6 7 
-0.713444 -0.350629 3.77906 178 129 8 
-0.793813 -0.169757 3.99803 23 12 10 
-0.737728 -0.394885 3.84943 130 66 4 
-0.788406 -0.197292 4.0153 143 110 75 
-0.754607 -0.525683 3.94939 134 116 102 
-0.754931 -0.520057 3.95811 79 57 43 
-0.690839 -0.288411 3.78469 171 121 70 
-0.727205 -0.109954 3.89103 86 73 64 
-0.723557 -0.131982 3.90138 46 34 20 
-1.01688 -0.11026 4.71412 79 66 60 
-0.685769 -0.295654 3.80584 102 40 1 
-0.670366 -0.318515 3.78721 181 136 17 
-0.745319 -0.167085 4.00225 16 0 0 
-0.721646 -0.150109 3.95377 31 17 4 
-0.65891 -0.287989 3.81173 170 133 91 
-0.68827 -0.135135 3.9153 61 49 37 
-0.416903 -0.121961 3.24136 111 97 86 
-0.632153 -0.145945 3.91543 115 101 90 
-0.673071 -0.490757 4.06476 13 0 0 
-0.639376 -0.113118 3.97903 39 26 20 
-0.660856 -0.526552 4.04524 87 71 58 
-0.662057 -0.480268 4.05327 27 10 0 
-0.679492 -0.214219 4.1116 43 25 13 
-0.661662 -0.558554 4.06438 150 138 116 
-0.659116 -0.594523 4.05907 157 139 115 
-0.66947 -0.203288 4.0987 38 24 15 
-0.647061 -0.652462 4.0498 181 115 83 
-0.645199 -0.176017 4.04878 133 121 109 
-0.606408 -0.141958 3.93761 118 104 93 
-0.648702 -0.360532 4.06828 17 0 0 
-0.634413 -0.489479 4.03466 87 41 15 
-0.650744 -0.222052 4.08569 32 15 7 
-0.637452 -0.641434 4.04735 148 9 16 
0.211385 -0.184479 1.44077 57 34 16 
-0.633002 -0.655111 4.05565 132 20 8 
-0.621358 -0.149048 4.03707 17 2 0 
-0.615736 -0.508918 4.02246 162 107 43 
-0.624996 -0.622005 4.05466 158 132 109 
-0.626712 -0.346669 4.08713 45 5 14 
-0.594956 -0.514813 4.00555 150 115 73 
-0.603839 -0.491137 4.03494 105 66 33 
-0.607764 -0.130759 4.04947 192 166 149 
-0.603164 -0.454145 4.04022 26 0 4 
-0.613613 -0.556791 4.07881 15 0 0 
-0.616884 -0.219233 4.09104 128 115 106 
-0.563354 -0.0994336 3.93201 195 168 151 
-0.597649 -0.468488 4.04955 102 86 86 
-0.598061 -0.532616 4.06381 91 74 66 
-0.622255 -0.190118 4.14315 22 14 11 
-0.597086 -0.31879 4.08265 114 95 89 
-0.595741 -0.325994 4.09012 13 0 0 
-0.59033 -0.49041 4.07536 164 137 116 
-0.577375 -0.460606 4.07918 161 135 108 
-0.572912 -0.200776 4.17923 189 162 141 
0.137797 0.0750414 3.49795 92 74 62 
0.133838 0.511742 3.59516 36 15 10 
0.141098 0.517171 3.58795 198 178 169 
0.571706 -0.237285 4.36535 137 109 88 
0.616982 -0.0608196 3.91104 212 185 166 
0.622684 1.45732 3.81564 43 16 5 
0.628696 -0.235584 4.41327 137 110 89 
0.666476 1.45603 3.80045 132 105 84 
0.716543 -0.108227 3.91646 164 136 114 
0.719894 -0.11626 3.89891 123 95 71 
0.729537 -0.0914892 3.92664 142 114 92 
0.73474 -0.157416 3.87248 125 96 78 
0.741638 -0.112302 3.89187 184 152 129 
0.762255 -0.212622 4.18813 176 149 128 
0.757515 1.45681 3.78812 139 108 80 
0.804977 0.96161 3.69227 204 177 158 
0.838798 -0.113518 3.79123 228 201 182 
0.873724 -0.108423 3.79733 211 184 163 
0.873076 1.45747 3.78463 139 107 82 
0.889325 -0.13775 3.86075 104 86 64 
0.914147 0.517972 3.62459 142 118 108 
0.924792 0.51306 3.62365 22 2 0 
0.950589 -0.0881041 3.75457 179 151 129 
0.96509 1.46454 3.81879 128 100 76 
0.983026 -0.0659721 3.72115 72 42 42 
0.999458 0.965849 3.71342 208 182 165 
1.03117 -0.153014 3.99727 141 114 95 
1.03055 -0.126993 3.98479 229 204 182 
0.996439 0.524304 3.61559 124 89 51 
1.12798 -0.14069 3.89002 19 1 0 
1.20396 -0.199265 4.22449 20 7 1 
1.22855 -0.315704 3.98108 242 204 61 
1.23332 -0.383182 3.98968 224 189 73 
1.16634 0.0562642 3.54474 87 65 52 
1.23965 -0.218773 3.91704 152 118 47 
1.21323 1.03627 3.73165 17 12 9 
1.26822 -0.141733 3.93503 92 56 0 
1.3439 -0.678817 4.27341 41 29 17 
1.34421 -0.690325 4.27397 37 24 15 
1.35303 -0.640982 4.28446 76 66 39 
1.2848 -0.258819 3.89272 78 46 5 
1.28455 -0.260858 3.87341 69 39 0 
1.35593 -0.565401 4.27387 26 18 5 
1.37043 -0.547749 4.27016 61 57 48 
1.29703 -0.250521 3.8555 83 49 3 
1.31269 -0.277287 3.87949 254 219 67 
1.38784 -0.509379 4.28128 118 103 72 
1.38793 -0.523476 4.27971 115 100 69 
1.32269 -0.149832 3.87822 88 57 11 
1.40082 -0.550918 4.29151 44 31 15 
1.40193 -0.577253 4.27221 118 109 100 
1.33333 -0.274799 3.89752 242 208 49 
1.4117 -0.447663 4.28585 32 15 0 
1.41208 -0.462993 4.28239 121 101 76 
1.33239 -0.173623 3.85292 66 28 0 
1.41453 -0.632049 4.26928 40 31 22 
1.33889 -0.338925 3.87271 186 142 55 
1.41573 -0.616921 4.2678 105 92 73 
1.42062 -0.44357 4.29026 38 23 0 
1.4291 -0.517713 4.30138 27 15 3 
1.42811 -0.54221 4.28423 121 105 72 
1.42632 -0.623579 4.26119 92 85 67 
1.35133 -0.206987 3.84916 134 90 19 
1.43844 -0.665134 4.28585 36 30 6 
1.33643 -0.0161879 3.74263 213 187 162 
1.36527 -0.164507 3.87369 128 78 0 
1.37649 -0.16728 3.88207 224 171 75 
1.4605 -0.500757 4.28952 16 0 0 
1.46259 -0.5551 4.28623 75 56 26 
1.41761 -0.0959662 3.94987 82 46 12 
1.42782 -0.116887 3.95308 141 101 32 
1.41165 -0.333488 3.86914 47 3 0 
1.50143 -0.607284 4.27239 112 100 78 
1.41842 -0.330416 3.87772 134 99 59 
1.41969 -0.34779 3.87856 163 124 0 
1.51413 -0.539411 4.29331 78 64 37 
1.51188 -0.609093 4.26286 92 82 70 
1.52092 -0.526927 4.291 26 10 0 
1.52241 -0.513763 4.29631 23 7 0 
1.51932 -0.594168 4.27777 92 83 66 
1.53192 -0.353388 4.29277 14 1 0 
1.53419 -0.528541 4.28207 20 3 0 
1.54002 -0.365648 4.30037 139 121 107 
1.54092 -0.348323 4.28077 68 55 47 
1.45446 -0.0493634 3.87569 208 180 156 
1.55023 -0.361305 4.29255 109 97 85 
1.55032 -0.542566 4.28452 60 51 42 
1.54873 -0.672943 4.27136 70 65 33 
1.556 -0.53631 4.30305 21 11 1 
1.45912 -0.192234 3.86252 90 25 0 
1.47055 -0.189082 3.88125 226 170 113 
1.5654 -0.439705 4.28755 39 26 17 
1.57037 -0.659207 4.27955 34 26 3 
1.57689 -0.346519 4.30037 7 0 0 
1.57771 -0.705833 4.29341 39 25 12 
1.58142 -0.337277 4.29644 207 199 178 
1.57586 -0.522912 4.11846 11 11 9 
1.62802 -0.772173 4.2872 21 17 14 
1.54586 -0.114658 3.88982 201 189 167 
1.61277 -0.11182 3.78923 97 88 73 
1.6099 -0.169514 3.77076 94 86 65 
1.60934 -0.183427 3.76671 11 5 7 
1.60981 -0.198067 3.76487 90 82 69 
1.6131 -0.258944 3.76038 124 118 102 
1.6759 -0.348672 3.92748 12 8 7 
1.65619 -0.298431 3.83065 90 76 73 
1.6297 -0.0120536 3.62314 193 121 47 
1.64013 -0.0260196 3.62236 164 116 52 
1.75132 -0.650136 3.95825 10 2 0 
1.7795 -0.608034 4.0319 13 9 10 
1.78548 -0.560614 4.02927 13 12 17 
1.79162 -0.619165 4.02963 155 130 108 
1.80608 -0.595774 4.05227 158 144 141 
1.8282 -0.0436684 3.89687 205 179 162 
1.91924 1.38661 4.18915 29 16 10 
1.92917 1.16358 4.13961 104 82 61 
1.94282 1.33968 4.17659 103 78 58 
1.88912 0.977054 3.77612 81 54 37 
1.89843 0.0647385 3.60546 133 107 90 
2.14409 0.845183 4.09392 84 77 58 
2.10191 0.567472 3.97673 97 70 51 
2.16374 0.830007 4.12659 98 97 76 
2.15478 0.831316 4.10371 35 28 9 
2.16969 0.872159 4.11096 30 43 17 
2.16848 0.838695 4.09602 82 74 55 
2.16739 0.805842 4.09118 33 41 17 
2.39123 0.612835 4.62004 86 67 60 
2.3964 0.600064 4.61769 14 0 0 
2.39607 0.587214 4.61665 43 23 16 
2.1942 0.883903 4.10851 83 86 59 
2.39604 0.57501 4.61274 20 0 0 
2.19235 0.802361 4.10128 27 31 8 
2.1956 0.840995 4.10485 84 76 55 
2.19676 0.816749 4.09923 84 84 58 
2.20182 0.799529 4.10763 92 85 66 
2.39764 0.490562 4.5964 116 96 85 
2.40604 0.604226 4.61775 113 97 84 
2.19749 0.786924 4.09446 92 88 63 
2.20514 0.829575 4.10752 34 34 6 
2.20845 0.848209 4.09612 89 85 60 
2.21185 0.788744 4.10294 40 38 13 
2.17761 0.58181 4.01545 100 73 52 
2.21476 0.846053 4.10533 50 44 20 
2.22725 0.874497 4.11971 32 47 16 
2.23053 0.844782 4.1109 43 37 15 
2.2282 0.811137 4.10153 33 43 16 
2.24829 0.854011 4.11736 90 84 60 
2.24817 0.83169 4.11282 86 89 62 
2.25588 0.838605 4.11954 39 35 10 
2.39575 1.40182 4.24189 70 43 32 
-1.0872 -0.132096 3.83619 110 78 67 
-1.03085 -0.0849249 3.78151 144 132 120 
-1.02001 -0.0556474 3.78628 203 179 167 
-1.01121 -0.0751327 3.78233 157 144 135 
-0.957568 -0.779649 3.69402 143 0 16 
-0.945827 -0.620132 3.65137 7 31 0 
-0.927191 -0.797106 3.67517 121 0 5 
-0.912715 -0.673843 3.65194 22 0 0 
-0.924267 -0.0598459 3.79423 14 0 0 
-0.879932 -0.676894 3.67571 113 143 89 
-0.896363 -0.284726 3.96266 39 0 0 
-0.85734 -0.0794199 3.85336 82 67 62 
-0.811472 -0.121241 3.87678 38 24 11 
-0.849725 -0.096065 4.0859 16 5 0 
-0.811661 -0.175397 3.98415 51 32 17 
-0.78888 -0.115084 3.88021 82 68 59 
-0.71513 0.963407 3.71004 58 33 26 
-0.719193 -0.149097 3.96353 18 1 0 
-0.710181 -0.135371 3.9576 63 49 40 
-0.697326 -0.515 4.0772 185 150 118 
-0.667077 -0.136316 3.9282 35 21 8 
-0.637085 -0.133254 3.79671 38 24 11 
-0.626073 -0.0948874 3.73712 21 8 2 
-0.650348 -0.113874 3.9233 110 100 91 
-0.617315 -0.100752 3.74402 106 93 84 
-0.660436 -0.557325 4.07966 161 144 124 
-0.635493 -0.0988456 3.93203 87 74 66 
-0.650049 -0.607984 4.06403 25 5 0 
-0.647028 -0.36621 4.09113 81 61 54 
-0.63851 -0.63274 4.06709 159 25 32 
-0.637157 -0.64218 4.06198 138 0 0 
-0.637503 -0.584668 4.07657 9 8 6 
-0.617034 -0.509499 4.04229 168 115 39 
-0.620848 -0.219909 4.12405 131 119 107 
-0.6119 -0.5567 4.09241 16 0 0 
-0.572966 -0.200618 4.21032 195 171 143 
0.200787 0.540178 3.7189 111 85 70 
1.34547 -0.445976 4.30194 17 4 0 
1.35924 -0.593677 4.29488 37 29 18 
1.36471 -0.54838 4.29833 19 11 0 
1.36404 -0.609024 4.29467 27 18 3 
1.37054 -0.568117 4.29608 65 58 52 
1.38021 -0.562578 4.2981 94 91 84 
1.38292 -0.623642 4.29279 79 75 66 
1.39434 -0.501604 4.30301 19 2 0 
1.39639 -0.491358 4.30184 117 100 72 
1.39887 -0.516383 4.29984 15 0 0 
1.39996 -0.547993 4.30151 130 121 104 
1.39847 -0.620746 4.29461 101 98 81 
1.40272 -0.582195 4.29967 124 117 109 
1.41033 -0.501756 4.30132 23 10 0 
1.41021 -0.517484 4.3006 23 10 0 
1.41125 -0.596173 4.29822 60 51 44 
1.41374 -0.458253 4.30341 122 106 81 
1.42223 -0.547692 4.30295 64 54 19 
1.42292 -0.496343 4.30099 122 108 82 
1.42365 -0.601919 4.29963 120 105 86 
1.42466 -0.577133 4.30011 20 3 0 
1.42431 -0.588069 4.29906 94 77 70 
1.4276 -0.562899 4.30078 120 98 75 
1.4286 -0.62881 4.29549 98 88 78 
1.43273 -0.642808 4.29685 81 74 55 
1.43842 -0.502751 4.30277 14 0 0 
1.44019 -0.527968 4.30335 127 116 88 
1.43871 -0.63292 4.29683 91 84 65 
1.45064 -0.503287 4.3032 13 0 0 
1.45363 -0.530616 4.30283 128 116 90 
1.45762 -0.512918 4.30184 23 8 5 
1.46286 -0.525667 4.30228 11 0 0 
1.46468 -0.536924 4.30253 75 64 36 
1.46629 -0.547905 4.3029 111 98 66 
1.4655 -0.585666 4.2999 124 98 73 
1.47668 -0.53736 4.30328 51 37 11 
1.47796 -0.559519 4.30242 65 50 21 
1.48593 -0.527892 4.30687 25 9 0 
1.48772 -0.505667 4.30321 19 1 0 
1.48575 -0.65314 4.29665 14 7 0 
1.48976 -0.539034 4.30447 64 50 23 
1.49356 -0.513863 4.30503 116 97 90 
1.49546 -0.628997 4.30097 11 4 0 
1.49711 -0.530155 4.30352 16 0 0 
1.49964 -0.451298 4.31035 122 101 82 
1.50088 -0.506747 4.30576 14 0 0 
1.50716 -0.530344 4.30436 20 3 0 
1.50945 -0.514853 4.3069 118 102 77 
1.51494 -0.506497 4.30835 29 8 3 
1.51676 -0.519877 4.31191 23 6 0 
1.51447 -0.58516 4.30066 21 7 0 
1.51615 -0.616024 4.30156 100 87 78 
1.51939 -0.575622 4.30295 15 2 0 
1.5236 -0.558425 4.30479 23 12 8 
1.53202 -0.522595 4.30691 103 89 63 
1.5333 -0.54875 4.30278 130 117 108 
1.53568 -0.574142 4.3035 24 23 19 
1.53931 -0.537897 4.30734 82 68 65 
1.54741 -0.67715 4.29496 66 65 34 
1.57431 -0.439915 4.31494 124 109 104 
1.56937 -0.700559 4.30102 23 13 3 
1.57703 -0.453525 4.31001 7 0 0 
1.57928 -0.715006 4.2973 149 137 123 
-1.18007 -0.135449 3.95966 71 54 44 
-1.07334 -0.140218 3.79604 152 124 100 
-1.07488 -0.131571 3.81981 98 68 58 
-1.04473 -0.0707733 3.77007 43 32 30 
-1.07048 -0.119085 3.82976 42 8 9 
-1.03725 -0.0850254 3.77368 48 33 26 
-1.02721 -0.0510859 3.76807 187 159 145 
-1.0241 -0.0843163 3.7725 154 140 129 
-1.01629 -0.064032 3.7659 82 65 58 
-1.00022 -0.0546268 3.77134 41 17 7 
-0.995542 -0.0805072 3.78106 32 21 19 
-0.964542 -0.0917168 3.81149 46 28 26 
-0.929477 -0.0866623 3.82575 36 23 17 
-0.836886 -0.119398 3.88442 47 20 11 
-0.818913 -0.121019 3.88794 33 19 10 
-0.849112 -0.177927 3.97822 111 83 59 
-0.807944 -0.100935 3.89066 88 75 67 
-0.801004 -0.0899311 3.89761 21 8 0 
-0.829206 -0.157757 3.99433 22 12 10 
-0.823731 -0.175373 4.00278 59 37 23 
-0.784565 -0.124384 3.90357 41 28 19 
-0.767061 -0.419659 3.87169 95 76 62 
-0.742099 -0.0582856 3.82818 130 104 81 
-0.802764 -0.168448 4.0225 23 12 10 
-0.795851 -0.19623 4.03587 143 110 75 
-0.746995 -0.0893089 3.90973 77 62 55 
-0.765629 -0.533924 3.97034 134 117 99 
-0.741377 -0.0949876 3.91696 23 12 6 
-0.738019 -0.109987 3.92019 90 77 68 
-0.736485 -0.137679 3.91628 106 92 81 
-0.69359 -0.296007 3.82777 102 40 1 
-0.728194 -0.111737 3.92578 39 25 16 
-0.732615 -0.149076 3.98495 31 17 4 
-0.675986 -0.289419 3.83212 176 131 76 
-0.678685 -0.136068 3.94697 61 44 34 
-0.66351 -0.113112 3.94473 94 84 74 
-0.662566 -0.137777 3.95764 46 32 21 
-0.640753 -0.0985143 3.95211 92 79 70 
-0.643415 -0.139871 3.97617 47 33 22 
-0.676552 -0.544835 4.08763 91 71 46 
-0.667854 -0.597114 4.08573 157 139 115 
-0.628088 -0.511768 4.0611 162 107 43 
-0.63643 -0.625849 4.09042 158 132 109 
-0.652147 -0.223724 4.13996 25 10 3 
-0.670661 -0.231721 4.228 15 2 0 
-0.617412 -0.494724 4.0779 105 66 33 
-0.625348 -0.565757 4.11205 165 146 131 
-0.634343 -0.226228 4.14519 36 23 14 
-0.592892 -0.201518 4.24646 189 162 141 
0.127018 0.54168 3.66813 116 92 82 
0.130188 0.53006 3.66494 198 178 169 
0.21505 0.536987 3.68414 111 88 70 
0.285573 0.0722217 3.41941 118 94 82 
0.70689 -0.0842343 3.91961 150 123 104 
0.831522 -0.11618 3.81901 232 207 185 
0.874635 -0.107325 3.81025 211 184 163 
0.892706 -0.0448881 3.77893 140 112 100 
0.928294 0.520994 3.66464 22 2 0 
0.984761 -0.0651862 3.73816 72 42 42 
1.00423 0.980104 3.7607 208 182 165 
1.01221 -0.0527111 3.80718 207 179 168 
1.01639 -0.0731235 3.77322 182 149 142 
1.09467 -0.0844403 3.91125 200 178 164 
1.11891 -0.168233 4.05334 80 55 35 
1.22164 1.05332 3.78349 17 12 9 
1.25714 -0.190423 3.92559 141 115 54 
1.28052 -0.366975 3.94574 127 86 30 
1.34312 -0.557345 4.28284 58 48 21 
1.26324 1.03174 3.79272 16 5 3 
1.292 -0.262024 3.90149 108 76 25 
1.30876 -0.337962 3.92244 92 46 0 
1.31193 -0.346056 3.92887 220 180 46 
1.38776 -0.587314 4.277 111 102 93 
1.39502 -0.499854 4.29073 22 6 0 
1.32581 -0.150026 3.8948 88 57 11 
1.40584 -0.517106 4.28987 93 78 57 
1.33714 -0.174057 3.8776 66 28 0 
1.33982 -0.26007 3.88475 121 79 0 
1.42261 -0.444697 4.30063 38 23 0 
1.42053 -0.551335 4.28999 128 114 87 
1.4252 -0.575423 4.28874 20 4 0 
1.43442 -0.527135 4.29244 67 56 26 
1.35583 -0.207262 3.87186 134 90 19 
1.34273 -0.0158444 3.77453 213 187 162 
1.45443 -0.522649 4.28926 24 8 0 
1.47081 -0.536862 4.2895 111 97 70 
1.48805 -0.504009 4.29315 24 5 0 
1.48621 -0.651551 4.28185 28 21 0 
1.42182 -0.0963842 3.97003 82 46 12 
1.49022 -0.537037 4.2899 70 57 25 
1.41381 -0.367744 3.90885 182 144 1 
1.49746 -0.528506 4.29179 14 0 0 
1.41561 -0.334944 3.88782 47 3 0 
1.50397 -0.609271 4.28432 112 100 78 
1.42242 -0.331523 3.89648 134 99 59 
1.53797 -0.525121 4.29358 125 112 95 
1.53609 -0.570802 4.28352 38 35 26 
1.54514 -0.350091 4.2999 68 55 47 
1.56353 -0.5427 4.2955 34 28 14 
1.57721 -0.451288 4.29399 20 8 0 
1.58254 -0.423132 4.29645 141 129 117 
1.53866 -0.0467351 3.78453 238 184 84 
1.59005 -0.233016 3.79643 92 86 74 
1.61647 -0.170148 3.7949 94 86 65 
1.61641 -0.229565 3.78268 105 89 76 
1.6191 -0.26075 3.78232 124 118 102 
1.66233 -0.300208 3.85264 90 76 73 
1.65609 -0.227237 3.77723 4 0 0 
2.16416 0.868353 4.09819 30 43 17 
2.17816 0.844872 4.10276 36 28 9 
2.37965 0.59676 4.58411 16 0 0 
2.1821 0.793828 4.08613 73 81 57 
2.21771 0.813078 4.176 73 81 57 
2.19281 0.86015 4.10174 88 87 66 
2.19153 0.83855 4.09568 84 76 55 
2.19366 0.794814 4.0883 92 85 66 
2.19921 0.826173 4.09392 34 34 6 
2.20415 0.793875 4.08688 89 91 69 
2.20112 0.783069 4.07742 40 38 13 
2.22036 0.870413 4.10396 32 47 16 
2.22446 0.841281 4.09721 43 37 15 
2.22165 0.807068 4.08664 33 43 16 
2.24108 0.827924 4.09661 86 89 62 
-1.06231 -0.142099 3.78148 152 126 103 
-1.06019 -0.419822 3.7769 73 23 0 
-0.998199 0.976636 3.67761 93 67 50 
-0.931459 -0.590324 3.58045 75 32 0 
-1.03042 -0.0729726 3.75109 45 31 31 
-1.04015 -0.415974 3.76901 214 170 47 
-0.923633 -0.561716 3.57336 65 25 0 
-0.924811 -0.58255 3.5794 191 148 95 
-0.99252 -0.464909 3.69768 131 126 120 
-1.0642 -0.121144 3.82137 38 7 5 
-1.01941 -0.100389 3.76779 36 0 0 
-1.01398 -0.086249 3.75899 206 188 178 
-0.91742 -0.604078 3.60007 57 124 57 
-0.908354 -0.579556 3.58815 22 11 0 
-0.902743 -0.569181 3.58554 166 136 76 
-0.998848 -0.0727414 3.76898 102 87 80 
-0.992034 -0.0568343 3.76031 31 11 2 
-0.90253 -0.62065 3.60816 75 65 53 
-0.903882 -0.60476 3.61262 0 16 0 
-0.987398 -0.0823898 3.77004 35 21 18 
-0.977438 -0.429289 3.75355 109 75 40 
-1.05286 -0.211886 3.88779 124 72 15 
-1.05901 -0.217715 3.901 136 84 44 
-0.894195 -0.616612 3.61676 15 0 0 
-0.871026 -0.590281 3.57704 82 129 61 
-0.865885 -0.580012 3.57008 176 148 98 
-0.885775 -0.624496 3.61587 94 82 70 
-0.88364 -0.668789 3.61269 12 2 0 
-0.892622 -0.789621 3.62843 98 0 0 
-1.07833 -0.24549 3.96303 150 113 87 
-0.895489 -0.791615 3.64519 174 121 113 
-0.877236 -0.637007 3.6195 13 18 0 
-0.878096 -0.616384 3.6298 13 11 0 
-0.888894 -0.457145 3.65142 9 0 0 
-0.932804 -0.444853 3.73732 65 55 53 
-0.867018 -0.672451 3.63678 58 125 58 
-0.829558 -0.582978 3.57166 45 8 0 
-0.857366 -0.515898 3.62414 40 5 1 
-0.85177 -0.517873 3.63413 144 112 87 
-0.861678 -0.674426 3.65056 69 116 61 
-1.12089 -0.191596 4.11962 125 99 86 
-0.909104 -0.46176 3.74799 11 2 3 
-0.854834 -0.662207 3.65093 19 13 0 
-0.984181 -0.38111 3.88557 110 76 41 
-0.904351 -0.448779 3.7443 72 61 55 
-0.854275 -0.476443 3.65664 119 83 47 
-0.833064 -0.540137 3.62364 125 93 54 
-0.849798 -0.652334 3.65896 18 0 0 
-0.90448 -0.445323 3.76604 9 0 0 
-0.848081 -0.646505 3.67988 87 81 59 
-0.876285 -0.727575 3.74037 118 0 12 
-0.844967 -0.645414 3.69476 15 0 0 
-0.847715 -0.657611 3.70433 96 89 73 
-0.832603 -0.453097 3.68492 10 10 10 
-0.84357 -0.647454 3.7053 86 83 64 
-0.903004 -0.442761 3.81747 98 67 39 
-0.902242 -0.0817201 3.81919 135 122 116 
-0.823057 -0.539991 3.67682 130 101 83 
-0.792092 -0.604347 3.6232 48 6 0 
-0.724827 0.0834353 3.52394 90 72 60 
-1.06187 -0.167473 4.14688 32 7 10 
-0.791176 -0.607768 3.64889 191 144 90 
-0.872634 -0.464884 3.80707 68 53 48 
-0.715433 0.0776495 3.52793 28 13 8 
-0.882653 -0.0798543 3.85694 55 40 35 
-0.884642 -0.10396 3.86838 53 38 31 
-0.926077 -0.33744 3.95019 61 18 0 
-0.802824 -0.626921 3.72126 129 86 43 
-0.826159 -0.777236 3.77618 123 89 44 
-0.888823 -0.439343 3.90449 118 75 33 
-0.825257 -0.639023 3.79191 221 195 158 
-0.930641 -0.70083 4.00209 49 5 0 
-0.856535 -0.53927 3.8845 123 71 23 
-0.853215 -0.11476 3.88687 92 65 56 
-0.934309 -0.6865 4.05378 53 29 1 
-0.847917 -0.558764 3.89502 210 161 22 
-0.844595 -0.121243 3.8959 35 11 0 
-0.836336 -0.455582 3.91103 103 57 21 
-0.811829 -0.475981 3.87492 6 2 0 
-0.816922 -0.10291 3.9042 77 67 57 
-0.81456 -0.0911331 3.90406 24 11 3 
-0.85877 -0.180326 3.99285 113 79 51 
-0.793953 -0.412521 3.88279 16 0 0 
-0.803397 -0.116857 3.90222 73 60 52 
-0.795321 -0.511246 3.90815 10 3 0 
-0.801256 -0.576704 3.92872 149 83 0 
-0.842343 -0.160256 4.0145 21 12 7 
-0.790954 -0.126153 3.91335 30 17 9 
-0.774338 -0.422533 3.88278 87 70 54 
-0.770771 -0.440766 3.89143 123 78 21 
-0.829299 -0.189443 4.02291 151 118 83 
-0.784031 -0.137202 3.93729 99 88 82 
-0.720062 -0.301059 3.81327 124 71 5 
-0.822508 -0.178751 4.02104 58 35 17 
-0.774889 -0.445813 3.93628 213 157 38 
-0.816609 -0.17054 4.04419 17 3 2 
-0.747462 -0.0966847 3.92648 28 17 11 
-0.771326 -0.509947 3.9759 15 0 0 
-0.705815 -0.298718 3.84676 91 26 0 
-0.771138 -0.529848 3.98315 140 123 107 
-0.809388 -0.175028 4.06594 17 0 0 
-0.742289 -0.113245 3.94798 38 25 17 
-0.682996 -0.368338 3.83265 188 209 190 
-0.817618 -0.141246 4.11367 50 33 25 
-0.747605 -0.144246 4.00608 110 96 87 
-0.687438 -0.140406 3.99823 46 30 17 
-0.726507 -0.186789 4.0837 24 7 0 
-0.75114 -0.190184 4.14247 26 9 2 
-0.6614 -0.141197 3.98734 55 39 26 
-0.71718 -0.514002 4.11856 85 49 17 
-0.718894 -0.567877 4.14002 151 123 99 
-0.659739 -0.133097 4.01075 12 0 0 
-0.662849 -0.10208 4.02332 15 0 0 
-0.708259 -0.541417 4.12282 146 120 93 
-0.672832 -0.115574 4.0526 46 32 31 
-0.681299 -0.601767 4.10838 152 133 119 
-0.678576 -0.618687 4.10917 23 0 0 
-0.676317 -0.652043 4.10514 122 0 1 
-0.681774 -0.479586 4.11852 10 0 0 
-0.669825 -0.659618 4.10065 205 139 105 
-0.706921 -0.223591 4.19199 99 81 69 
-0.662769 -0.495668 4.09826 89 47 31 
-0.665061 -0.65072 4.10935 138 7 13 
-0.69343 -0.192141 4.17819 9 0 0 
-0.657194 -0.663395 4.11022 128 26 11 
-0.647419 -0.517474 4.09404 164 108 31 
-0.671633 -0.491931 4.15942 17 1 4 
-0.654146 -0.632036 4.12073 164 127 108 
-0.683762 -0.227163 4.19435 24 9 2 
-0.668015 -0.15695 4.1636 28 17 15 
-0.686703 -0.176724 4.20692 84 76 74 
-0.650459 -0.604936 4.13906 130 112 100 
-0.638583 -0.500633 4.11429 101 62 29 
-0.664591 -0.212826 4.17464 78 65 56 
-0.652853 -0.132058 4.15268 186 158 144 
-0.638396 -0.536902 4.12311 71 56 51 
-0.642915 -0.57221 4.14244 154 135 118 
-0.663337 -0.223544 4.19789 115 102 93 
-0.633469 -0.543084 4.13044 89 76 68 
-0.627878 -0.518886 4.13868 14 13 11 
-0.648033 -0.231616 4.1886 30 17 8 
-0.635979 -0.491578 4.1691 72 54 44 
-0.628939 -0.5763 4.15539 156 130 105 
-0.637005 -0.366145 4.18595 25 7 5 
-0.643636 -0.339376 4.2056 27 17 15 
-0.630175 -0.201528 4.18547 95 82 73 
-0.636842 -0.215017 4.21513 93 79 66 
-0.611876 -0.179212 4.22234 57 46 44 
-0.624069 -0.210468 4.27424 187 162 142 
-0.629627 -0.19757 4.29272 90 68 54 
-0.622388 -0.188742 4.29016 65 45 34 
-0.624266 -0.204734 4.3034 187 159 137 
0.111099 0.696467 2.75265 102 76 59 
0.0898654 0.08288 3.61686 94 75 61 
0.104359 0.0802758 3.61667 99 79 68 
0.214511 -0.316932 4.07206 176 148 126 
0.729261 -0.14328 3.90323 150 123 104 
0.731392 -0.15814 3.91004 115 88 67 
0.801957 -0.109882 3.89416 159 131 110 
0.872553 -0.107341 3.82049 208 183 161 
0.903292 -0.106687 3.80259 170 140 116 
0.942712 -0.101211 3.80069 213 185 163 
0.95015 -0.0875399 3.76921 210 184 161 
0.959391 -0.105781 3.81813 192 164 140 
0.982393 -0.0653606 3.7514 62 33 27 
0.992268 -0.0582667 3.7855 148 119 113 
1.02392 -0.0719484 3.80808 150 123 102 
1.08838 -0.0782296 3.9175 115 89 72 
1.09918 -0.221637 4.00113 35 15 4 
1.10743 -0.0786289 3.91839 17 3 2 
1.13753 -0.179758 4.0572 59 37 16 
1.14467 -0.201295 4.03685 81 56 36 
1.22907 -0.316955 3.99243 241 198 68 
1.26475 -0.52193 4.28758 27 22 19 
1.24357 -0.0555965 3.77919 11 9 12 
1.25598 -0.191685 3.9374 133 103 39 
1.25624 -0.213067 3.93808 143 110 43 
1.2648 -0.327191 3.97684 71 55 39 
1.30726 -0.697064 4.28467 24 20 17 
1.29019 -0.263242 3.92196 119 89 39 
1.30297 -0.302981 3.93877 170 122 14 
1.55023 -1.21001 7.31221 103 94 87 
1.345 -0.694081 4.28572 21 13 0 
1.32049 -0.277129 3.91088 137 99 0 
1.32482 -0.150487 3.90724 79 44 2 
1.32395 -0.220526 3.88763 105 66 9 
1.33568 -0.274734 3.92786 244 210 42 
1.33646 -0.188326 3.88795 76 43 0 
1.33732 -0.232952 3.88318 222 182 84 
1.34164 -0.210851 3.89768 131 93 28 
1.34521 -0.235881 3.88954 155 110 9 
1.34093 -0.0150899 3.79797 212 186 159 
1.35203 -0.244387 3.89813 228 189 34 
1.35459 -0.208494 3.88923 114 68 6 
1.38908 -0.526225 4.29381 117 100 72 
1.40384 -0.565839 4.28058 30 19 13 
1.41239 -0.593771 4.27522 73 59 50 
1.42419 -0.624161 4.28666 24 12 0 
1.42775 -0.516827 4.28678 34 20 9 
1.44219 -0.520559 4.29458 24 11 0 
1.444 -0.553078 4.29033 82 63 31 
1.44449 -0.489702 4.28616 110 93 65 
1.44873 -0.53823 4.29569 127 114 82 
1.42103 -0.0966525 3.98489 84 49 17 
1.41484 -0.336131 3.90161 39 0 0 
1.42704 -0.362415 3.9554 215 179 23 
1.42404 -0.305679 3.91781 98 59 0 
1.43442 -0.108298 4.00561 220 181 142 
1.44075 -0.105062 4.01661 206 172 145 
1.47115 -0.502997 4.29395 26 4 0 
1.43351 -0.243329 3.91974 115 60 4 
1.47494 -0.51478 4.29477 131 114 104 
1.43747 -0.247337 3.90642 176 118 68 
1.4783 -0.558144 4.29184 72 56 23 
1.49236 -0.435495 4.28524 29 20 5 
1.49259 -0.612074 4.28203 128 112 87 
1.49576 -0.627959 4.29066 27 20 0 
1.50116 -0.5058 4.29557 19 2 0 
1.50489 -0.417257 4.31819 69 63 51 
1.50353 -0.389463 4.28647 43 30 22 
1.50745 -0.529034 4.29325 20 4 0 
1.50974 -0.513359 4.29586 129 113 98 
1.51698 -0.371038 4.30339 43 12 0 
1.51855 -0.345714 4.30373 31 2 0 
1.51821 -0.357944 4.30044 32 0 0 
1.51908 -0.426275 4.30287 37 24 15 
1.52497 -0.559183 4.28625 37 30 20 
1.5317 -0.430751 4.30252 55 41 28 
1.53287 -0.359743 4.30704 114 101 92 
1.53506 -0.54108 4.29557 22 8 0 
1.54224 -0.418716 4.30143 35 21 8 
1.54365 -0.359699 4.30883 35 22 13 
1.54489 -0.350863 4.31361 73 62 56 
1.55874 -0.57492 4.2917 21 14 0 
1.58173 -0.4384 4.29933 149 136 120 
1.53832 -0.0463954 3.80046 253 201 92 
1.60948 -0.239223 3.8031 11 1 0 
1.61648 -0.170678 3.81256 91 82 73 
1.61913 -0.112302 3.82932 102 89 70 
1.61628 -0.199147 3.8057 93 87 73 
1.6164 -0.23041 3.79827 100 89 71 
1.61909 -0.261775 3.79814 127 115 103 
1.62479 -0.220571 3.79755 16 1 0 
1.62419 -0.237345 3.79122 10 0 0 
1.6151 -0.00697379 3.72273 192 131 68 
1.70941 -0.834386 4.25137 17 0 0 
1.6478 -0.228576 3.79606 99 86 78 
1.66253 -0.30089 3.86829 86 71 64 
1.63745 -0.0109071 3.66843 196 129 51 
1.74003 -0.733387 4.22267 144 117 96 
1.7007 -0.347901 3.93683 181 173 170 
1.81673 -0.177063 4.10887 203 183 172 
1.81477 -0.217295 4.08916 192 170 156 
1.80727 -0.502228 4.0448 16 3 0 
1.93386 1.17364 4.15618 102 82 58 
1.96026 1.16053 4.1528 106 88 66 
2.00498 0.937784 4.09871 91 76 55 
2.05445 0.910117 4.10253 94 77 57 
2.10485 0.571981 3.98548 99 73 56 
2.1388 0.854446 4.08722 42 37 18 
2.14262 0.825943 4.08023 92 86 64 
2.15074 0.838059 4.08547 33 27 3 
2.1623 0.848124 4.08472 39 33 9 
2.16219 0.870258 4.08194 30 40 15 
2.16428 0.832517 4.08075 32 26 2 
2.16316 0.806572 4.07393 31 41 16 
2.13823 0.551579 3.97228 54 27 16 
2.18236 0.840892 4.08508 98 87 65 
2.18411 0.831266 4.08166 25 23 0 
2.18698 0.85376 4.08583 31 29 4 
2.18582 0.802031 4.07635 31 31 7 
2.19145 0.816723 4.07842 100 103 76 
2.19217 0.787365 4.07413 98 90 69 
2.16288 0.576678 3.96415 101 74 55 
2.19712 0.828095 4.07777 27 27 1 
2.19781 0.783194 4.05345 39 37 14 
2.20955 0.846388 4.085 31 23 2 
2.22222 0.843255 4.0807 39 31 8 
2.21927 0.808627 4.06954 31 43 19 
2.23405 0.844252 4.08146 61 55 33 
2.23862 0.829082 4.0794 89 87 64 
2.38796 0.599404 4.55713 120 101 94 
2.23543 0.582574 3.9875 100 73 52 
2.39272 1.40176 4.22891 59 39 28 
2.35585 0.56352 4.0327 26 0 0 
2.38295 0.906472 4.09725 180 153 126 
-0.939521 -0.0684143 3.78437 91 74 66 
-0.945071 -0.10276 3.82372 111 86 82 
-0.935219 -0.102082 3.81061 96 81 76 
-0.820251 -0.0631869 3.84779 130 103 84 
-0.795527 -0.10173 3.86836 104 91 82 
-0.772992 -0.088762 3.90613 81 67 58 
-0.719585 -0.102029 3.90077 101 88 80 
-0.658031 -0.10284 3.92868 21 8 2 
-0.639815 -0.12798 3.92699 94 82 70 
0.468995 0.0837598 3.87935 126 100 85 
1.34206 -0.662556 4.29023 42 32 20 
1.37786 -0.69559 4.2958 28 18 6 
1.41576 -0.637491 4.29956 38 29 20 
1.31083 -0.347549 3.93989 220 179 53 
1.302 -0.240967 3.88481 234 197 108 
1.47327 -0.526359 4.30456 11 0 0 
1.50983 -0.450577 4.31074 25 13 0 
1.51114 -0.550927 4.30524 121 110 82 
1.5203 -0.529615 4.30628 13 0 0 
1.52776 -0.617258 4.30129 28 19 14 
1.46574 -0.0476317 3.92229 205 179 156 
1.6753 -0.35278 3.96861 154 155 141 
1.60881 -0.222832 3.80607 11 0 0 
1.61685 -0.185516 3.81112 13 9 8 
1.62836 -0.240388 3.80447 9 0 0 
1.74878 -0.664175 4.02756 89 79 77 
1.74879 -0.660539 4.00568 85 74 72 
-0.899421 -0.0899134 3.82969 27 14 8 
-0.900242 -0.425062 3.83906 48 14 0 
-0.697732 0.0841817 3.51374 99 79 68 
-0.821508 -0.469507 3.88697 14 4 2 
-0.825399 -0.158063 3.98427 22 12 10 
-0.73323 -0.301208 3.7795 117 63 0 
-0.793 -0.138935 3.99023 98 84 75 
-0.77361 -0.493887 3.94057 20 0 0 
-0.770816 -0.530281 3.94747 15 1 0 
-0.795357 -0.183116 4.02199 66 44 23 
-0.759812 -0.520986 3.97164 79 57 43 
-0.734166 -0.109266 3.91043 86 73 64 
-0.702142 -0.519326 4.08599 154 119 89 
-0.670711 -0.508143 4.07387 12 11 7 
-0.662023 -0.612972 4.07993 36 15 0 
-0.658212 -0.645721 4.07341 124 0 0 
-0.644632 -0.518764 4.06121 180 133 91 
-0.644745 -0.491552 4.06659 87 41 15 
-0.668327 -0.223502 4.13998 32 15 7 
-0.647459 -0.645087 4.07828 148 9 16 
-0.646455 -0.626572 4.08149 119 0 5 
-0.641097 -0.667577 4.07644 177 111 59 
-0.637896 -0.649512 4.08054 194 90 87 
-0.626818 1.57004 4.06266 49 23 10 
-0.613354 -0.370759 4.12094 108 85 79 
1.76315 -0.207234 9.22054 37 23 20 
1.28037 -0.356146 3.94416 72 35 0 
1.30774 -0.32206 3.92644 96 46 0 
1.28108 -0.0349016 3.77142 17 0 0 
1.37906 -0.693591 4.28259 30 18 2 
1.39013 -0.588368 4.28979 111 102 93 
1.39731 -0.489383 4.29154 117 100 72 
1.41367 -0.449214 4.29629 32 15 0 
1.34111 -0.350978 3.91172 157 111 26 
1.41593 -0.515371 4.2887 117 105 91 
1.41674 -0.496689 4.29271 108 92 69 
1.34597 -0.336296 3.89943 145 102 7 
1.43939 -0.501009 4.29224 30 14 0 
1.36521 -0.344812 3.88517 134 88 13 
1.3929 -0.177199 3.90689 216 172 37 
1.47404 -0.524775 4.29329 25 9 0 
1.50228 -0.519561 4.29276 32 15 5 
1.51675 -0.61367 4.28561 92 82 70 
1.53776 -0.510456 4.29287 111 97 70 
1.55297 -0.363005 4.30493 109 97 85 
1.54553 -0.431302 4.20007 39 26 17 
1.5738 -0.686741 4.2812 65 54 36 
1.61741 -0.18468 3.7964 11 5 7 
1.61775 -0.1995 3.79408 90 82 69 
1.62579 -0.22053 3.78758 10 0 0 
2.37247 0.604977 4.57364 86 67 60 
2.19225 0.81399 4.08925 84 84 58 
2.23962 0.848896 4.09758 90 84 60 
-1.04574 -0.210825 3.91582 62 20 0 
-0.940795 -0.0962187 3.77743 46 27 23 
-0.92105 -0.0732544 3.7597 125 111 98 
-1.10468 -0.19094 4.09071 125 99 86 
-0.910118 -0.0619854 3.76896 13 0 0 
-0.833009 -0.648764 3.62881 18 0 0 
-0.833647 -0.643584 3.65378 87 81 59 
-0.831611 -0.642799 3.67047 15 0 0 
-0.892027 -0.441689 3.79742 98 67 39 
-0.829564 -0.636614 3.68586 0 16 0 
-0.779809 -0.602285 3.6007 48 6 0 
-0.807588 -0.534528 3.66143 125 95 69 
-0.893251 -0.0917082 3.8213 24 14 13 
-0.8867 -0.425204 3.82061 53 19 0 
-0.79192 -0.622982 3.64892 85 144 76 
-0.77926 -0.605793 3.62688 191 144 90 
-0.868023 -0.456107 3.79407 23 3 0 
-0.861559 -0.463345 3.78657 68 53 48 
-0.796647 -0.620723 3.66616 13 47 0 
-0.914581 -0.336529 3.92867 61 18 0 
-0.815742 -0.774563 3.75659 123 89 44 
-0.880628 -0.438631 3.88906 118 75 33 
-0.812474 -0.739822 3.7623 80 47 14 
-0.806332 -0.635497 3.75617 221 195 158 
-0.800466 -0.633706 3.74808 218 194 158 
-0.836671 -0.506669 3.87297 128 77 22 
-0.806389 -0.501367 3.86265 24 0 0 
-0.799893 -0.473968 3.85167 6 2 0 
-0.805837 -0.469103 3.88155 14 0 0 
-0.796597 -0.117307 3.88883 73 60 52 
-0.695252 -0.336037 3.70446 147 94 0 
-0.74057 -0.300461 3.82008 86 23 0 
-0.790455 -0.527299 3.9238 130 79 24 
-0.819745 -0.189417 4.00373 151 118 83 
-0.81361 -0.178566 4.00312 58 35 17 
-0.725381 -0.057869 3.83209 194 166 145 
-0.746869 -0.134722 3.92234 54 37 27 
-0.700855 -0.298755 3.83661 91 26 0 
-0.723181 -0.134805 3.94266 47 30 20 
-0.742979 -0.151543 3.99818 19 4 0 
-0.763322 -0.184744 4.10298 25 8 0 
-0.677106 -0.14032 3.97595 46 30 17 
-0.675444 -0.121209 3.98082 38 23 16 
-0.657963 -0.132242 3.98255 101 88 80 
-0.710602 -0.512991 4.10418 85 49 17 
-0.695925 -0.53885 4.10195 149 123 96 
-0.665036 -0.115629 4.0354 46 32 31 
-0.692883 -0.490166 4.10973 144 127 109 
-0.686578 -0.564807 4.11983 141 124 104 
-0.683689 -0.177385 4.11981 124 111 95 
-0.674101 -0.617378 4.09921 23 0 0 
-0.670158 -0.650151 4.09248 127 0 2 
-0.670312 -0.47296 4.09949 75 63 51 
-0.655052 -0.521828 4.07788 178 134 69 
-0.658384 -0.495106 4.08844 89 47 31 
-0.660622 -0.649831 4.0994 138 7 13 
-0.691423 -0.226675 4.17727 42 25 17 
-0.682781 -0.1733 4.16311 17 6 4 
-0.642733 -0.516709 4.08346 164 108 31 
-0.666456 -0.490688 4.14771 17 1 4 
-0.649695 -0.631074 4.11064 164 127 108 
-0.662711 -0.156841 4.15154 28 17 15 
-0.675814 -0.176312 4.18213 84 76 74 
-0.630836 -0.534584 4.1058 71 56 51 
-0.652497 -0.222603 4.17293 115 102 93 
-0.636086 -0.476 4.13817 85 71 68 
-0.623665 -0.517949 4.12897 14 13 11 
-0.636639 -0.374683 4.15927 96 72 72 
-0.634681 -0.323019 4.17013 98 81 73 
-0.632488 -0.365739 4.17544 25 7 5 
-0.632017 -0.215032 4.20381 93 79 66 
-0.618278 -0.204467 4.28894 187 159 137 
-0.810166 1.28791 4.83942 21 0 0 
0.0786156 0.722186 2.8393 102 76 59 
0.102808 0.541103 3.72856 191 169 158 
0.0907373 0.994118 3.82398 52 29 21 
0.50566 1.55229 4.0241 121 93 71 
0.615627 -0.0602838 3.92255 207 182 160 
0.669141 1.50674 3.91544 136 108 87 
0.728351 -0.0905385 3.94018 139 111 89 
0.747373 1.51312 3.91576 140 109 81 
0.783758 -0.152848 3.82953 116 97 80 
0.781916 1.51123 3.91625 127 97 73 
0.910901 -0.0442141 3.78423 29 9 0 
0.914992 -0.0404822 3.74608 135 113 100 
0.982168 -0.065697 3.76275 62 33 27 
1.05176 1.44718 3.78607 41 12 0 
1.22423 1.24896 3.31414 49 20 2 
1.29016 -0.1349 3.9105 81 42 0 
1.28458 -0.0388575 3.78273 204 184 175 
1.34482 -0.682616 4.28647 25 17 4 
1.38905 -0.511143 4.29622 118 101 75 
1.39154 -0.579264 4.28268 48 37 31 
1.41883 -0.586043 4.29076 35 20 13 
1.44613 -0.491262 4.30329 110 93 65 
1.446 -0.511216 4.29913 35 20 13 
1.41019 -0.377965 3.92076 235 206 80 
1.45145 -0.671788 4.28757 40 33 15 
1.42297 -0.351093 3.91137 128 84 0 
1.42201 1.49445 3.93698 44 24 15 
1.493 -0.422385 4.32021 75 71 60 
1.49976 -0.415512 4.33908 72 62 52 
1.50241 -0.413779 4.29587 69 63 51 
1.5207 -0.597088 4.2899 102 90 76 
1.54259 -0.368822 4.32199 133 119 106 
1.55351 -0.376014 4.30911 67 51 36 
1.54809 -0.426609 4.15039 43 33 23 
1.65745 -0.228595 3.80262 7 0 0 
1.79339 -0.622759 4.03907 149 128 101 
1.5916 -0.139982 2.96678 203 183 172 
1.82191 -0.179524 4.12983 187 168 151 
1.83569 -0.577978 3.95941 85 65 67 
1.82572 -0.0432271 3.88484 209 183 166 
1.93456 1.40064 4.19722 129 110 95 
1.94811 1.35382 4.19446 99 74 54 
1.89616 0.990148 3.80234 91 63 51 
1.99088 0.917745 4.10626 98 81 61 
1.89532 0.529065 3.69269 199 173 160 
2.01537 1.13454 4.15409 93 78 57 
2.0057 0.93165 4.10659 47 39 16 
2.0072 0.922125 4.11149 91 80 58 
2.00763 0.941156 4.10945 91 76 55 
2.00638 0.915279 4.10223 29 14 0 
2.02285 1.1261 4.13451 104 89 68 
2.02921 1.10033 4.13722 40 34 10 
2.03917 1.13186 4.14699 98 86 62 
2.03997 1.11077 4.14074 82 74 51 
2.03038 0.91884 4.097 92 77 56 
2.04189 1.09014 4.14174 97 86 64 
2.03448 0.934963 4.10678 41 26 5 
2.04934 1.07776 4.13115 49 32 12 
2.05272 1.0891 4.13147 97 82 63 
2.05321 0.895862 4.10189 32 15 0 
2.07687 1.16795 4.15395 57 39 15 
2.19771 0.801847 4.0731 34 37 16 
2.16862 0.550289 3.96293 40 16 4 
2.21899 0.85235 4.09288 106 100 76 
2.21858 0.87264 4.08816 28 41 15 
2.36823 0.604862 4.54271 104 87 77 
2.37499 0.580744 4.54586 25 6 0 
2.37427 0.385872 4.52623 52 27 7 
2.36412 1.40674 4.21263 134 108 93 
2.366 1.42144 4.21618 60 31 13 
2.38033 1.12331 4.15438 178 150 126 
2.41376 1.42004 4.21945 124 96 74 
3.30514 1.29716 4.72375 169 139 115 
-0.843207 -0.0928634 3.64894 75 55 48 
-0.96084 -0.143797 3.81364 54 5 8 
-0.937972 -0.168972 3.78426 66 31 12 
-0.739001 -0.626601 3.50533 14 9 0 
-0.789127 -0.443324 3.58133 11 7 8 
-0.803465 -0.427654 3.60245 40 23 16 
-0.851102 -0.0878692 3.67487 173 154 139 
-1.01123 -0.188994 3.89662 171 146 124 
-0.7409 -0.607988 3.51404 24 34 0 
-0.763978 -0.523303 3.55724 19 3 6 
-0.83184 -0.0596822 3.66496 16 0 1 
-0.973876 -0.193907 3.86232 175 148 127 
-0.812802 -0.711887 3.62525 96 0 6 
-0.689953 -0.575074 3.45894 75 36 0 
-0.839528 -0.081303 3.68004 150 136 127 
-0.75246 -0.624659 3.54639 78 72 50 
-0.762926 -0.512813 3.57 69 41 38 
-0.705599 -0.591331 3.49289 185 149 91 
-0.709916 -0.585169 3.49993 35 0 0 
-0.862758 -0.0812514 3.72582 14 2 2 
-0.761309 -0.711769 3.57108 150 126 102 
-0.72649 -0.517127 3.52898 23 0 1 
-0.737852 -0.706702 3.53987 150 126 102 
-0.852452 -0.0860552 3.71727 36 25 23 
-0.756466 -0.62503 3.57051 30 2 0 
-1.03436 -0.19607 3.97345 169 142 121 
-0.620258 0.0738079 3.39374 33 15 13 
-0.998931 -0.192241 3.93713 183 156 135 
-0.770632 -0.622503 3.60708 0 13 0 
-0.630189 0.0800247 3.42322 87 70 62 
-0.725957 -0.695096 3.54464 123 0 14 
-0.735293 -0.519636 3.5646 133 108 68 
-1.01515 -0.185155 3.96977 106 79 70 
-0.711631 -0.590752 3.53623 188 145 77 
-0.776324 -0.517613 3.63074 92 63 47 
-0.747686 -0.608478 3.58983 33 57 0 
-0.830391 -0.431272 3.71433 97 68 36 
-0.781599 -0.635172 3.64056 26 70 21 
-0.739981 -0.526785 3.58606 55 23 10 
-0.728823 -0.518601 3.57331 38 7 4 
-0.602135 -0.553669 3.39402 125 84 40 
-0.775691 -0.671986 3.63886 58 21 3 
-0.763413 -0.679611 3.62398 164 96 85 
-0.746047 -0.518197 3.60823 52 21 18 
-0.767186 -0.530126 3.64213 31 1 0 
-0.722848 -0.700906 3.57415 92 0 0 
-0.758973 -0.690679 3.63044 97 9 5 
-0.750266 -0.697761 3.61808 181 118 83 
-0.782064 -0.441262 3.67723 17 0 0 
-0.798774 -0.452156 3.7012 66 51 46 
-0.738837 -0.628471 3.61475 89 45 0 
-0.746408 -0.597612 3.62941 74 41 0 
-0.783579 -0.503841 3.68608 128 90 41 
-0.750895 -0.55852 3.63774 114 82 43 
-0.729183 -0.593507 3.60599 78 42 0 
-0.739567 -0.721493 3.62106 166 123 80 
-0.752606 -0.541718 3.64781 102 76 61 
-0.745376 -0.476329 3.64055 115 94 63 
-0.824363 -0.0916999 3.76174 43 24 30 
-0.747716 -0.626368 3.64202 190 152 87 
-0.737774 -0.605793 3.63478 195 163 112 
-0.796343 -0.558354 3.72192 16 0 0 
-0.821863 -0.0782009 3.76895 45 31 31 
-0.765307 -0.484703 3.68447 12 3 6 
-0.764898 -0.501876 3.68568 116 98 62 
-0.77937 -0.530635 3.70678 13 0 0 
-0.749095 -0.719008 3.6579 112 73 32 
-0.791177 -0.549697 3.73068 95 69 52 
-0.756755 -0.757722 3.67568 124 87 43 
-0.757174 -0.724315 3.68622 48 15 0 
-0.844339 -0.483034 3.826 17 4 0 
-0.778356 -0.626481 3.72566 216 190 153 
-0.850085 -0.327292 3.83927 58 14 0 
-0.831608 -0.474672 3.81298 17 3 3 
-0.774799 -0.499948 3.73123 8 4 3 
-0.834531 -0.43036 3.82504 135 90 51 
-0.768306 -0.592641 3.73426 95 46 13 
-0.724613 -0.0820609 3.6812 34 20 20 
-0.81708 -0.579794 3.81752 142 82 22 
-0.773822 -0.111702 3.76964 88 64 60 
-0.758492 -0.489915 3.74566 39 0 0 
-0.832833 -0.285778 3.86605 66 18 0 
-0.845593 -0.679044 3.87645 52 15 0 
-0.766952 -0.338842 3.77338 81 34 8 
-0.792486 -0.498533 3.81085 125 74 21 
-0.889038 -0.695073 3.94989 130 98 59 
-0.778885 -0.117883 3.79828 37 10 0 
-0.861787 -0.675345 3.9125 100 39 21 
-0.893685 -0.736303 3.95881 255 244 189 
-0.882939 -0.581904 3.95713 103 49 3 
-0.610763 0.922702 3.55508 27 7 6 
-0.654572 -0.3543 3.63006 186 144 6 
-0.770385 -0.387619 3.81045 52 0 0 
-0.773009 -0.120232 3.81918 29 12 5 
-0.692042 -0.328199 3.69517 221 172 51 
-0.792227 -0.446971 3.84498 103 58 19 
-0.703127 -0.295042 3.71511 107 66 14 
-0.731434 -0.461906 3.75458 11 6 2 
-0.712944 -0.337138 3.72962 108 54 0 
-0.887529 -0.723927 3.98319 125 94 48 
-0.752689 -0.457947 3.78924 9 0 0 
-0.751908 -0.0830798 3.79549 64 48 48 
-0.735295 -0.390117 3.7771 137 97 36 
-0.749565 -0.100091 3.80277 86 75 71 
-0.757633 -0.404277 3.81176 18 7 1 
-0.772751 -0.0892369 3.84101 14 0 0 
-0.795898 -0.575668 3.8705 99 55 20 
-0.842977 -0.615582 3.94522 29 8 3 
-0.768553 -0.122241 3.84457 26 11 4 
-0.757762 -0.114323 3.83313 80 67 61 
-0.781813 -0.158369 3.87591 75 59 46 
-0.791453 -0.17597 3.89079 109 80 50 
-0.749516 -0.432505 3.8264 129 102 73 
-0.834424 -0.592573 3.95411 76 34 9 
-0.691553 -0.490957 3.74581 8 0 0 
-0.686214 -0.293494 3.74183 51 0 0 
-0.759476 -0.56843 3.84873 216 165 38 
-0.826223 -0.51601 3.95509 12 4 2 
-1.11066 -0.0925561 4.39764 82 69 61 
-0.678716 -0.415069 3.74096 71 54 38 
-0.73011 -0.470772 3.81999 18 0 0 
-0.717972 -0.41144 3.81083 15 0 0 
-0.751298 -0.572436 3.85902 205 154 37 
-0.742254 -0.516878 3.85383 147 98 40 
-0.772 -0.156177 3.9065 21 11 10 
-0.722186 -0.51293 3.82469 147 98 40 
-0.72897 -0.428984 3.83976 39 13 0 
-0.669103 -0.0863459 3.75496 73 59 56 
-0.670438 -0.278875 3.75695 162 119 64 
-0.744243 -0.134504 3.87597 97 84 78 
-0.712068 -0.546989 3.82001 170 106 19 
-0.765158 -0.184889 3.92368 159 127 89 
-0.701846 -0.432527 3.82336 219 165 39 
-0.708992 -0.425973 3.8399 59 11 1 
-0.762494 -0.17421 3.92799 54 35 20 
-0.667548 -0.0879995 3.78642 64 50 49 
-0.734396 -0.523611 3.89383 19 8 14 
-0.652351 -0.378887 3.77146 185 152 39 
-0.642783 -0.311993 3.75883 173 131 23 
-0.75117 -0.177046 3.93 35 18 2 
-0.685186 -0.421925 3.82352 222 167 84 
-0.393012 -0.124212 3.37986 105 91 80 
-0.688673 -0.10818 3.84311 81 67 58 
-0.699485 -0.494648 3.86347 19 4 1 
-0.788301 -0.176883 4.01035 73 56 49 
-0.741288 -0.496434 3.93195 139 118 91 
-0.675827 -0.100413 3.83583 80 66 63 
-0.744662 -0.532418 3.93743 142 121 102 
-0.724473 -0.519411 3.90996 120 104 91 
-0.62502 -0.33579 3.76206 64 84 56 
-0.649001 -0.371787 3.80001 38 67 65 
-0.674239 -0.397578 3.84093 47 12 0 
-0.679298 -0.3886 3.84908 202 159 44 
-0.756978 -0.194124 3.97471 147 116 85 
-0.683081 -0.391848 3.86903 50 29 8 
-0.641765 -0.0610418 3.82366 184 157 138 
-0.704127 -0.147953 3.93954 11 0 0 
-0.602344 -0.313974 3.77545 43 47 12 
-0.633594 -0.336046 3.83236 28 52 0 
-0.632967 -0.339539 3.84304 26 62 26 
-0.644018 -0.134949 3.89099 48 34 25 
-0.914403 -0.324705 4.33781 103 79 51 
-0.641453 -0.112525 3.9089 87 74 65 
-0.716975 -0.180155 4.03166 25 8 0 
-0.616747 -0.136159 3.88291 43 29 20 
-0.742683 -0.186101 4.1102 20 6 0 
-0.727453 -0.187602 4.09427 11 0 0 
-0.683718 -0.177957 4.02258 85 72 64 
-0.669286 -0.140009 4.00031 53 39 30 
-0.706529 -0.186162 4.06893 11 0 0 
-0.620571 -0.156391 3.95858 101 84 68 
-0.672787 -0.503998 4.04473 74 40 12 
-0.618988 -0.113297 3.96294 50 38 40 
-0.179612 0.836391 3.22908 200 172 160 
-0.679595 -0.533293 4.07614 147 122 91 
-0.651955 -0.504217 4.04414 15 11 8 
-0.583117 -0.114068 3.93422 8 0 0 
-0.732331 -0.38197 4.18511 141 115 90 
-0.646513 -0.173722 4.06047 111 97 84 
-0.643784 -0.552666 4.0516 154 138 125 
-0.645941 -0.64199 4.05387 109 0 0 
-0.620266 -0.158726 4.01871 124 110 97 
-0.646708 -0.651779 4.06155 185 104 83 
-0.636665 -0.611845 4.04808 145 118 109 
-0.663103 -0.174604 4.09988 106 93 84 
-0.687621 -0.213713 4.14323 35 15 4 
-0.633254 -0.488141 4.04824 77 38 23 
-0.669343 -0.334453 4.11607 33 15 3 
-0.667074 -0.218684 4.1242 95 79 66 
-0.657818 -0.32431 4.11355 13 0 0 
-0.626586 -0.155941 4.06255 92 83 76 
-0.635269 -0.187319 4.07903 13 5 2 
-0.630853 -0.155682 4.07536 108 98 96 
-0.62209 -0.644875 4.0551 184 96 94 
-0.583788 -0.117196 4.00381 187 160 149 
-0.60463 -0.638723 4.03487 103 8 6 
-0.623929 -0.623207 4.06904 145 112 93 
-0.616746 -0.130508 4.06709 175 150 143 
-0.636221 -0.482329 4.09873 22 3 7 
-0.603043 -0.604935 4.04024 36 13 19 
-0.620583 -0.612673 4.07335 23 0 0 
-0.631396 -0.15387 4.1007 28 16 18 
-0.61241 -0.170626 4.07896 99 89 88 
-0.61365 -0.4527 4.07896 26 3 9 
-0.627357 -0.128273 4.10876 184 156 142 
-0.585769 -0.52338 4.03249 62 50 50 
-0.634545 -0.351012 4.12464 42 7 14 
-0.631557 -0.568123 4.1227 158 140 126 
-0.61285 -0.468575 4.10016 86 71 66 
-0.58884 -0.215929 4.06857 130 117 109 
-0.599194 -0.510263 4.08881 8 8 8 
-0.611611 -0.570463 4.12513 155 127 106 
-0.608875 -0.484749 4.12183 70 52 40 
-0.606158 -0.360232 4.1319 7 0 0 
-0.632495 -0.330447 4.18193 14 3 1 
-0.623218 -0.495783 4.16572 156 132 104 
-0.588595 -0.174575 4.11013 99 89 88 
-0.604376 -0.332785 4.1367 42 30 30 
-0.587675 -0.5193 4.12261 98 55 21 
-0.603797 -0.21124 4.15681 92 79 70 
-0.604574 -0.200598 4.19223 22 8 5 
-0.577487 -0.211171 4.14415 26 13 5 
-0.604522 -0.160801 4.20246 36 20 20 
-0.551745 -0.302301 4.13752 153 125 103 
-0.634546 -0.209758 4.2931 186 160 143 
-0.582923 -0.200053 4.22842 184 157 138 
1.17778 0.225787 1.17143 182 158 146 
1.18443 0.222585 1.16053 177 153 141 
0.0710656 0.0847415 3.65834 99 77 64 
0.0959184 0.0814629 3.63542 94 75 61 
0.0887586 0.53106 3.7532 99 81 71 
0.0761325 0.556353 3.79049 104 80 70 
0.0964804 0.981829 3.7997 128 108 97 
0.10535 0.985079 3.79238 52 31 26 
1.39102 0.190496 0.800635 56 27 11 
0.266909 -0.303731 3.92896 173 146 125 
0.634139 1.34414 3.54268 43 20 4 
0.651101 1.49696 3.89692 132 107 87 
0.534698 -0.245428 4.52839 128 103 83 
0.691572 -0.150263 3.91865 202 178 154 
0.71478 1.50568 3.90683 125 94 74 
0.700329 -0.0837367 3.94619 152 128 104 
0.707857 -0.116342 3.98364 165 137 113 
0.719042 -0.14313 3.94534 156 129 110 
0.723671 -0.158119 3.94197 128 102 87 
0.731648 -0.128247 3.91603 207 178 160 
0.755033 1.50032 3.88758 135 105 81 
0.805825 -0.10874 3.87687 157 132 112 
0.659742 -0.242147 4.53592 124 99 79 
0.920513 0.530489 3.70406 25 2 0 
0.90123 -0.105487 3.81282 176 150 125 
0.904699 -0.0904728 3.79987 206 179 158 
0.907878 -0.10774 3.85306 204 178 153 
0.92474 -0.0811018 3.80235 207 180 161 
0.933137 -0.10184 3.85112 206 180 157 
0.879088 -0.178484 4.19602 221 209 183 
0.949593 -0.10597 3.87129 209 183 158 
0.97247 -0.0583176 3.77942 43 19 9 
0.971204 -0.06498 3.81314 58 30 26 
0.97679 1.00274 3.83512 136 108 97 
0.98523 -0.096188 3.79061 179 151 127 
1.00203 0.98842 3.775 216 188 174 
1.00826 -0.0733653 3.821 155 128 121 
1.00261 -0.0530809 3.86363 204 178 163 
1.01245 -0.0596592 3.82951 193 166 147 
1.02126 -0.0791478 3.81498 144 117 96 
1.01444 -0.111451 4.01435 131 106 84 
1.01479 -0.132911 4.02082 202 181 160 
1.02569 -0.150663 4.0105 26 13 0 
1.02561 -0.143328 4.02117 59 40 23 
1.02726 -0.18575 4.01336 61 45 30 
1.02595 -0.171333 4.03083 108 96 82 
1.02979 -0.123439 4.01541 208 182 165 
1.03105 -0.193748 4.00727 255 246 228 
1.02761 -0.145717 4.06751 138 121 105 
1.04675 -0.111128 4.00288 170 144 127 
1.04429 -0.166618 4.06945 85 72 55 
1.08543 -0.103176 3.93068 164 144 137 
1.09194 -0.0950214 3.93257 58 41 34 
1.08994 -0.220495 4.00941 69 52 42 
1.10103 -0.0772819 3.96459 25 10 7 
1.11669 -0.134739 3.91635 122 109 101 
1.11745 -0.140149 3.92593 28 11 1 
1.14392 -0.135573 3.90851 97 86 80 
1.13709 -0.171125 4.04348 168 142 125 
1.15138 -0.140124 3.94423 139 121 109 
1.16331 -0.143258 3.9892 204 177 160 
1.17175 -0.126553 3.97502 198 173 151 
1.18134 -0.156519 4.02869 201 173 149 
1.21696 1.07221 3.82834 22 12 11 
1.20384 -0.112058 3.9584 196 172 144 
1.19569 -0.154537 4.06065 200 172 148 
1.2372 -0.0550818 3.83949 18 19 21 
1.22354 -0.328642 4.00546 138 97 5 
1.23388 -0.350114 3.99169 46 0 0 
1.24727 -0.206795 3.97407 197 169 130 
1.25476 -0.191315 3.94996 128 106 48 
1.26149 -0.32979 4.012 76 56 32 
1.28298 -0.0384721 3.79492 195 179 166 
1.2686 -0.332879 3.94689 54 30 2 
1.31308 -0.123044 3.91563 154 119 55 
1.32492 -0.150252 3.93367 71 37 0 
1.34453 -0.0154281 3.75167 213 187 164 
1.30372 -0.704035 4.33081 23 19 18 
1.31829 -0.443422 4.27313 29 21 19 
1.35384 1.48195 3.8914 49 29 20 
1.35455 1.08839 3.87762 21 13 11 
1.349 -0.136056 3.93111 177 131 35 
1.35173 -0.348623 3.91858 145 106 29 
1.35131 -0.318064 3.95979 171 126 25 
1.33618 -0.425082 4.262 22 0 0 
