ply                 
format ascii 1.0    
element vertex 1268
property float x    
property float y    
property float z    
property uchar red  
property uchar green
property uchar blue 
end_header          
0.30314 -0.498574 2.68819 85 82 77 
1.8508 -0.812499 2.90183 189 179 177 
-0.16373 -0.434739 2.29941 130 128 129 
0.652195 -0.563031 2.76971 192 179 170 
1.01466 -0.614937 2.94558 147 134 125 
1.01872 -0.543443 2.7923 121 99 86 
1.03323 -0.644319 2.93368 162 74 72 
0.856735 -0.493935 2.68451 58 59 51 
0.222772 -0.451456 2.54676 151 129 69 
0.996931 -0.605883 2.87909 98 84 71 
0.38389 -0.680978 2.5568 106 86 33 
-0.427677 0.596219 2.50987 27 22 16 
0.491337 -0.581861 2.39485 210 142 59 
1.6381 -0.432904 2.63816 240 233 225 
1.85372 -0.79863 2.89208 57 52 48 
0.161044 -0.517903 2.50074 61 49 0 
1.7918 -0.567056 3.00352 51 55 67 
0.835101 -0.688249 2.63061 192 177 156 
0.131833 -0.492105 2.65648 88 68 7 
-0.228481 -0.483491 2.38722 235 234 229 
-0.400455 0.535072 2.46371 193 170 154 
-0.95867 0.581867 2.36153 34 26 24 
0.146683 -0.579497 2.49778 111 93 57 
0.749741 -0.657493 2.50013 23 15 4 
1.1436 -0.621258 2.93919 71 34 16 
0.827398 -0.702856 2.63236 95 75 42 
0.257586 -0.56626 2.58417 101 61 35 
0.178117 -0.479493 2.32689 45 34 0 
-1.57411 0.185605 2.34264 252 242 240 
0.793852 -0.242844 1.44187 67 62 66 
-0.413682 0.592134 2.49535 30 22 19 
1.15697 -0.463547 2.66531 69 69 71 
0.510971 -0.579341 2.3806 62 39 25 
1.28941 -0.477805 2.73128 67 62 66 
1.31182 -0.464728 2.70875 78 73 77 
1.1878 -0.447242 2.63981 68 67 65 
1.16698 -0.440565 2.65697 54 50 51 
1.17645 -0.436321 2.64914 67 63 64 
-1.08815 0.165181 2.38905 248 245 230 
1.2397 -0.419071 2.59351 75 70 74 
1.17195 -0.401777 2.56909 69 67 70 
0.999846 -0.275825 1.80645 65 63 66 
2.24447 -0.762079 4.78527 67 62 66 
1.18553 -0.488516 2.73049 75 73 76 
-0.143974 -0.432903 2.26156 28 28 28 
1.66297 -0.627897 2.99733 222 214 212 
1.11479 -0.475112 2.61518 69 69 69 
0.859799 -0.604323 2.59126 67 30 11 
1.02143 -0.342562 1.91447 62 57 61 
1.20285 -0.463918 2.7156 135 133 134 
0.682804 0.20943 2.58952 57 47 38 
1.419 -0.40039 2.58576 72 67 73 
1.81496 -0.826762 2.8967 195 188 180 
0.345418 -0.739918 2.5204 206 176 166 
-1.48968 -0.0291772 2.46279 222 211 205 
0.366364 -0.467029 2.59245 215 210 207 
0.762642 -0.610127 2.46556 83 71 45 
0.769085 -0.63173 2.52506 80 73 57 
0.480405 -0.592164 2.38785 50 24 1 
0.156895 -0.530745 2.55877 165 148 68 
1.57521 -0.704738 2.98962 35 39 38 
0.356684 -0.671359 2.52201 204 158 81 
0.361101 -0.712243 2.57922 5 5 5 
0.742235 -0.667048 2.473 26 18 0 
1.46412 -0.417704 2.63233 81 76 80 
0.360375 -0.740036 2.51998 211 163 151 
0.531317 -0.67963 2.48294 24 16 5 
1.8148 -0.576991 3.05043 58 64 76 
0.385699 -0.439066 2.58995 130 126 127 
0.160694 -0.506481 2.56005 46 43 12 
0.498823 -0.710949 2.49016 224 185 54 
0.889336 -0.559606 2.75691 56 56 54 
0.255339 -0.539862 2.6073 118 73 32 
0.498531 -0.481445 2.56066 60 47 30 
1.67921 -0.583666 2.96588 78 81 86 
-0.206783 -0.380799 2.35872 235 235 235 
0.251529 -0.559784 2.546 124 93 72 
1.8193 -0.781841 2.87887 49 47 52 
0.508419 -0.781978 2.54485 72 110 85 
1.17081 -0.686287 2.93541 146 41 46 
0.624779 -0.4255 2.524 53 55 52 
0.169296 -0.530659 2.55757 130 114 37 
0.850516 -0.747733 2.6222 141 134 128 
1.43249 -0.545454 2.90524 226 221 227 
0.824987 -0.562613 2.77267 209 199 190 
0.505694 -0.664921 2.4332 114 111 106 
0.841642 -0.681144 2.62699 53 50 41 
-0.237834 -0.491044 2.42093 243 239 236 
0.489329 -0.488127 2.62618 13 8 4 
-0.214155 -0.369427 2.41058 232 229 224 
-0.397842 0.406602 2.90807 114 100 89 
1.68018 -0.556035 2.66305 63 54 49 
0.846522 -0.454496 2.62915 86 85 81 
1.58627 -0.354968 2.55438 149 122 103 
0.75234 -0.412375 2.53783 123 110 102 
-0.146069 -0.371059 2.31355 139 139 137 
0.482547 -0.472694 2.49297 222 207 184 
0.245316 -0.525007 2.53666 104 56 8 
0.138662 -0.515179 2.54922 249 232 216 
1.69796 -0.590468 2.99832 31 38 44 
0.368924 -0.494445 2.66682 27 29 28 
-0.321039 0.259251 2.48637 243 238 234 
-0.319379 0.246165 2.46358 236 232 223 
0.379024 -0.526858 2.58623 205 191 180 
1.79046 -0.569579 2.98795 78 78 88 
0.684824 0.209201 2.60179 55 45 36 
1.16446 -0.503998 2.76556 80 80 82 
1.25058 -0.491641 2.69193 65 60 64 
1.32125 -0.501832 2.73949 69 67 68 
1.39389 -0.512155 2.78757 66 62 63 
1.50834 -0.54201 2.93551 61 56 60 
1.41965 -0.520659 2.89475 72 68 69 
1.49822 -0.531874 2.94815 66 66 68 
1.42172 -0.494953 2.75466 64 64 66 
0.485364 -0.686426 2.48347 33 33 25 
0.738403 -0.609697 2.4761 229 216 104 
0.728638 -0.614079 2.47992 13 6 0 
0.344711 -0.693542 2.51194 21 21 19 
0.532704 -0.660358 2.40496 200 162 35 
0.373296 -0.69494 2.57859 52 40 26 
0.316833 -0.669752 2.51772 119 92 39 
1.41583 -0.428479 2.63152 57 52 56 
1.79679 -0.764594 2.82188 63 62 68 
0.516991 -0.6635 2.47635 15 11 0 
0.868382 -0.539004 2.6599 58 59 54 
0.211424 -0.247229 2.30579 21 7 4 
0.706812 -0.77067 2.48306 118 20 35 
0.505624 -0.695611 2.47814 90 74 48 
-0.611027 -0.172984 2.33496 145 87 138 
0.498396 -0.706551 2.47956 237 195 59 
0.836563 -0.450877 2.59157 101 103 100 
2.1303 -0.14425 3.09739 61 48 39 
0.719865 -0.569233 2.41301 247 221 62 
0.487022 -0.63953 2.41734 82 59 25 
-0.611217 -0.162745 2.3362 65 13 52 
-0.39495 0.531998 2.44831 189 163 148 
1.01417 -0.536682 2.76676 83 57 42 
-1.47885 0.0216632 2.43652 79 70 73 
-1.48128 -0.0317614 2.46035 205 189 174 
-1.34992 0.0254024 2.51558 207 195 179 
-1.49304 0.129481 2.33361 230 216 205 
-1.48541 0.1295 2.31987 92 79 71 
1.5413 -0.675365 2.8897 60 61 55 
-1.49155 0.179759 2.24927 253 243 242 
1.62857 -0.606364 2.9211 214 214 206 
-0.318222 0.25452 2.48037 91 86 80 
1.13088 -0.660615 2.91019 79 61 57 
1.12062 -0.65628 2.88828 171 157 154 
1.01325 -0.703839 2.87658 134 99 79 
0.566115 -0.636786 2.52397 220 182 99 
-0.609173 -0.173408 2.35324 240 188 234 
1.44703 -0.762783 2.84445 131 132 127 
1.1074 -0.613682 2.89497 119 87 66 
1.45745 -0.770387 2.84231 43 45 32 
0.7207 -0.535466 2.63995 228 190 57 
1.10881 -0.626935 2.8896 138 80 68 
0.887445 -0.505817 2.72019 52 51 49 
1.48561 -0.771793 2.84725 127 127 117 
-1.3759 0.206404 2.23002 104 94 82 
-1.48288 0.0465093 2.42769 96 95 93 
1.47105 -0.760361 2.84663 112 109 100 
1.42815 -0.757506 2.84138 56 52 40 
-1.47825 0.178677 2.23789 111 102 97 
1.04933 -0.658017 2.87923 182 149 140 
0.870788 -0.7585 2.59786 194 143 140 
0.0976852 -0.576653 2.58299 75 56 0 
1.06807 -0.664508 2.90221 53 43 31 
-0.151092 -0.440479 2.30678 4 5 0 
1.01591 -0.604095 2.88613 128 87 69 
1.13364 -0.611733 2.89934 50 12 0 
0.759936 -0.538044 2.44795 233 196 141 
1.02349 -0.676344 2.87809 247 187 179 
1.64733 -0.827657 2.70443 75 77 72 
1.46796 -0.776027 2.85935 129 131 118 
-1.64603 0.0251808 2.43292 124 118 120 
0.731332 -0.501894 2.6324 186 178 159 
1.07964 -0.612622 2.88931 116 76 68 
1.40012 -0.668111 2.85916 39 35 34 
0.212562 -0.249051 2.30706 9 0 0 
1.41367 -0.43586 2.84739 112 110 111 
0.167511 -0.59639 2.55665 99 65 0 
1.16399 -0.700586 2.89707 129 69 59 
0.898733 -0.51922 2.72573 89 81 79 
-1.07101 0.1571 2.33355 91 82 67 
0.844623 -0.462362 2.62042 52 44 41 
-1.3903 0.0517547 2.42193 185 182 173 
-1.48139 0.112245 2.34287 97 86 80 
0.324299 -0.524653 2.6391 35 34 29 
1.00112 -0.608046 2.89124 99 87 75 
1.05275 -0.665739 2.88341 179 131 127 
1.50104 -0.774397 2.84008 49 49 41 
1.44516 -0.761259 2.83476 121 123 118 
0.897784 -0.51184 2.73467 85 79 79 
1.50738 -0.779359 2.83418 37 37 29 
0.755078 -0.50951 2.64514 206 201 181 
1.02415 -0.69091 2.88217 239 186 168 
0.73228 -0.428053 2.59084 220 215 209 
0.868533 -0.687716 2.60312 231 192 123 
1.53706 -0.733611 2.87064 52 53 48 
1.4907 -0.773894 2.85857 120 120 110 
0.781784 -0.574048 2.44255 236 255 212 
0.323075 -0.527988 2.64909 58 57 52 
0.873349 -0.771596 2.59008 138 56 32 
0.172921 -0.506977 2.56784 47 36 0 
1.7865 0.241915 3.11604 23 29 15 
-1.47353 -0.0304443 2.44894 224 210 199 
0.885454 -0.562115 2.71169 227 219 208 
1.02081 -0.63168 2.87593 149 50 53 
-0.0871544 -0.486101 2.39359 241 234 226 
0.182005 -0.520532 2.55542 170 152 80 
-0.390786 0.406669 2.89228 151 137 128 
0.847861 -0.475825 2.62369 202 197 194 
0.206566 -0.24256 2.29636 132 118 117 
0.604826 -0.429476 2.56626 46 45 43 
1.51285 -0.782477 2.84898 62 61 56 
0.746282 -0.545908 2.44854 209 157 48 
1.50506 -0.777664 2.85588 53 50 43 
1.64371 -0.818814 2.69691 28 29 34 
0.373509 -0.467282 2.59391 101 97 94 
0.381708 -0.451172 2.58654 87 83 82 
0.257474 -0.567612 2.58576 91 57 32 
-1.04774 0.162769 2.32727 255 255 246 
1.79224 0.352974 3.17854 121 117 105 
0.732285 -0.507536 2.64349 195 183 159 
0.869555 -0.704478 2.63557 214 182 105 
1.80089 -0.690829 4.37954 87 85 86 
1.44011 -0.414694 2.6031 117 118 120 
1.18743 -0.346487 2.16506 59 54 58 
1.46749 -0.478344 2.90727 170 168 171 
-0.157652 -0.444924 2.31533 27 27 25 
-0.142429 -0.43076 2.31325 11 12 7 
1.73064 -0.776104 2.73391 184 180 177 
0.758593 -0.529563 2.66114 96 76 39 
1.56907 -0.349981 2.51977 197 178 163 
0.729654 -0.513142 2.62644 233 210 166 
0.460822 -0.599751 2.39214 144 95 62 
-0.967063 0.587417 2.3752 28 17 11 
1.16093 -0.676006 2.90221 173 47 61 
0.257475 -0.535952 2.57835 107 63 36 
0.343992 -0.703924 2.54801 21 21 19 
1.74962 -0.755762 2.72014 186 179 171 
1.72319 -0.745203 2.72239 179 175 174 
0.640488 -0.670097 2.3356 219 195 147 
1.53904 -0.685411 2.90903 39 37 40 
-0.148791 -0.421893 2.31735 127 126 124 
-0.132588 -0.439315 2.31841 171 172 167 
0.879773 -0.551226 2.71979 51 47 44 
1.78795 0.242268 3.12672 10 19 2 
0.859116 -0.688642 2.61969 108 78 28 
0.0831336 -0.499067 2.65088 124 111 59 
1.13088 -0.505798 2.74763 246 242 243 
0.847368 -0.57527 2.75094 226 218 207 
1.08815 -0.623193 2.93746 65 35 25 
1.15352 -0.467815 2.68758 68 64 65 
1.42909 -0.680787 2.9401 213 212 207 
1.66151 -0.983276 2.89955 62 54 51 
0.241292 -0.566946 2.57869 99 65 0 
0.580507 -0.726742 2.39008 171 180 137 
0.321172 -0.482391 2.64738 204 200 199 
0.565316 -0.433246 2.55104 153 154 156 
0.150579 -0.546529 2.51807 94 82 0 
0.861993 -0.763005 2.6223 93 84 77 
0.63065 -0.408023 2.53698 36 31 35 
1.67358 -0.626265 3.01662 189 185 184 
1.52054 -0.784674 2.93661 52 51 46 
0.720709 -0.595279 2.51956 152 152 142 
1.15251 -0.672857 2.95929 63 36 29 
0.42414 -0.585254 2.34348 46 24 0 
1.15652 -0.681835 2.96047 77 46 43 
0.885166 -0.731564 2.63273 139 133 133 
0.856899 -0.733944 2.6415 26 25 21 
0.724656 -0.618472 2.5229 179 155 85 
0.460277 -0.583085 2.34331 204 173 108 
1.58016 -0.69437 2.97593 88 88 86 
0.42779 -0.488017 2.60754 132 131 129 
0.0975119 -0.569634 2.57338 80 64 0 
0.731415 -0.428922 2.58774 180 175 169 
0.488914 -0.566722 2.59383 69 28 0 
1.02866 -0.610287 2.92077 141 104 85 
0.402957 -0.435262 2.52442 49 49 47 
1.53814 -0.784958 2.93733 53 49 38 
1.08292 -0.681234 2.94875 65 45 38 
1.1866 -0.698715 2.96565 233 173 165 
0.762374 -0.440356 2.57495 162 161 157 
1.79255 0.18317 2.84802 223 210 204 
0.626233 -0.745677 2.36681 82 96 79 
1.57426 -0.750412 2.95043 58 58 58 
0.846855 -0.712303 2.63614 139 116 85 
0.114507 -0.607864 2.5568 153 133 18 
0.486726 -0.567512 2.58164 74 34 0 
0.72484 -0.538479 2.65034 215 173 53 
1.7488 -0.796965 2.7793 31 32 36 
0.521239 -0.435243 2.54521 223 220 213 
1.16314 -0.470656 2.70592 68 64 65 
0.696382 -0.728942 2.42514 181 183 169 
0.608798 -0.551858 2.71827 200 178 139 
0.899975 -0.531531 2.74799 45 41 38 
1.15602 -0.627168 2.96019 70 34 12 
0.362459 -0.730697 2.51605 70 56 45 
1.18666 -0.715868 2.96017 138 80 68 
0.626708 -0.643224 2.3728 51 30 1 
0.598983 -0.723046 2.37474 32 24 21 
0.811617 -0.443617 2.58785 168 170 169 
1.13809 -0.662878 2.92908 172 131 127 
0.732687 -0.673981 2.51263 35 28 12 
1.54826 -0.80264 2.93108 50 46 43 
1.79966 0.184575 2.85719 223 210 204 
0.839678 -0.568823 2.75153 34 30 19 
1.34793 -0.608071 2.96846 50 45 49 
0.88975 -0.720616 2.63136 114 107 99 
1.14315 -0.681823 2.93518 160 115 112 
1.08133 -0.679387 2.93379 150 127 121 
1.15358 -0.683241 2.9508 157 105 107 
1.68281 -0.625877 2.95537 215 214 212 
1.5236 -0.793376 2.93077 145 144 139 
1.54832 -0.801685 2.94332 58 58 46 
1.68081 -0.628988 3.02636 209 203 203 
1.67921 -0.610145 2.95567 206 206 208 
0.879512 -0.758153 2.61027 92 83 74 
1.03331 -0.551815 2.83271 79 59 52 
0.883442 -0.752766 2.61742 201 197 188 
1.14519 -0.671051 2.94521 50 27 19 
0.560615 -0.723956 2.41824 198 182 149 
0.606271 -0.549995 2.7065 196 177 145 
0.472236 -0.589711 2.3557 183 183 123 
1.18155 -0.697471 2.95637 237 185 174 
1.1367 -0.503964 2.75628 98 93 99 
0.187441 -0.548006 2.54732 93 77 0 
1.08773 -0.669127 2.95779 164 141 135 
0.719832 -0.605053 2.52886 13 5 0 
0.613136 -0.428566 2.5572 155 151 150 
1.14236 -0.684601 2.9508 138 113 108 
0.371849 -0.464171 2.61801 101 100 98 
0.59835 -0.632919 2.46738 24 13 7 
1.81575 0.361368 3.2363 136 129 123 
1.80404 0.186766 2.8697 135 122 114 
0.239401 -0.497092 2.5969 151 129 71 
0.345126 -0.659063 2.53927 121 99 75 
0.76325 -0.415705 2.56706 135 124 118 
0.101966 -0.573646 2.56288 124 105 11 
1.03677 -0.554504 2.8419 102 85 78 
0.540505 -0.678057 2.47849 189 163 102 
1.13603 -0.43501 2.62694 105 100 107 
1.15952 -0.688887 2.97132 162 128 126 
0.653664 -0.550077 2.70858 198 180 168 
0.367892 -0.581905 2.61062 128 97 92 
0.178208 -0.520246 2.53738 39 31 0 
0.566249 -0.710625 2.49383 151 127 65 
0.604808 -0.656831 2.35919 25 0 0 
0.870158 -0.702371 2.62445 210 184 127 
0.874063 -0.691679 2.61477 207 176 112 
0.888788 -0.692322 2.63191 35 14 0 
0.661691 -0.413606 2.55206 104 99 93 
0.745642 -0.632204 2.52803 39 20 0 
1.17914 -0.712361 2.9449 138 80 68 
0.142841 -0.594753 2.58362 208 197 177 
0.527827 -0.486933 2.60079 77 60 50 
1.46943 -0.448718 2.69906 72 70 73 
1.46747 -0.481152 2.75581 69 64 68 
1.07334 -0.622153 2.94142 61 26 4 
0.151556 -0.521424 2.54036 61 48 4 
0.62431 -0.739557 2.3557 50 126 80 
0.755606 -0.511669 2.64398 206 195 175 
1.80183 -0.785475 2.80419 187 178 183 
1.78847 -0.771035 2.81469 199 189 187 
1.74361 -0.832754 2.77731 26 27 32 
0.75757 -0.676756 2.53638 156 157 149 
0.733793 -0.658536 2.51863 14 12 0 
0.515859 -0.431497 2.5335 164 161 154 
0.327879 -0.685724 2.53757 75 59 44 
0.741367 -0.628184 2.51449 33 17 0 
0.105208 -0.599137 2.55011 47 25 0 
1.40103 -0.417553 2.63471 91 86 90 
1.17264 -0.467583 2.69853 85 81 80 
1.38648 -0.396675 2.60336 64 63 69 
0.878563 -0.740563 2.60654 38 35 30 
1.76698 -0.79468 2.79929 183 183 185 
0.855442 -0.731144 2.62991 12 12 12 
0.497065 -0.493122 2.61211 224 212 200 
1.17586 -0.401975 2.58065 70 66 67 
0.879226 -0.768432 2.61931 214 161 153 
-0.218295 -0.392072 2.41561 245 241 238 
0.368391 -0.479846 2.65155 201 199 200 
0.485214 -0.498681 2.60451 223 195 147 
0.752134 -0.505116 2.66538 20 20 12 
0.890864 -0.738275 2.64256 126 121 115 
0.568875 -0.772853 2.50822 11 27 16 
0.521128 -0.745771 2.49254 94 66 29 
0.647886 -0.547205 2.6937 204 188 175 
-0.164733 -0.431818 2.29142 173 173 171 
0.369479 -0.712977 2.55369 47 43 40 
1.35554 -0.609277 2.98028 72 68 69 
0.680096 -0.709471 2.39571 151 151 117 
0.595774 -0.638491 2.45511 17 12 9 
0.898072 -0.539788 2.73353 132 129 122 
1.81213 -0.788373 2.8233 192 180 182 
0.365809 -0.54078 2.63084 209 200 191 
0.14153 -0.521963 2.54107 187 163 91 
0.298962 -0.486251 2.62773 75 70 64 
1.75695 -0.80341 2.79382 87 88 92 
1.18701 -0.654821 2.96652 171 47 58 
0.85219 -0.740532 2.63102 201 194 186 
0.767736 -0.536421 2.68148 101 87 58 
1.67005 -0.629827 3.00604 224 216 214 
0.892167 -0.699812 2.63842 64 41 0 
1.69351 -0.854569 2.79482 72 71 69 
1.14926 -0.499252 2.73066 96 92 91 
-0.218434 -0.381146 2.42823 112 109 104 
-0.147224 -0.398517 2.30737 149 152 145 
1.58512 -0.704621 2.99486 38 39 44 
-0.137517 -0.43665 2.29002 26 28 25 
1.19801 -0.700581 2.99376 159 48 57 
0.162623 -0.512167 2.59354 41 35 1 
1.67424 -0.436642 2.73078 170 165 161 
0.866303 -0.758799 2.61384 47 23 21 
1.66153 -0.617741 3.01353 29 29 31 
1.17835 -0.475888 2.6838 62 57 61 
0.859165 -0.766973 2.60352 219 184 178 
0.884892 -0.746448 2.62514 42 41 37 
0.362645 -0.534906 2.60792 203 194 185 
1.15628 -0.462314 2.66778 70 66 65 
0.867612 -0.736802 2.65097 14 14 14 
1.65019 -0.436647 2.66319 238 227 221 
1.46109 -0.514871 2.81159 63 58 64 
1.19471 -0.661348 2.98549 183 43 69 
1.79611 -0.758964 2.79005 53 49 50 
1.54607 -0.678446 2.92582 206 207 201 
-0.214717 -0.373312 2.41995 101 98 91 
0.362409 -0.664306 2.57028 30 7 0 
1.19765 -0.448754 2.65986 69 67 72 
1.80319 0.364009 3.22734 29 29 19 
0.119178 -0.475074 2.59698 227 212 189 
1.73461 -0.805421 2.76851 166 165 161 
0.564641 -0.432727 2.54911 172 171 169 
1.13976 -0.673632 2.92685 77 46 43 
0.367507 -0.680062 2.53441 19 6 0 
1.52368 -0.778748 2.91482 53 49 38 
1.06704 -0.672887 2.91533 65 45 38 
1.1714 -0.707597 2.93695 233 176 167 
0.201408 -0.554809 2.54288 155 136 0 
0.341406 -0.520392 2.62617 156 152 149 
1.05753 -0.613747 2.90711 63 29 4 
1.14003 -0.619169 2.9283 70 34 12 
0.445227 -0.606089 2.3507 255 240 203 
1.02047 -0.610161 2.90524 133 96 70 
0.886773 -0.718821 2.62484 114 107 99 
1.66523 -0.619756 2.92989 215 214 212 
1.50908 -0.787501 2.90795 145 144 139 
1.52996 -0.794404 2.91468 58 58 46 
1.73929 -0.787754 2.76197 183 182 187 
1.06153 -0.616414 2.91668 64 30 5 
1.02411 -0.547536 2.81347 81 64 54 
1.49989 -0.775392 2.89929 52 52 44 
1.12855 -0.676979 2.92309 138 113 108 
0.399241 -0.448129 2.57631 45 45 45 
1.56192 -0.747889 2.93644 41 42 44 
1.73022 -0.832975 2.7551 82 82 82 
1.00886 -0.605248 2.90869 145 125 118 
0.501183 -0.671265 2.45792 82 87 83 
1.73862 -0.795935 2.77138 26 29 34 
1.77506 -0.763616 2.77855 188 179 182 
1.33897 -0.598495 2.94077 28 28 28 
1.77012 -0.767448 2.78858 192 181 177 
0.880027 -0.731764 2.61612 194 187 179 
0.15818 -0.523832 2.52934 86 69 13 
1.65871 -0.625044 2.98928 224 216 214 
1.57446 -0.691219 2.96806 115 115 113 
1.17495 -0.689723 2.94836 159 48 57 
0.36842 -0.486389 2.62727 51 51 53 
1.18082 -0.654343 2.95831 183 43 69 
0.482548 -0.580849 2.35611 110 37 30 
1.12786 -0.622512 2.93246 67 35 14 
0.157849 -0.557093 2.55987 94 82 0 
1.17631 -0.710467 2.94909 234 186 176 
1.67505 -0.623202 2.94406 215 214 212 
0.518296 -0.582646 2.35819 237 222 199 
0.626952 -0.673161 2.33835 195 166 134 
1.6648 -0.633085 2.997 215 207 205 
1.56885 -0.751586 2.9469 50 52 51 
1.65047 -0.978799 2.88677 45 37 34 
1.75786 -0.7917 2.78652 188 186 189 
1.69176 -0.849954 2.79482 40 39 44 
1.67766 -0.625095 2.95497 225 215 213 
1.75174 -0.802445 2.78682 87 88 92 
1.78865 -0.778294 2.79411 190 180 181 
1.78275 -0.755422 2.7952 60 56 53 
1.74444 -0.811042 2.78034 181 180 176 
1.71047 -0.822102 2.73357 26 27 32 
1.76123 -0.759669 2.76058 188 179 182 
1.72067 -0.802901 2.74898 180 179 175 
1.74629 -0.761298 2.75626 195 181 178 
0.864777 -0.775382 2.58743 175 60 33 
1.91656 -0.854137 2.95936 161 161 161 
0.730281 -0.607187 2.54828 116 107 90 
0.589424 -0.774598 2.43134 253 249 224 
0.909975 -0.703711 2.669 91 67 43 
0.864742 -0.574838 2.84175 156 147 140 
0.543274 -0.780726 2.53714 76 114 89 
0.361105 -0.714982 2.49636 107 100 90 
0.864168 -0.585517 2.82494 123 116 106 
1.87447 -0.858386 2.91631 174 173 171 
-0.149227 -0.363092 2.30303 114 114 114 
-0.149974 -0.40575 2.26835 137 137 137 
-0.149973 -0.420556 2.26774 19 18 16 
0.889744 -0.781709 2.6583 170 124 127 
-0.166897 -0.427197 2.25783 151 153 150 
-0.143503 -0.440709 2.24312 161 161 159 
-0.146371 -0.443709 2.25867 156 156 154 
0.913701 -0.781292 2.67626 60 46 37 
0.773083 -0.544046 2.70004 127 103 57 
0.575567 -0.437652 2.57886 153 154 156 
0.634904 -0.442643 2.58838 160 156 153 
0.886934 -0.773922 2.67499 139 135 134 
0.916585 -0.77314 2.68295 123 116 110 
0.905902 -0.743487 2.66557 190 185 179 
-1.09118 0.166752 2.40218 212 209 202 
0.512842 -0.496007 2.63556 177 169 148 
-1.09562 0.169385 2.42291 255 255 244 
0.683528 -0.69353 2.38078 255 254 247 
-1.09564 0.173253 2.40912 255 255 242 
0.321879 -0.549196 2.68459 84 80 79 
0.618392 -0.43197 2.58376 44 46 45 
0.914806 -0.744498 2.68696 43 38 32 
0.244732 -0.567842 2.56667 183 158 127 
0.925349 -0.727287 2.70107 190 164 129 
0.667508 -0.556115 2.7406 179 158 141 
1.20601 -0.530326 2.87867 239 237 242 
1.07133 -0.567372 2.90551 87 67 58 
0.933015 -0.56647 2.81123 71 70 66 
0.753446 -0.62094 2.50512 47 32 0 
1.71127 -0.740214 3.15636 80 79 74 
0.699237 -0.662477 2.49443 133 129 126 
0.232113 -0.602167 2.52165 93 78 23 
0.873959 -0.587829 2.80784 180 176 164 
0.220486 -0.62331 2.52094 150 135 20 
1.13473 -0.646837 3.06149 88 51 35 
0.737797 -0.626594 2.54825 183 155 81 
0.333611 -0.70446 2.51931 130 127 122 
1.19783 -0.651157 3.06408 95 59 37 
0.774836 -0.552951 2.47487 248 213 131 
1.80518 -0.665925 3.18925 206 200 200 
1.8138 -0.647159 3.12909 193 193 193 
0.459465 -0.639949 2.42402 206 172 98 
0.473177 -0.638176 2.39416 81 51 0 
0.489972 -0.585806 2.34936 150 111 68 
0.762644 -0.517613 2.68542 128 115 99 
-0.330038 0.259186 2.59464 163 158 152 
0.373817 -0.593582 2.60241 92 74 64 
1.27423 -0.732682 3.12167 154 56 57 
0.74749 -0.683411 2.54106 26 18 15 
0.628214 -0.435468 2.59949 139 138 136 
0.783749 -0.545602 2.72512 209 185 115 
0.575464 -0.658312 2.36411 166 144 121 
0.651601 -0.743122 2.37189 108 128 93 
0.914328 -0.572477 2.7812 217 213 204 
0.74729 0.238468 2.80585 158 147 141 
0.748367 0.236174 2.7856 170 156 153 
1.33097 0.225341 2.89286 244 230 227 
0.499541 -0.557732 2.65352 126 69 0 
0.390927 -0.43207 2.58446 126 123 118 
1.4268 -0.633372 3.093 59 57 58 
0.449553 -0.587913 2.46865 206 176 103 
0.466191 -0.571521 2.42876 83 45 0 
1.88039 -0.423116 2.78732 226 213 178 
-0.79591 -0.155367 2.23271 64 26 51 
0.647758 -0.414534 2.58057 54 48 52 
0.532143 -0.436608 2.58081 171 173 170 
0.642305 -0.429337 2.59641 74 74 74 
0.482682 -0.51895 2.68488 35 20 0 
0.375166 -0.466506 2.62992 83 82 78 
0.576934 -0.645479 2.43498 17 7 0 
1.77208 -0.556565 2.72665 87 73 36 
1.26333 -0.750752 3.10533 229 169 159 
0.747226 -0.634692 2.56233 161 130 48 
0.433365 -0.491394 2.62631 129 128 126 
1.21114 -0.710153 3.07666 61 43 39 
1.2643 -0.757794 3.08933 148 111 92 
0.755665 -0.437967 2.64402 179 175 174 
0.50748 -0.801229 2.65364 104 82 43 
1.30607 -0.039369 2.6958 154 138 105 
0.125703 -0.596478 2.51831 209 195 150 
0.84911 -0.570066 2.82379 199 192 184 
1.23528 -0.706247 3.11511 152 117 113 
0.575818 -0.668124 2.5207 38 20 0 
1.44605 -0.641353 3.12643 59 59 59 
0.337496 -0.724884 2.51652 62 62 54 
0.712269 -0.643312 2.57854 193 166 121 
0.869776 -0.710904 2.70872 159 149 140 
1.22753 -0.717815 3.10133 69 52 44 
0.880533 -0.588576 2.84505 43 39 27 
0.385327 -0.442501 2.59977 121 122 117 
0.763525 -0.608607 2.54777 219 179 58 
0.641018 -0.718566 2.35605 26 30 5 
0.571212 -0.698305 2.45577 60 59 55 
-0.768826 -0.138527 2.29836 55 2 48 
0.493455 -0.772388 2.63757 123 135 115 
0.882406 -0.746932 2.72373 182 171 153 
0.625298 -0.412941 2.57062 45 39 43 
1.24993 -0.745075 3.07076 180 128 107 
0.18329 -0.557524 2.51334 169 152 10 
0.888033 -0.720237 2.67211 31 25 3 
0.650401 -0.720378 2.37352 122 125 106 
1.65241 -0.845505 3.08126 57 50 40 
1.70446 -0.800572 3.12697 56 60 59 
0.603565 -0.825187 2.53564 78 51 22 
1.20418 -0.654183 3.07679 99 63 41 
1.93433 -0.861068 2.98015 155 155 155 
0.144634 -0.519997 2.53009 201 188 118 
0.614546 -0.824585 2.56431 241 221 186 
0.473531 -0.651773 2.44502 246 210 87 
0.733157 0.233413 2.75697 50 39 35 
1.47345 -0.537131 2.9176 62 60 63 
0.234132 -0.59811 2.53186 100 82 32 
0.942267 -0.570225 2.83117 71 70 66 
0.106318 -0.605531 2.53718 49 33 0 
1.22161 -0.52343 2.86569 83 78 84 
1.21303 -0.649644 3.06407 100 60 35 
0.769236 -0.541855 2.69051 135 110 54 
0.908762 -0.76859 2.66516 176 167 162 
0.768275 -0.549437 2.46087 248 213 131 
0.838905 -0.551383 2.49791 72 73 33 
0.686566 -0.703809 2.40573 227 255 227 
0.791806 -0.544596 2.74045 124 105 72 
0.674204 -0.560107 2.75965 190 171 157 
0.455758 -0.580771 2.35848 119 65 0 
0.790802 -0.524628 2.72275 205 197 186 
0.879411 -0.748471 2.68291 23 21 22 
-0.321256 0.270074 2.56721 100 90 91 
0.47316 -0.583607 2.34691 58 28 2 
1.22479 -0.453278 2.73943 53 49 50 
0.357306 -0.734908 2.5084 183 136 126 
-1.15182 0.0723377 2.57612 255 243 217 
0.311937 -0.525037 2.67952 56 53 44 
1.83232 -0.653075 3.15567 222 221 219 
-0.173742 -0.523947 2.3711 198 194 183 
-0.382935 0.148127 2.82397 223 219 208 
0.375586 -0.48416 2.67415 186 186 186 
0.504376 -0.651797 2.42942 137 132 129 
-0.621755 -0.168139 2.3072 218 160 201 
0.511312 -0.805165 2.66655 146 124 85 
0.39362 -0.434012 2.59581 145 142 135 
0.772412 -0.513981 2.70929 48 43 39 
1.32432 0.224406 2.88139 244 230 227 
0.676488 -0.710727 2.37603 188 187 166 
0.234644 -0.464963 2.61588 159 140 97 
0.512813 -0.494269 2.62348 61 53 34 
1.25226 -0.728099 3.08424 225 167 155 
0.647083 -0.431385 2.60846 74 74 74 
0.597785 -0.775951 2.45365 255 254 239 
0.748809 -0.434952 2.62641 189 185 182 
0.655142 -0.746865 2.38149 105 139 102 
0.640834 -0.6479 2.38724 157 139 117 
1.20318 -0.706268 3.06113 61 43 39 
0.324211 -0.550206 2.67416 76 71 67 
-0.329439 0.257328 2.58328 104 99 95 
0.73701 -0.615073 2.56479 23 9 0 
0.546148 -0.813338 2.57812 205 156 124 
0.575008 -0.717109 2.51073 137 118 60 
-1.17262 0.143988 2.42558 60 41 27 
0.677931 -0.690271 2.36795 255 255 248 
0.255256 -0.566472 2.57048 134 106 84 
0.700369 -0.431977 2.63943 172 167 163 
0.566915 -0.728696 2.49962 156 127 51 
0.6903 -0.423228 2.61798 110 102 99 
0.285619 -0.495182 2.67835 155 139 123 
0.868134 -0.44931 2.69152 130 126 125 
0.876764 -0.586213 2.83438 38 34 22 
0.590772 -0.602085 2.61901 71 38 0 
1.51702 -0.55145 2.95464 163 158 164 
0.563978 -0.710389 2.43765 94 81 62 
0.594267 -0.846478 2.62569 194 196 159 
0.438285 -0.547741 2.74309 107 99 86 
1.2256 -0.710571 3.08815 60 41 34 
0.666837 -0.612936 2.74145 151 129 105 
1.54706 -0.439282 2.75856 52 48 49 
1.21497 -0.521018 2.85129 61 56 62 
1.43195 -0.515249 2.86214 70 68 71 
1.568 -0.504001 2.88722 62 60 63 
1.52693 -0.517845 2.89848 81 79 82 
1.50966 -0.537823 2.94518 68 64 65 
1.54316 -0.542024 2.93999 62 60 63 
1.22544 -0.654221 3.0889 90 54 28 
0.465968 -0.574261 2.31817 45 0 0 
0.438125 -0.594446 2.34385 70 60 51 
1.70745 -0.731631 3.14566 152 153 148 
-0.142503 -0.445343 2.26806 186 186 184 
0.925155 -0.771115 2.69323 65 58 50 
0.517857 -0.755252 2.46116 235 239 225 
0.875912 -0.580745 2.86856 200 191 184 
-1.14624 0.0711553 2.56203 239 222 202 
1.07835 -0.570113 2.92028 99 80 74 
0.165116 -0.588526 2.52281 100 71 0 
1.91134 -0.815731 2.94176 179 178 174 
0.939828 -0.546984 2.83545 42 38 37 
0.781354 -0.521731 2.70007 204 194 184 
1.21518 -0.658782 3.09771 70 35 13 
0.663134 -0.681177 2.36511 84 81 46 
0.480649 -0.591969 2.36063 74 38 4 
0.888581 -0.758153 2.69733 159 158 154 
1.82382 -0.651089 3.14156 209 209 209 
0.923859 -0.734166 2.68945 193 183 174 
0.483221 -0.617937 2.3634 93 76 32 
-0.142667 -0.419353 2.25937 47 49 48 
0.357622 -0.72736 2.49551 67 59 48 
0.338991 -0.729384 2.50111 78 67 61 
0.360476 -0.722164 2.50463 149 142 134 
0.875212 -0.589155 2.8554 157 150 142 
1.23814 -0.726544 3.12122 148 121 114 
0.57973 -0.702069 2.47611 89 86 81 
2.02082 0.407775 3.52451 135 125 116 
1.86673 -0.404971 2.76486 161 151 142 
0.628364 -0.43656 2.61003 46 44 45 
1.78461 -0.559426 2.7402 93 79 44 
0.552245 -0.718813 2.39153 190 170 137 
0.738687 -0.0279322 2.58125 148 135 129 
0.216085 -0.620177 2.51024 146 129 13 
0.608138 -0.729064 2.38471 24 18 4 
0.39 -0.538695 2.68225 217 207 197 
0.318363 -0.544673 2.64788 78 73 69 
0.107094 -0.558784 2.547 148 133 40 
0.178764 -0.53804 2.49625 104 87 5 
1.68825 -0.366986 2.65854 143 130 121 
0.93558 -0.746316 2.72111 113 104 97 
0.73757 0.234562 2.78131 170 157 151 
0.583236 -0.598621 2.60427 61 26 0 
0.626625 -0.639994 2.35493 164 142 119 
0.360462 -0.591141 2.56375 173 148 143 
1.2217 -0.703087 3.09627 142 111 108 
0.786174 -0.423375 2.61743 143 130 124 
0.49496 -0.787455 2.6093 74 54 17 
0.789694 -0.536338 2.72602 191 181 171 
0.388693 -0.512585 2.70045 98 99 94 
0.757706 -0.67211 2.56549 23 15 4 
1.26811 -0.751193 3.11461 242 185 176 
0.739246 -0.0206476 2.58855 160 146 143 
0.383896 -0.50962 2.66621 120 119 115 
0.882669 -0.772417 2.66565 160 155 152 
0.598974 -0.812445 2.52532 241 221 186 
-0.148761 -0.404853 2.25653 131 130 128 
0.629577 -0.439182 2.57111 180 178 179 
0.325454 -0.552987 2.69596 96 92 91 
1.21084 -0.415303 2.6523 53 51 54 
1.3214 -0.409127 2.67038 70 66 67 
0.737608 -0.598855 2.54765 11 0 0 
1.20843 -0.448632 2.71068 51 49 50 
1.55139 -0.420056 2.74716 59 57 60 
1.22919 -0.489688 2.8102 57 52 58 
1.24131 -0.726845 3.06729 231 189 173 
0.567504 -0.731152 2.4307 190 171 139 
0.949546 -0.551616 2.85817 44 40 37 
0.103475 -0.594877 2.53297 61 47 0 
1.45739 -0.463723 2.76676 59 57 60 
0.928099 -0.754585 2.72004 34 33 29 
0.103515 -0.602229 2.52483 49 33 0 
1.08461 -0.571274 2.93184 79 59 52 
0.134037 -0.604657 2.56038 128 116 74 
0.923372 -0.564103 2.7918 78 77 72 
0.903345 -0.715143 2.65917 212 181 137 
1.43317 -0.533569 2.91525 88 83 87 
1.77395 -0.459627 2.79616 244 234 224 
0.89509 -0.598649 2.85565 214 207 197 
1.51636 -0.535141 2.90052 62 60 63 
1.22486 -0.662938 3.11951 83 48 26 
-1.11607 0.179083 2.46866 200 197 188 
0.0793929 -0.507215 2.67202 158 144 115 
0.52637 -0.584838 2.37072 255 253 241 
0.138589 -0.506564 2.52358 253 242 197 
0.72364 -0.648006 2.60697 199 176 144 
0.325301 -0.678853 2.51912 35 18 8 
1.76182 -0.573921 2.73843 62 51 49 
0.585491 -0.675118 2.52769 142 127 86 
0.92429 -0.709443 2.71937 62 41 10 
0.895079 -0.670193 2.66589 91 71 62 
1.81203 -0.662865 3.20981 28 28 28 
0.370369 -0.693862 2.53355 111 105 93 
0.131744 -0.579378 2.50983 209 201 165 
0.586335 -0.711908 2.38797 71 105 55 
0.158453 -0.546402 2.50768 83 75 12 
0.169535 -0.560788 2.57489 75 68 0 
0.0963184 -0.567486 2.52926 121 102 8 
0.752355 -0.669514 2.55461 16 9 0 
1.69376 -0.798615 3.11599 47 51 50 
0.725228 -0.757957 2.40206 63 29 2 
0.572308 -0.719143 2.45959 85 73 51 
0.373169 -0.586491 2.63014 128 97 92 
0.534555 -0.439753 2.59053 163 165 162 
1.86255 -0.680366 3.19105 213 207 207 
0.76161 -0.439279 2.6533 195 191 188 
0.5243 -0.760906 2.56644 34 21 2 
1.19992 -0.452309 2.73037 106 101 107 
0.577666 -0.747362 2.4612 57 50 31 
0.760593 -0.633013 2.5362 90 86 75 
0.56056 -0.690228 2.31583 56 93 49 
0.905338 -0.731161 2.70932 41 38 21 
0.774613 -0.687189 2.56936 152 148 145 
1.22068 -0.487637 2.79534 68 63 67 
0.885073 -0.757793 2.70741 161 157 148 
1.9058 -0.814286 2.93117 186 185 181 
1.52745 -0.449609 2.77595 84 82 87 
1.24819 -0.506501 2.8288 128 126 129 
1.23096 -0.517383 2.84985 60 55 59 
1.22689 -0.445888 2.71469 63 61 62 
0.0958423 -0.602007 2.51531 102 82 0 
0.172494 -0.605716 2.55718 74 48 0 
1.54606 -0.488507 2.86667 58 56 61 
1.49346 -0.499826 2.8616 58 54 55 
1.33797 -0.518503 2.84971 67 62 66 
0.594493 -0.705034 2.33048 6 40 13 
0.936239 -0.582048 2.82623 217 210 200 
1.55488 -0.543455 2.95606 57 55 58 
0.680999 -0.699321 2.39113 240 255 238 
0.177703 -0.512515 2.52541 58 44 0 
0.132655 -0.514354 2.5297 244 238 202 
0.59977 -0.69038 2.34521 104 78 51 
0.145111 -0.509459 2.53385 66 58 22 
0.644641 -0.44483 2.61169 184 183 181 
0.132361 -0.489661 2.67131 231 216 187 
0.119908 -0.474298 2.58454 227 212 179 
1.79083 -0.655001 3.17709 43 43 41 
-0.142304 -0.42691 2.24794 19 20 15 
-0.128025 -0.423964 2.25238 162 163 157 
0.612469 -0.66119 2.36938 22 7 0 
0.810999 -0.589817 2.47197 215 254 251 
0.452284 -0.634819 2.43955 46 47 31 
0.578521 -0.670804 2.50906 142 127 86 
0.358289 -0.699256 2.50231 131 131 121 
-0.381518 0.145542 2.78413 223 219 208 
0.489423 -0.652583 2.39897 123 116 106 
0.603284 -0.556927 2.69861 109 75 27 
0.807824 -0.695626 2.62391 48 43 39 
0.763428 -0.639641 2.52234 94 88 72 
0.495015 -0.66664 2.4334 34 30 19 
0.757637 0.238901 2.83401 166 153 147 
-0.318639 0.26307 2.57716 156 146 137 
0.490359 -0.569751 2.34253 234 188 126 
0.491717 -0.502133 2.62427 221 197 153 
0.540008 -0.492389 2.63241 63 51 39 
0.766425 -0.509974 2.69822 37 33 32 
0.57225 -0.684733 2.42636 150 129 100 
1.86349 -0.419875 2.7647 240 228 206 
0.769344 -0.638348 2.55699 80 78 66 
0.573993 -0.434616 2.55901 30 30 30 
0.123254 -0.588792 2.48169 222 211 191 
0.446635 -0.576448 2.33924 129 78 0 
1.70801 -0.805849 3.13736 47 52 48 
1.96508 -0.845568 2.9797 194 188 190 
1.9671 -0.83592 2.96217 54 53 51 
-0.270511 -0.241062 2.16626 255 254 248 
-0.166137 -0.425118 2.24764 173 175 172 
-0.152845 -0.427258 2.24585 23 23 23 
0.58814 -0.775691 2.39062 218 163 132 
0.677789 -0.750897 2.36178 225 172 168 
1.78196 -0.462794 2.80886 244 235 228 
0.953458 -0.591753 2.86496 151 147 138 
0.898408 -0.78134 2.67454 35 15 14 
1.41732 -0.533792 2.91083 55 50 54 
0.68119 -0.719776 2.40018 32 65 44 
0.898258 -0.771539 2.64705 51 38 30 
1.49635 -0.507097 2.88448 80 76 73 
0.504967 -0.754034 2.46146 238 235 220 
0.5924 -0.716032 2.39624 54 121 70 
1.09301 -0.574906 2.94882 99 80 74 
0.141084 -0.505863 2.50726 47 39 16 
1.88858 -0.4248 2.79363 236 224 200 
0.88173 -0.758837 2.68989 202 193 188 
1.57332 -0.472406 2.8353 59 57 60 
0.111438 -0.622718 2.60445 130 110 11 
0.906419 -0.744748 2.68067 24 23 19 
1.20103 -0.515342 2.82216 63 58 64 
0.648104 -0.436094 2.59065 42 42 42 
0.400701 -0.547649 2.72257 214 201 192 
0.0994275 -0.56306 2.56037 77 66 4 
1.47682 -0.462696 2.77592 60 60 62 
1.29797 -0.42479 2.70374 55 53 54 
0.735562 -0.690965 2.54878 179 152 71 
0.736808 -0.679579 2.53098 14 14 6 
0.522438 -0.496902 2.65121 55 46 29 
0.330415 -0.719345 2.5044 123 119 110 
1.81506 -0.670939 3.20163 209 203 203 
0.519531 -0.667211 2.4297 16 7 0 
0.343161 -0.668553 2.49981 205 167 104 
0.361032 -0.704426 2.51602 72 71 66 
0.374218 -0.712719 2.57205 26 25 23 
1.50883 -0.417525 2.70812 55 54 59 
1.25097 -0.471771 2.76727 130 128 133 
1.49343 -0.437545 2.75613 51 49 52 
1.23152 -0.484487 2.79284 66 61 65 
0.583712 -0.538468 2.63413 191 176 153 
0.57476 -0.732723 2.44177 121 95 62 
-0.219647 -0.380469 2.39691 102 99 94 
1.79036 -0.564435 2.75052 80 62 48 
0.128499 -0.576928 2.47651 109 97 55 
0.569995 -0.647089 2.42731 24 18 18 
0.333589 -0.667243 2.57595 68 58 57 
0.523755 -0.820672 2.68885 210 192 142 
0.598516 -0.778141 2.43776 113 89 55 
1.8814 -0.807507 2.89753 187 182 179 
1.55309 -0.504429 2.8732 66 64 67 
1.95048 -0.828979 3.00857 154 150 149 
1.4066 -0.517384 2.88852 97 97 99 
1.83698 -0.623687 3.16573 81 82 87 
-0.156728 -0.423934 2.21269 27 29 28 
1.2427 -0.528195 2.89256 63 58 64 
1.20466 -0.512675 2.80966 73 71 72 
0.91575 -0.791632 2.68152 215 164 161 
0.655392 -0.448834 2.645 165 164 162 
1.26947 -0.511234 2.85831 111 109 110 
0.918719 -0.541736 2.8014 37 33 32 
0.138256 -0.502505 2.48898 45 38 19 
1.39834 -0.459979 2.75475 62 56 58 
1.53467 -0.437324 2.73715 79 75 76 
1.43755 -0.637958 3.10573 31 31 31 
0.895437 -0.753014 2.63671 44 41 34 
0.349439 -0.690835 2.49763 12 12 10 
0.894241 -0.739142 2.66106 23 23 21 
1.92236 -0.593018 3.14033 56 62 78 
1.25811 -0.405831 2.65109 89 84 88 
1.40498 -0.446144 2.75693 72 70 73 
0.378258 -0.551702 2.67992 158 154 143 
1.3418 -0.442896 2.74528 65 63 64 
0.917612 -0.703301 2.68782 208 185 169 
1.31688 -0.418404 2.64631 70 68 71 
0.455392 -0.606204 2.40888 212 198 151 
1.53145 -0.5403 2.91977 207 205 208 
1.21865 -0.708642 3.02278 168 47 56 
0.903625 -0.719059 2.68142 214 175 110 
0.513049 -0.747264 2.43936 241 234 224 
1.69624 -0.745527 3.14484 36 36 36 
0.898859 -0.743603 2.64752 194 187 179 
0.745236 -0.685534 2.55129 21 17 5 
1.28371 -0.694516 3.14525 163 46 62 
0.323814 -0.710965 2.47706 70 67 58 
0.181442 -0.514873 2.61479 45 37 1 
0.781616 -0.649051 2.56802 103 94 77 
-0.382484 0.14824 2.80507 230 226 215 
0.872643 -0.583353 2.81909 44 42 27 
-0.166808 -0.420254 2.22791 138 140 137 
0.0720853 -0.493482 2.59787 123 106 50 
0.544222 -0.48463 2.59128 148 130 110 
0.134534 -0.603619 2.57612 145 130 75 
0.578632 -0.709145 2.45677 10 5 2 
0.890183 -0.792919 2.63263 185 72 40 
1.28028 -0.513438 2.8672 186 184 185 
1.56015 -0.472187 2.82277 63 61 66 
0.566936 -0.756321 2.38418 247 240 224 
0.938825 -0.550101 2.84901 37 33 32 
1.54326 -0.503922 2.85787 154 152 155 
1.57774 -0.444823 2.79554 79 75 76 
1.57919 -0.442259 2.78542 107 105 108 
0.759433 -0.517756 2.66146 205 190 169 
1.52233 -0.418645 2.7241 56 55 60 
1.52392 -0.416237 2.71447 58 56 59 
1.93521 -0.595525 3.15823 52 56 68 
0.894905 -0.767015 2.7186 200 189 183 
0.32418 -0.688224 2.4751 22 23 18 
0.516724 -0.657017 2.44097 12 10 11 
0.1772 -0.541054 2.61097 64 49 0 
0.78673 -0.652098 2.58012 103 94 77 
0.555884 -0.490959 2.62798 147 129 109 
0.885471 -0.467546 2.72476 68 68 68 
0.562328 -0.631938 2.38105 168 144 110 
0.930113 -0.582064 2.80872 223 214 205 
0.889516 -0.704053 2.66635 118 86 27 
0.684123 -0.730437 2.33755 119 5 15 
0.772611 -0.624165 2.50602 69 61 42 
0.620179 -0.724922 2.38972 13 41 18 
0.893609 -0.777346 2.7026 125 120 114 
0.76007 -0.506085 2.67734 49 48 46 
0.635007 -0.429622 2.555 43 43 43 
-1.52021 0.030907 2.45284 115 113 101 
-1.51674 0.0133347 2.46061 218 214 211 
-1.52153 0.0105438 2.46935 139 135 132 
-1.52519 0.0359339 2.46036 131 127 116 
-1.52708 0.0711212 2.42816 255 245 233 
0.868549 -0.762893 2.63847 139 135 134 
1.14852 -0.512947 2.77964 239 237 242 
0.757673 -0.545307 2.44022 248 213 131 
1.70865 -0.638071 3.05562 187 181 181 
0.896587 -0.565691 2.74493 217 213 204 
1.25398 0.210843 2.76902 244 230 227 
0.899253 -0.722171 2.64208 195 185 176 
1.21336 -0.735675 2.99823 148 111 92 
0.736472 -0.431382 2.60158 179 175 174 
0.747148 -0.423821 2.58846 105 93 93 
0.85633 -0.716588 2.64337 45 34 16 
1.24718 -0.0407827 2.60686 154 138 105 
-1.52424 0.0529745 2.44776 171 162 153 
-1.56114 0.184434 2.28059 255 255 244 
-1.69788 0.12498 2.33939 87 82 86 
-1.68576 0.121401 2.34673 94 85 86 
-1.45443 0.0927924 2.41028 255 251 242 
1.17051 -0.633422 2.98634 100 60 35 
1.17531 -0.474648 2.72316 69 64 68 
1.40723 -0.400774 2.61987 72 71 76 
-1.5118 -0.0368409 2.47258 192 179 162 
-0.781392 -0.166284 2.25907 233 150 218 
-1.68652 0.130431 2.33421 219 213 215 
-1.57257 0.143137 2.32129 155 149 153 
1.86021 -0.81016 2.85026 144 140 141 
-1.45585 0.0267078 2.44998 255 255 244 
1.15637 -0.6361 2.98888 70 35 13 
-1.4799 0.193844 2.24104 255 252 246 
0.851097 -0.574782 2.76505 33 34 18 
-1.41599 0.20374 2.25461 187 181 169 
1.36995 -0.617431 3.00173 59 59 59 
1.1484 -0.640142 2.97917 227 191 165 
-1.81027 0.109161 2.37397 229 227 215 
0.524726 -0.438595 2.56689 149 151 148 
-1.27962 0.132445 2.38732 153 131 108 
-1.42984 0.0395939 2.45328 250 246 243 
-1.81743 -0.0197466 2.54502 245 246 232 
-1.47597 0.0631055 2.42831 255 255 239 
0.864389 -0.74673 2.6521 205 198 192 
1.04557 -0.557327 2.85753 79 59 52 
0.729589 -0.624422 2.53618 195 161 72 
-1.18841 0.134603 2.403 165 139 122 
1.17761 -0.699109 3.00535 151 122 116 
1.16254 -0.688937 2.98326 53 38 33 
0.707585 -0.0221541 2.52219 116 102 99 
1.72707 -0.641228 3.00816 213 207 207 
0.868944 -0.770224 2.63028 100 86 83 
1.60482 -0.709325 3.00884 42 42 42 
1.81965 -0.780209 2.81061 156 152 149 
-0.125863 -0.428831 2.2853 140 141 133 
0.174862 -0.508511 2.57984 53 45 22 
1.05025 -0.559514 2.86734 99 80 74 
1.39919 -0.467158 2.73324 64 58 62 
-0.405788 0.41612 2.97011 127 114 105 
1.71423 -0.623786 2.99702 221 220 218 
1.20541 -0.70398 3.00277 165 48 57 
1.42248 -0.422782 2.65786 51 49 52 
1.69165 -0.449046 2.70015 238 231 225 
0.67507 -0.748634 2.3518 202 185 177 
0.868166 -0.775085 2.62024 213 179 177 
1.70809 -0.632969 2.98717 217 213 212 
1.28108 -0.427992 2.65428 65 63 64 
0.901216 -0.570919 2.75271 212 205 195 
1.61464 -0.717154 3.02772 36 36 36 
-1.54897 0.179994 2.28446 240 231 234 
0.171407 -0.53827 2.58878 163 144 67 
-1.45779 0.0829474 2.42032 214 207 197 
0.882917 -0.78717 2.61909 185 72 40 
1.83367 -0.779036 2.84168 63 62 58 
0.365438 -0.482803 2.61689 50 49 47 
0.169846 -0.516926 2.61487 43 36 7 
0.0787333 -0.497202 2.63137 111 98 45 
0.907498 -0.5633 2.77549 75 74 72 
0.741897 -0.421699 2.57728 105 93 93 
1.756 -0.803091 2.77035 22 23 28 
1.75734 -0.796503 2.76275 183 183 183 
1.13478 -0.627405 2.9492 70 35 13 
0.591942 -0.653455 2.35776 46 23 9 
1.67104 -0.439493 2.6708 244 234 224 
1.58154 -0.760083 2.95708 47 52 48 
0.494838 -0.572623 2.35546 240 191 122 
1.57709 -0.705272 2.97365 36 36 36 
1.75009 -0.839797 2.76082 33 34 36 
1.76214 -0.805641 2.77787 22 23 28 
1.23863 -0.0415388 2.59285 159 140 110 
1.75041 -0.814606 2.76305 186 182 179 
1.77109 -0.797909 2.78028 184 180 179 
0.498151 -0.716485 2.50818 202 171 81 
1.77939 -0.558455 2.9396 75 76 81 
1.80714 -0.765894 2.782 48 44 43 
1.34697 -0.599029 2.9482 60 60 58 
1.27627 -0.43643 2.5745 243 237 239 
1.72599 -0.8059 2.73337 186 182 179 
1.7772 -0.771692 2.73631 54 53 51 
1.75342 -0.76366 2.74354 187 182 179 
1.64624 -0.624508 2.96432 221 215 215 
1.11424 -0.618045 2.92215 210 178 157 
1.73354 -0.75203 2.74107 175 171 168 
1.7033 -0.819061 2.68494 39 38 43 
1.51752 -0.791325 2.86095 79 76 71 
0.686392 -0.836964 2.68217 10 28 4 
1.09851 -0.614342 2.88698 112 79 60 
1.05537 -0.608225 2.8858 86 48 27 
1.50307 -0.767445 2.84938 44 39 33 
1.7124 -0.400966 2.57411 248 235 201 
1.61786 -0.958215 2.7933 62 57 54 
1.15886 -0.696126 2.88757 231 187 176 
1.1647 -0.638834 2.89665 154 52 50 
1.31962 -0.586844 2.8808 46 42 43 
1.73594 -0.750566 2.70074 180 176 173 
1.70884 -0.793731 2.69006 171 171 169 
1.74606 -0.760689 2.68768 184 183 179 
0.44545 -1.56429 5.60531 186 161 130 
1.64786 -0.830113 2.68798 112 110 111 
0.499815 -1.59432 5.66006 35 26 17 
0.449076 -1.56656 5.61478 194 167 124 
0.495363 -1.57369 5.61453 10 1 0 
0.49807 -1.58861 5.6505 17 8 0 
1.31946 -0.59482 2.88872 36 35 33 
0.157512 -0.536156 2.5757 61 49 0 
0.472681 -1.5699 5.64182 204 158 81 
1.6469 -0.82747 2.67696 87 86 84 
0.516762 -1.56848 5.68882 26 10 0 
-0.0820952 -0.484117 2.3808 238 233 229 
0.252356 -0.574955 2.59244 216 193 175 
1.12947 -0.669236 2.87887 156 116 108 
0.759182 -0.534883 2.43454 229 189 138 
1.07879 -0.610906 2.8761 116 76 68 
1.08676 -0.613528 2.88168 101 58 51 
1.47266 -0.760669 2.83056 113 113 103 
1.50153 -0.765687 2.83144 119 115 106 
1.48207 -0.773803 2.82587 59 57 45 
1.42926 -0.757506 2.82525 56 52 40 
-1.5202 -0.0342423 2.4678 218 204 193 
-0.794296 -0.168329 2.26209 254 196 246 
1.29345 -0.387539 2.5277 68 66 67 
-1.41666 0.0550944 2.42637 185 179 165 
1.40116 -0.668399 2.8481 44 42 47 
1.16204 -0.680546 2.88424 239 190 176 
1.45441 -0.769457 2.82741 143 144 130 
1.40018 -0.723412 2.82908 42 43 38 
1.5411 -0.676031 2.87159 39 40 35 
0.242267 -0.611303 2.58272 27 12 0 
1.15013 -0.395285 2.53231 65 63 64 
-1.42786 0.0553715 2.43031 82 78 67 
1.15893 -0.69325 2.87743 236 181 174 
1.16883 -0.705887 2.88009 127 92 70 
1.11616 -0.610862 2.88103 61 26 7 
1.48487 -0.76286 2.83648 44 40 31 
0.363037 -0.753871 2.51642 117 51 27 
1.16477 -0.635704 2.88636 144 41 42 
-0.418335 0.601181 2.5061 116 105 85 
0.381802 -0.449066 2.5748 87 83 82 
1.44117 -0.491414 2.9784 145 145 145 
1.78306 0.24231 3.09363 28 32 17 
1.61351 -0.949979 2.7799 32 31 27 
1.74946 -0.746276 2.66155 106 98 96 
1.74226 -0.732201 2.67403 55 53 54 
0.858542 -0.685779 2.60713 108 78 28 
-1.62398 -0.0364502 2.55235 202 189 181 
-1.83697 0.0251416 2.54636 125 116 119 
1.3188 -0.580279 2.85783 64 63 59 
0.58235 -0.794734 2.38724 34 3 0 
-0.837031 -0.168233 2.30206 218 176 216 
-0.847656 -0.168964 2.30455 199 152 196 
-1.55737 0.0327087 2.52282 255 255 246 
-1.62467 0.0398043 2.52145 228 218 219 
-1.49185 0.0251543 2.6256 204 195 180 
-1.62785 0.0516253 2.51418 203 195 192 
1.11907 -0.655052 2.87416 140 120 109 
0.347872 -0.758914 2.52 254 169 138 
0.663953 -0.714506 2.36432 141 150 131 
-1.52949 0.0707468 2.48175 86 74 62 
-1.53688 0.0968694 2.45252 225 212 193 
1.62874 -0.586798 2.81295 196 192 191 
1.62723 -0.602791 2.89202 208 205 200 
-0.155981 -0.41054 2.32607 151 151 151 
0.394924 -0.503416 2.63856 12 9 4 
0.711437 -0.768831 2.57478 36 15 0 
1.13198 -0.607023 2.87687 56 21 2 
1.05599 -0.602559 2.86826 85 51 24 
1.01934 -0.601871 2.87294 109 74 44 
0.37448 -0.538136 2.68904 207 201 189 
1.09336 -0.611643 2.87198 98 65 48 
-0.172521 -0.444615 2.31004 153 153 153 
1.10947 -0.624833 2.87684 123 67 52 
0.818965 -0.537142 2.44421 47 65 43 
-1.73248 0.683069 2.31958 34 20 9 
0.846923 -0.457779 2.60606 72 68 67 
1.01842 -0.702065 2.86553 119 87 64 
1.78083 0.237156 3.07419 36 32 21 
1.76604 0.17966 2.75049 141 128 120 
0.0982285 -0.612404 2.58611 52 38 0 
1.46183 -0.754714 2.81433 33 30 21 
1.48489 -0.763538 2.82447 121 120 115 
-0.332854 0.25929 2.50062 88 79 74 
1.46377 -0.768168 2.81115 42 42 32 
-1.50013 0.222222 2.27845 133 125 114 
1.71954 -0.769822 2.67769 166 165 170 
1.09622 -0.623407 2.88034 160 93 84 
-0.144576 -0.543102 2.41798 181 176 173 
1.06507 -0.654322 2.86828 66 53 45 
0.430347 -0.460337 2.56623 30 26 23 
0.312965 -0.534546 2.65381 169 170 164 
-0.85032 -0.168122 2.31544 79 34 75 
0.775379 -0.673869 2.53264 31 27 18 
0.50468 -0.637277 2.43434 38 27 0 
1.09564 -0.627417 2.90034 236 172 163 
-0.86932 -0.16996 2.32631 48 8 43 
0.764045 -0.663148 2.52659 186 160 99 
0.464767 -0.608364 2.37217 136 84 63 
0.50958 -0.624386 2.42897 52 20 0 
0.614965 -0.729751 2.35496 177 94 104 
0.376506 -0.698782 2.55443 183 173 161 
0.184491 0.232075 2.5775 147 138 133 
1.10314 -0.616944 2.86956 126 69 60 
0.78091 -0.474453 2.61503 119 120 114 
0.801187 -0.575102 2.42737 187 228 222 
1.2257 0.198807 2.67523 237 224 215 
0.475225 -0.516619 2.61571 89 72 18 
0.0902466 -0.574442 2.6118 172 157 42 
-1.15793 0.170876 2.39554 184 177 161 
-1.62282 0.0263197 2.52697 170 161 162 
0.865035 -0.753287 2.56822 81 12 5 
0.349758 -0.52583 2.64373 143 142 138 
0.638529 -0.68382 2.33448 192 202 150 
0.684402 -0.648946 2.47893 110 111 105 
0.65704 -0.667253 2.34664 151 130 77 
-1.53575 0.0631223 2.47177 255 252 243 
-1.52487 0.0439624 2.51006 229 231 220 
-1.63644 0.0504384 2.52197 208 200 198 
-1.64016 -0.0360162 2.56552 209 195 194 
-0.728826 -0.15563 2.35745 186 158 181 
-0.663146 -0.17986 2.40152 225 177 217 
1.13597 -0.659425 2.87447 154 105 108 
1.43656 -0.497255 2.70867 86 84 85 
1.3956 -0.507948 2.72153 132 127 131 
1.12014 -0.493782 2.68753 242 238 237 
-0.157123 -0.377126 2.34691 132 132 130 
0.848862 -0.489269 2.67333 36 35 31 
1.62359 -0.610278 2.86882 199 195 192 
0.316464 -0.488125 2.66654 204 199 195 
-1.49521 0.189366 2.33936 253 246 227 
1.16869 -0.604741 2.87702 127 92 72 
1.07064 -0.601611 2.84363 66 28 19 
1.06967 -0.607082 2.86818 61 25 9 
-1.51174 0.226967 2.27915 255 253 241 
0.233923 -0.614371 2.56545 60 30 0 
0.858044 -0.690307 2.57745 189 166 122 
-1.07789 0.625676 2.47205 52 38 27 
0.486389 -0.652632 2.44738 110 91 35 
1.76989 0.177182 2.76067 223 210 202 
0.889443 -0.708153 2.60497 75 70 50 
0.586049 -0.68709 2.33875 247 224 180 
0.831644 -0.459543 2.62218 33 29 26 
1.38139 -0.51252 2.73722 139 135 134 
1.39819 -0.514703 2.7312 255 253 255 
0.165512 -0.579923 2.58945 126 110 0 
0.229635 -0.471938 2.58248 84 57 0 
1.32214 -0.582306 2.86763 25 26 21 
0.507589 -0.640639 2.45427 32 12 0 
-0.433607 0.604167 2.54076 103 86 78 
1.49293 -0.773061 2.81638 136 134 121 
0.796793 -0.573788 2.41689 95 145 142 
0.829348 -0.517106 2.67908 46 43 36 
0.882783 -0.700579 2.59112 14 14 4 
1.40505 -0.390795 2.52445 45 43 46 
1.44845 -0.406271 2.555 70 70 70 
1.12879 -0.426903 2.57988 55 51 52 
1.1628 -0.67031 2.858 135 54 50 
1.2663 -0.492001 2.69753 59 55 56 
0.631987 -0.670088 2.31465 236 212 166 
-1.50009 0.0264747 2.63183 215 206 191 
0.362647 -0.734147 2.54564 185 182 177 
0.844667 -0.717576 2.58809 122 115 107 
0.393852 -0.42759 2.54497 21 18 13 
0.373237 -0.704064 2.56661 193 185 172 
0.47576 -0.492523 2.61627 29 21 8 
0.125053 -0.487589 2.63874 235 222 190 
1.62897 -0.615398 2.89543 215 210 206 
0.716607 -0.670755 2.49639 166 148 82 
0.196243 -0.561998 2.56142 69 52 0 
0.236793 -0.574949 2.60371 114 79 11 
0.221147 -0.635528 2.55889 125 109 0 
0.160593 -0.582997 2.60783 137 121 0 
0.783213 -0.567893 2.42001 240 255 248 
0.880052 -0.667307 2.59839 114 104 103 
-1.58217 0.197094 2.29269 255 255 245 
-1.14565 0.163706 2.41067 244 238 224 
0.0970609 -0.620615 2.5752 166 146 47 
1.32099 -0.493342 2.69345 59 55 56 
1.39266 -0.481391 2.6749 48 46 47 
0.0904971 -0.583811 2.59971 81 74 0 
1.44473 -0.437953 2.6164 57 55 56 
