ply                 
format ascii 1.0    
element vertex 1280
property float x    
property float y    
property float z    
property uchar red  
property uchar green
property uchar blue 
end_header          
1.35176 0.728189 4.26952 103 92 70 
-0.543538 0.891876 3.88342 118 92 75 
-0.833344 0.905365 3.87112 52 24 20 
0.604511 -0.349359 4.12886 247 207 76 
0.5689 -0.264956 4.07349 246 207 52 
0.534077 -0.244648 4.1024 92 63 5 
0.533247 -0.242261 4.06779 59 26 0 
-1.23191 -0.141524 4.13353 48 34 34 
-1.6899 -0.131236 3.95118 159 128 107 
-1.86476 -0.103941 3.91956 25 11 2 
-1.38262 -0.0995533 4.12641 43 32 26 
-1.4523 -0.0922122 4.10089 44 33 29 
-1.79107 -0.0809317 3.86454 163 146 136 
-1.75187 -0.0616503 3.86226 39 29 20 
-1.81384 -0.0495077 3.82189 56 42 39 
-1.52021 -0.0470861 3.91183 191 169 148 
-1.96273 -0.0076203 3.60928 38 10 6 
-1.95886 0.0174669 3.64657 41 21 14 
-1.72336 -0.0274351 3.94147 122 95 76 
-1.26112 -0.188561 4.19931 83 70 61 
0.0636248 -0.147333 4.08439 118 97 78 
-1.22579 -0.139717 4.21171 46 33 24 
-1.22791 -0.118186 4.14485 192 172 148 
-1.91927 0.0167388 3.62427 45 29 14 
1.37191 0.794934 4.27654 29 43 17 
0.597039 -0.562456 4.43407 27 23 20 
-1.54276 -0.450601 3.81077 98 68 30 
-1.27912 -0.312179 4.19687 41 26 21 
-1.74402 -0.119006 3.9468 19 9 0 
-1.83841 -0.091575 3.95506 165 149 136 
0.0531988 -0.0762035 4.08714 138 113 93 
1.34894 0.759324 4.27244 91 86 66 
-0.191925 0.910624 3.89275 198 171 154 
-1.50927 -0.574589 3.74578 6 9 0 
-1.38895 -0.47112 4.04973 9 8 6 
-1.25418 -0.201256 4.22063 95 83 71 
-1.36099 -0.12448 3.98969 106 92 81 
-1.38576 -0.124945 4.043 110 96 85 
-1.7848 -0.0903106 3.86472 163 147 132 
0.782717 -0.0565694 4.14066 123 77 61 
0.857849 0.00968452 4.02161 213 185 164 
-0.529011 0.498571 3.82527 155 131 119 
-0.532441 0.880099 3.87906 113 86 65 
-1.25629 -0.537186 4.17037 6 5 3 
-1.70741 -0.485946 3.87911 213 154 16 
0.608975 -0.41072 4.44131 18 9 0 
0.431775 -0.117959 4.07409 152 114 31 
1.49851 0.497597 4.23232 51 32 25 
-0.507091 0.913673 3.87794 210 180 169 
-1.565 -0.397978 3.92432 111 81 47 
-1.29002 -0.0844009 4.02211 76 62 53 
-0.518917 0.493392 3.78662 172 145 136 
1.3649 0.734036 4.26862 34 43 14 
-0.112889 0.908404 3.89156 221 193 179 
0.0747083 0.921593 3.95686 204 178 161 
-1.28832 -0.0972311 3.76179 45 31 22 
1.08681 1.29306 4.25635 115 81 54 
0.664689 -0.551495 4.43452 120 96 70 
-1.52839 -0.385512 3.96948 121 88 55 
0.569196 -0.292344 4.49221 148 112 26 
-1.40032 -0.100133 3.99821 36 22 13 
0.897761 -0.0183965 4.03498 206 139 52 
0.436896 -0.00666304 4.03385 203 176 157 
-0.752496 0.0206834 3.74174 214 189 169 
-0.506891 0.487066 3.74055 145 121 109 
-0.371469 0.928598 3.94239 221 192 176 
1.06744 1.08673 4.34577 11 13 8 
0.660354 -0.461704 4.43936 29 11 9 
0.839059 -0.222874 3.98085 13 2 0 
-1.20125 -0.166283 4.29554 64 41 33 
-1.20941 -0.150069 4.26532 48 34 25 
0.83231 -0.102555 3.96648 100 91 76 
-1.48445 -0.562898 3.74447 199 163 103 
0.997213 -0.511796 4.1984 3 0 2 
1.03194 -0.480991 4.15244 43 20 26 
0.164468 -0.108961 4.08546 205 180 160 
0.558303 -0.269585 4.07461 242 204 45 
-1.51528 -0.687024 3.83614 125 0 17 
1.04367 -0.537944 4.21085 46 22 22 
-1.28209 -0.314865 4.21733 41 26 21 
-1.36068 -0.0979064 3.94598 51 41 32 
-1.39041 -0.0979484 3.99394 44 33 27 
-1.4573 -0.0778821 4.1424 37 22 15 
-1.47023 -0.0547633 4.24436 200 173 152 
-1.35505 0.915975 3.84603 179 152 135 
-1.41285 -0.549367 3.995 161 134 105 
0.896349 0.0219819 3.9945 213 185 164 
-0.684166 0.0675822 3.6761 31 6 0 
-0.511434 0.0643949 3.70034 35 11 0 
-1.15949 -0.146308 4.28348 204 178 155 
1.37013 0.764762 4.25941 38 30 7 
1.50702 1.01805 4.32791 178 150 128 
0.819631 -1.01899 5.93872 32 13 6 
0.515968 -0.326508 4.09027 86 43 0 
0.430335 0.904812 3.91488 221 193 182 
-0.833871 0.907753 3.88243 52 24 20 
-1.50419 -0.0727805 3.97811 132 118 109 
0.314181 0.518823 4.01944 126 93 58 
0.928118 -0.520124 4.18854 63 62 68 
1.50918 0.822494 4.26716 174 147 120 
0.619933 0.903421 3.92534 205 178 159 
0.589437 -0.559767 4.40756 27 23 20 
-1.60489 -0.0578677 4.1626 14 0 0 
1.34206 0.754822 4.25805 91 86 66 
0.760328 -0.649395 4.42899 69 56 47 
-1.44515 -0.0752383 4.07857 37 22 15 
1.31341 0.786565 4.26317 29 43 17 
-1.46053 -0.445938 4.02108 6 5 3 
-1.46502 -0.0534767 4.2168 200 173 152 
0.891724 0.0221388 3.98273 213 185 164 
0.375342 -0.093082 4.03929 8 9 11 
-1.40834 -0.0407094 3.97935 205 179 156 
0.486755 0.983577 3.9627 19 14 11 
0.652001 -0.309144 4.05277 50 14 0 
0.459328 -0.294354 4.15316 248 207 79 
0.533114 -0.38308 4.35228 214 183 30 
0.820484 -0.200765 3.94518 17 7 5 
-1.22666 -0.174367 4.24644 23 12 8 
-1.25985 -0.157346 4.2159 71 63 61 
-1.26877 -0.154954 4.19755 21 10 4 
0.109276 -0.0613574 3.99215 78 51 32 
-1.43384 -0.0542525 3.89101 198 171 152 
0.302874 0.42662 3.38234 15 0 0 
0.196263 0.485738 3.81159 49 29 22 
-0.944294 0.97739 4.12028 192 169 155 
0.753272 -0.490436 4.40283 32 24 13 
0.776004 -0.426292 4.4462 69 56 37 
0.775628 -0.0635703 4.03933 238 188 67 
0.646779 1.36672 4.06426 45 21 11 
-1.72585 -0.0828438 4.35325 154 135 118 
-1.71365 -0.058257 4.32348 10 0 0 
-1.34125 0.882796 3.83716 28 10 0 
0.880419 -0.747172 4.42819 23 19 16 
-1.56668 -0.498494 4.16658 118 78 42 
0.736359 -0.510968 4.44452 31 23 20 
0.642458 -0.465456 4.37505 36 22 13 
-1.14063 -0.162651 4.32993 156 129 108 
0.147725 -0.1288 4.01725 109 88 67 
0.687544 0.976859 4.06634 24 9 2 
-1.48068 -0.0752132 4.13327 53 38 31 
-1.67726 -0.058434 4.26966 13 0 0 
-1.59506 -0.0541005 4.42236 191 164 143 
1.32744 0.782173 4.17069 35 40 17 
1.13253 1.22608 4.37172 103 78 58 
-1.27687 -0.0515357 3.91941 192 164 143 
-0.816033 0.0859119 4.36911 23 3 0 
0.525251 0.902024 3.91474 212 185 168 
-0.78543 0.914846 3.87724 196 172 160 
0.700815 0.974395 4.05856 23 8 3 
-1.43371 -0.589072 3.89662 218 194 158 
0.975432 -0.563279 4.18765 146 129 103 
-1.24472 -0.479841 4.17204 165 119 59 
0.644482 -0.478602 4.44643 132 120 98 
-1.29982 -0.446386 4.18524 149 131 111 
0.721107 -0.463388 4.45388 23 9 0 
0.777424 -0.401476 4.4543 120 104 89 
0.876579 -0.322525 4.11218 153 152 150 
0.907558 -0.320203 4.09787 173 164 157 
0.841439 -0.221419 3.95689 15 2 0 
0.490304 -0.187792 4.07728 202 170 131 
-1.69936 -0.184827 4.18435 169 143 120 
0.831937 -0.102544 3.98028 102 89 70 
-1.25599 -0.091715 4.0694 15 1 0 
-0.556764 0.489877 3.8047 26 8 0 
-0.549676 0.497127 3.80183 202 177 170 
-1.33795 0.900849 3.83531 52 23 15 
0.893911 -0.761503 4.42461 22 9 3 
0.442457 -2.33543 13.6271 15 0 0 
-1.42365 -0.577915 3.809 36 82 18 
-1.42794 -0.587262 3.88812 216 187 153 
-1.4968 -0.580565 4.11886 17 0 0 
1.02159 -0.500835 4.20103 151 130 111 
-1.38971 -0.467912 3.97824 9 1 0 
0.726793 -0.495317 4.45046 95 83 61 
-1.38429 -0.374709 3.93465 16 2 0 
0.776936 -0.376931 4.46052 39 25 12 
-1.31184 -0.300989 3.80026 226 179 41 
0.497906 -0.30332 4.11938 71 49 35 
0.586744 -0.190846 4.02947 114 68 6 
-1.27187 -0.159273 4.23651 84 74 73 
-1.27872 -0.157064 4.21446 12 1 0 
0.624487 -0.0941271 4.08427 184 137 33 
0.357014 -0.0723951 4.05079 20 6 5 
0.121557 -0.0609689 3.94478 57 35 21 
0.23019 -0.0302567 3.87955 50 24 11 
0.861076 -0.0191296 3.81423 179 114 32 
0.432986 0.90163 3.90014 202 173 155 
-0.545956 0.914247 3.90666 66 42 32 
-0.912085 0.961348 4.05721 177 154 140 
0.570589 -0.636162 4.4412 35 29 17 
0.589309 -0.561566 4.44653 37 30 24 
0.735622 -0.476469 4.45252 104 91 72 
-1.30513 -0.444844 4.19374 142 116 93 
-1.24305 -0.432229 4.21135 90 77 71 
0.612105 -0.449395 4.45652 121 104 78 
-1.39876 -0.172637 4.16951 48 28 17 
0.176879 -0.0981008 3.92087 165 135 111 
0.198655 0.484194 3.80195 28 7 2 
0.238394 0.572099 4.39041 119 86 55 
0.251394 0.905766 3.929 28 2 0 
-0.556038 0.919498 3.9004 194 168 153 
-1.39799 -0.514938 3.99072 135 75 5 
-1.33848 -0.340186 3.82549 199 161 18 
-1.28377 -0.321268 3.90515 62 74 34 
0.868562 -0.275214 4.01253 86 71 64 
0.568205 -0.262577 4.05204 248 211 58 
-1.2306 -0.194805 4.25581 93 79 66 
-1.26417 -0.14304 4.21113 30 19 17 
-1.2862 -0.109722 4.04274 90 76 67 
0.779226 -0.103536 4.08248 15 6 7 
0.232156 -0.0660375 3.87522 212 188 164 
0.119489 -0.0618602 3.95943 65 43 29 
0.18451 -0.0405565 3.88913 36 16 5 
0.628739 0.98792 4.07954 18 8 7 
-1.29498 -0.517572 4.18294 175 143 120 
0.250824 0.484265 3.80839 23 3 5 
-1.40506 -0.515672 4.00155 132 71 6 
-1.44077 -0.477908 3.97749 130 76 14 
0.534606 -0.214534 4.05112 164 118 33 
-1.27204 -0.181348 4.33348 14 4 0 
0.601674 -0.0817158 4.08582 119 82 40 
-0.580343 0.894498 3.90344 109 83 66 
0.63839 -0.563697 4.44343 100 86 59 
0.594506 -0.555165 4.36559 30 26 15 
0.697234 -0.540254 4.45617 124 97 70 
0.595041 -0.237404 4.02219 231 196 30 
-1.25501 -0.142075 4.28357 51 37 34 
-1.33696 0.869939 3.82772 31 11 4 
-1.25508 -0.533376 4.20201 24 14 15 
0.928308 -0.529885 4.19204 57 55 60 
0.598573 -0.506429 4.4394 31 27 18 
0.646883 -0.461746 4.33454 31 17 6 
0.606614 -0.405604 4.38175 25 13 0 
-1.30223 -0.314461 3.95339 57 76 44 
0.531353 -0.279026 4.25663 227 192 30 
-1.29227 -0.206669 4.3129 82 69 60 
-1.16705 -0.165479 4.379 153 126 105 
0.152037 -0.128878 3.99976 119 98 79 
0.730935 -0.0887816 4.03538 237 192 65 
0.138981 -0.0560901 3.90982 68 44 32 
-1.86682 -0.0609195 4.54997 13 0 0 
0.768548 -0.0521827 3.97485 239 187 65 
-0.562369 0.869841 3.89563 29 6 0 
-1.3608 0.911193 3.82207 220 196 186 
0.605382 -0.544717 4.42911 29 22 12 
-1.3072 -0.406477 4.27578 33 4 6 
-1.28394 -0.269055 3.94317 177 139 94 
0.605033 -0.224001 4.03962 218 179 24 
0.860886 -0.180085 3.95438 8 6 7 
-1.34757 -0.117566 4.00687 96 79 69 
-1.76583 -0.0844999 4.41255 27 17 15 
-1.31639 -0.0747286 3.88041 53 38 31 
-0.628747 0.936415 3.95659 187 164 146 
-1.29556 0.886769 3.72506 222 196 183 
0.684969 0.983147 4.09051 30 15 10 
0.579983 1.36735 4.07704 48 31 21 
0.747176 -0.011567 3.89685 207 179 157 
0.58273 0.956443 3.92793 18 13 10 
0.966711 -0.485623 4.20419 7 7 9 
-1.38862 -0.379333 3.95742 18 0 0 
0.260086 -0.0398532 3.88819 40 13 2 
-1.17263 -0.21162 4.4331 139 111 87 
-1.41572 -0.0409026 3.99057 193 166 145 
0.569053 0.0163173 3.89638 217 191 168 
-0.59747 0.0734314 3.72506 27 7 0 
0.220916 0.487907 3.81564 50 30 23 
-1.34713 0.89782 3.8242 112 85 74 
-0.790345 0.916589 3.88679 195 172 158 
-1.42319 -0.685127 3.87418 48 15 0 
-1.36541 -0.655794 3.72308 90 0 0 
-1.40804 -0.657993 3.79371 186 124 87 
-1.44388 -0.607399 3.79548 112 107 88 
-1.44486 -0.59626 3.79145 30 2 0 
-1.47328 -0.603906 3.90225 192 147 92 
-1.41212 -0.593215 3.82896 192 154 92 
-1.40048 -0.590444 3.8352 36 63 28 
-1.39265 -0.557739 3.71584 38 0 0 
-1.389 -0.565915 3.78834 180 147 96 
0.903927 -0.668687 4.48576 127 110 100 
0.893738 -0.665374 4.47167 12 2 1 
0.775165 -0.653187 4.44989 120 107 98 
0.963869 -0.608845 4.19394 25 7 5 
-1.46103 -0.574174 4.06146 18 0 0 
-1.26167 -0.568379 4.1503 155 119 103 
-1.48163 -0.533307 3.93663 26 4 0 
0.974226 -0.567541 4.22566 148 131 115 
-1.27056 -0.548766 4.14961 150 126 102 
-1.38165 -0.497498 3.75066 143 110 79 
-1.41561 -0.493372 3.77101 133 108 68 
-1.27309 -0.539196 4.15349 14 0 0 
0.925218 -0.546333 4.22618 131 129 134 
0.996166 -0.543025 4.2395 135 123 107 
-1.27346 -0.513624 4.1577 151 134 118 
-1.42489 -0.473712 3.86097 116 94 45 
-1.41277 -0.450486 3.8235 120 93 46 
-1.20577 -0.48414 4.16015 18 3 0 
-1.35812 -0.46482 4.02944 19 5 4 
-1.21101 -0.473908 4.11437 173 127 52 
-1.38341 -0.451233 3.94467 130 116 107 
0.720873 -0.484512 4.46241 23 10 4 
0.688946 -0.482165 4.45902 27 12 7 
0.704243 -0.480813 4.47202 30 13 3 
0.650886 -0.474929 4.45599 45 32 23 
0.680031 -0.472975 4.46429 135 121 112 
0.69756 -0.470925 4.45645 130 112 100 
0.612198 -0.468904 4.45971 32 18 9 
0.688351 -0.46534 4.47092 35 19 4 
-1.33538 -0.395161 3.95536 57 13 10 
-1.35439 -0.383513 3.94325 15 0 0 
-1.31634 -0.379361 3.9013 33 14 8 
-1.31065 -0.370814 3.96938 47 9 0 
0.562955 -0.410397 4.45994 39 23 10 
0.770203 -0.412162 4.47538 38 24 11 
-1.41704 -0.363273 3.96641 52 0 0 
-1.30803 -0.362901 3.98212 50 29 8 
0.774706 -0.404531 4.4901 124 110 97 
0.552093 -0.393935 4.42877 27 13 12 
0.560804 -0.384819 4.41888 234 199 97 
0.640492 -0.344073 4.03212 241 210 70 
0.519769 -0.325147 4.06417 80 45 3 
-1.3631 -0.3088 3.87982 217 167 52 
0.54976 -0.31675 4.04929 230 187 56 
0.87493 -0.324634 4.14087 163 159 156 
0.475517 -0.319294 4.10777 41 0 0 
0.905558 -0.322699 4.13807 173 164 155 
0.686587 -0.343743 4.46596 175 125 98 
0.495275 -0.317339 4.15197 174 150 116 
0.653953 -0.308413 4.03584 40 0 0 
0.696111 -0.33906 4.46448 116 66 39 
0.76026 -0.340186 4.4857 123 109 100 
0.656335 -0.298953 4.03812 25 0 0 
0.721509 -0.328684 4.46876 34 21 5 
0.720995 -0.320683 4.47838 36 17 10 
-1.32761 -0.273955 3.88105 67 8 0 
-1.32109 -0.276716 3.94059 63 5 0 
0.72152 -0.303405 4.46558 23 3 0 
0.686229 -0.29195 4.46511 113 0 22 
0.661115 -0.282206 4.45697 109 0 14 
0.685628 -0.280326 4.46112 102 0 11 
0.667211 -0.266001 4.4552 107 6 10 
0.694723 -0.263179 4.45785 92 0 7 
-1.30005 -0.20852 4.25592 17 2 0 
0.394308 -0.184925 4.14469 67 42 22 
-1.66348 -0.182261 4.07479 177 145 122 
0.692527 -0.182347 4.07247 88 24 12 
-1.22045 -0.185419 4.27128 22 8 5 
0.29776 -0.176566 4.07356 244 227 209 
0.289813 -0.169123 4.10907 61 45 30 
0.385322 -0.164156 4.1694 84 58 43 
-1.2276 -0.163004 4.23353 99 89 88 
0.144261 -0.16516 4.31087 224 212 186 
0.28934 -0.149875 4.10988 48 39 24 
0.999862 -0.145598 4.36572 186 166 159 
0.281018 -0.130841 4.12014 197 179 159 
0.412795 -0.131769 4.13297 61 34 15 
0.990033 -0.139215 4.35449 30 16 31 
0.372108 -0.128324 4.04052 28 11 1 
0.293324 -0.123706 4.11281 76 57 42 
0.764096 -0.103101 4.07569 186 163 145 
-1.2181 -0.0978034 4.04826 11 0 0 
0.953941 -0.0963934 4.11694 185 164 159 
-1.21644 -0.0913966 4.00378 21 7 0 
0.750235 -0.0911852 4.1114 111 70 50 
0.348624 -0.078807 4.02659 191 170 153 
0.644699 -0.0793065 4.05417 203 172 141 
0.524982 -0.0725016 3.97452 211 181 155 
0.280651 -0.0681576 3.87774 60 32 31 
0.529017 -0.0469714 3.89926 24 12 16 
1.10194 0.0213784 3.76449 215 188 169 
0.360403 0.0732296 3.64431 199 169 143 
-0.853023 0.0789655 3.57766 161 141 117 
1.49275 0.350984 4.79615 62 33 17 
1.50325 0.54451 4.81434 111 93 83 
1.16483 0.506066 4.23823 55 29 16 
0.358624 0.484719 3.79295 193 167 152 
-0.545854 0.485555 3.78006 37 18 11 
1.37305 0.771863 4.3051 42 35 16 
1.51507 0.836776 4.34352 184 156 134 
1.15577 0.989544 4.35661 37 22 0 
1.08639 0.904203 3.97225 74 48 31 
0.0758398 0.916938 3.93969 198 170 158 
1.51403 1.03157 4.40228 190 162 138 
1.10366 1.28533 4.42235 121 103 91 
-1.411 -0.666644 3.78897 102 0 7 
0.440613 -0.755717 4.39194 20 5 0 
0.892402 -0.766022 4.45531 29 14 11 
-1.43941 -0.646161 3.83321 139 84 63 
-1.45704 -0.640148 3.85008 38 5 0 
-1.4497 -0.627056 3.84144 142 122 95 
-1.50779 -0.628298 3.97695 34 60 21 
-1.42967 -0.587111 3.78925 4 36 0 
-1.42092 -0.594437 3.84012 194 154 92 
-1.46159 -0.606396 3.94861 17 61 25 
-1.38743 -0.560402 3.69211 193 153 94 
-1.38783 -0.570829 3.75721 30 82 16 
-1.41392 -0.584666 3.86742 220 194 157 
-1.38957 -0.561791 3.72917 195 155 85 
-1.48273 -0.607521 4.03349 200 177 145 
0.55666 -0.648003 4.43344 106 100 78 
-1.25134 -0.602884 4.15156 132 19 5 
-1.26358 -0.591364 4.14664 121 0 1 
-1.47544 -0.555899 4.10593 64 24 0 
-1.44287 -0.52518 3.88 16 0 0 
-1.37725 -0.532015 3.98346 205 156 38 
-1.42192 -0.497114 3.756 26 0 4 
-1.44082 -0.501121 3.89006 13 0 0 
-1.45496 -0.513796 3.9905 201 147 25 
-1.43768 -0.497321 3.86717 129 93 43 
0.705567 -0.57071 4.4678 36 25 5 
-1.3187 -0.523421 4.23381 146 126 102 
1.03512 -0.526198 4.24385 151 128 110 
-1.23852 -0.51514 4.17427 15 5 4 
0.632593 -0.544125 4.46361 22 8 0 
-1.36745 -0.487539 4.02354 21 10 18 
-1.23915 -0.50592 4.23099 153 129 101 
0.63192 -0.532066 4.45145 48 31 24 
1.05161 -0.501806 4.1996 46 27 23 
-1.4485 -0.468374 3.96192 13 4 7 
1.03677 -0.494436 4.16713 148 128 104 
-1.35792 -0.463162 3.92949 12 4 2 
0.710325 -0.5269 4.47702 115 97 75 
-1.21265 -0.480219 4.14124 11 0 0 
-1.25198 -0.474663 4.11252 17 1 4 
1.01236 -0.491615 4.23583 45 29 29 
-1.37371 -0.467513 4.0517 22 8 7 
-1.48379 -0.45509 3.96223 89 65 37 
-1.23822 -0.471409 4.1195 182 126 52 
1.00194 -0.486517 4.23378 145 124 105 
-1.39223 -0.452665 3.95888 130 116 107 
-1.19643 -0.475603 4.18581 105 56 24 
-1.29381 -0.465948 4.14663 77 42 12 
0.672469 -0.502894 4.46663 123 108 77 
-1.34866 -0.441201 3.97501 135 85 24 
0.725225 -0.497301 4.46827 111 99 75 
0.702787 -0.49257 4.46005 121 106 77 
0.732795 -0.479713 4.47225 115 99 76 
0.669996 -0.475593 4.46574 37 23 14 
-1.50303 -0.412089 3.86444 15 5 3 
-1.35017 -0.407168 3.97686 213 157 38 
-1.3388 -0.399564 3.98235 212 158 36 
-1.34488 -0.394128 3.95025 35 20 15 
-1.32649 -0.383708 3.93567 186 143 65 
-1.38649 -0.388537 3.99609 15 0 0 
-1.33329 -0.368784 3.85717 16 5 1 
-1.36616 -0.367731 3.97886 129 68 11 
-1.30888 -0.360318 3.96722 203 157 45 
-1.28069 -0.347718 3.87598 193 150 9 
0.509632 -0.385614 4.31169 242 214 79 
-1.29607 -0.352671 3.97978 64 37 28 
0.504937 -0.36688 4.15046 216 184 21 
0.587897 -0.348575 3.94925 236 209 78 
-1.26618 -0.342024 3.89653 47 79 76 
0.563746 -0.383378 4.39989 238 203 111 
0.774056 -0.379977 4.49843 84 74 64 
0.655041 -0.339296 4.10839 221 192 26 
-1.26271 -0.316074 3.95237 24 63 18 
-1.22189 -0.332758 4.20775 36 28 26 
0.505873 -0.312777 4.07891 160 138 97 
0.707766 -0.340802 4.47668 170 117 85 
0.643812 -0.305058 4.03076 41 0 0 
-1.26035 -0.295792 3.93572 30 45 6 
0.681384 -0.331683 4.42869 79 78 60 
0.505186 -0.299666 4.07163 76 54 31 
-1.22774 -0.308385 4.2361 44 33 29 
0.544089 -0.294507 4.05333 115 69 0 
0.468486 -0.291028 4.10511 234 198 58 
-1.23157 -0.292156 4.22074 102 87 84 
-1.26727 -0.270544 3.90338 178 136 86 
-1.28723 -0.263072 3.85884 165 123 73 
0.658004 -0.304892 4.48165 56 59 48 
0.672681 -0.297092 4.46807 158 129 115 
-1.48897 -0.265447 4.04345 72 24 0 
0.670625 -0.278014 4.46993 177 128 111 
0.540586 -0.233262 4.00719 111 77 16 
0.693758 -0.249839 4.45161 169 115 91 
0.782313 -0.239126 4.80117 13 3 4 
-1.25333 -0.210007 4.23303 32 19 11 
-1.31768 -0.211658 4.29008 45 30 23 
0.700228 -0.213438 4.45867 108 55 24 
0.590287 -0.189761 4.00287 107 61 0 
0.661619 -0.188894 4.07002 100 53 11 
-1.20838 -0.188063 4.22705 90 80 71 
-1.22225 -0.191656 4.32521 192 165 148 
-1.21449 -0.184482 4.26143 22 8 5 
-1.21289 -0.177465 4.3326 190 163 146 
-1.27353 -0.171481 4.21468 23 18 15 
-1.34622 -0.167903 4.15059 25 6 0 
0.530935 -0.163951 4.04035 11 7 4 
0.573134 -0.159538 4.00566 80 46 0 
0.829817 -0.156768 3.96801 87 77 65 
1.00324 -0.169567 4.34599 193 170 156 
-1.26397 -0.160146 4.15917 104 92 80 
-1.21319 -0.161397 4.20483 99 89 88 
0.140195 -0.165788 4.32891 224 212 186 
-1.23297 -0.157342 4.16967 108 100 98 
1.02254 -0.156449 4.39253 111 84 65 
0.671324 -0.144664 4.11197 213 182 154 
-1.25716 -0.14131 4.19444 25 13 13 
0.145073 -0.141048 4.25411 228 221 195 
-1.23371 -0.12483 4.04351 99 86 78 
-1.25736 -0.128852 4.21393 159 141 129 
0.358694 -0.124749 4.037 149 133 110 
0.189363 -0.118582 3.98557 201 179 158 
-1.2343 -0.118922 4.0067 84 74 65 
0.422073 -0.116199 4.05623 198 175 157 
0.283103 -0.11552 4.12566 204 182 161 
0.966979 -0.114924 4.0947 187 170 163 
0.3626 -0.108635 3.98857 24 16 14 
0.20763 -0.105485 3.94831 198 172 149 
0.474012 -0.111453 4.17476 53 20 0 
0.508545 -0.107129 4.12577 28 0 0 
-1.38829 -0.0921738 3.94386 86 75 71 
0.258021 -0.0883076 3.88785 179 151 127 
0.352153 -0.0895357 4.0265 53 35 31 
0.64787 -0.0896536 4.09571 60 20 0 
0.223718 -0.080006 3.88047 180 153 132 
0.775636 -0.0793209 4.02367 73 43 33 
-1.47336 -0.0760364 3.9121 63 50 42 
-1.46286 -0.0712727 3.92036 38 22 22 
0.361973 -0.0718173 4.02484 14 0 0 
0.540347 -0.0700001 3.8734 206 180 147 
0.527514 -0.0667593 3.87749 25 10 17 
-1.45681 -0.060204 3.92051 158 139 125 
0.253654 -0.0590447 3.85773 55 27 23 
0.531143 -0.0486081 3.87999 25 14 20 
0.271567 -0.0428877 3.90838 34 10 0 
0.24374 -0.0305525 3.82171 34 10 0 
0.484075 -0.027165 3.87833 21 7 6 
0.86015 -0.0193056 3.82815 192 126 52 
0.797906 -0.0102527 3.91821 142 82 45 
0.212992 0.0656583 3.65531 20 0 0 
-1.3046 0.0743322 3.59548 36 18 14 
-0.859406 0.0792899 3.58795 161 141 117 
1.47942 0.419925 4.71839 126 100 87 
1.18022 0.475374 4.28851 41 14 5 
1.16768 0.480182 4.25617 151 125 110 
1.49623 0.489706 4.26981 45 18 7 
1.50893 0.516087 4.2744 127 101 84 
1.49703 0.51885 4.27604 59 32 21 
1.08646 0.491137 3.90047 147 119 105 
0.189442 0.487284 3.78914 107 84 68 
1.50836 0.681577 4.30485 39 14 0 
1.30613 0.764861 4.29562 47 36 18 
1.17322 0.853295 4.31927 54 43 21 
1.09637 0.901675 4.00081 187 158 140 
1.17714 0.98895 4.35197 43 28 7 
1.09682 0.909085 3.96312 195 166 148 
-0.556666 0.89058 3.86788 104 85 71 
0.270623 0.902023 3.89217 216 188 174 
1.50876 1.01811 4.34786 187 159 135 
1.17595 1.02151 4.34666 38 28 3 
1.16449 1.02513 4.34896 98 83 60 
1.09632 1.27659 4.4218 102 83 66 
1.10414 1.28008 4.40783 130 112 100 
1.50003 1.30085 4.4494 60 33 14 
1.09612 1.31777 4.49376 42 22 13 
1.08098 1.37294 4.09878 63 36 19 
-1.42771 -0.653104 3.81062 103 0 17 
-1.46515 -0.61848 3.91529 28 66 25 
-1.40312 -0.581228 3.85431 215 192 151 
0.57627 -0.624111 4.35518 31 18 10 
-1.25744 -0.570188 4.13636 150 124 99 
-1.23567 -0.558091 4.14887 24 6 6 
-1.26056 -0.55633 4.14937 13 6 0 
-1.22942 -0.537537 4.16047 27 13 10 
-1.23095 -0.504711 4.21671 152 126 99 
-1.41656 -0.456068 3.84776 10 0 1 
0.602164 -0.497333 4.41709 32 22 12 
0.653068 -0.466313 4.4204 28 13 6 
0.606893 -0.453983 4.50181 114 99 70 
-1.35078 -0.365722 3.9556 118 56 0 
0.576815 -0.405077 4.45977 119 103 78 
0.637874 -0.400267 4.46311 37 25 13 
-1.28418 -0.348763 3.90474 79 93 76 
-1.27209 -0.341512 3.90621 44 76 73 
0.751952 -0.347913 4.49658 49 33 20 
-1.22265 -0.290455 4.20525 100 85 80 
0.584497 -0.210078 3.99651 140 94 19 
0.706028 -0.201724 4.47452 183 127 90 
-0.139938 -0.20085 4.5117 190 165 143 
-1.20765 -0.160774 4.19252 108 98 97 
1.02058 -0.156483 4.4026 112 85 68 
0.391874 -0.139396 4.03337 145 127 107 
1.00371 -0.142903 4.34689 186 163 149 
0.200765 -0.116192 3.92922 200 178 157 
0.420458 -0.123033 4.24105 151 124 97 
-1.30402 -0.105949 4.07596 86 73 64 
0.506712 -0.107175 4.13902 28 0 0 
0.752811 -0.106184 4.17907 189 161 139 
0.184647 -0.0968494 3.88928 166 140 115 
0.7563 -0.0903603 4.08144 107 78 60 
0.226165 -0.0793897 3.8691 180 153 132 
-1.48829 -0.0742609 3.93362 96 82 79 
-1.09139 -0.0525823 3.38696 182 155 138 
1.09968 0.0195214 3.77864 208 181 162 
0.35872 0.0652401 3.67764 18 0 0 
0.217693 0.0651809 3.64028 15 0 0 
1.07837 0.0726459 3.78044 107 81 64 
1.11127 0.260391 3.9145 125 99 82 
1.47699 0.416951 4.70136 136 110 97 
1.17366 0.501456 4.25353 49 25 13 
0.0712517 0.494551 3.82942 146 123 109 
1.17914 1.00673 4.35733 95 78 58 
-0.761963 0.872968 3.74417 48 27 26 
-0.517399 0.894934 3.81309 184 157 146 
1.5004 1.30625 4.46361 50 23 4 
1.09621 1.30038 4.43754 44 22 11 
-1.42636 -0.719473 3.86948 120 86 41 
-1.41197 -0.6215 3.82213 148 120 96 
-1.4782 -0.606481 3.99503 241 222 190 
0.598112 -0.640221 4.4681 30 23 7 
0.659379 -0.614891 4.44754 35 26 11 
-1.50093 -0.546247 4.07879 104 57 13 
-1.38464 -0.533659 3.99255 205 154 37 
0.627373 -0.55922 4.24417 32 26 12 
1.01391 -0.561261 4.31236 53 36 28 
-1.34423 -0.505106 3.90824 130 66 4 
0.734309 -0.558631 4.3895 35 26 17 
1.01107 -0.509581 4.06974 143 123 99 
0.997351 -0.512586 4.2368 40 28 30 
0.611306 -0.522757 4.48074 39 26 20 
0.726551 -0.519261 4.47568 34 23 17 
-1.42469 -0.450044 3.96128 6 6 4 
-1.47918 -0.446895 3.95041 93 63 35 
0.775809 -0.461006 4.12906 37 31 19 
-1.47025 -0.421378 3.80432 8 6 7 
-1.2744 -0.456912 4.1458 17 9 6 
-1.41641 -0.448563 4.09232 140 81 11 
-1.23251 -0.452853 4.19926 23 19 16 
-1.4444 -0.419165 4.00854 107 58 25 
0.757649 -0.449318 4.68652 76 66 41 
0.761597 -0.409774 4.46014 32 20 8 
0.514333 -0.381338 4.27119 242 214 79 
0.565886 -0.362172 4.11121 225 197 54 
0.719886 -0.383361 4.48535 30 23 13 
0.519719 -0.337648 4.04659 143 103 51 
-1.27289 -0.304776 3.92068 40 61 54 
0.911098 -0.321215 4.12534 165 149 133 
0.654117 -0.304246 4.02656 31 0 0 
-1.26245 -0.288567 3.85877 174 130 23 
-1.23555 -0.309911 4.24413 8 0 0 
-1.29786 -0.272742 3.90654 82 21 2 
0.872213 -0.271664 3.95246 85 74 72 
-1.27253 -0.266197 3.91334 172 133 94 
-1.32011 -0.258598 3.82944 159 114 72 
0.543159 -0.275092 4.16157 240 206 46 
0.575246 -0.259891 4.00075 241 206 42 
0.302949 -0.229071 4.3028 165 138 117 
0.70502 -0.230989 4.46362 176 123 91 
0.35042 -0.202169 4.07675 44 26 14 
0.401517 -0.214292 4.38406 110 83 66 
-1.28105 -0.186455 4.20195 36 21 14 
0.406025 -0.183441 4.15756 191 164 143 
-1.34849 -0.169882 4.08886 17 0 0 
-1.34216 -0.173567 4.18844 11 0 0 
-1.25749 -0.170776 4.18953 15 10 7 
-1.43268 -0.161418 4.04601 104 78 51 
0.348574 -0.156386 4.19843 240 215 195 
0.403035 -0.151168 4.12939 198 170 148 
0.276606 -0.147833 4.18293 51 39 25 
0.564899 -0.136756 4.01656 71 37 0 
0.381897 -0.120488 4.00284 26 14 18 
0.404203 -0.13009 4.11565 118 95 81 
0.28451 -0.120589 4.08355 202 181 160 
0.392453 -0.120863 4.04326 12 2 1 
-1.21068 -0.115802 4.0336 49 39 37 
0.28411 -0.117827 4.20957 86 64 50 
0.478394 -0.110731 4.15338 44 11 0 
-1.43118 -0.105135 3.94324 67 42 38 
0.35635 -0.105376 4.0273 27 19 17 
-1.32911 -0.103609 3.97831 81 67 58 
-1.26239 -0.101745 3.97437 40 29 27 
0.456191 -0.100556 4.03406 200 176 152 
-1.39703 -0.0966727 3.95605 79 69 60 
-1.34053 -0.0958289 3.96859 32 22 21 
0.552099 -0.0966473 4.04702 30 0 0 
-1.46707 -0.0863823 3.9582 35 24 18 
0.272571 -0.0853301 3.89904 208 182 159 
0.243542 -0.0778235 3.88073 210 184 161 
-1.47596 -0.0731932 3.9367 37 23 23 
0.926979 -0.0705043 4.07853 27 17 15 
0.141641 -0.0609234 3.87379 68 46 35 
0.239776 -0.0467662 3.85338 156 133 119 
0.267827 -0.0414992 3.91887 69 45 33 
0.218131 -0.0402178 3.75259 39 15 5 
0.794911 -0.00960107 3.94167 145 85 51 
1.0983 0.0368729 3.77749 108 81 62 
-0.875527 0.073602 3.63863 14 0 0 
-1.28271 0.0842525 3.58659 94 74 63 
1.1672 0.480381 4.26733 139 113 96 
1.14888 0.503588 4.24148 126 98 84 
1.50203 0.584884 4.82823 15 4 2 
1.32851 0.724364 4.29196 38 40 16 
1.36196 0.724865 4.29452 37 43 17 
1.3277 0.810402 4.31677 33 38 15 
1.27944 0.629829 3.42235 41 47 19 
0.255243 0.894012 3.88553 26 0 0 
1.48816 1.27436 4.41356 104 77 60 
-1.26661 -0.512082 4.13529 147 125 102 
-1.3383 -0.390719 3.94125 32 16 17 
0.537266 -0.407688 4.46395 27 22 19 
-1.2226 -0.346549 4.19659 95 76 70 
0.677519 -0.327986 4.44122 77 86 69 
0.759935 -0.290731 4.14303 205 190 171 
-1.23653 -0.290671 4.23118 96 81 74 
0.681794 -0.245838 4.30784 101 0 4 
-1.25652 -0.212203 4.19534 41 28 20 
0.424762 -0.123085 4.2246 152 124 100 
0.415236 -0.118341 4.13255 200 173 152 
0.948942 -0.111827 4.17492 17 13 10 
-1.33956 -0.0991071 4.02711 38 29 24 
0.757399 -0.0889299 4.09462 108 77 57 
0.703378 -0.078419 3.87899 106 76 50 
0.642178 -0.0743305 4.06939 205 176 146 
0.28899 -0.0559616 3.89826 195 168 149 
-0.514518 0.465614 3.72607 86 68 54 
0.264569 0.911614 3.93291 191 163 149 
1.09638 1.27269 4.34623 46 21 14 
-1.37969 -0.593331 3.80617 26 74 32 
-2.66961 -0.838058 5.57292 179 137 77 
-1.34981 -0.554381 3.67851 199 160 95 
-1.50576 -0.552103 4.04464 142 82 22 
-1.51107 -0.549736 4.09494 104 57 13 
0.625306 -0.589002 4.49327 34 27 17 
0.980357 -0.55713 4.30397 13 7 9 
-1.36109 -0.507978 3.93411 119 58 0 
0.726154 -0.570511 4.48296 32 23 14 
1.00747 -0.528442 4.22214 147 126 107 
-1.45087 -0.474978 3.95116 6 7 9 
1.00891 -0.476259 4.24439 150 124 101 
0.748323 -0.495512 4.4632 19 12 6 
-1.48888 -0.410397 3.88762 94 66 44 
0.708559 -0.450419 4.57585 121 100 71 
0.660209 -0.401674 4.38664 123 107 84 
0.583234 -0.375963 4.11448 26 17 12 
0.683888 -0.403279 4.41766 124 104 77 
0.774437 -0.393241 4.46914 62 48 35 
-1.26533 -0.317285 3.87635 63 74 34 
0.664705 -0.364911 4.48308 31 25 13 
-1.24948 -0.314805 3.93699 23 62 18 
-1.28021 -0.295627 3.87379 174 131 19 
-1.29602 -0.258053 3.86937 162 119 64 
0.641385 -0.261688 4.38247 28 0 0 
0.669667 -0.274 4.48509 199 151 131 
0.306572 -0.228784 4.28393 166 139 118 
0.542706 -0.212393 3.99567 165 119 33 
-1.22568 -0.195146 4.24711 92 79 70 
-1.22267 -0.186614 4.13763 71 58 52 
-1.35992 -0.15769 3.92386 102 76 49 
0.673289 -0.158738 4.09719 215 179 143 
-1.24652 -0.137685 4.05693 98 82 69 
0.561007 -0.131843 4.00829 95 62 17 
0.38674 -0.12778 4.01641 43 30 22 
0.351869 -0.12948 4.02016 150 129 108 
0.200423 -0.105352 3.91394 201 174 153 
0.627216 -0.10958 4.08806 180 132 32 
0.67618 -0.10395 4.08692 201 176 146 
0.269282 -0.0861344 3.92188 208 182 159 
0.336006 -0.079189 4.03115 191 166 144 
0.545974 -0.0630721 3.8824 206 179 149 
1.09314 0.074106 3.78859 63 37 22 
-1.28787 0.0923886 3.60615 92 70 57 
-0.549206 0.543679 3.79415 45 21 11 
1.32574 0.721652 4.27462 38 42 17 
1.14664 0.803459 4.29892 35 23 1 
1.52065 0.826821 4.32411 186 156 132 
1.16518 0.997154 4.3432 36 45 16 
0.624305 0.894959 3.8914 207 180 163 
0.436779 0.890781 3.86343 207 181 166 
1.10306 1.25613 4.35712 96 74 53 
-1.41026 -0.679111 3.83584 114 72 32 
0.580876 -0.645213 4.39525 78 68 58 
-1.25331 -0.593155 4.15292 133 4 9 
-1.46708 -0.554707 3.91985 125 87 48 
0.632289 -0.570822 4.49955 93 81 57 
-1.43264 -0.480359 3.85218 127 91 39 
-1.2753 -0.427687 4.14658 143 117 92 
0.696289 -0.457271 4.4626 118 98 74 
-1.32974 -0.390654 3.96348 191 146 105 
0.610798 -0.441154 4.47007 119 99 72 
0.486141 -0.37756 4.27606 221 189 26 
-1.27584 -0.339182 4.17912 144 118 91 
0.587963 -0.317611 4.01874 145 103 29 
0.667353 -0.320663 4.47077 73 70 61 
-1.38821 -0.274843 3.9017 100 52 4 
0.56406 -0.26532 4.02213 241 207 47 
0.664609 -0.28358 4.32563 170 121 91 
0.530054 -0.266614 4.07108 229 192 39 
0.735704 -0.284068 4.43484 23 19 18 
0.853705 -0.232217 3.94974 13 9 8 
0.295122 -0.190725 4.08219 176 154 131 
0.0452789 -0.178316 4.27948 196 173 155 
0.349394 -0.15675 4.17835 200 175 155 
-1.4189 -0.148055 4.0555 18 6 6 
0.537385 -0.140599 4.01829 146 109 28 
-1.21912 -0.108729 4.04914 41 31 30 
-1.2561 -0.0986928 3.95909 40 29 27 
-1.29289 -0.0913441 3.88875 32 21 19 
-1.38869 -0.0874654 3.98301 33 22 18 
-1.38982 -0.0701474 3.88192 53 37 37 
0.363019 -0.0714284 4.04207 25 10 7 
0.589395 -0.0713324 4.0419 207 181 146 
0.736067 -0.0645387 3.95347 139 85 57 
0.455951 0.0337302 3.65424 94 65 51 
1.344 0.759719 4.29243 101 93 74 
-0.572084 0.874431 3.86461 105 82 64 
0.453929 -0.742632 4.40428 24 19 15 
-1.45807 -0.618552 3.9262 26 76 27 
-1.53747 -0.646686 4.125 62 22 0 
-1.52908 -0.632432 4.1124 61 29 8 
-1.4049 -0.57391 3.82619 177 143 97 
-1.3567 -0.546185 3.80001 59 17 0 
0.986414 -0.578388 4.23423 147 122 102 
-1.22657 -0.527604 4.15309 21 15 17 
-1.28926 -0.509438 4.15454 150 124 99 
0.989642 -0.509766 4.24831 9 5 6 
0.598969 -0.52607 4.44969 36 27 22 
1.03005 -0.487455 4.21674 66 48 48 
0.748084 -0.509615 4.46182 29 22 12 
-1.46371 -0.433464 3.87938 13 7 7 
1.02394 -0.458334 4.22312 149 123 98 
0.697213 -0.413901 3.87381 22 8 0 
-1.33296 -0.380955 3.92557 32 8 4 
0.526228 -0.400486 4.42772 24 20 19 
0.743626 -0.422732 4.56949 43 33 23 
0.530119 -0.399134 4.44144 23 15 12 
0.608069 -0.347357 3.85919 25 15 13 
-1.35367 -0.353185 3.92278 211 171 24 
0.508253 -0.369093 4.27444 227 192 40 
-1.21082 -0.356753 4.191 100 82 72 
-1.26443 -0.310445 3.89369 65 85 58 
0.446398 -0.322143 4.19401 130 100 76 
-1.2288 -0.318306 4.22472 46 38 36 
0.517942 -0.301155 4.06968 70 38 0 
0.488053 -0.282188 3.98938 245 205 74 
0.521481 -0.239655 4.09126 98 66 19 
0.630991 -0.249324 4.39573 86 37 0 
0.692548 -0.239556 4.48656 167 117 90 
0.736611 -0.21621 4.02241 172 119 87 
-0.169534 -0.232552 4.6355 134 109 89 
0.00151073 -0.216818 4.40926 131 106 84 
-1.2328 -0.203595 4.20968 85 72 64 
0.576497 -0.192499 4.01098 124 91 24 
0.376021 -0.196362 4.1904 117 96 77 
0.571161 -0.172757 4.01354 85 53 4 
0.62859 -0.162837 4.04056 214 171 33 
0.828984 -0.143787 3.97934 96 86 74 
0.588242 -0.127728 4.02395 177 128 33 
0.765023 -0.128792 4.07664 18 6 6 
-1.24357 -0.0996555 4.01927 33 28 24 
-1.20755 -0.111421 4.12481 186 158 144 
-1.39391 -0.106212 3.94762 88 75 67 
0.494763 -0.107806 4.09172 36 2 0 
0.553829 -0.08554 4.07055 107 77 39 
-1.44624 -0.0780356 3.93853 38 29 24 
0.621494 -0.075202 4.0903 203 173 135 
0.538878 -0.0579409 3.89041 206 179 152 
0.915831 -0.0532731 4.06689 189 167 153 
0.835281 0.00833719 3.83557 220 190 162 
1.08071 0.0445966 3.77109 108 81 62 
1.06895 0.0829271 3.79259 108 83 63 
1.16534 0.466064 4.34282 128 103 83 
1.05238 0.498758 4.02034 20 0 0 
1.31635 0.73858 4.28776 32 42 17 
1.31557 0.792962 4.30678 32 40 16 
1.09548 0.894383 3.96238 187 158 140 
1.18256 0.876263 3.82491 39 31 8 
1.21203 1.02592 4.36138 42 36 10 
1.13498 1.33194 4.73213 102 77 57 
1.10922 1.32537 4.40882 121 85 59 
0.876067 -0.694177 4.50817 22 18 15 
-1.44886 -0.597956 3.94948 216 191 160 
0.938934 -0.654509 4.24085 146 121 99 
-1.4583 -0.607907 4.0629 191 164 137 
-1.22719 -0.574181 4.15854 153 127 102 
0.733644 -0.569957 4.46208 33 25 14 
-1.22233 -0.522385 4.19775 154 127 106 
-1.37148 -0.47306 4.0305 18 12 12 
-1.35666 -0.407852 3.98771 213 157 38 
0.752943 -0.462548 4.46396 72 67 35 
-1.30413 -0.419254 4.16575 141 117 91 
0.727094 -0.453623 4.48162 121 101 76 
0.699461 -0.441588 4.46021 111 91 58 
-1.23611 -0.396261 4.15428 35 4 12 
-1.3332 -0.344133 3.92099 202 161 17 
-1.34794 -0.304879 3.87029 208 165 24 
0.739661 -0.304233 4.4926 21 17 16 
0.320264 -0.305622 5.03791 129 102 81 
0.758956 -0.261744 4.20658 18 14 13 
0.862412 -0.240065 3.95102 15 14 12 
-1.20087 -0.252987 4.25764 149 121 99 
0.504136 -0.230015 4.07045 159 122 31 
0.520293 -0.182556 4.03336 15 11 8 
-1.33604 -0.16632 4.13544 27 8 1 
-1.23197 -0.168103 4.30213 50 40 39 
0.688202 -0.157621 4.14661 213 144 51 
-1.23031 -0.151764 4.1502 15 10 7 
-1.25698 -0.149388 4.12165 145 129 116 
-1.13488 -0.127957 3.79792 94 80 71 
0.531059 -0.135317 4.03672 148 113 31 
0.333033 -0.124641 4.36085 14 10 11 
0.619627 -0.118319 4.10583 175 132 30 
0.259576 -0.0955391 3.92745 210 182 160 
0.616425 -0.0815055 4.00211 107 74 33 
0.932467 -0.083087 4.11283 18 14 11 
0.777851 -0.104524 4.02964 20 9 5 
-0.958233 -0.0684048 3.32928 29 14 9 
0.0494593 -0.0762996 4.06216 125 99 82 
0.628331 -0.0516669 4.09153 212 185 156 
0.774055 -0.0508092 3.91225 234 184 61 
-1.44611 -0.0502385 3.987 193 166 145 
1.07889 0.0502158 4.06163 108 81 62 
-1.26873 0.0989291 3.59031 98 75 61 
1.53297 0.832459 4.33366 184 154 130 
1.06771 0.893795 4.01979 113 88 68 
-0.73301 0.992759 4.18519 224 201 183 
-0.518665 0.915332 3.88402 212 183 167 
0.678259 0.997935 4.15322 26 10 10 
0.640541 1.35432 4.06537 42 24 12 
0.583474 1.3575 4.05081 49 29 20 
-1.53058 -0.649864 4.13602 112 80 41 
-1.57063 -0.607166 4.16672 139 100 57 
-1.47356 -0.574415 4.07927 33 12 7 
0.60423 -0.601107 4.43633 70 65 33 
0.994513 -0.584967 4.20643 149 125 101 
-1.24103 -0.536128 4.1501 12 12 12 
0.924899 -0.543333 4.21043 76 74 79 
1.01135 -0.525065 4.18723 145 125 101 
-1.25774 -0.518319 4.17698 14 13 11 
1.05014 -0.505027 4.21772 35 17 15 
0.734098 -0.513924 4.47088 37 26 22 
0.638969 -0.472802 4.47791 27 12 5 
0.776661 -0.374884 4.48825 134 124 115 
0.872342 -0.284237 4.03397 89 78 76 
0.461185 -0.254307 4.15992 65 38 9 
0.682697 -0.248754 4.51951 169 119 94 
-1.43315 -0.205633 4.05693 62 13 0 
-0.137918 -0.210675 4.46246 124 99 79 
0.590775 -0.188254 3.97312 115 71 8 
-1.25188 -0.186225 4.25203 78 69 64 
0.625944 -0.162794 4.02992 222 181 29 
0.713711 -0.165407 4.27151 206 177 147 
0.195776 -0.162639 4.29055 135 123 101 
0.143649 -0.131482 4.06174 94 78 65 
0.830453 -0.130861 3.97514 97 83 70 
0.61148 -0.138427 4.07243 165 112 18 
-1.23143 -0.0989743 4.02757 11 0 0 
0.790735 -0.11009 4.04545 13 9 6 
-1.27603 -0.08834 4.04929 68 55 47 
0.161 -0.0883128 3.91284 206 179 158 
0.231957 -0.0878442 3.88337 207 181 158 
0.81347 -0.0684939 4.00624 9 6 1 
0.240966 -0.0677606 3.83663 211 184 163 
0.714782 -0.0694099 3.99608 136 100 74 
-1.23266 -0.0524192 3.84947 183 156 135 
0.435061 -0.00274552 3.8647 209 184 164 
0.810192 -0.00885369 4.10368 193 132 51 
-1.06895 0.0768314 3.74283 15 0 0 
1.32402 0.542971 4.19984 105 78 57 
1.45907 0.576175 4.21524 87 58 40 
1.33387 0.717423 4.26794 43 38 18 
1.30607 0.740846 4.30515 32 37 14 
-0.547129 0.859767 3.86132 38 16 5 
-0.582871 0.862541 3.86118 106 83 65 
1.07875 0.910473 3.9619 209 182 165 
-1.28099 0.903181 3.80306 194 169 149 
-0.895839 0.917273 3.89409 190 168 157 
1.05936 1.04109 4.32595 14 5 6 
0.579177 0.961218 3.95329 20 12 10 
0.59595 -0.625128 4.43521 70 64 38 
0.998977 -0.564148 4.22142 146 124 100 
0.563092 -0.576693 4.41838 75 63 41 
0.614029 -0.563144 4.32099 30 23 13 
-1.37917 -0.512527 3.99271 163 102 21 
-1.41606 -0.484486 3.9871 128 77 14 
-1.41074 -0.489041 3.94265 135 81 17 
1.04997 -0.525072 4.22179 55 37 37 
0.976606 -0.522259 4.2201 8 12 15 
-1.36614 -0.457658 3.99802 8 8 6 
1.02467 -0.4766 4.22922 151 124 107 
-1.44603 -0.433643 3.9731 14 9 5 
1.03452 -0.444895 4.22708 149 123 100 
0.574711 -0.468354 4.44218 73 68 38 
0.679607 -0.446287 4.47192 109 86 55 
-1.35742 -0.375807 3.90979 54 41 25 
0.550724 -0.423863 4.41199 28 18 17 
-1.28035 -0.396799 4.16535 143 115 91 
-1.22104 -0.385594 4.15981 32 0 6 
0.728061 -0.410338 4.48361 43 33 21 
-1.36542 -0.354857 3.97324 202 165 14 
0.627104 -0.3442 4.12472 214 172 36 
0.580036 -0.256089 4.02363 241 208 45 
0.873694 -0.222706 3.95529 12 10 11 
1.0419 -0.205682 4.53126 189 161 140 
0.533694 -0.183224 4.01294 17 11 11 
-1.41398 -0.161096 4.11171 34 20 17 
0.0651232 -0.139285 3.94639 115 89 76 
0.676629 -0.126828 4.07325 200 173 144 
0.626919 -0.112007 4.06236 177 131 33 
0.551199 -0.0967754 4.16559 62 27 0 
0.647397 -0.113079 4.12046 146 102 27 
0.145755 -0.0994379 3.89398 206 179 160 
0.220222 -0.08938 3.86623 210 184 161 
0.919193 -0.0924021 4.11355 14 13 11 
-1.33976 -0.0782378 3.97485 33 18 15 
0.881296 -0.0820266 3.99791 16 15 13 
0.269363 -0.064161 3.89928 57 29 28 
0.602336 -0.051531 4.11481 212 185 156 
0.23221 -0.0197207 3.85394 204 179 159 
0.900269 0.0193328 3.82792 214 185 167 
1.06049 0.010636 3.80732 212 183 165 
0.799665 0.000517921 3.92894 222 190 165 
-0.924235 0.075331 3.6875 17 0 0 
1.48448 0.472756 4.73527 34 11 3 
1.16436 0.450888 4.46689 126 98 84 
1.49987 0.547379 4.72248 26 9 2 
1.37157 0.768843 4.29115 45 38 19 
1.33515 0.810391 4.3079 35 39 14 
0.356155 0.545497 2.44943 197 169 158 
-0.128595 0.918741 3.93663 196 168 157 
0.601835 1.01247 4.08149 20 12 10 
1.13366 1.13893 4.44167 101 76 54 
1.108 1.31099 4.42521 126 97 67 
1.1211 1.33946 4.41389 125 91 66 
0.642482 1.34483 4.07819 28 10 0 
-1.46671 -0.562882 4.08113 28 0 0 
0.674798 -0.525991 4.46397 123 97 72 
0.6898 -0.533238 4.44846 124 97 70 
-1.30473 -0.375351 3.96112 72 29 23 
-1.22731 -0.422809 4.14164 36 0 10 
0.944719 -0.384339 4.24689 9 9 11 
0.494647 -0.38595 4.77993 185 140 21 
0.910219 -0.293202 4.11399 26 20 20 
0.991502 -0.233201 4.2986 20 14 16 
-1.49295 -0.186472 4.08845 114 61 21 
-1.25916 -0.158476 4.33445 55 43 43 
1.05034 -0.0976482 4.26188 199 174 152 
0.377259 -0.093073 4.02899 25 21 22 
-1.23597 -0.0830201 3.93664 31 16 9 
0.842203 -0.0790762 4.02482 16 12 11 
0.698283 -0.0763682 4.04097 124 92 69 
0.804901 -0.063968 3.01859 237 192 65 
0.23202 -0.0556818 3.86343 140 113 94 
0.531028 -0.0502969 3.99678 208 181 152 
0.182361 -0.00405966 3.8507 205 179 162 
0.57606 0.0157201 3.84725 213 186 165 
0.0766536 0.0843103 4.29108 15 0 0 
-0.988813 0.0652787 3.55387 99 79 68 
-0.624348 0.0745626 3.78141 35 15 8 
1.33786 0.537781 4.19468 101 74 53 
0.213882 0.491775 3.84475 53 28 21 
1.30854 0.559244 4.20753 98 71 54 
-0.597816 0.849085 3.8609 103 80 62 
0.547086 0.865304 3.77244 197 171 154 
-0.828308 0.933708 3.96146 194 172 161 
1.57471 1.21554 4.49814 133 103 77 
1.50657 1.30806 4.48265 56 31 11 
-1.56405 -0.746341 3.81031 159 0 15 
-1.60559 -0.727615 3.84821 99 0 4 
-1.56712 -0.59806 3.76319 60 97 54 
-1.75222 -0.615154 4.03094 255 185 156 
-1.69106 -0.587951 3.90364 0 8 0 
-1.57809 -0.563824 3.78134 196 155 93 
-1.72625 -0.585057 3.95562 251 225 200 
-4.11408 -3.40418 23.7774 135 0 7 
-4.12006 -3.29599 23.8764 172 145 124 
-1.49668 -0.479832 3.76837 158 113 92 
-3.97477 -3.21645 23.8 18 0 0 
-3.92966 -3.16953 23.8295 170 151 134 
-4.20413 -3.1873 24.0658 167 144 130 
-1.38259 -0.489129 4.06398 70 40 29 
-1.39428 -0.481936 4.01635 152 93 27 
-1.22433 -0.498308 4.2088 170 142 120 
-2.02067 -0.450123 3.90783 164 138 123 
0.734623 -0.497711 4.46201 95 83 61 
-4.17984 -2.97409 24.2052 14 0 0 
0.606853 -0.487766 4.45398 120 106 80 
0.743747 -0.480067 4.46525 105 92 73 
-2.03537 -0.427384 3.90954 169 134 112 
0.712733 -0.464554 4.46179 12 0 0 
-4.2751 -2.79913 24.2293 16 0 0 
0.727769 -0.463735 4.46298 23 9 0 
0.641179 -0.460148 4.45904 24 7 0 
-1.66616 -0.399208 3.93851 75 12 0 
0.468044 -0.333977 4.43929 114 60 32 
-1.65831 -0.294076 4.00401 49 3 0 
0.482613 -0.314419 4.43834 190 132 108 
0.483264 -0.29628 4.43835 192 140 118 
0.523231 -0.238024 4.03624 71 47 9 
0.528637 -0.242361 4.11379 91 58 7 
0.538881 -0.229841 4.02523 62 27 0 
-1.79876 -0.116028 3.95681 14 0 0 
-1.83973 -0.0925858 3.87143 18 0 0 
-1.82821 -0.0795729 3.83188 81 62 48 
-1.62833 -0.0559531 3.91343 28 8 0 
0.520392 -0.0310688 3.90935 45 28 38 
0.198554 0.0753382 3.67908 159 130 112 
0.0851304 0.909586 3.91907 204 178 165 
-1.60632 -0.711591 3.84627 179 142 126 
0.433104 -0.751083 4.45203 136 117 103 
-1.76067 -0.617841 4.01708 88 34 6 
0.883484 -0.610039 4.19431 26 10 20 
-1.76575 -0.583448 3.99566 231 194 175 
-1.57086 -0.52788 3.75551 88 41 0 
-1.99208 -0.535799 3.88879 154 16 13 
0.878247 -0.56294 4.22089 162 137 117 
0.714692 -0.569559 4.45966 24 13 0 
-4.1352 -3.3085 23.9195 176 143 124 
-1.50757 -0.480505 3.76543 45 3 4 
-1.70328 -0.497046 3.9009 212 151 11 
1.04674 -0.511024 4.15773 20 14 18 
-3.92163 -3.17629 23.8157 167 144 126 
0.641281 -0.542381 4.45463 28 16 4 
-4.2101 -3.19674 24.0701 169 142 125 
-3.92808 -3.09697 23.7995 14 0 0 
0.7204 -0.524476 4.46087 109 93 70 
-3.90991 -2.99177 23.9633 165 144 123 
0.680223 -0.500869 4.45704 119 104 73 
-4.16462 -2.97914 24.1662 26 13 7 
-3.97635 -2.95097 23.9407 20 10 9 
0.664557 -0.483877 4.45643 134 119 98 
-2.02627 -0.433959 3.90715 82 55 48 
-1.26171 -0.453114 4.17227 103 53 16 
-4.15959 -2.77243 24.0183 11 7 8 
-1.76136 -0.389455 3.71156 67 0 0 
0.455158 -0.336122 4.43676 178 129 97 
0.53948 -0.265546 4.05625 240 209 43 
0.480834 -0.284356 4.43694 126 2 30 
0.533581 -0.24383 4.12472 91 58 7 
-1.27353 -0.198915 4.23829 97 83 74 
0.507089 -0.16376 4.05472 21 10 8 
-1.3638 -0.153252 4.13458 15 0 0 
0.561145 -0.139312 4.04072 66 32 0 
0.270812 -0.123184 4.13774 197 170 151 
0.347574 -0.100781 4.04181 18 9 10 
0.739059 -0.076135 4.03396 68 39 25 
-1.94476 -0.0667573 3.57007 115 76 7 
-1.61551 -0.0647801 3.90749 152 135 127 
-1.82021 -0.0614212 3.82662 68 50 40 
-1.65914 -0.0468005 3.89565 210 187 173 
0.193212 0.06733 3.69607 22 0 0 
-1.77785 0.0739248 3.57185 26 0 0 
-1.55475 -0.547932 3.76029 27 49 11 
-1.98305 -0.507695 3.89733 176 143 124 
-4.06643 -3.17436 23.5888 20 10 9 
-3.93049 -3.08188 23.7592 17 6 4 
-4.19647 -3.12004 24.1378 24 6 4 
-3.99012 -2.96189 23.9428 21 12 13 
0.748682 -0.477081 4.47416 113 100 81 
-1.66859 -0.0863547 3.89754 71 41 17 
-1.27884 -0.0514519 3.9478 204 176 154 
-0.538635 0.0829196 3.67337 107 84 66 
-0.235786 0.958719 4.10142 237 209 197 
0.604721 -0.635237 4.44148 27 18 3 
1.01503 -0.498887 4.16525 158 130 108 
0.619279 -0.519458 4.45517 37 27 17 
0.736216 -0.517383 4.46051 29 19 20 
-1.30434 -0.494689 4.20321 177 142 112 
-4.1489 -3.01882 24.2194 15 5 4 
-1.96702 -0.453679 3.91723 167 140 119 
0.767538 -0.498412 4.46114 14 12 0 
-1.59874 -0.413426 3.85588 11 7 6 
0.731392 -0.44761 4.46497 110 95 64 
0.500366 -0.325825 4.09397 181 157 121 
0.531143 -0.246342 4.09252 84 53 0 
-1.78544 -0.243062 3.9741 82 38 0 
-1.22349 -0.234677 4.28281 167 143 119 
-0.0171029 -0.194604 4.46564 199 170 152 
0.405496 -0.121032 4.05434 143 116 29 
-1.4318 -0.0885771 3.99355 43 30 24 
0.806364 -0.0715979 3.97447 13 7 7 
-1.45662 -0.0718107 4.00385 74 55 48 
0.515873 -0.0592959 3.89612 40 28 30 
0.771068 -0.0538604 4.03407 87 45 29 
0.204562 0.496291 3.79128 149 122 92 
-2.13992 0.929635 3.80541 31 4 11 
-0.0189953 1.37544 4.0054 148 114 87 
-1.61436 -0.516885 3.81154 120 76 37 
0.595516 -0.062592 4.00684 208 178 150 
0.0990971 -0.0580663 3.95877 62 38 28 
-1.68974 -0.0270658 3.81566 128 100 79 
-1.75503 -0.0253088 3.82694 134 104 80 
-1.59903 -0.553639 3.77784 181 132 74 
0.627968 -0.58887 4.44935 42 34 21 
-1.98218 -0.407062 3.87703 172 107 17 
0.496087 -0.3011 4.39499 186 137 105 
0.568782 -0.273601 4.10949 242 202 52 
0.485623 -0.277295 4.43021 131 2 30 
0.50344 -0.215864 4.08017 153 117 23 
-0.052742 -0.216885 4.53895 132 103 85 
-1.25902 -0.202094 4.25565 105 88 78 
-1.76196 -0.134865 3.95405 118 91 64 
-1.36493 -0.092792 4.02858 45 35 26 
0.92319 -0.528591 4.17809 62 59 66 
-2.0138 -0.461732 3.90476 19 5 4 
-1.94574 -0.437938 3.92534 169 137 114 
0.46742 -0.296362 4.43806 180 120 84 
-1.41614 -0.145907 4.03348 33 23 14 
-1.41675 -0.106619 3.99869 100 83 75 
-1.46015 -0.0786727 3.97153 36 21 14 
0.0418786 -0.0766533 4.02348 112 84 73 
-1.5489 -0.0538137 3.91341 15 0 0 
-1.6361 -0.03779 3.87914 211 178 161 
-1.70234 -0.561608 3.86497 180 150 116 
-1.97495 -0.503343 3.90519 170 146 120 
-3.84379 -2.96185 23.9839 169 141 120 
0.467786 -0.3177 4.44002 187 126 97 
0.517135 -0.265351 4.08648 223 188 26 
0.931732 -0.158706 4.02191 10 8 9 
0.497818 -0.140225 4.06695 143 112 32 
0.407033 -0.0286935 4.00975 200 178 157 
0.244591 0.905126 3.9387 32 8 0 
-0.0702254 1.37147 3.98301 156 120 94 
-1.6126 -0.613055 3.77742 198 142 91 
-1.69962 -0.588973 3.95798 219 193 170 
0.982966 -0.575282 4.15277 157 132 112 
0.742145 -0.568511 4.4569 19 16 9 
0.669873 -0.536566 4.45395 128 100 76 
0.59042 -0.467828 4.45784 71 67 30 
-1.46409 -0.205834 4.09815 88 32 0 
0.859636 -0.177959 3.93719 12 8 7 
-0.041903 -0.106572 4.07392 204 178 161 
-1.36406 -0.088894 4.34721 34 17 7 
-1.8613 -0.0605698 3.79989 42 23 16 
-1.63451 -0.0473495 3.89143 202 174 160 
-1.67154 -0.0515434 3.8801 71 55 42 
-1.69077 -0.052393 3.94418 55 37 27 
-1.90721 0.00355775 3.66739 59 42 12 
-1.58933 0.0672867 3.55237 113 86 77 
-1.56131 -0.595958 3.90059 11 50 6 
-1.49692 -0.452019 3.8303 116 76 41 
-1.20655 -0.259759 4.13171 180 148 123 
-1.99435 -0.00219276 3.69389 55 30 8 
1.1364 0.990854 4.17739 50 25 5 
1.12833 1.01794 4.26219 124 105 90 
0.572886 0.958968 3.97546 21 11 9 
-1.64052 -0.383649 3.92381 190 139 92 
0.685025 -0.135921 4.13921 195 165 139 
0.386141 -0.0951078 4.08108 9 10 14 
-1.65206 -0.0900848 3.88383 77 7 9 
-1.479 -0.0575798 4.05778 181 154 135 
0.482623 -0.0477866 3.87778 13 14 18 
-0.770699 0.0233506 4.57928 215 186 168 
0.489933 0.985332 3.97407 19 14 11 
-1.94139 -0.485189 3.90509 168 140 116 
0.987603 -0.424548 4.10485 157 130 111 
0.0266574 -0.15231 4.23617 116 104 88 
0.390811 -0.00694366 4.4122 207 181 168 
-1.84143 -0.000487635 3.81358 213 185 163 
-1.75697 0.0897303 4.11011 83 53 29 
0.296972 0.934535 3.93091 110 88 74 
0.0398849 0.928773 3.89035 108 85 69 
1.11981 1.00138 4.1492 48 26 5 
0.98968 -0.539079 4.17216 156 139 132 
0.724005 -0.482721 4.45235 23 10 4 
0.512231 -0.239727 4.08091 91 58 7 
-2.00905 -0.506633 3.90475 176 143 124 
0.715085 -0.523361 4.45034 109 93 70 
0.529778 -0.183779 4.02859 16 6 7 
-1.72315 -0.133735 4.02911 127 97 71 
-1.49627 -0.0862531 3.9562 59 44 39 
-0.818767 0.912102 3.86478 202 177 157 
-1.981 -0.537643 3.90522 180 141 112 
0.745603 -0.489584 4.45192 35 28 20 
-0.561295 0.0815819 3.68174 103 80 66 
-1.22429 -0.461932 4.1922 18 0 0 
-0.848825 0.876967 3.70335 204 178 161 
0.761079 -0.496652 4.44856 14 12 0 
-1.36472 -0.0946967 4.00618 43 33 23 
0.383747 0.812513 3.50634 205 178 159 
-1.69942 0.98537 3.9523 17 7 6 
-1.77369 -0.0166577 3.93349 137 106 85 
-0.580464 0.100759 3.68765 109 83 68 
1.01906 -0.511207 4.16838 156 131 111 
-1.22467 -0.248923 4.27072 170 143 122 
1.05085 -0.503309 4.16484 27 16 22 
-1.46126 -0.0771764 3.93473 36 21 14 
-0.527566 0.511117 3.78894 117 90 71 
-1.28944 0.907097 3.83505 196 168 157 
-1.69786 -0.578108 3.89965 219 193 170 
