ply                 
format ascii 1.0    
element vertex 1322
property float x    
property float y    
property float z    
property uchar red  
property uchar green
property uchar blue 
end_header          
1.15591 -0.874943 3.97377 170 149 94 
1.1593 -0.869181 3.98704 100 60 11 
1.14985 -0.478098 4.22705 81 64 54 
1.19211 -0.718732 4.05898 183 149 23 
1.15806 -0.470931 4.22986 35 24 18 
1.11427 -0.501606 4.28262 59 28 0 
1.09208 -0.768004 4.18625 147 101 52 
1.14374 -0.899101 4.05301 92 54 9 
-0.526496 -0.431069 6.63688 113 103 94 
1.12028 -0.829792 4.13436 7 3 4 
1.16998 -0.473063 4.25176 37 28 21 
1.1595 -0.499333 4.25412 99 85 76 
1.17712 -0.464654 4.25525 41 34 28 
1.13061 -0.802116 4.17409 12 8 7 
1.13932 -0.784951 4.18622 104 53 22 
1.13843 -0.551677 4.30477 109 84 54 
1.19842 -0.487025 4.25139 116 103 94 
1.06878 -0.97161 4.20033 36 82 43 
1.14425 -0.79463 4.18235 11 8 1 
1.15154 -0.81882 4.16112 10 0 0 
1.18588 -0.749491 4.14661 114 97 79 
1.12199 -0.866566 4.18013 154 100 38 
1.19179 -0.503122 4.26292 116 104 92 
1.2841 -0.676666 4.06158 26 51 45 
1.23039 -0.451338 4.25367 89 72 56 
1.1476 -0.552413 4.32427 35 10 0 
1.14467 -0.569284 4.32211 94 51 16 
1.21636 -0.498564 4.25424 42 30 18 
1.15253 -0.5423 4.32543 18 11 5 
1.13329 -0.861298 4.20379 193 132 26 
1.1844 -0.828816 4.1569 18 0 0 
1.2897 -0.712816 4.06416 89 118 114 
1.14042 -0.60011 4.34479 187 133 37 
1.1789 -0.829679 4.17162 13 0 0 
1.16095 -0.565643 4.33333 182 150 111 
1.29077 -0.704011 4.07634 235 255 241 
1.30804 -0.637087 4.08748 156 122 76 
1.05453 -1.01563 4.26967 67 24 0 
1.0454 -1.00123 4.29931 17 7 0 
1.18038 -0.541502 4.34387 114 105 100 
1.18387 -0.565734 4.34276 161 134 107 
1.30614 -0.700618 4.09407 203 177 18 
1.10027 -0.941252 4.28005 29 0 0 
1.28175 -0.469444 4.25814 102 88 79 
1.18632 -0.843132 4.20857 14 0 0 
1.05097 -1.0163 4.32578 150 122 98 
1.18725 -0.577283 4.35316 184 155 113 
1.24064 -0.526804 4.30942 13 0 0 
1.18911 -0.591196 4.36403 139 86 16 
1.20383 -0.849475 4.21876 11 0 0 
1.30115 -0.472418 4.27994 94 80 71 
1.27587 -0.522194 4.30905 70 56 45 
1.44101 0.852663 4.78938 130 103 82 
1.31215 -0.510793 4.28288 34 22 10 
1.30914 -0.523925 4.29889 70 58 46 
1.15922 -0.611543 4.48542 82 61 42 
1.21989 -0.580128 4.40968 79 69 59 
1.33666 -0.473562 4.30694 178 156 142 
1.33301 -0.498978 4.31628 59 49 40 
1.23504 -0.601268 4.44999 48 34 25 
1.34828 -0.492505 4.3355 181 158 140 
1.33183 -0.539895 4.34783 121 107 96 
1.28305 -0.574926 4.42337 103 90 73 
1.26454 -0.597784 4.4459 60 47 38 
1.32417 -0.546106 4.38135 58 44 31 
1.27685 -0.591647 4.43739 114 102 88 
1.5731 0.824299 4.74433 158 129 99 
1.32109 -0.553563 4.39892 118 104 95 
1.60333 0.825826 4.71027 129 97 72 
1.30702 -0.579439 4.42213 105 92 84 
1.30489 -0.610653 4.42289 105 96 81 
1.30225 -0.554984 4.45868 9 0 0 
1.602 0.81225 4.73942 141 111 87 
1.30188 -0.615545 4.43833 18 6 0 
1.30072 -0.733528 4.37488 150 124 99 
1.31198 -0.894393 4.30664 153 135 115 
1.30534 -0.886295 4.32431 19 2 0 
1.31143 -0.925421 4.30081 157 144 127 
1.33645 -0.848177 4.30645 160 107 39 
1.30896 -0.937475 4.30861 14 0 0 
1.3326 -0.59525 4.46978 95 85 83 
1.33104 -0.718864 4.40396 48 8 16 
1.66416 0.818118 4.73341 162 128 101 
1.32535 -0.917436 4.31875 12 8 7 
1.38568 -0.545633 4.43352 197 177 153 
1.36699 -0.607907 4.43678 93 85 74 
1.34617 -0.880179 4.32728 88 75 67 
1.35186 -0.818355 4.35459 90 75 68 
1.35833 -0.737021 4.39408 10 0 0 
1.3679 -0.624002 4.46039 111 101 89 
1.36416 -0.61853 4.47469 105 92 83 
1.35789 -0.835941 4.36603 51 34 26 
1.35358 -0.878398 4.3559 20 0 0 
1.36417 -0.873223 4.34428 137 108 78 
1.3508 -0.652204 4.49558 67 53 40 
1.35978 -0.663261 4.47591 159 141 119 
1.38727 -0.863398 4.34232 95 52 17 
1.38591 -0.801414 4.39577 160 136 108 
1.71743 0.796756 4.77594 132 102 78 
1.74549 0.797805 4.79194 138 108 82 
1.78922 0.791524 4.76593 128 96 71 
1.77721 0.790291 4.79476 133 105 83 
1.88873 -0.020401 4.40244 22 2 0 
1.46525 -0.763023 4.83226 165 112 81 
1.95988 0.346375 4.61598 197 174 156 
1.95156 -0.0147543 4.42023 129 97 56 
1.48186 -0.732136 4.88952 200 175 153 
1.48931 -0.838532 4.84052 142 1 35 
1.48731 -0.882171 4.85115 185 141 116 
1.5024 -0.848939 4.84525 155 127 123 
1.52691 -0.797456 4.84071 186 136 99 
1.52776 -0.811226 4.84043 110 0 6 
1.5156 -0.850688 4.84701 43 23 14 
1.50387 -0.878881 4.85652 80 48 33 
1.5394 -0.78304 4.85111 53 4 0 
1.53286 -0.824779 4.85093 108 2 16 
1.53805 -0.801715 4.86156 113 0 13 
1.5047 -0.937539 4.84626 175 145 121 
1.53451 -0.836866 4.85555 170 134 108 
1.54918 -0.804138 4.84839 103 2 8 
1.52113 -0.895765 4.85728 71 40 37 
1.55749 -0.789165 4.8574 180 133 107 
1.55147 -0.817538 4.85824 122 17 34 
2.02033 -0.025073 4.42217 129 100 58 
1.55491 -0.848254 4.84735 175 135 110 
1.55728 -0.832492 4.8545 199 140 132 
1.5594 -0.847164 4.86448 80 4 14 
1.55954 -0.857817 4.86338 43 9 0 
1.58287 -0.79251 4.86107 62 21 1 
1.56681 -0.852607 4.85825 187 149 136 
1.58631 -0.808741 4.8518 192 133 127 
1.55799 -0.870886 4.87866 55 20 18 
1.57155 -0.89362 4.852 27 7 0 
1.58724 -0.850996 4.85767 127 7 34 
1.60109 -0.808499 4.868 175 130 107 
1.59798 -0.83266 4.86971 216 145 143 
1.59994 -0.849908 4.86795 83 18 14 
1.61254 -0.821497 4.86333 82 34 20 
1.59135 -0.886967 4.86503 51 23 19 
1.58103 -0.928607 4.86436 89 74 53 
1.59025 -0.913416 4.86759 49 17 20 
1.61254 -0.846618 4.87338 56 0 0 
1.60801 -0.86267 4.8737 45 17 14 
1.6263 -0.801065 4.87866 120 78 66 
1.64777 -0.778003 4.8656 99 56 37 
1.61107 -0.883588 4.87716 171 127 98 
1.62558 -0.853679 4.87541 118 11 29 
1.62899 -0.870222 4.87515 202 138 129 
1.65166 -0.803062 4.8838 178 132 108 
1.64075 -0.850473 4.8802 107 19 18 
1.63695 -0.862922 4.88516 100 9 18 
1.64865 -0.863893 4.88334 85 10 5 
1.6458 -0.875214 4.88508 54 8 0 
1.67803 -0.792429 4.88555 171 125 92 
1.65019 -0.891952 4.8764 199 152 146 
1.6595 -0.868091 4.87638 205 158 140 
1.6688 -0.836733 4.89001 178 131 101 
1.65851 -0.881817 4.88459 122 6 25 
1.667 -0.863291 4.88399 134 29 44 
1.68647 -0.805496 4.88797 187 137 102 
1.70057 -0.816974 4.91892 119 93 80 
2.3 0.717447 4.92134 45 18 1 
2.13433 -0.706746 4.46518 138 101 30 
2.13852 -0.738393 4.44964 246 220 65 
2.14175 -0.618785 4.55642 107 78 36 
2.14045 -0.754352 4.45133 240 212 53 
2.1508 -0.74254 4.44975 106 73 0 
2.1951 -0.675255 4.48716 221 181 31 
2.13374 -0.86744 4.49605 96 51 0 
2.22464 -0.802237 4.44328 132 103 43 
2.22523 -0.819712 4.43951 112 72 0 
2.03876 -0.953837 4.87849 33 24 9 
2.25055 -0.736406 4.45838 86 25 6 
2.38481 -0.496343 4.30242 214 189 167 
2.04606 -1.01294 4.87584 17 2 0 
2.06123 -0.97164 4.87002 48 34 21 
2.05713 -0.965926 4.89172 116 102 89 
2.0304 -1.13124 4.82582 20 17 8 
2.02321 -1.15529 4.85767 18 19 3 
2.0807 -0.931666 4.89994 58 41 31 
2.04977 -1.1069 4.83644 85 82 77 
2.05036 -1.09462 4.8476 18 14 5 
2.07267 -1.00176 4.87163 129 112 94 
2.05575 -0.942599 4.9884 92 75 65 
2.08485 -0.970386 4.88078 41 33 20 
2.05653 -1.12415 4.83394 44 41 32 
2.08293 -1.01663 4.86692 31 15 0 
2.07071 -1.09962 4.83296 39 31 20 
2.08444 -1.02919 4.8616 118 103 74 
2.06586 -1.214 4.77461 17 15 3 
2.10407 -0.979169 4.89329 75 69 47 
2.07783 -1.15434 4.82241 83 71 47 
2.08001 -1.13162 4.83932 31 20 16 
2.07744 -1.1725 4.8229 25 21 18 
2.09339 -1.1111 4.8376 116 100 77 
2.13439 -0.961965 4.88559 107 98 83 
2.10556 -0.952919 5.0205 59 46 40 
2.12109 -0.995096 4.92996 24 21 2 
2.11759 -1.07406 4.86397 73 59 58 
2.07836 -0.968196 5.1171 26 13 4 
2.11782 -1.11207 4.85655 69 53 27 
2.1567 -0.943805 4.91142 29 16 10 
2.12585 -1.10326 4.85157 110 99 69 
2.12152 -1.13607 4.84801 120 96 72 
2.15002 -1.07779 4.86435 110 97 80 
2.17095 -1.0239 4.86986 33 21 9 
2.15478 -1.0733 4.87233 24 10 0 
2.19498 -0.951316 4.91971 29 14 9 
2.20572 -0.952909 4.88247 10 0 0 
2.19988 -0.960201 4.90126 126 116 106 
2.1688 -1.08941 4.87653 104 90 81 
2.15134 -1.03453 4.99873 44 35 28 
2.15901 -1.1423 4.86689 15 1 0 
2.16861 -1.12569 4.85312 93 80 72 
2.20643 -0.96407 4.91117 9 0 0 
2.17044 -1.12202 4.86997 29 20 15 
2.18234 -1.10666 4.87051 11 2 0 
2.21883 -0.953775 4.92101 29 17 21 
2.18131 -1.13191 4.86445 10 9 7 
2.20121 -1.11121 4.88314 20 16 4 
2.1855 -1.22156 4.84457 61 65 32 
2.40715 -0.6348 4.71923 207 183 171 
2.72271 0.595718 5.13864 124 92 69 
2.72315 0.236954 4.79136 80 56 44 
2.72694 0.247626 4.81325 197 174 160 
2.21921 -1.31987 4.90774 17 13 12 
2.70817 0.267924 5.18199 52 39 22 
2.7096 0.237807 5.16709 45 29 14 
2.7271 0.266483 5.1909 46 35 17 
2.45611 -0.83364 4.89761 17 16 21 
2.72672 0.236777 5.17719 39 26 10 
2.75298 0.233661 5.19664 47 34 17 
2.75671 0.230996 5.18376 52 39 22 
2.3707 -1.27764 4.83275 134 115 100 
2.51278 -1.18263 4.7185 144 121 107 
2.70857 -0.18749 5.34901 120 97 83 
2.55342 -1.1014 4.73782 24 19 25 
2.56026 -1.11697 4.70587 139 123 100 
2.85666 0.0514162 5.11681 31 39 16 
2.5802 -1.12217 4.70668 29 22 30 
2.8993 0.0474245 5.13133 31 44 18 
2.90067 -0.00510205 5.10215 31 39 15 
3.01906 0.476507 5.39092 119 92 75 
3.02462 0.457254 5.39521 107 87 76 
0.849828 -0.900929 4.26721 49 14 0 
0.884295 -1.00541 4.43025 38 21 1 
0.9622 -1.00325 4.20532 236 200 174 
1.00682 -0.792779 4.19262 112 101 97 
0.990538 -1.03352 4.03307 161 129 106 
1.05715 -0.465137 4.18789 88 70 70 
1.39755 0.828133 4.65538 135 107 83 
1.30378 -0.47112 4.2107 97 80 70 
1.35222 -0.940643 4.28719 27 11 0 
1.61827 -0.776058 4.82655 179 138 118 
2.06362 -0.93663 4.8391 116 101 94 
2.03641 -1.16299 4.76465 91 86 48 
2.07609 -0.959642 4.83658 129 112 102 
2.06736 -1.08723 4.79828 63 47 34 
2.09721 -0.926245 4.84985 29 12 2 
2.09544 -0.976842 4.83705 36 27 20 
2.09573 -1.00591 4.83169 130 117 100 
2.09332 -1.12555 4.79763 80 62 52 
2.08772 -1.16577 4.78349 55 45 33 
2.11987 -0.97397 4.84459 85 79 63 
2.15266 -0.954449 4.86483 143 131 119 
2.13029 -1.10437 4.81336 92 72 39 
2.13468 -1.12891 4.80576 142 115 86 
2.16808 -0.938745 4.8683 49 31 27 
2.16168 -0.990614 4.85323 24 20 8 
2.15367 -1.06515 4.83191 42 25 9 
2.19143 -1.10568 4.82952 120 109 105 
1.40688 -0.591438 4.48236 77 58 43 
1.49424 -0.817984 4.79343 130 5 23 
1.49649 -0.80315 4.79229 103 0 0 
1.52587 -0.863037 4.80034 139 10 38 
1.52943 -0.846695 4.80072 110 75 71 
1.54451 -0.821662 4.80515 112 0 8 
1.55642 -0.907752 4.80862 191 136 106 
1.60529 -0.925154 4.8213 102 87 64 
1.68754 -0.85499 4.83537 61 0 0 
2.05261 -0.954921 4.82119 101 92 85 
2.03281 -1.19673 4.75221 32 24 13 
2.0502 -1.12357 4.7758 28 25 8 
2.05867 -1.14207 4.77523 29 25 16 
2.05899 -1.20932 4.75586 28 18 8 
2.08718 -1.10716 4.79122 35 26 17 
2.09137 -1.08937 4.7973 116 109 81 
2.11454 -1.07277 4.8078 117 106 86 
2.13754 -0.98677 4.83664 70 67 50 
2.12764 -1.07134 4.81017 84 70 69 
2.14771 -1.07995 4.81405 27 14 0 
2.15795 -1.08189 4.81632 19 8 0 
2.17132 -1.08972 4.8183 115 105 78 
2.17766 -1.10361 4.8161 115 103 77 
2.18188 -1.09042 4.8195 112 100 74 
2.19791 -1.12419 4.8154 45 38 32 
2.56823 -0.478197 4.25701 98 76 55 
0.846857 -0.432228 4.13592 123 110 102 
0.882027 -0.385685 4.1054 103 77 60 
1.5474 -0.856484 4.80397 129 112 104 
1.55619 -0.803897 4.80382 191 133 109 
1.5963 -0.79939 4.81536 68 15 1 
1.6078 -0.774342 4.81855 118 76 54 
1.60917 -0.924948 4.81676 100 78 57 
1.65352 -0.812522 4.82647 173 131 109 
2.04368 -0.985839 4.80379 111 100 94 
2.05288 -0.91784 4.82884 16 3 0 
2.04483 -1.16239 4.75261 61 60 30 
2.05621 -1.11333 4.77646 23 21 9 
2.07746 -1.10263 4.78906 7 2 0 
2.0875 -1.04196 4.80502 120 106 79 
2.12224 -1.05613 4.80888 23 6 0 
2.13944 -1.08674 4.80826 63 52 22 
2.14947 -1.0609 4.81438 20 2 0 
2.16269 -1.06388 4.81861 22 4 0 
2.16344 -1.09198 4.80973 61 49 23 
2.15337 -1.18647 4.78207 19 17 0 
-0.292906 1.0217 4.38078 123 97 74 
0.317896 -0.344876 4.07805 117 102 97 
1.11698 1.03679 4.24336 118 84 59 
1.08912 0.889296 4.56938 143 108 80 
1.14352 -0.47442 4.19502 97 80 72 
1.21 -0.5612 4.33395 74 57 47 
1.21977 -0.486012 4.44085 75 62 54 
1.34414 -0.476501 4.27057 33 17 4 
1.46229 0.811918 4.67655 36 15 0 
1.7081 -0.522718 3.47945 60 39 22 
1.35611 -0.595407 4.44248 6 0 0 
1.35737 -0.94944 4.27751 158 129 111 
1.36729 -0.89659 4.31117 15 0 0 
1.47408 -0.90351 4.78907 167 117 90 
1.51561 -0.835486 4.79755 142 3 34 
1.53396 -0.865372 4.80157 199 141 127 
1.54902 -0.795501 4.80393 189 134 103 
1.54975 -0.809156 4.80398 116 5 14 
1.57619 -0.915415 4.80943 72 56 40 
1.58644 -0.882504 4.81636 177 154 138 
2.1587 -0.747893 4.41576 141 102 0 
2.07152 -1.09959 4.78331 87 83 74 
2.07088 -1.12622 4.77496 87 85 72 
2.08681 -1.05054 4.79833 27 11 0 
2.15161 -0.957219 4.84044 107 92 85 
2.18588 -1.14369 4.80314 111 97 84 
2.32816 -1.35465 4.78417 22 14 11 
2.77026 0.219543 5.12397 54 35 20 
-2.16875 1.50028 3.59393 106 79 60 
-2.41999 0.682814 3.75892 108 87 82 
-2.58222 0.467216 4.0197 44 26 16 
0.0344914 1.58889 3.24459 105 79 54 
-0.572499 1.41662 3.64841 106 79 58 
-1.1164 0.101365 3.75532 25 5 17 
-1.0767 0.091408 3.76011 177 120 165 
-1.03076 0.139474 3.7997 69 54 59 
-0.907271 1.24268 4.03085 135 109 84 
-0.950375 0.105437 3.83094 59 33 60 
-0.914354 0.08173 3.86166 107 47 107 
-0.821925 0.0581851 3.91052 157 97 151 
-0.515965 0.354999 3.79488 6 4 5 
-0.803371 0.0611438 3.90247 53 0 53 
-0.602696 1.18835 4.0953 112 93 79 
-0.778601 0.0653698 3.91216 117 63 113 
-0.293285 0.676255 4.0612 27 12 9 
-0.285409 0.663116 4.07107 187 167 156 
-0.289081 0.656559 4.08663 57 38 31 
-0.281854 1.06867 4.30965 127 100 81 
-0.718227 -0.836285 4.06284 97 87 78 
-0.703536 -0.830674 4.06553 96 85 81 
-0.263466 1.06736 4.31443 55 35 24 
-0.688339 -0.873384 4.0796 30 19 17 
-0.117666 1.05397 4.3291 127 100 79 
0.213664 -0.147681 3.7485 96 74 50 
0.261635 -0.301634 4.03751 108 90 78 
0.470393 0.539555 4.23787 49 25 13 
0.2878 -0.572001 4.0329 114 96 94 
0.790982 -0.65395 3.88406 135 79 20 
0.798599 -0.625201 3.90335 80 27 0 
0.591999 -0.802645 4.12911 167 151 138 
0.602134 -0.846234 4.11153 13 0 0 
0.609444 -0.622312 4.23834 29 7 10 
0.8386 -0.725376 3.93148 107 38 0 
0.774606 -0.423333 4.13369 47 36 30 
0.623299 -0.849012 4.13813 153 138 115 
0.62617 -0.820967 4.15701 166 152 139 
0.641866 -0.616981 4.2268 13 0 0 
0.763498 -0.459639 4.16667 10 0 0 
0.857323 -0.726238 3.94947 113 45 0 
0.630348 -0.56752 4.31285 25 9 0 
0.879675 -0.713807 3.99627 139 92 20 
0.879059 -0.688606 4.0147 17 0 0 
0.876722 -0.409829 4.15847 150 136 123 
0.995327 -0.942508 3.92611 156 131 109 
0.890029 -0.558096 4.24181 69 21 0 
0.929232 -0.605243 4.2272 69 20 0 
1.20937 0.435571 4.40828 58 39 25 
1.0971 -0.930401 3.93402 48 119 49 
1.11017 -0.908488 3.94956 24 17 1 
1.10668 -0.446224 4.21173 38 25 19 
1.15826 -0.800648 4.00746 145 110 80 
1.13744 -0.501767 4.25009 59 28 0 
1.26205 -0.6456 4.04716 111 50 6 
1.08955 -0.9682 4.17218 36 82 43 
1.30135 -0.674534 4.03766 26 51 45 
1.21529 -0.498014 4.25614 42 30 18 
1.23743 -0.480713 4.2374 109 98 92 
1.19891 -0.819273 4.1484 92 84 73 
1.08 -1.0115 4.25072 124 88 56 
1.18944 -0.554764 4.32663 19 4 0 
1.20551 -0.836991 4.16764 19 0 0 
1.21678 -0.781741 4.18902 108 39 0 
1.283 -0.469564 4.25619 102 88 79 
1.25187 -0.51662 4.27832 16 2 0 
1.206 -0.829264 4.19596 12 6 8 
1.30824 -0.485323 4.25385 105 94 88 
1.34149 -0.509295 4.27576 98 88 78 
1.59146 0.811711 4.70813 158 129 99 
1.59614 0.797708 4.73203 43 24 10 
1.34709 -0.619329 4.41592 12 3 0 
1.34055 -0.594683 4.457 95 85 83 
1.36214 -0.621084 4.41894 9 1 0 
1.36622 -0.82996 4.29781 107 70 52 
1.36803 -0.625981 4.43122 50 42 31 
1.84577 0.785954 4.74004 164 132 107 
1.9569 0.339576 4.56907 131 108 94 
1.46301 -0.903798 4.80135 151 104 76 
1.51335 -0.728219 4.82834 200 175 153 
1.48017 -0.865566 4.8034 231 163 142 
1.98947 0.338724 4.58751 211 188 174 
1.52495 -0.839553 4.81844 37 13 3 
1.52728 -0.85927 4.81333 186 142 139 
1.51233 -0.936117 4.83118 175 145 121 
1.53308 -0.898471 4.82863 198 152 129 
1.59816 -0.806968 4.82753 192 133 127 
1.59667 -0.821324 4.8284 70 13 0 
1.60477 -0.795172 4.83601 70 29 11 
1.60534 -0.839369 4.83126 68 0 0 
1.59 -0.89494 4.82685 175 146 140 
1.59565 -0.905128 4.83011 176 142 132 
1.64153 -0.788997 4.83843 53 9 6 
1.61283 -0.896342 4.83223 55 24 21 
1.65938 -0.776412 4.84094 99 56 37 
1.64774 -0.815154 4.8389 63 20 1 
1.63697 -0.860734 4.83747 184 134 133 
1.64819 -0.832001 4.83854 183 131 107 
1.65889 -0.808591 4.83766 182 137 114 
1.63571 -0.890038 4.83702 81 82 66 
1.66543 -0.927021 4.83827 78 65 48 
2.23083 0.346806 4.674 28 15 9 
2.32645 0.699215 4.89443 47 21 6 
2.17308 -0.593207 4.47894 218 190 151 
2.14417 -0.757806 4.42355 255 222 83 
2.04161 -0.9994 4.81322 27 16 0 
2.07864 -0.959241 4.83302 116 102 89 
2.07708 -1.0578 4.80196 114 99 78 
2.08583 -1.04162 4.80771 114 98 73 
2.08826 -1.05909 4.80652 28 15 7 
2.05895 -1.20912 4.75602 19 17 5 
2.09028 -1.08984 4.79869 94 83 63 
2.11536 -0.960742 4.84977 13 4 0 
2.11907 -0.933605 4.88283 63 50 41 
2.08903 -1.13726 4.78633 16 10 0 
2.10183 -1.11274 4.79369 122 108 99 
2.13155 -0.968517 4.85787 31 23 12 
2.1313 -0.987368 4.84578 78 71 53 
2.1297 -1.05828 4.81488 16 0 0 
2.15186 -0.942108 4.87842 18 5 0 
2.15028 -0.938444 4.88782 62 49 43 
2.15126 -0.984703 4.84295 24 21 2 
2.15732 -0.959378 4.85016 118 108 98 
2.16762 -0.941176 4.85472 26 13 4 
2.14925 -1.08888 4.81307 68 56 30 
2.15568 -1.07322 4.81957 25 7 5 
2.14919 -1.10712 4.80826 63 50 18 
2.16054 -1.08171 4.81241 16 3 0 
2.18178 -1.02018 4.83767 33 21 9 
2.18987 -1.00975 4.84899 108 100 89 
2.17699 -1.10418 4.81683 119 109 82 
2.16659 -1.16056 4.79801 31 23 4 
2.22473 -0.944367 4.86962 102 85 91 
2.18249 -1.14397 4.80837 86 79 69 
2.19649 -1.09192 4.8323 23 14 0 
2.189 -1.16032 4.80314 17 16 11 
2.23599 -1.01833 4.85495 115 102 93 
2.72947 0.231431 4.7609 80 56 44 
2.72451 0.214663 4.79637 101 78 62 
2.73309 0.222795 4.78699 186 160 147 
2.24727 -1.30209 4.82161 17 13 12 
2.71555 0.260726 5.143 52 39 22 
2.71746 0.230213 5.12517 45 29 14 
2.69899 0.110987 5.06486 36 18 4 
2.75978 0.250075 5.15141 86 78 59 
2.90615 0.0418212 5.0858 31 44 18 
2.90772 -0.0102231 5.05564 31 39 15 
3.0316 0.444194 5.33335 107 87 76 
3.04568 0.456047 5.35508 116 91 71 
3.07071 0.464863 5.33977 71 45 28 
3.65743 0.144565 5.96967 165 139 116 
-3.14184 1.60952 3.41285 11 5 5 
-3.22066 1.63539 3.4474 47 41 41 
-3.10839 1.59136 3.46651 20 5 2 
-3.14606 1.55971 3.495 28 13 6 
-2.97706 1.52251 3.46576 93 67 52 
-3.22151 1.52391 3.63166 119 97 84 
-3.28379 1.51021 3.67344 35 18 11 
-3.24858 1.50212 3.68474 131 113 99 
-2.12983 1.58611 3.4272 110 89 72 
-3.16069 1.45378 3.70768 60 36 24 
-2.20606 1.46903 3.63992 13 0 0 
-2.40623 0.701982 3.69757 109 89 82 
-2.44807 1.29958 3.90196 84 64 55 
-2.38475 0.674782 3.7479 109 89 82 
-2.17738 1.35063 3.88481 57 29 15 
-2.34487 0.643938 3.77132 159 139 130 
-2.18085 0.682605 3.75686 199 174 170 
-2.47737 0.538747 3.92945 154 134 125 
0.0331083 1.58919 3.245 110 80 56 
-2.52145 0.508429 4.00374 157 134 126 
-2.41599 0.420608 4.00746 105 87 77 
-0.55681 1.40833 3.6418 104 76 54 
-1.04283 0.089923 3.73806 130 86 121 
-1.11238 0.174511 3.79977 32 21 17 
-1.09873 0.166128 3.79099 88 77 71 
-0.903094 1.2178 4.01596 55 32 18 
-0.80288 1.24541 3.97967 144 114 86 
-0.893736 1.23675 4.02458 133 105 84 
-0.992858 0.127427 3.79126 22 0 23 
-0.946467 0.0912608 3.818 109 59 110 
1.00677 1.51478 3.31395 132 100 79 
-0.89317 0.0785913 3.85283 111 37 98 
-0.886205 0.0695934 3.87098 104 6 93 
-0.596485 1.18051 4.09863 36 17 2 
-0.793886 0.0532811 3.89816 181 124 169 
-0.3848 1.15531 4.09466 10 9 7 
-0.225824 -0.130254 3.63013 211 193 181 
-0.43693 1.08019 4.26794 37 22 15 
-0.270187 0.668925 4.04924 26 12 9 
-0.405111 1.08935 4.28045 53 33 24 
-0.273458 0.646117 4.0607 24 5 1 
-0.260644 0.655021 4.05802 184 164 153 
-0.261724 0.634941 4.05634 109 90 83 
-0.253136 1.06338 4.30851 50 26 14 
0.111439 -0.125883 3.706 56 34 21 
-0.668851 -0.84543 4.04891 34 24 14 
0.237586 -0.152191 3.73613 119 96 65 
-0.655504 -0.878066 4.09018 43 29 20 
-0.368882 0.933311 4.5611 113 91 70 
-0.396517 0.897169 4.62102 118 95 81 
-0.177763 -0.364858 4.07288 80 54 37 
0.144199 0.99335 4.36121 48 29 22 
0.16545 1.00032 4.36799 44 17 0 
0.202307 0.983093 4.38083 30 17 11 
0.290529 -0.441696 3.8627 102 91 87 
0.304917 -0.432587 3.86405 20 11 6 
0.290248 -0.305095 4.0207 93 74 67 
0.495758 0.530409 4.22073 53 29 19 
0.367616 -0.408246 4.1518 206 180 163 
0.809197 -0.217398 3.87402 74 51 33 
0.806409 -0.657654 3.86376 221 188 153 
0.817838 -0.626608 3.89092 99 34 0 
0.819056 -0.653761 3.8867 163 101 50 
0.841827 -0.736621 3.84717 220 193 163 
0.842277 -0.715839 3.86318 139 80 12 
0.84497 -0.701069 3.91705 85 15 0 
0.599983 -0.512482 4.24534 103 85 73 
0.741026 -0.453661 4.15017 77 65 49 
0.625232 -0.794493 4.11221 18 4 0 
0.871843 -0.703444 3.93444 221 166 21 
0.632669 -0.880829 4.07975 159 57 45 
0.629716 -0.573331 4.22521 85 68 60 
0.659683 -0.775639 4.11627 68 54 45 
0.875203 -0.694677 3.96077 81 19 0 
0.872633 -0.707046 3.95977 69 9 0 
0.635621 -0.622666 4.2204 40 21 23 
0.675365 -0.499146 4.24138 21 10 4 
0.68042 -0.508269 4.24882 8 0 0 
0.650558 -0.806789 4.14599 104 90 81 
0.682385 -0.782765 4.13233 127 93 68 
0.838136 -0.451727 4.13967 34 22 10 
0.644825 -0.59006 4.26514 54 38 25 
0.894543 -0.729597 3.97259 196 147 16 
0.899212 -0.714494 3.98291 152 102 33 
0.71612 -0.509946 4.24992 35 22 14 
0.661842 -0.554969 4.28434 18 5 0 
0.899394 -0.689696 4.00061 13 0 0 
0.879918 -0.445247 4.13469 99 86 78 
0.89341 -0.718917 4.02362 16 1 0 
0.82452 -0.481663 4.19854 104 94 85 
0.858761 -0.510613 4.19844 154 130 102 
0.892637 -0.754145 4.05308 149 96 28 
0.872558 -0.488705 4.21961 21 11 10 
0.982853 -0.426588 4.15754 40 27 21 
1.01942 -0.415326 4.14788 83 67 54 
1.02829 -0.430458 4.13948 124 114 104 
1.08578 -0.842017 3.89188 36 42 0 
1.05384 -0.885821 3.9171 45 23 12 
1.06742 -0.883984 3.91931 77 63 50 
1.03565 -0.44588 4.16313 29 18 16 
1.23411 0.0688717 4.20996 110 91 77 
1.06474 -0.428186 4.15081 148 134 125 
1.08127 -0.879438 3.92011 18 6 0 
1.06778 -0.432467 4.16142 54 40 31 
1.08804 -0.920456 3.91006 37 0 0 
1.10577 -0.873855 3.91693 8 20 0 
1.11646 -0.906108 3.91854 27 100 29 
1.13513 -0.913845 3.91507 70 106 60 
1.13357 -0.892274 3.94348 0 5 0 
1.18548 -0.868062 3.91899 200 160 101 
1.16832 -0.771146 4.01289 119 93 58 
1.17572 -0.775132 4.00686 131 94 52 
1.19676 -0.865918 3.94882 125 85 34 
1.10549 -0.743539 4.12663 48 17 0 
1.16496 -0.908191 3.98535 143 110 65 
1.1638 -0.48478 4.20637 51 24 0 
1.22651 -0.718391 4.02221 178 145 14 
1.14209 -0.849821 4.05475 82 57 37 
1.14597 -0.78831 4.08238 42 29 20 
1.16536 -0.493648 4.22682 35 18 10 
1.18237 -0.886253 4.0151 141 102 59 
1.2038 -0.475429 4.21365 40 27 18 
1.13175 -0.862012 4.11268 99 83 68 
1.10358 -0.889078 4.15258 104 60 25 
1.2082 -0.497158 4.24109 35 21 8 
1.1733 -0.82232 4.12518 140 96 35 
1.32189 -0.649073 4.06183 106 61 0 
1.25761 -0.47327 4.23548 101 90 84 
1.1511 -0.595961 4.30523 104 56 18 
1.21254 -0.801738 4.13738 89 72 62 
1.26819 -0.747239 4.14837 34 20 20 
1.09084 -0.995983 4.23217 16 22 0 
1.11394 -0.989502 4.21206 53 73 38 
1.2822 -0.738817 4.15447 106 94 80 
1.20483 -0.829358 4.19689 11 6 3 
1.23948 -0.81785 4.19313 113 80 47 
1.21218 -0.606988 4.34565 195 135 25 
1.34413 -0.502154 4.2573 10 0 0 
1.33834 -0.513149 4.2645 45 31 18 
1.24267 -0.846043 4.20259 132 111 90 
1.35293 -0.520089 4.26847 66 52 39 
1.25234 -0.57853 4.38499 14 1 0 
1.28816 -0.563898 4.35223 8 0 0 
1.36171 -0.518189 4.2993 60 46 37 
1.31748 -0.552134 4.33565 119 105 94 
1.25896 -0.583091 4.3942 23 10 2 
1.36169 -0.523941 4.31075 119 105 96 
1.35108 -0.540712 4.32413 113 100 91 
1.25622 -0.661721 4.39422 163 139 115 
1.326 -0.569919 4.36501 88 75 59 
1.34171 -0.547315 4.35928 57 47 37 
1.34625 -0.521845 4.37249 167 150 134 
1.66543 0.786603 4.7104 139 116 98 
1.34201 -0.533943 4.37927 82 69 53 
1.32526 -0.579727 4.39942 101 91 81 
1.33592 -0.547866 4.41375 155 143 131 
1.33194 -0.857102 4.2812 21 0 0 
1.33793 -0.871914 4.27867 76 59 43 
1.33984 -0.655897 4.39909 63 47 34 
1.37334 -0.831062 4.29091 106 67 34 
1.38314 -0.608193 4.41609 90 80 68 
1.37792 -0.705888 4.38386 8 0 0 
1.36486 -0.949856 4.27043 171 129 113 
1.39281 -0.848225 4.29723 23 14 15 
1.3669 -0.921526 4.29117 19 4 7 
1.38197 -0.641075 4.44727 25 13 1 
1.4028 -0.869691 4.2962 129 92 65 
1.27172 -0.720682 4.77247 196 172 148 
1.95817 -0.39782 4.13261 129 108 91 
1.98499 -0.0256117 4.36466 129 95 57 
2.03963 -0.0505785 4.38467 125 99 84 
1.47391 -0.76702 4.78083 99 68 48 
2.04732 -0.0407558 4.39104 121 92 58 
1.50386 -0.802837 4.78423 93 0 0 
2.0547 -0.409676 4.20675 105 87 77 
1.54718 -0.729218 4.78981 198 172 149 
1.55596 -0.795947 4.79575 186 132 96 
1.53461 -0.863089 4.79033 128 13 28 
1.55634 -0.80952 4.79622 93 0 0 
1.55035 -0.821562 4.79851 117 0 17 
1.54952 -0.87483 4.78641 92 58 33 
1.52075 -0.935828 4.82156 172 144 120 
1.58916 -0.772614 4.82895 193 152 134 
1.57771 -0.849133 4.79689 82 83 65 
1.56391 -0.907191 4.80009 184 126 102 
1.60554 -0.810516 4.80223 94 9 16 
1.61139 -0.807244 4.81188 199 135 133 
1.62382 -0.775659 4.82017 183 143 118 
1.63092 -0.78642 4.81027 174 137 118 
1.61607 -0.832953 4.81185 204 151 137 
1.60767 -0.873252 4.80055 186 150 128 
1.60076 -0.890413 4.806 27 6 3 
1.61738 -0.848285 4.80978 120 3 22 
1.61592 -0.861224 4.80745 34 0 0 
1.64041 -0.816254 4.81238 83 35 21 
1.67297 -0.790553 4.8198 177 131 107 
1.65999 -0.826873 4.81765 57 17 5 
1.67006 -0.817493 4.82585 188 143 122 
1.67657 -0.913885 4.80738 73 85 75 
2.32851 0.701822 4.88186 118 87 69 
2.31014 -0.493509 4.20611 218 196 175 
2.33682 -0.476302 4.20349 218 193 171 
2.18621 -0.70164 4.39171 194 159 43 
2.19448 -0.694875 4.39507 146 101 8 
2.40763 -0.49693 4.25673 213 186 165 
2.28057 -0.676723 4.40272 214 152 77 
2.24978 -0.801557 4.37544 55 15 0 
2.24068 -0.82335 4.38009 236 199 48 
2.26369 -0.778106 4.39001 102 61 7 
2.27512 -0.74352 4.40232 168 126 44 
2.07302 -0.907502 4.79407 207 192 169 
2.06356 -0.966912 4.78282 104 93 75 
2.07113 -0.932947 4.79716 41 27 16 
2.06989 -0.948549 4.79083 35 21 8 
2.08896 -0.924307 4.82066 92 75 65 
2.08894 -0.956072 4.79685 106 92 81 
2.11372 -0.925868 4.81472 84 66 56 
2.04876 -1.21262 4.70957 99 90 83 
2.0517 -1.19312 4.72664 37 29 18 
2.1249 -0.924989 4.80947 51 33 23 
2.09496 -1.08386 4.75924 36 27 22 
2.08249 -1.13868 4.74196 27 24 19 
2.11852 -1.02191 4.79269 123 106 76 
2.09576 -1.1239 4.76136 26 21 15 
2.10806 -1.10462 4.76138 27 17 15 
2.12493 -1.05387 4.78696 23 9 0 
2.12687 -1.06651 4.78009 27 17 5 
2.12446 -1.08891 4.76719 72 58 29 
2.16333 -0.937306 4.82764 35 21 12 
2.16477 -0.966254 4.80866 32 22 12 
2.11455 -1.14991 4.75404 98 90 69 
2.1259 -1.10296 4.7716 121 99 78 
2.16637 -0.95657 4.8183 97 83 72 
2.14275 -1.07004 4.77784 34 22 8 
2.12311 -1.15776 4.75636 77 71 57 
2.16403 -1.0526 4.78735 116 102 76 
2.20408 -0.939286 4.84221 96 79 71 
2.17288 -1.06299 4.80332 20 2 0 
2.19576 -1.01834 4.81696 45 33 11 
2.73977 0.223905 4.74006 89 65 55 
2.19088 -1.08762 4.78891 116 105 85 
2.21943 -0.950273 4.85264 71 58 50 
2.75666 0.253768 4.73796 100 80 69 
2.17831 -1.14715 4.77273 74 57 31 
2.73929 0.215607 4.74982 98 75 61 
2.20417 -1.06594 4.80007 27 13 4 
2.24266 -0.963604 4.83494 112 100 88 
2.69275 0.520112 5.21721 121 89 66 
2.2594 -0.966532 4.83832 19 11 8 
2.2593 -0.98048 4.83227 23 12 8 
2.68754 0.482015 5.22323 112 90 79 
2.27549 -0.940091 4.84392 14 7 1 
2.26298 -0.997612 4.8307 86 73 64 
2.25971 -1.03471 4.82143 86 76 64 
2.73929 0.25301 5.11254 88 77 59 
2.73871 0.236001 5.10837 37 41 18 
2.28376 -1.29403 4.76473 12 11 9 
2.74481 0.10212 5.03552 45 34 16 
2.77326 0.240675 5.12065 81 74 56 
2.77698 0.249559 5.12497 41 34 15 
2.77648 0.22083 5.10139 86 81 62 
2.57066 -0.813467 4.84872 87 67 56 
2.56456 -0.840116 4.90406 176 150 135 
2.86148 0.0183185 5.03221 39 36 17 
2.8764 0.0377417 5.04184 29 39 15 
2.87628 -0.0149861 5.01216 29 39 15 
2.72894 -0.195501 5.27755 114 86 72 
2.89668 0.0104649 5.0342 70 58 42 
2.92631 0.0152378 5.04487 87 89 68 
2.92077 -0.0178738 5.02352 29 41 17 
3.09249 0.44054 5.31777 120 94 67 
3.0841 0.363058 5.48172 129 102 75 
2.94742 0.0406237 5.71181 175 147 123 
0.991422 -0.783338 4.16615 44 31 23 
1.19851 -0.78214 4.17361 112 48 0 
2.07382 -0.928412 4.83975 35 20 13 
2.06529 -1.08661 4.79362 63 47 34 
2.09551 -0.925547 4.84592 29 12 2 
2.09309 -0.976162 4.83172 36 27 20 
2.09218 -1.00402 4.82344 130 117 100 
2.09364 -1.02275 4.81919 133 117 83 
2.09028 -1.12487 4.7909 80 62 52 
2.08526 -1.16501 4.77798 55 45 33 
2.12555 -1.06565 4.81459 71 53 49 
2.1475 -0.943572 4.85659 116 103 94 
2.14411 -0.984204 4.84552 26 19 9 
2.13273 -1.09612 4.80989 134 118 82 
2.1658 -0.937554 4.86313 49 31 27 
2.16462 -1.01971 4.83983 124 107 81 
2.36563 0.373578 5.27957 102 74 62 
2.18716 -0.946318 4.86821 21 6 0 
2.15972 -1.1527 4.8018 110 96 70 
2.17379 -1.1512 4.80548 30 20 8 
2.16251 -1.26711 4.46533 18 4 4 
0.97934 -1.03087 4.02997 158 126 103 
1.49432 -0.818465 4.79473 130 5 23 
1.54063 -0.836197 4.80421 163 126 120 
1.53604 -0.875425 4.80185 104 68 52 
1.54689 -0.896193 4.80576 210 148 135 
1.60148 -0.793227 4.81608 91 43 31 
2.0316 -1.19576 4.74673 32 24 13 
2.07025 -1.00519 4.80953 31 20 0 
2.05753 -1.14148 4.77034 29 25 16 
2.08612 -1.10659 4.78677 35 26 17 
2.14909 -1.08744 4.80732 87 76 44 
2.20039 -1.00743 4.8438 42 30 18 
2.18788 -1.11119 4.81076 33 22 16 
2.19654 -1.12298 4.8097 45 38 32 
2.22595 -1.25715 4.40943 19 9 10 
0.65138 -0.836123 4.09956 156 139 129 
1.52026 -0.878456 4.79781 191 144 114 
1.54168 -0.835803 4.80347 166 129 123 
1.55738 -0.922618 4.80534 186 145 113 
1.58303 -0.829479 4.81193 230 157 150 
2.11685 -0.983691 4.82749 19 17 2 
2.10348 -1.13571 4.77795 119 104 85 
2.16899 -1.00634 4.82969 24 14 5 
2.17351 -1.06515 4.81618 22 5 0 
2.1861 -1.1244 4.80428 18 4 1 
2.22599 -0.960394 4.6403 56 44 28 
-0.0348349 -0.380657 3.86683 132 106 57 
0.363815 -0.324107 3.98557 112 94 92 
1.35865 -0.474295 4.2793 170 151 134 
1.56091 -0.793146 4.807 210 158 134 
1.6062 -0.773495 4.81967 88 50 29 
2.24452 -0.804726 4.40191 49 8 0 
2.12074 -1.18383 4.76558 77 71 45 
2.66343 0.475771 5.2276 15 11 0 
-2.45195 0.676431 3.79775 153 128 121 
-1.10032 0.0951106 3.77483 177 120 165 
-0.266728 -0.123707 3.65225 212 195 187 
-0.318449 1.09029 4.2913 146 116 90 
0.593671 -0.531796 4.25228 56 39 29 
0.840167 -0.661081 3.9917 157 101 42 
0.68931 -0.500576 4.24367 126 114 102 
1.1823 -0.470852 4.21294 113 103 94 
1.172 -0.541827 4.29737 18 11 5 
1.18054 -0.565586 4.30467 182 150 111 
1.23376 -0.500243 4.26187 46 34 22 
1.18183 -0.583084 4.31993 151 94 5 
1.20559 -0.577184 4.32585 184 155 113 
1.27864 -0.502406 4.26743 140 126 115 
1.33933 -0.480598 4.27167 122 109 100 
1.33123 -0.614897 4.42771 124 115 106 
1.37634 -0.825725 4.31796 19 9 0 
1.48428 -0.80248 4.80294 94 0 0 
1.97577 0.337317 4.57797 197 174 156 
1.95784 -0.036069 4.38539 115 88 77 
1.96911 -0.0200034 4.38104 129 97 56 
1.50784 -0.835799 4.80442 142 1 35 
1.53428 -0.774636 4.8107 65 17 5 
1.51053 -0.878276 4.80582 185 141 116 
1.52509 -0.869808 4.80586 212 164 152 
1.54935 -0.803883 4.81013 200 142 118 
1.55719 -0.780669 4.81558 53 4 0 
1.55163 -0.822071 4.81351 108 2 16 
1.57604 -0.786736 4.81988 180 133 107 
1.57104 -0.814839 4.81865 122 17 34 
2.03601 -0.0301742 4.38535 129 100 58 
1.54908 -0.899646 4.81736 53 34 20 
1.5488 -0.923587 4.81218 180 145 117 
1.59179 -0.922464 4.82476 82 87 65 
1.62644 -0.815301 4.82776 63 17 2 
1.62908 -0.805112 4.83031 62 21 1 
1.63379 -0.823946 4.82846 209 160 145 
1.64687 -0.798028 4.83539 120 78 66 
1.64863 -0.866436 4.83392 202 138 129 
1.66604 -0.927095 4.83695 78 65 48 
2.04879 -0.916944 4.82905 37 19 19 
2.04678 -0.949955 4.81817 25 13 1 
2.05165 -0.969794 4.81446 97 83 72 
2.06061 -0.947182 4.81987 33 24 9 
2.06323 -1.10228 4.77677 53 49 48 
2.0939 -0.99453 4.81338 129 112 94 
2.13721 -0.952597 4.83535 107 97 85 
2.09742 -1.14613 4.76873 83 71 47 
2.39913 -0.885867 4.07926 21 14 0 
2.11522 -1.07606 4.80026 62 55 26 
2.10978 -1.10516 4.79157 116 100 77 
2.12896 -1.08677 4.79698 116 107 78 
2.16452 -0.934552 4.84576 62 49 43 
2.13441 -1.07506 4.80207 12 0 0 
2.04943 -1.3674 4.88352 133 120 114 
2.20669 -0.94879 4.85833 114 101 93 
2.18681 -1.12456 4.80345 21 11 9 
2.71864 0.25649 5.1251 52 39 22 
2.72878 0.226618 5.11479 82 71 53 
2.70805 0.0678848 5.02732 37 21 6 
2.74057 0.222363 5.11711 49 33 18 
2.72444 0.103802 5.04832 77 64 48 
2.88072 -0.0263494 5.02599 43 38 18 
-2.4867 1.56784 3.70647 12 8 7 
-0.932954 1.22864 4.03362 55 32 18 
-0.397147 1.15973 4.10297 10 9 7 
-0.727152 -0.750037 4.26566 131 113 101 
0.277818 -0.509567 3.927 63 52 50 
0.295435 -0.311876 4.01612 107 92 89 
0.855054 -0.711289 3.85976 106 45 0 
0.862472 -0.718436 3.92467 99 28 6 
0.782087 -0.457838 4.1481 13 0 0 
0.877901 -0.727216 3.94044 99 34 0 
0.902093 -0.45652 4.14505 42 29 20 
1.07448 -0.442448 4.16233 107 94 85 
1.05784 -1.03038 3.89975 112 0 0 
1.11015 -0.470835 4.17552 73 62 58 
1.14374 -0.916765 3.95172 94 82 70 
1.14844 -0.494815 4.22053 105 59 35 
1.2695 -0.64808 4.02424 124 74 23 
1.20588 -0.466538 4.22283 41 34 26 
1.41828 0.824314 4.66184 126 99 80 
1.17419 -1.00524 4.00732 47 13 0 
1.16416 -0.552639 4.27569 110 83 53 
1.2497 -0.46456 4.23842 79 64 57 
1.20675 -0.555343 4.31118 15 0 0 
1.23469 -0.84806 4.18371 17 0 0 
1.33803 -0.512019 4.25193 52 39 23 
1.35122 -0.502264 4.24888 10 0 0 
1.60833 0.801117 4.69009 161 131 103 
1.59127 0.794287 4.70714 45 23 10 
1.13027 -0.840817 4.38096 101 67 40 
1.65909 0.783881 4.71888 38 16 3 
1.38922 -0.623132 4.41541 18 8 0 
1.38163 -0.815477 4.31789 93 78 71 
1.37589 -0.878409 4.29034 82 74 63 
1.3898 -0.640069 4.42462 100 88 76 
1.38991 -0.871039 4.29239 101 88 79 
1.94534 0.341481 4.55991 142 123 109 
1.51238 -0.80385 4.79286 93 0 0 
1.58828 -0.770293 4.81019 44 1 0 
1.56641 -0.834291 4.80603 178 134 121 
1.60358 -0.77137 4.80646 193 152 134 
1.59046 -0.864369 4.80889 130 102 98 
1.61305 -0.924853 4.81348 100 78 65 
1.69469 -0.847997 4.76297 91 1 3 
1.66451 -0.892015 4.82256 68 68 58 
2.34237 0.666433 4.86832 82 66 53 
2.27519 -0.676056 4.41373 214 152 77 
2.2439 -0.801429 4.387 55 15 0 
2.25027 -0.816205 4.39132 145 103 0 
2.11329 -0.985032 4.82247 64 58 44 
3.09048 0.443015 5.3278 120 94 67 
3.08139 0.367719 5.49717 129 102 75 
-2.32584 1.62831 3.56478 109 83 60 
-2.31536 1.51138 3.60058 10 8 9 
-2.45035 1.52263 3.6938 94 71 57 
-3.62326 0.897641 3.96552 101 84 76 
-2.57688 0.71933 3.8081 103 82 77 
-0.596241 1.42535 3.65804 104 73 52 
-1.35898 1.29054 3.97431 9 8 6 
-1.3842 1.25885 4.00767 105 81 55 
-1.17303 0.111127 3.77726 30 0 27 
-1.15754 0.106937 3.79202 158 106 152 
-1.16967 0.187386 3.82277 35 24 18 
-0.505004 1.079 4.14664 75 58 48 
-0.324305 0.684102 4.08731 105 83 72 
-0.296671 0.667407 4.07714 199 175 165 
-0.293919 0.658801 4.08932 61 41 30 
-0.32833 1.09732 4.29644 134 104 78 
0.0483458 -0.113628 3.73705 45 26 12 
-0.843824 0.890261 4.48598 107 80 69 
-15.6493 2.59284 11.5742 102 75 54 
-0.274119 1.07203 4.32073 49 27 16 
-0.327572 1.04983 4.34865 119 92 65 
-0.24921 0.703241 4.2288 104 77 60 
0.0431015 0.611136 4.10238 95 72 56 
-0.684389 -0.877556 4.10447 62 45 35 
0.275744 -0.509827 3.92771 73 62 60 
0.355062 -0.312995 3.98258 99 82 72 
0.297468 -0.553907 4.03324 204 190 189 
0.290825 -0.578705 4.04053 43 15 27 
0.304684 -0.38082 4.11386 104 90 81 
0.300925 -0.41224 4.11584 26 10 10 
0.292399 -0.408126 4.13073 195 178 162 
0.927927 -0.246447 3.91947 106 83 69 
0.802123 -0.657866 3.86634 232 200 159 
0.802707 -0.644746 3.88532 165 118 74 
0.822238 -0.626833 3.8881 95 31 0 
0.821668 -0.657914 3.88033 93 28 0 
0.817886 -0.688784 3.88579 187 149 104 
0.851073 -0.730883 3.86911 158 98 25 
0.852734 -0.735143 3.90741 218 170 26 
0.964673 0.487222 4.34025 104 78 65 
0.873999 -0.704095 3.93279 224 168 21 
0.881043 -0.727658 3.93888 119 51 0 
0.886582 -0.695133 3.95302 62 3 0 
0.752842 -0.454839 4.14177 86 70 57 
0.660779 -0.423066 4.22214 43 29 20 
0.58828 -0.492104 4.25144 180 157 139 
0.75263 -0.434355 4.1741 54 41 32 
0.60443 -0.547557 4.23589 198 176 155 
0.848367 -0.401542 4.13511 159 138 117 
0.894228 -0.730232 3.97255 198 140 14 
0.628907 -0.495917 4.24815 19 8 6 
0.604807 -0.537528 4.24723 28 9 3 
0.899318 -0.690679 4.00046 10 0 0 
0.907594 -0.723388 3.98471 3 4 0 
0.902919 -0.413473 4.13909 161 144 134 
0.899931 -0.701528 4.02355 16 1 0 
0.96302 -0.944768 3.87944 116 82 54 
-2.30027 -0.584973 6.25261 25 3 0 
0.894724 -0.444699 4.15075 84 73 67 
0.666083 -0.555437 4.28112 19 6 0 
0.985025 -0.442831 4.15616 75 65 64 
1.0207 -0.414705 4.14702 78 62 49 
0.895469 -0.491817 4.20233 24 13 11 
0.928949 -0.499158 4.19057 15 2 0 
1.14574 -0.855424 3.8859 255 224 166 
1.21619 0.42807 4.39587 125 103 92 
1.0552 -0.976703 3.90207 100 0 8 
1.06718 -0.41013 4.15029 151 132 115 
1.18742 -0.85189 3.88685 155 115 80 
1.07186 -0.432953 4.15823 36 24 12 
1.12372 -0.906094 3.91333 26 105 26 
1.06408 -0.465537 4.17074 84 63 58 
1.19322 -0.868589 3.91322 191 148 95 
1.11976 -0.428246 4.17005 15 1 0 
1.19477 -0.868755 3.92641 126 81 26 
1.13608 -0.458493 4.19683 69 56 50 
1.1632 -0.92274 3.98668 137 122 79 
1.28862 -0.647691 4.02606 121 55 3 
1.14683 -0.791725 4.07541 96 92 83 
1.15256 -0.912134 4.02114 162 121 67 
1.30351 -0.699485 4.01965 89 102 59 
1.13666 -0.79858 4.10672 22 2 1 
1.15415 -0.879401 4.06232 141 108 73 
1.30224 -0.707527 4.03185 242 255 241 
1.13602 -0.850454 4.0974 9 5 2 
1.14857 -0.882819 4.07641 18 1 0 
1.32349 -0.714717 4.02919 56 88 77 
1.34171 -0.695651 4.03161 85 113 64 
1.24014 -0.490181 4.20788 111 98 89 
1.34159 -0.638657 4.0611 160 117 66 
1.33849 -0.714104 4.03614 98 129 98 
1.25806 -0.454556 4.22342 103 81 68 
1.10505 -0.879032 4.14932 161 117 82 
1.2248 -0.505606 4.22936 103 90 81 
1.01213 -1.01122 4.1633 44 4 0 
1.15718 -0.849158 4.13178 169 117 33 
1.27086 -0.475077 4.22412 98 88 79 
1.01951 -0.470958 4.42926 123 109 98 
1.21355 -0.812575 4.11528 107 95 83 
1.20076 -0.811436 4.13368 81 69 55 
1.06845 -0.993575 4.16097 31 62 30 
1.22214 -0.801622 4.12971 80 67 61 
1.28043 -0.468861 4.24257 97 83 74 
1.10514 -0.97322 4.14838 6 59 15 
1.22181 -0.82045 4.12969 95 85 76 
1.29594 -0.73702 4.1113 190 140 17 
1.17435 -0.569385 4.28996 87 46 14 
1.25243 -0.763912 4.14102 36 4 0 
1.30948 -0.472802 4.23317 100 85 78 
1.28982 -0.729708 4.13165 200 149 24 
1.4092 -0.516798 4.14512 118 106 94 
1.25727 -0.499515 4.28089 121 109 97 
1.29086 -0.732165 4.14419 29 5 0 
1.28011 -0.519348 4.25396 29 13 0 
1.22583 -0.837903 4.1509 17 0 0 
1.23557 -0.811465 4.1593 20 2 0 
1.32357 -0.507366 4.23953 129 116 100 
1.2714 -0.528634 4.2751 11 0 0 
1.34333 -0.492666 4.23795 53 40 31 
1.27947 -0.742855 4.17127 108 81 52 
1.21184 -0.584357 4.30556 180 130 61 
1.39646 -0.515961 4.19405 129 115 102 
1.11759 -0.979141 4.2015 48 95 51 
1.22173 -0.57915 4.31566 168 138 100 
1.19203 -0.69093 4.2884 185 127 30 
1.23649 -0.573431 4.31167 184 158 131 
1.24518 -0.773294 4.20915 142 81 24 
1.11264 -0.984358 4.22282 0 46 4 
1.25293 -0.825435 4.18468 16 0 0 
1.2444 -0.82898 4.19934 115 96 81 
1.14377 -0.937606 4.23423 28 0 0 
1.19574 -0.6809 4.31776 86 25 0 
1.1924 -0.662867 4.3299 90 36 0 
1.19525 -0.70478 4.30766 120 55 0 
1.37075 -0.518809 4.29125 58 45 36 
1.37742 -0.491616 4.30316 172 149 131 
1.376 -0.504849 4.29852 107 95 83 
1.15734 -0.944945 4.26972 160 134 107 
1.25992 -0.759813 4.27879 163 114 48 
1.36946 -0.52401 4.30392 116 102 93 
1.12183 -0.887007 4.36889 21 24 0 
1.34201 -0.518788 4.36473 173 154 140 
1.09572 -0.971524 4.35502 139 100 69 
1.351 -0.548396 4.35057 51 41 31 
1.35045 -0.553637 4.36483 122 112 102 
1.34646 -0.543538 4.37487 50 40 30 
1.32181 -0.615024 4.38889 48 32 19 
1.32673 -0.632824 4.404 174 156 132 
1.34915 -0.932717 4.26138 30 13 5 
1.33817 -0.59367 4.45952 113 104 97 
1.38268 -0.733839 4.34961 85 71 68 
1.39259 -0.595756 4.41987 7 0 0 
1.38758 -0.730121 4.36235 10 0 0 
1.39438 -0.573593 4.43883 86 76 74 
1.36744 -0.935655 4.28788 144 126 112 
1.36971 -0.898768 4.30822 11 0 0 
0.34327 -0.0756497 5.67523 112 90 76 
1.40311 -0.618913 4.42802 105 92 83 
1.374 -0.718531 4.43047 186 164 140 
1.36984 -0.699467 4.45972 167 143 117 
1.39963 -0.591028 4.48979 42 28 17 
1.88297 -0.37005 4.27422 118 92 59 
1.48972 -0.81808 4.79851 134 4 30 
1.54994 -0.775014 4.81148 191 143 107 
1.52878 -0.846113 4.80164 125 98 91 
1.54651 -0.821569 4.80289 109 3 17 
1.55044 -0.849021 4.80689 123 108 101 
1.59303 -0.791563 4.82355 67 21 6 
1.60895 -0.774257 4.81717 77 35 13 
1.59185 -0.810335 4.81832 94 13 19 
1.60067 -0.801794 4.81931 63 16 6 
1.59892 -0.817663 4.81836 185 125 115 
1.62216 -0.781044 4.81943 101 58 39 
1.63823 -0.850262 4.75924 147 103 90 
1.61342 -0.817964 4.82233 77 0 0 
1.5989 -0.854755 4.81654 173 140 109 
1.58889 -0.882778 4.81331 169 149 125 
1.59313 -0.873677 4.81749 186 149 123 
1.61679 -0.83444 4.82209 97 10 16 
1.61215 -0.86199 4.8195 126 96 86 
1.59954 -0.901802 4.81683 65 45 38 
1.65094 -0.788904 4.82722 57 10 0 
1.63159 -0.841303 4.8248 198 151 133 
1.62616 -0.873852 4.82252 46 16 5 
1.64984 -0.821916 4.82722 161 114 104 
1.64192 -0.835595 4.82841 101 12 18 
1.62498 -0.884332 4.82162 43 8 6 
1.63749 -0.859111 4.8227 45 21 21 
1.63965 -0.879858 4.82693 172 136 104 
1.64914 -0.870245 4.82656 73 0 0 
1.87644 -0.787661 4.64909 108 72 46 
2.17691 -0.592852 4.47399 228 199 165 
2.21103 -0.673174 4.43714 232 189 59 
2.25464 -0.729064 4.41038 92 33 0 
2.24805 -0.737721 4.41828 163 117 39 
2.23593 -0.800169 4.39445 38 0 0 
2.2416 -0.772253 4.41194 164 129 39 
2.22891 -0.822065 4.39621 235 200 48 
2.27791 -0.677577 4.42977 209 154 61 
2.2509 -0.777084 4.40763 73 36 0 
2.26119 -0.741865 4.42176 167 120 32 
2.05928 -0.933616 4.81388 36 26 24 
2.05598 -0.998838 4.79281 35 21 12 
2.10219 -0.926054 4.83157 84 66 56 
2.0636 -1.12199 4.75711 35 29 17 
2.06554 -1.11181 4.76348 31 26 20 
2.10019 -0.961744 4.82579 121 107 96 
2.08865 -1.05678 4.7854 115 99 74 
2.09992 -1.04147 4.78707 116 105 73 
2.14378 -0.967266 4.83989 31 18 10 
2.1379 -1.18964 4.75728 31 28 9 
2.18997 -1.01943 4.82539 40 25 2 
2.21402 -0.940872 4.85155 86 67 60 
2.16269 -1.18495 4.76836 37 35 12 
2.28254 -0.941421 4.77919 77 63 52 
2.19352 -1.13083 4.79553 106 93 87 
2.251 -0.958406 4.85306 31 20 14 
2.25046 -0.980614 4.8465 35 25 16 
2.24792 -1.02298 4.8364 28 14 1 
2.24362 -1.23283 4.76747 80 72 59 
2.24532 -1.24301 4.76095 110 101 96 
2.5748 -0.812459 4.84146 89 65 55 
2.5225 -0.818574 5.06176 92 73 59 
-2.24726 0.405925 3.85362 46 23 15 
-2.22182 0.407439 3.86843 125 105 98 
-2.18339 0.485521 3.7901 170 146 136 
-2.17882 0.38831 3.87088 118 98 91 
-2.15363 0.482247 3.79191 109 81 80 
-2.09389 0.453955 3.83608 106 86 79 
-2.00424 0.447481 3.83242 112 91 88 
-2.00077 0.416333 3.84211 103 82 77 
-1.94016 0.56122 3.72233 183 154 146 
-1.92708 0.387554 3.83578 152 127 120 
-1.81197 0.535606 3.75276 198 163 159 
-1.84391 0.347374 4.17681 61 33 21 
-1.82003 0.342386 4.18301 64 35 21 
-1.783 0.339708 4.17584 58 26 13 
-1.6952 0.506804 3.86728 59 36 22 
-1.74677 0.329406 4.20894 61 28 13 
-1.60907 0.610534 3.67558 59 18 0 
-1.58183 0.621436 3.67876 128 85 50 
-1.66901 0.32263 4.21799 63 30 11 
-1.64907 0.339516 4.15975 60 28 7 
-1.63047 0.341565 4.15629 55 27 13 
-1.63864 0.319322 4.23546 60 32 21 
-1.55789 0.552324 3.78323 65 30 11 
-1.53868 0.5761 3.74322 73 40 23 
-1.52953 0.520893 3.84386 59 32 23 
-1.57263 0.334115 4.16836 59 31 20 
-1.47715 0.573146 3.75213 57 29 25 
-1.48016 0.529795 3.82839 107 77 53 
-1.46765 0.511456 3.86656 59 31 17 
-1.42829 0.498082 3.8854 69 38 17 
-1.42508 0.505687 3.87874 63 31 10 
-0.921971 0.12839 3.76619 21 5 18 
-0.881043 -0.441922 3.99757 60 49 47 
-0.735286 0.0686389 3.87344 63 48 55 
-0.726711 0.044147 3.83416 187 120 164 
-0.704324 0.0403962 3.83101 218 153 193 
-0.507882 -0.0876549 4.04684 30 25 22 
-0.409456 0.00483563 4.07328 32 21 19 
-0.192463 -0.543373 4.04601 127 88 21 
-0.169695 -0.57172 4.04414 210 175 155 
-0.233626 0.990139 4.32241 127 95 74 
-0.163614 -0.445504 3.97994 89 56 0 
-0.140791 -0.566694 4.00118 130 104 43 
-0.219552 0.992385 4.29688 50 28 17 
-0.216501 0.617686 4.01023 78 51 44 
-0.0909485 -0.443795 4.02985 101 77 13 
0.0940594 -0.138268 3.69892 114 86 65 
0.203681 0.981762 4.33187 53 22 1 
0.29924 -0.460748 3.85043 118 112 100 
0.578059 -0.552469 4.28155 85 65 56 
0.583165 -0.640967 4.22524 65 47 37 
0.58675 -0.501083 4.24875 10 0 0 
0.496325 0.520909 4.19514 80 54 39 
0.59378 -0.800779 4.14369 18 0 0 
0.596817 -0.634883 4.19197 52 39 33 
0.608456 -0.526748 4.22793 11 0 0 
0.599257 -0.718446 4.1468 84 69 62 
0.619869 -0.626539 4.21878 21 0 0 
0.604134 -0.85342 4.10558 158 121 113 
0.613119 -0.822568 4.11931 6 6 4 
0.624364 -0.84275 4.10322 19 0 0 
0.652023 -0.532294 4.2445 16 0 0 
0.625175 -0.75385 4.10815 165 105 33 
0.483384 -0.189779 3.81841 113 87 72 
0.700008 -0.534612 4.28634 55 39 26 
0.686219 -0.497899 4.24338 82 64 52 
0.644145 0.92605 4.44915 170 134 108 
0.69034 -0.420625 4.17357 65 42 34 
0.697061 -0.436495 4.12927 106 92 81 
0.748986 -0.416721 4.26856 25 6 0 
0.705848 -0.433445 4.13557 10 0 0 
0.712311 -0.420121 4.15139 59 45 42 
0.717396 -0.449333 4.13165 123 105 91 
0.759016 -0.469601 4.22621 67 49 35 
0.724903 -0.402549 4.13206 19 2 0 
0.68434 -0.419589 4.01024 11 0 0 
0.734316 -0.436814 4.11192 46 30 17 
0.761061 -0.418522 4.11163 149 134 127 
0.824288 -0.525357 4.21222 149 93 10 
0.855521 -0.974443 4.17549 54 0 0 
0.831418 -0.880305 4.1308 108 67 45 
0.835945 -0.497311 4.22212 13 0 0 
0.813115 -0.829539 4.08869 32 6 5 
0.840577 -0.551635 4.2125 185 126 36 
0.855255 -0.522962 4.2069 77 38 0 
0.82642 -0.425731 4.12714 110 96 87 
0.831062 -0.411234 4.13677 62 42 35 
0.87638 -0.509376 4.20237 110 84 57 
0.848228 -0.423646 4.13256 42 28 27 
0.859217 -0.444245 4.147 109 95 84 
0.771478 -0.659408 3.87954 255 209 122 
0.892994 -0.504515 4.21034 26 5 0 
0.887154 -0.891047 4.10512 64 22 0 
0.80383 -0.701592 3.92442 73 0 0 
0.891526 -0.926846 4.08826 4 9 0 
0.863638 -0.787089 4.04157 50 36 25 
0.941421 -0.99473 4.17857 37 15 0 
0.871119 -0.385866 4.10327 104 77 60 
0.955772 -1.00552 4.17141 38 0 0 
0.80836 -0.713918 3.84597 175 117 44 
0.84779 -0.676271 3.90704 136 64 14 
0.929311 -0.832169 4.07096 103 86 76 
0.935097 -0.454115 4.15152 20 0 0 
1.0366 -0.598836 4.35991 200 167 150 
0.958135 -0.430214 4.19372 65 49 49 
0.949839 -0.444988 4.16587 35 21 20 
0.920183 -0.376597 4.08884 209 178 158 
0.961701 -0.441081 4.16009 104 93 91 
0.963636 -0.417351 4.16657 145 126 120 
0.97248 -0.44024 4.16351 25 15 14 
0.979507 -0.416857 4.16677 32 14 10 
0.961742 -0.767551 4.04895 101 90 86 
0.986949 -0.72709 4.10867 66 31 0 
0.970468 -0.764709 4.04131 126 121 118 
0.997121 -0.425407 4.14623 43 26 19 
0.934088 -0.954546 3.89195 225 142 126 
1.01624 -0.443986 4.17445 39 24 19 
0.983773 -1.01806 3.98232 162 134 112 
0.99981 -0.396941 4.11782 162 133 115 
1.02975 -0.457357 4.16913 43 28 21 
0.997051 -1.0404 3.97419 127 0 16 
1.01631 -0.406259 4.13422 199 173 158 
1.0372 -0.447997 4.16936 137 123 112 
1.0994 -0.634214 4.27555 39 0 0 
1.03833 -0.462451 4.16288 78 57 54 
0.994771 -0.948535 3.96724 11 0 0 
1.03537 -0.416779 4.15757 24 2 0 
1.01143 -0.783996 4.02712 92 61 32 
1.04438 -0.426806 4.15587 129 111 101 
0.991803 -0.846083 3.95816 146 102 53 
1.02961 -0.790249 4.04114 93 57 23 
0.998293 -0.928019 3.94161 36 113 45 
1.00791 -0.870499 3.94233 152 125 78 
1.16139 -0.604825 4.32551 196 136 48 
1.10928 -0.466647 4.19752 103 89 80 
1.02483 -0.880574 3.92936 4 35 0 
1.16949 -0.535398 4.31136 24 15 8 
1.1569 -0.54652 4.2762 140 117 101 
1.18055 -0.581646 4.31869 155 106 40 
1.03353 -0.869996 3.93665 50 84 47 
1.06029 -0.802737 4.0052 24 1 7 
1.04381 -0.867284 3.93414 12 31 1 
1.05003 -0.878738 3.93677 7 0 0 
1.14649 -0.476615 4.21326 110 85 78 
1.05658 -0.888213 3.9347 84 78 66 
1.19112 -0.51798 4.28809 62 45 37 
1.158 -0.488398 4.21931 132 111 94 
1.16101 -0.753256 4.16782 83 28 0 
1.29834 -0.64701 4.47636 83 54 38 
1.15658 -0.702127 4.13904 28 18 9 
1.1646 -0.738116 4.14882 171 134 81 
1.17499 -0.492987 4.2104 38 24 15 
1.05795 -0.836886 3.89659 19 48 4 
1.08603 -0.931391 3.93676 48 127 46 
1.18231 -0.457524 4.22585 93 76 69 
1.05802 -0.813658 3.89308 117 78 37 
1.31258 -0.650669 4.46245 30 8 0 
0.800403 1.2907 3.70832 174 137 110 
1.19028 -0.492037 4.22182 115 101 92 
1.20171 -0.506115 4.24066 122 108 99 
1.16894 -0.698974 4.13563 10 0 0 
