ply                 
format ascii 1.0    
element vertex 1298
property float x    
property float y    
property float z    
property uchar red  
property uchar green
property uchar blue 
end_header          
0.0756613 -0.723376 3.66606 94 91 76 
2.29237 -0.286616 3.92233 123 104 90 
2.49508 -0.269759 3.83353 39 14 0 
2.00743 1.03829 3.69255 219 192 173 
1.2367 1.02703 3.68621 139 117 103 
2.45696 -0.336271 3.91214 89 52 0 
3.05346 -0.705795 3.89411 16 12 13 
0.0856055 -0.788067 3.66323 72 105 62 
-0.487581 -0.00329762 3.55549 32 7 3 
-0.0201483 -0.0966631 3.75579 41 17 7 
2.19367 -0.109826 3.71007 55 25 15 
-0.285686 -0.113429 3.7157 221 204 196 
2.2294 -0.118789 3.73379 65 38 27 
2.31022 -0.131299 3.83709 103 76 57 
0.0225315 -0.123418 3.77117 46 35 29 
-0.0509056 -0.133828 3.77594 170 156 143 
2.68658 -0.152214 3.87465 172 143 111 
-0.202403 -0.756238 3.84774 73 25 5 
-0.218418 -0.759617 3.86773 104 68 44 
2.23062 -0.122404 3.74407 34 3 0 
2.25191 -0.181494 3.90762 100 75 53 
2.24608 -0.183753 3.92063 228 203 181 
0.416177 -0.184142 3.86309 10 0 0 
2.38119 -0.190096 3.86462 119 104 99 
0.158474 -0.688634 3.61279 169 133 107 
0.434648 -0.190972 3.86994 11 0 0 
0.418426 -0.201929 3.94636 19 2 0 
-0.364404 -0.201834 3.68406 135 121 112 
-0.230555 -0.23069 3.82817 193 147 69 
2.73431 -0.244541 3.78368 28 0 0 
-0.506795 -0.679022 3.78812 196 106 97 
0.00822635 -0.703287 3.66744 197 155 107 
2.49028 -0.267835 3.84575 207 179 142 
2.48029 -0.278897 3.86013 37 4 0 
2.39241 -0.186568 3.86595 167 146 127 
0.380202 -0.690701 3.96707 131 115 99 
0.406638 -0.22372 3.94834 60 50 41 
2.82624 -0.418758 4.10562 7 0 0 
-0.503343 -0.637039 3.78808 140 123 115 
2.79978 -0.436936 4.11659 120 108 96 
2.66297 -0.403495 3.79243 50 6 0 
2.81835 -0.446229 4.1127 119 106 98 
-0.184006 -0.620403 3.73374 45 8 0 
2.97199 -0.42284 3.8169 176 168 165 
0.459421 -0.439247 3.96215 22 5 0 
2.64887 -0.448913 3.78485 122 82 0 
0.302247 -0.492012 3.78521 54 4 0 
2.65274 -0.659512 4.11889 116 102 93 
-0.156737 -0.507097 3.70953 189 130 72 
2.36078 -0.194789 3.82689 116 99 91 
2.7042 -0.587832 4.11961 39 19 8 
2.69344 -0.588166 4.12451 54 34 23 
2.71586 -0.588483 4.11956 22 4 0 
0.442642 -0.610295 3.93625 170 137 94 
2.76861 -0.610191 4.11747 107 91 78 
2.73834 -0.613067 4.11548 105 88 78 
2.71212 -0.612762 4.12057 97 81 68 
2.78835 -0.614788 4.11901 125 112 95 
2.75319 -0.617412 4.1121 27 14 0 
-0.261482 -0.46494 3.57061 140 79 12 
-0.202906 -0.552929 3.68237 43 1 0 
2.72899 -0.617179 4.11739 21 5 0 
2.66779 -0.607955 4.11569 22 11 0 
2.81274 -0.463677 4.11378 107 93 84 
-0.344036 -0.118429 3.7196 15 5 0 
0.11774 -0.132621 3.79303 133 120 114 
0.015334 -0.120161 3.78079 134 121 113 
2.27054 -0.190477 3.88076 160 137 119 
2.62445 -0.231447 3.78564 134 82 0 
2.54559 -0.408206 3.83439 224 176 74 
0.129908 -0.691207 3.62576 183 142 86 
0.145566 -0.770247 3.70318 106 100 84 
-0.329334 -0.0623978 3.6839 125 98 81 
2.62276 -0.625653 4.1252 138 126 102 
-0.174867 -0.54139 3.67263 28 0 0 
0.452915 -0.623243 3.96898 39 17 6 
-0.0947864 -0.496033 3.79742 208 157 66 
0.448396 -0.262141 4.04916 114 99 92 
-0.155968 -0.500421 3.703 72 22 0 
-0.256072 -0.62182 3.76334 160 142 128 
-0.0268101 -0.116527 3.77306 89 75 64 
-0.15553 -0.466516 3.67879 29 1 0 
2.46472 -0.387098 3.87496 243 198 83 
-0.264006 -0.408143 3.69367 114 89 69 
0.366535 -0.574504 3.95214 107 77 49 
-0.0211722 -0.771509 3.66926 169 122 76 
-0.162115 -0.51334 3.70476 115 71 44 
0.354074 -0.266261 3.99773 126 109 89 
2.67385 -0.723288 4.14286 60 49 29 
0.404851 -0.55222 3.93521 77 60 52 
2.62528 -0.22707 3.79624 224 171 75 
0.0340714 -0.70438 3.65179 92 90 52 
0.0524056 -0.720938 3.66307 8 36 0 
0.329837 -0.371242 3.77097 99 46 0 
0.0725473 -0.128766 3.77737 23 10 2 
2.00866 1.0337 3.68154 202 175 156 
2.12593 0.539506 3.64302 150 126 116 
2.52737 -0.0873242 3.70537 79 62 55 
-0.222262 -0.0844995 3.73698 200 180 171 
-0.0900281 -0.0929143 3.74782 146 126 117 
-0.0316668 -0.0973685 3.77429 41 17 7 
-0.0369385 -0.0993126 3.76566 162 140 129 
-0.374547 -0.0983667 3.73037 43 25 23 
0.0336928 -0.101418 3.7612 14 0 0 
2.22574 -0.106916 3.75623 139 112 101 
-0.301685 -0.106487 3.72486 236 222 213 
-0.320335 -0.112566 3.7284 82 64 60 
2.3287 -0.129455 3.84039 50 39 35 
0.00806682 -0.706821 3.65539 95 53 3 
-0.0617163 -0.126172 3.77966 170 156 145 
0.0192566 -0.700512 3.65329 178 136 88 
0.0456782 -0.130274 3.81778 50 37 28 
2.57787 -0.797504 4.1202 30 20 10 
0.416189 -0.750679 3.95139 206 109 102 
2.67446 -0.154924 3.8526 107 69 30 
0.0786653 -0.678896 3.63305 120 102 56 
2.68353 -0.160634 3.87149 221 184 142 
2.30495 -0.182719 3.87304 47 30 14 
2.29249 -0.190853 3.86169 50 29 10 
-0.505104 -0.649928 3.79287 171 111 101 
0.410812 -0.211352 3.95921 109 95 86 
-0.213396 -0.628327 3.74557 110 79 48 
-0.529715 -0.612627 3.7982 60 43 33 
-0.144064 -0.602377 3.72316 46 7 0 
-0.136501 -0.597341 3.75351 189 148 69 
2.48254 -0.25893 3.8639 35 2 0 
2.47997 -0.272052 3.85076 196 167 127 
0.388264 -0.281765 3.98629 32 15 7 
-0.231923 -0.276586 3.83587 201 159 83 
-0.198631 -0.583734 3.75445 100 82 70 
2.55261 -0.349089 3.78686 254 219 67 
2.55393 -0.352936 3.82067 131 92 0 
-0.22955 -0.564305 3.72345 103 62 18 
2.82801 -0.420873 4.11908 7 0 0 
-0.0389772 -0.560721 3.73106 146 135 133 
2.638 -0.633005 4.12483 16 4 0 
2.99023 -0.419054 3.80107 176 171 168 
2.78107 -0.620085 4.1123 60 44 28 
2.68079 -0.617916 4.11608 105 91 64 
2.82569 -0.500905 4.11973 29 15 2 
2.82789 -0.514755 4.11923 24 10 0 
2.65603 -0.605799 4.12086 118 107 89 
2.67103 -0.609205 4.135 18 6 0 
2.82562 -0.535655 4.11963 40 32 13 
2.73403 -0.599316 4.12169 118 99 92 
-0.495873 -0.531841 3.77447 239 189 136 
0.29718 -0.493549 3.7929 30 0 0 
-0.0488166 -0.495431 3.77192 186 148 109 
2.7475 -0.59201 4.11893 23 5 0 
-0.100083 -0.503153 3.79183 184 132 57 
0.456675 -0.554848 3.9342 105 89 89 
-0.0576906 -0.503311 3.76249 100 56 11 
0.454246 -0.43971 3.97119 29 12 5 
-0.0379639 -0.496635 3.764 60 24 0 
2.62735 -0.232513 3.81106 120 70 0 
2.48572 -0.418959 3.87035 94 54 0 
-0.160092 -0.521646 3.70057 65 19 0 
0.0452203 -0.683977 3.63952 115 77 41 
-0.172393 -0.585523 3.71979 53 35 25 
-0.290125 -0.0984111 3.72277 100 85 78 
0.0761105 -0.742846 3.66878 98 88 78 
-0.313322 -0.129732 3.72702 68 51 41 
0.456929 -0.28894 4.0084 31 14 7 
0.10902 -0.690367 3.60757 164 159 93 
2.51115 -0.331397 3.84376 72 40 0 
2.7617 -0.696859 4.09237 28 18 6 
2.76976 -0.689771 4.11443 92 83 66 
2.64931 -0.587457 4.12232 36 19 3 
2.76007 -0.682147 4.11257 110 94 71 
2.73622 -0.629369 4.12114 73 60 28 
0.453932 -0.431148 3.9774 17 0 0 
-0.0783764 -0.133438 3.78322 36 21 14 
-0.0501665 -0.113819 3.77762 40 23 16 
2.74956 -0.71587 4.11852 41 30 8 
0.207559 -0.606485 3.85555 18 0 0 
0.295545 1.04433 3.69919 32 12 3 
0.0797947 -0.789914 3.67288 72 105 62 
-0.359773 -0.078177 3.64663 206 183 149 
-0.369148 -0.086844 3.72785 31 13 3 
-0.0789802 -0.0922149 3.73635 193 166 157 
2.31262 -0.129761 3.82483 118 92 75 
0.0076797 -0.719986 3.67696 183 159 113 
-0.060307 -0.133201 3.77092 164 150 139 
0.0230004 -0.712332 3.66317 38 25 0 
0.138629 -0.698837 3.61922 193 152 100 
0.0933569 -0.695784 3.62813 45 71 0 
0.428278 -0.167524 3.89039 11 0 0 
0.162066 -0.650377 3.65869 23 0 0 
0.477911 -0.222845 4.0458 49 30 26 
-0.489627 -0.650406 3.79725 189 126 121 
-0.527789 -0.621933 3.80519 135 126 109 
0.394723 -0.281714 3.97533 34 17 9 
2.58393 -0.329339 3.80049 131 88 0 
-0.160642 -0.591627 3.73395 117 105 93 
-0.228071 -0.589242 3.73609 193 157 99 
2.79908 -0.436612 4.10447 109 97 83 
2.82832 -0.525864 4.1191 34 22 8 
0.321247 -0.493712 3.76777 215 153 52 
-0.0524055 -0.495958 3.75361 183 139 92 
0.456675 -0.554848 3.9342 105 89 89 
-0.189782 -0.51511 3.62333 223 161 74 
-0.338448 -0.170862 3.80911 106 91 84 
2.39423 -0.185394 3.88175 29 9 0 
0.0379967 -0.685874 3.64983 115 77 41 
2.81507 -0.444614 4.10112 119 106 98 
-0.0693736 -0.510188 3.77383 144 96 50 
-0.0458172 -0.119529 3.76325 97 80 72 
-0.377239 -0.120961 3.73947 12 0 0 
0.065715 -0.733364 3.67646 19 4 0 
2.76986 -0.640017 4.11312 63 49 38 
2.53231 -0.232511 3.81138 90 67 35 
2.64846 -0.533379 4.11191 31 14 0 
0.486247 -0.243862 4.04667 204 181 165 
2.63307 -0.239213 3.79022 237 192 75 
0.222338 -0.234235 3.91547 36 20 7 
2.12508 0.534083 3.62477 138 114 104 
-0.354634 -0.118489 3.73508 15 5 0 
-0.207545 -0.781874 3.8686 97 62 30 
0.136205 -0.761345 3.71341 24 2 0 
0.0765363 -0.724592 3.67438 24 32 11 
3.19859 0.0249156 3.5697 44 18 5 
0.0820224 -0.693336 3.63466 14 57 4 
0.394355 -0.758899 3.95238 188 130 93 
2.52358 -0.0822286 3.71395 17 0 0 
-0.218292 -0.0841566 3.7284 202 182 173 
-0.359783 -0.0867653 3.71727 13 0 0 
-0.0297389 -0.101021 3.75177 184 162 151 
-0.193903 -0.671836 3.80158 68 25 0 
-0.295599 -0.101515 3.73017 95 80 73 
-0.309016 -0.107351 3.73268 246 232 223 
2.23585 -0.115306 3.76668 183 157 142 
2.77468 -0.119608 3.71877 208 156 109 
2.53235 -0.123563 3.68309 214 185 151 
2.52251 -0.129017 3.6951 18 0 0 
-0.204718 -0.625105 3.75769 34 1 0 
-0.519405 -0.620929 3.79239 135 126 109 
-0.191918 -0.611174 3.7286 57 44 35 
0.0367671 -0.145842 3.78626 154 136 126 
-0.185867 -0.598597 3.71463 111 98 92 
-0.152023 -0.592608 3.72111 111 99 85 
2.30292 -0.182721 3.85638 43 24 9 
0.365834 -0.626848 3.95987 152 125 98 
0.458872 -0.588141 3.96485 16 2 1 
2.53216 -0.234127 3.82792 10 0 0 
0.365463 -0.57988 3.96071 45 17 0 
-0.204899 -0.523612 3.64252 72 0 0 
0.449645 -0.579633 3.98743 142 120 107 
0.467324 -0.266474 4.04778 175 156 139 
-0.237587 -0.251606 3.82276 199 165 140 
0.275837 -0.515018 3.80608 41 9 0 
2.8537 -0.298958 3.72114 88 83 77 
-0.201311 -0.481233 3.87167 145 95 24 
2.6504 -0.526763 4.13563 130 112 98 
-0.18791 -0.461273 3.86973 191 141 18 
0.0598408 -0.931064 3.69353 145 41 50 
0.446768 -0.432551 3.98668 14 0 0 
2.56651 -0.325274 3.80085 254 214 100 
2.75441 -0.658551 4.09004 107 92 71 
0.278029 1.04469 3.71934 114 88 75 
1.23637 1.022 3.67844 106 85 68 
-0.49054 -0.00397428 3.56218 21 0 0 
2.1948 -0.115084 3.69285 76 47 43 
-0.274717 -0.11023 3.68987 212 195 187 
3.03665 -0.130019 3.78864 85 61 51 
0.0924056 -0.722001 3.65555 7 16 0 
-0.0597786 -0.12959 3.75468 44 29 22 
0.0210152 -0.714436 3.65404 183 159 113 
2.6658 -0.152663 3.84648 76 38 0 
2.30372 -0.165613 3.83486 30 14 1 
-0.207716 -0.688662 3.80919 70 26 0 
-0.4813 -0.675882 3.7842 205 114 113 
0.483645 -0.23681 4.04107 66 43 35 
-0.195489 -0.622295 3.74514 39 8 0 
2.50732 -0.285593 3.82578 24 0 0 
-0.520081 -0.579566 3.79327 140 126 113 
2.97431 -0.417958 3.77082 164 153 149 
2.65477 -0.459384 3.81884 252 219 106 
-0.209615 -0.482557 3.88211 153 104 28 
0.266391 -0.501192 3.80813 20 1 0 
-0.211381 -0.507919 3.62672 46 0 0 
0.44505 -0.567604 3.97369 15 0 0 
2.83003 -0.817728 4.10374 114 101 92 
-0.180075 -0.594579 3.72657 90 72 60 
-0.159045 -0.585943 3.71007 42 23 16 
2.81889 -0.446261 4.13535 132 119 111 
0.23646 -0.58016 3.79545 127 113 100 
0.444516 -0.447732 3.97511 107 79 75 
2.91476 -0.0441804 3.57892 126 66 29 
2.57496 -0.339528 3.81123 142 103 0 
0.246133 -0.249077 3.9269 151 125 98 
0.432329 -0.16734 3.8785 38 25 17 
0.368719 -0.614313 3.95616 15 0 0 
0.114266 -0.14687 3.80819 42 31 27 
2.52521 -0.285388 3.82205 22 0 0 
2.97809 -0.955581 4.1154 14 0 0 
2.6658 -0.152663 3.84648 76 38 0 
-0.375933 -0.0896557 3.73536 80 63 56 
-0.132422 -0.601568 3.74488 198 149 21 
0.0077424 -0.717644 3.66599 170 137 94 
1.25012 1.02634 3.69832 122 98 86 
2.88119 -0.3279 3.67171 126 120 106 
0.0355843 -0.696167 3.66087 58 44 17 
0.135563 -0.681897 3.61541 150 109 57 
-0.216108 -0.692621 3.8236 75 33 9 
-0.491523 -0.675389 3.80232 98 0 0 
-0.431107 -0.16558 3.81417 24 12 12 
0.0937445 -0.730877 3.66781 13 26 6 
0.430992 -0.66515 3.96707 102 84 74 
3.07802 -0.64923 3.86845 7 0 0 
0.445853 -0.651133 3.96429 114 93 76 
-0.426395 -0.212394 3.87673 186 160 143 
-0.153072 -0.599715 3.73725 11 0 0 
0.0502528 -0.134315 3.78294 151 133 119 
-0.0690094 -0.129481 3.76654 45 30 23 
-0.0302728 -0.129385 3.75885 47 34 25 
2.21316 -0.094523 3.72387 65 39 26 
2.5395 -0.240474 3.85796 19 15 16 
2.7216 -0.609227 4.14362 75 58 51 
2.56344 -0.330958 3.82299 210 175 49 
0.134254 -0.121718 3.78695 61 46 39 
-0.0388017 -0.121304 3.78069 126 111 104 
2.31658 -0.186308 3.84716 102 85 67 
0.0388085 -0.12964 3.76507 151 137 128 
0.455683 -0.632772 3.9626 158 130 108 
2.52492 -0.287477 3.83135 39 5 0 
0.30297 1.03242 3.70725 115 95 86 
0.122728 -0.631929 3.69048 28 0 0 
-0.0211494 -0.920519 3.72621 124 64 56 
0.134331 -0.847219 3.70146 157 126 108 
2.3855 -0.210121 3.8726 127 100 79 
-0.456241 -0.231224 3.89445 89 71 59 
2.5368 -0.240864 3.84067 9 5 4 
2.51608 -0.241047 3.845 16 8 5 
2.50569 -0.246447 3.84713 41 16 0 
-0.450928 -0.240659 3.86386 190 167 153 
2.74126 -0.249528 3.79779 28 13 16 
2.72103 -0.24972 3.80203 233 167 93 
0.0975738 -0.732789 3.65954 8 21 1 
0.0895065 -0.701215 3.63892 69 124 43 
-0.0223111 -0.695419 3.66089 82 55 28 
0.100977 -0.684189 3.60176 15 53 4 
0.117181 -0.689124 3.62484 209 168 114 
2.50043 -0.273046 3.848 35 11 0 
2.5294 -0.276707 3.80492 15 9 0 
0.39803 -0.711384 3.95859 18 1 0 
0.169181 -0.644412 3.64661 21 0 0 
2.31814 -0.194737 3.93563 150 129 110 
2.51436 -0.286441 3.81032 119 82 30 
2.5176 -0.291199 3.87966 153 115 40 
2.87045 -0.285058 3.70178 19 11 8 
-0.221378 -0.630521 3.76971 33 2 0 
-0.204487 -0.605618 3.74349 114 101 95 
3.10161 -0.623909 3.83218 153 131 107 
2.68413 -0.161773 3.84593 207 174 143 
3.1049 -0.614201 3.8694 35 11 11 
3.11505 -0.613899 3.8673 51 26 30 
0.337445 -0.60203 3.97199 104 68 42 
2.51831 -0.128797 3.67781 17 0 0 
-0.377712 -0.114869 3.70803 177 152 132 
-0.103661 -0.505884 3.80432 207 159 49 
0.248431 0.0583165 3.61804 107 89 79 
2.48985 -0.408773 3.85039 85 61 33 
-0.00898636 -0.809603 3.67017 146 121 99 
0.00217402 -0.784993 3.64156 87 0 0 
-0.0550229 -0.788367 3.7068 171 126 87 
-0.292604 -0.113524 3.73664 52 37 32 
-0.397623 -0.113244 3.73036 175 151 127 
0.0155441 -0.140251 3.81759 157 139 125 
-0.144278 -0.636843 3.78278 199 147 11 
2.31978 -0.170158 3.83169 23 15 12 
0.386979 -0.652685 3.96145 27 16 12 
0.159139 -0.599247 3.84325 136 87 29 
-0.176475 -0.546553 3.67992 61 42 25 
-0.453618 -0.218178 3.9092 176 153 135 
2.69734 -0.232421 3.79317 195 173 149 
2.70613 -0.236779 3.87684 200 174 151 
-0.435419 -0.240223 3.84611 192 169 153 
2.87065 -0.283961 3.71525 14 10 9 
2.91039 -0.292764 3.66664 96 87 78 
0.206155 -0.244925 3.90215 140 106 78 
0.416826 -0.581484 3.9222 97 46 19 
-0.284478 -0.216962 3.87569 170 144 121 
3.13985 -0.670681 3.87783 37 11 10 
0.204543 -0.586614 3.80356 18 1 0 
0.316497 0.0495484 3.53138 78 61 51 
2.88105 -0.298616 3.70431 148 138 129 
2.8289 -0.807626 4.10916 34 21 5 
0.0756663 -0.101452 3.76141 28 4 0 
0.0745003 -0.128538 3.77465 20 3 0 
2.78185 -0.619054 4.11372 13 0 0 
2.89102 -0.255242 3.70742 119 110 103 
0.42067 -0.28696 4.00809 13 0 0 
2.76002 -0.681926 4.11123 125 109 94 
2.76478 -0.711508 4.11237 115 105 95 
2.66885 -0.723407 4.1106 102 90 76 
2.76856 -0.639444 4.11445 18 6 0 
2.77242 -0.601718 4.11422 11 0 0 
-0.0210233 -0.121873 3.76967 171 154 146 
0.0287683 -0.130359 3.77436 160 143 135 
0.411044 -0.719827 3.96125 201 151 140 
0.370211 -0.687339 3.96246 34 1 0 
0.0242166 -0.125564 3.76694 21 7 0 
2.76442 -0.659598 4.11375 118 104 93 
-0.034109 -0.135305 3.75767 41 22 15 
2.92619 -0.296116 3.6996 139 131 120 
0.391727 -0.758493 3.95348 219 146 114 
-0.0417978 -0.134356 3.76556 150 130 121 
2.68061 -0.617842 4.11099 95 81 54 
-0.0315547 -0.115521 3.75746 108 91 83 
2.78357 -0.637817 4.11218 100 93 87 
2.8959 -0.284501 3.70266 10 0 0 
2.88641 -0.233358 3.71185 133 124 115 
0.383998 -0.751749 3.95509 84 0 0 
0.297977 0.0581659 3.53273 106 78 66 
2.76771 -0.648821 4.1102 38 27 25 
0.38532 -0.724678 3.95887 173 136 110 
1.25476 0.546365 3.61423 172 149 141 
0.378913 -0.714051 3.96045 174 141 122 
2.54152 -0.25269 3.79168 8 6 7 
2.71548 -0.588253 4.11889 15 0 0 
2.67975 -0.587923 4.11759 15 0 0 
2.63647 -0.58764 4.11679 121 105 89 
2.75909 -0.590882 4.1162 19 0 0 
2.74745 -0.591466 4.12042 19 1 0 
2.73254 -0.597752 4.11787 138 121 114 
2.73279 -0.608715 4.11437 144 127 119 
2.69677 -0.612747 4.11658 14 1 0 
2.71737 -0.614464 4.11553 17 4 0 
2.74793 -0.616294 4.11347 120 104 91 
2.64015 -0.642243 4.11669 28 19 4 
2.76654 -0.659888 4.11598 138 126 114 
2.66096 -0.665099 4.11543 140 121 114 
2.72525 -0.589598 4.1148 16 0 0 
0.0258568 -0.124 3.76727 21 8 0 
2.70441 -0.587792 4.11607 28 11 1 
2.66268 -0.586098 4.11865 11 0 0 
2.64926 -0.605185 4.11959 15 0 0 
2.78748 -0.614711 4.11459 123 111 89 
2.68917 -0.619518 4.1171 54 43 13 
2.78175 -0.63199 4.11497 35 18 8 
2.65186 -0.658821 4.1125 118 103 96 
2.76105 -0.681332 4.11281 124 108 92 
3.4884 0.859522 3.93621 101 90 72 
2.71575 -0.601144 4.1154 124 109 104 
2.76477 -0.711008 4.11268 117 107 97 
2.66853 -0.672711 4.11497 45 23 12 
2.75919 -0.668915 4.11293 54 37 19 
-0.0234192 -0.116803 3.76881 62 49 40 
0.403725 -0.283526 4.00006 15 3 0 
2.64976 -0.586629 4.116 23 10 0 
2.77234 -0.602315 4.11543 39 21 9 
3.51541 0.866577 3.93487 28 22 0 
3.47942 0.86693 3.93663 22 17 0 
2.65495 -0.64656 4.11927 52 40 18 
3.443 0.870048 3.93518 118 112 90 
2.76847 -0.639731 4.11578 10 0 0 
2.72109 -0.624663 4.11862 60 49 21 
2.73275 -0.625956 4.11441 54 40 13 
2.75152 -0.707265 4.11347 103 90 74 
3.47713 0.85142 3.93354 101 99 78 
3.53517 0.853583 3.93396 106 102 77 
2.61587 -0.652371 4.11479 109 106 99 
2.21602 1.03409 3.67839 227 200 183 
2.67033 -0.717723 4.11498 42 31 11 
2.00813 1.03558 3.67629 203 176 159 
2.77029 -0.675199 4.11578 95 85 75 
0.0761359 -0.106093 3.75878 18 0 0 
2.66496 -0.599636 4.11433 139 125 116 
2.76885 -0.618755 4.11642 14 0 0 
-0.0367559 -0.103989 3.76596 41 23 19 
0.231133 -0.582286 3.81629 139 126 110 
0.0716588 -0.126871 3.78044 14 0 0 
1.25163 0.526791 3.60692 128 108 99 
2.63766 -0.602089 4.11604 15 0 0 
0.409507 -0.763833 3.9505 195 110 69 
3.50542 0.808249 3.92972 36 32 7 
-0.0504889 -0.1274 3.77444 141 128 119 
2.69363 -0.588731 4.11755 17 0 0 
0.224559 -0.582148 3.81216 162 150 138 
-0.0207887 -0.0990494 3.76069 31 8 0 
2.70721 -0.625948 4.11685 74 63 35 
2.75623 -0.629935 4.10782 73 60 28 
0.395554 -0.755053 3.94866 221 157 129 
0.388194 -0.704897 3.95349 15 0 0 
0.380812 -0.654591 3.95833 179 159 135 
0.0326826 -0.130865 3.77683 145 131 122 
0.0292059 -0.124028 3.75942 21 8 0 
1.24389 1.02415 3.67982 35 10 3 
0.424489 -0.699584 3.96392 59 39 30 
0.384268 -0.693745 3.95394 183 162 141 
0.480197 -0.220674 4.04238 65 47 35 
0.363404 -0.62582 3.9622 175 146 116 
0.468729 -0.582924 3.95143 115 76 47 
2.20576 1.02445 3.67714 34 8 0 
0.0492542 -0.144438 3.77139 169 155 146 
2.56802 -0.813308 4.10755 126 116 114 
0.392813 -0.720815 3.94945 167 132 110 
3.11976 -0.617465 3.90259 25 0 3 
0.393838 -0.745868 3.94425 131 0 0 
0.375715 -0.56581 3.95169 27 10 0 
2.76075 -0.620826 4.11871 105 89 73 
0.0324498 -0.100971 3.76277 14 0 0 
0.0727518 -0.106154 3.76451 18 1 0 
0.0221892 -0.123147 3.77178 46 35 29 
0.418204 -0.181328 3.85028 13 0 0 
0.391917 -0.714186 3.95688 137 116 97 
2.48603 -0.267221 3.82402 207 179 142 
2.67601 -0.415001 3.80031 97 57 0 
0.384055 -0.65028 3.95815 113 100 84 
0.0650212 -0.12859 3.78475 33 20 11 
0.399782 -0.28592 4.02144 130 117 108 
2.6161 -0.652722 4.11271 107 103 94 
2.70974 -0.622522 4.11895 68 53 30 
0.222044 -0.236723 3.89635 101 79 58 
-0.0257038 -0.116244 3.77117 89 75 64 
2.62792 -0.63567 4.12195 69 57 43 
0.317915 0.050424 3.5299 62 44 34 
-0.0263968 -0.0973243 3.76527 41 17 7 
-0.0405932 -0.0994017 3.77188 162 140 129 
-0.0525624 -0.135217 3.77815 161 147 134 
-0.0368746 -0.135891 3.7621 67 54 45 
0.416105 -0.750475 3.95157 206 109 102 
2.39896 -0.20216 3.84678 220 190 164 
2.66418 -0.410844 3.79589 54 10 0 
0.452194 -0.440287 3.97622 29 12 5 
0.388182 -0.617083 3.94518 10 0 0 
0.453181 -0.281964 3.95244 131 118 109 
0.223675 -0.234963 3.91008 40 23 7 
0.226682 -0.584088 3.82135 136 124 108 
2.15218 -0.138365 3.69292 144 116 94 
0.450454 -0.633294 3.97498 158 130 108 
0.478524 -0.223088 4.04557 56 37 31 
0.414218 -0.729318 3.95401 182 81 85 
-0.0230715 -0.120793 3.75825 132 119 111 
0.484337 -0.244786 4.05151 204 181 165 
2.63644 -0.240399 3.80421 237 192 75 
0.218689 -0.583792 3.81882 146 130 117 
0.372857 -0.610233 3.94624 15 0 0 
0.37496 -0.636784 3.95344 88 68 43 
0.390139 -0.751644 3.9483 109 20 6 
0.392926 -0.726663 3.95576 174 123 104 
-0.0317632 -0.126599 3.75532 47 34 25 
0.116908 -0.132931 3.78759 128 115 109 
0.0533352 -0.13271 3.78343 154 138 123 
0.231004 -0.582143 3.81129 127 115 101 
0.451203 -0.579048 3.9836 142 120 107 
0.0610994 -0.131593 3.79314 35 22 14 
0.413437 -0.213316 3.94931 115 101 92 
2.6842 -0.604546 4.086 120 104 88 
0.465061 -0.297865 4.01933 76 57 43 
0.360955 -0.626754 3.96526 146 115 84 
0.413887 -0.760424 3.94807 135 39 14 
0.490633 -0.24458 4.04317 199 173 158 
0.394021 -0.612116 3.93276 8 0 0 
0.484836 -0.231719 4.04007 64 41 33 
0.464924 -0.260494 4.0196 22 5 0 
0.303204 -0.513989 3.79484 219 169 34 
2.63736 -0.595337 4.11846 37 21 6 
2.79009 -0.62659 4.12352 58 44 35 
0.22514 -0.60232 3.82996 37 6 0 
0.455094 -0.297987 4.03255 71 52 46 
0.296086 0.0573779 3.53471 95 77 67 
0.450398 -0.616854 3.95107 13 5 3 
0.239538 -0.251226 3.92439 143 112 81 
2.49862 -0.424926 3.86738 168 143 103 
0.244799 -0.572043 3.82557 16 11 7 
0.287127 0.0577973 3.54424 107 89 79 
3.12819 -0.642875 3.91626 157 132 110 
0.353015 -0.597702 3.94912 97 47 20 
0.48535 -0.234146 4.0292 64 44 43 
2.54582 -0.341388 3.80285 171 132 39 
2.4828 -0.262521 3.83311 92 62 34 
-0.0504737 -0.125369 3.76516 207 192 187 
-0.0536537 -0.133967 3.77993 212 194 184 
-0.0637309 -0.133831 3.77371 218 199 192 
-0.0708738 -0.132155 3.77441 41 26 19 
2.89059 -0.256505 3.71782 117 110 104 
2.89419 -0.286245 3.70948 13 0 0 
2.69166 -0.313349 3.7898 186 127 85 
2.8941 -0.333202 3.70931 162 153 148 
2.55255 -0.350714 3.8032 138 99 0 
2.76594 -0.416839 4.10442 24 1 0 
2.77966 -0.434005 4.12401 111 98 90 
2.76446 -0.434028 4.12489 29 0 0 
3.05449 -0.765581 3.88583 57 35 24 
2.77573 -0.508186 4.12399 130 116 105 
2.82941 -0.523875 4.11056 12 0 0 
2.6663 -0.585987 4.12013 33 20 1 
-0.0980205 -0.25424 3.92003 187 152 130 
0.480471 -0.243526 4.05028 70 48 34 
2.31997 -0.296542 3.86935 147 121 104 
2.88078 -0.299666 3.71018 168 152 137 
2.45601 -0.333742 3.87794 89 56 0 
0.183119 -0.756152 3.73348 190 162 115 
0.419775 -0.662005 3.98434 99 82 75 
2.9779 -0.427012 3.82939 75 69 69 
2.82377 -0.803152 4.09981 118 106 94 
2.77955 -0.494865 4.12381 119 107 95 
2.77833 -0.501242 4.11361 122 110 98 
2.77694 -0.503719 4.13424 122 110 98 
2.82944 -0.504924 4.11063 81 65 50 
2.6531 -0.533805 4.12098 29 12 0 
0.022841 -0.125755 3.77959 157 142 135 
2.19566 -0.119906 3.67423 87 59 47 
3.05474 -0.704281 3.89505 12 4 2 
-0.0401261 -0.0987514 3.77108 181 163 151 
0.442903 -0.614891 3.94483 17 0 0 
0.851571 0.0554879 3.49937 160 138 115 
2.31952 0.0437471 3.50068 185 155 127 
0.237421 -0.580823 3.79197 144 128 115 
0.0815955 -0.118778 3.74933 65 52 44 
2.2077 -0.147607 3.69633 134 108 85 
-0.0207007 -0.12049 3.76936 41 28 22 
2.76977 -0.517407 4.13874 121 108 99 
2.09315 -0.16685 3.71187 127 102 80 
0.23387 -0.583639 3.81466 142 128 115 
0.412678 -0.726087 3.95686 179 110 105 
2.32995 -0.128519 3.79244 24 7 0 
0.0568153 -0.122429 3.77625 154 142 130 
-0.101126 -0.306118 3.90791 160 122 99 
0.023775 -0.525419 3.76144 17 0 0 
0.418174 -0.742049 3.95645 123 27 28 
0.0757284 -0.811549 3.93483 65 29 0 
0.0316186 -0.142524 3.77887 39 19 18 
0.401975 -0.553695 3.94001 76 63 55 
2.76283 -0.697544 4.11397 43 31 17 
3.08935 -0.596321 3.92108 91 74 66 
0.325782 0.0499525 3.52147 65 48 40 
2.78927 -0.442896 4.12128 136 120 105 
0.165926 -0.76977 3.74522 199 154 112 
2.94503 -0.427119 3.83992 153 152 150 
2.57643 -0.805865 4.0968 29 19 10 
0.399828 -0.755015 3.94336 205 139 105 
2.67833 -0.15775 3.89339 102 64 19 
0.0339098 -0.101495 3.7609 13 0 0 
0.185999 -0.639839 3.69007 32 0 0 
0.38498 -0.692173 3.95434 152 133 119 
0.0224462 -0.12361 3.77085 27 16 10 
0.0625245 -0.129799 3.77568 157 143 130 
2.87966 -0.288308 3.71351 12 0 0 
0.427223 -0.653241 3.98014 22 2 0 
2.76919 -0.689421 4.10959 106 96 84 
2.82783 -0.531608 4.10179 15 1 0 
2.68209 -0.163861 3.86642 218 177 133 
-0.0654688 -0.117512 3.77943 98 84 83 
0.40933 -0.608615 3.93153 167 131 95 
-0.134879 -0.256057 4.01167 183 158 136 
2.72057 -0.626726 4.12487 59 45 16 
2.66441 -0.613406 4.16581 23 10 0 
0.230604 -0.581439 3.80207 144 128 115 
-0.0461787 -0.123557 3.77758 41 26 21 
0.0775428 -0.12579 3.77419 103 90 82 
0.161918 -0.644946 3.68589 23 0 0 
-0.0396319 -0.113517 3.77685 143 128 121 
-0.0503751 -0.113506 3.77791 33 18 15 
2.70796 -0.624856 4.11335 78 64 35 
0.470431 -0.223659 4.05642 59 44 37 
0.130189 -0.131152 3.78678 75 65 63 
0.447877 -0.569742 3.98168 79 61 47 
0.441351 -0.443027 3.9936 18 3 0 
0.0867605 -0.808366 3.91846 65 29 0 
2.79385 -0.426973 4.1285 79 68 62 
-0.0286119 -0.0980215 3.76874 33 15 5 
2.23786 -0.115286 3.69963 203 176 159 
0.414317 -0.752614 3.95386 186 100 87 
0.0275797 -0.124514 3.76346 28 14 11 
0.427315 -0.715542 3.94051 174 142 127 
2.66831 -0.152092 3.87301 44 5 0 
3.05925 -0.70715 3.88495 165 148 122 
0.395738 -0.643121 3.94291 14 0 0 
2.88967 -0.234295 3.71703 130 125 119 
0.167142 -0.59226 3.82817 105 71 23 
2.89622 -0.302245 3.69902 10 0 0 
2.7648 -0.403702 4.11548 21 0 0 
0.309851 -0.368459 3.72804 46 0 0 
2.76646 -0.421525 4.13011 31 2 0 
0.464605 -0.586744 3.95988 22 2 0 
2.76475 -0.433753 4.11538 24 0 0 
2.80205 -0.437931 4.12799 119 107 95 
2.76641 -0.448959 4.13003 35 9 0 
0.453033 -0.4059 3.99882 80 63 53 
0.453404 -0.568798 3.97058 72 54 44 
2.78305 -0.438906 4.0851 121 103 89 
0.407692 -0.149511 3.87517 30 15 8 
0.232323 -0.241218 3.89711 70 44 21 
-0.0442115 -0.114838 3.77042 39 24 21 
0.312529 -0.368257 3.73819 92 34 0 
0.137397 -0.143164 3.79292 122 109 101 
0.158906 -0.639066 3.82936 97 36 0 
0.183498 -0.749984 3.71488 196 159 106 
0.0782542 -0.794012 3.95255 76 38 15 
3.13293 -0.626017 3.88647 176 155 138 
2.77176 -0.443129 4.12383 137 114 108 
2.22842 -0.119529 3.69579 64 35 29 
2.53677 -0.236103 3.8015 17 0 0 
-0.0245921 -0.120739 3.82985 136 123 115 
0.304778 -0.4933 3.77539 30 10 1 
0.277211 -0.516039 3.80397 41 13 0 
0.332101 -0.369889 3.76923 77 19 0 
2.92451 -0.29651 3.70796 121 110 104 
2.74964 -0.714378 4.10675 16 5 0 
0.303783 -0.412474 3.70052 91 31 0 
0.453837 -0.619715 3.96605 18 0 0 
0.233367 -0.582351 3.8086 145 129 114 
0.127114 -0.705576 3.93898 51 11 0 
0.436942 -0.399786 4.00717 10 0 0 
0.233659 -0.236153 3.88002 115 89 62 
2.31663 -0.168972 3.7951 30 19 17 
0.173265 -0.752638 3.73246 193 157 99 
2.66365 -0.600623 4.13696 105 91 82 
3.09877 -0.622029 3.89146 139 121 107 
0.12509 -0.732334 3.92769 19 0 0 
0.392396 -0.757677 3.95263 166 106 70 
0.397232 -0.748152 3.93844 113 0 0 
2.50388 -0.414248 3.83542 170 151 111 
0.381218 -0.68224 3.95328 14 0 0 
2.49974 -0.279594 3.81829 44 16 0 
0.287355 -0.513001 3.81329 54 15 18 
3.13481 -0.615378 3.85543 17 0 0 
0.26877 -0.525983 3.83089 210 156 47 
2.52586 -0.234061 3.83446 18 0 0 
0.347053 -0.595873 3.95579 77 43 15 
0.415695 -0.214271 3.9464 109 96 90 
2.66748 -0.679703 4.1365 33 15 5 
3.12383 -0.622544 3.87146 170 148 134 
0.403933 -0.759032 3.95163 137 28 8 
0.144879 -0.592205 3.78281 131 98 55 
0.268328 -0.616531 3.86355 92 77 72 
2.53383 -0.277426 3.78146 111 82 40 
3.19743 0.0246442 3.56765 43 17 4 
2.91812 -0.0443975 3.59702 112 60 21 
2.85545 -0.301448 3.71828 104 105 91 
2.76491 -0.400382 4.10178 19 0 0 
2.21423 -0.0951411 3.71827 31 4 0 
0.454748 -0.269452 4.06844 196 175 158 
0.440126 -0.648178 3.94392 10 0 0 
0.38009 -0.613445 3.94938 7 0 0 
0.464567 -0.232797 4.06728 60 42 38 
2.39509 -0.202769 3.86696 124 98 81 
2.67363 -0.593113 4.03662 22 8 0 
0.474551 -0.274683 4.00099 82 65 55 
0.164651 -0.759692 3.72455 62 60 22 
2.77751 -0.121888 3.76384 100 55 24 
0.442535 -0.638062 3.98541 132 114 90 
0.397771 -0.227958 3.96552 8 0 0 
2.51867 -0.237422 3.88151 20 0 0 
0.461635 -0.260195 4.02394 27 17 8 
0.441687 -0.449889 3.97998 101 76 72 
0.316007 0.0488377 3.52302 28 11 4 
0.178197 -0.772581 3.74098 113 64 32 
0.387704 -0.710626 3.94941 114 87 66 
3.0584 -0.716653 3.90157 97 81 65 
0.413533 -0.225674 3.94334 8 0 0 
3.15404 -0.652451 3.89674 20 0 0 
0.232381 -0.600847 3.8217 27 4 0 
0.475112 -0.268369 4.04001 190 165 143 
2.88674 -0.264994 3.70867 93 84 67 
2.88758 -0.328169 3.68469 134 124 115 
2.50051 -0.421504 3.85571 173 154 114 
2.66288 -0.684139 4.09624 26 8 0 
2.42949 -0.941706 4.08672 13 0 0 
2.32642 -0.126851 3.80099 99 81 71 
0.399779 -0.205542 3.98462 8 0 0 
0.375016 -0.682863 3.96019 21 0 0 
0.477568 -0.234031 4.03962 56 41 38 
0.228001 -0.60293 3.83122 20 0 0 
0.27363 -0.600907 3.85426 19 7 7 
0.449137 -0.618286 3.95268 16 5 3 
0.408302 -0.583696 3.93653 95 50 31 
0.4293 -0.586596 3.95433 105 59 25 
1.2787 0.535806 3.57162 149 125 113 
0.450015 -0.260245 4.04236 27 17 8 
0.241216 -0.572177 3.8297 8 1 0 
2.87539 -0.303297 3.61846 148 138 129 
2.78618 -0.623377 4.10033 13 0 0 
-0.67931 -0.960709 5.27861 205 127 125 
2.77513 -0.598105 4.10046 13 0 0 
2.76842 -0.662868 4.10045 118 104 93 
2.76203 -0.684987 4.09483 125 109 94 
2.78754 -0.641427 4.09735 100 93 87 
2.91529 -0.0536461 3.47267 101 57 32 
2.77153 -0.64375 4.09649 35 22 16 
-0.69715 -0.937732 5.28379 90 62 51 
0.447441 -0.304503 4.06311 32 15 7 
0.457926 -0.297507 4.06546 53 33 26 
-0.681804 -1.00824 5.26978 210 143 117 
2.89243 -0.287343 3.61293 12 0 0 
-0.736003 -0.805182 5.29539 150 108 70 
2.87687 -0.167028 3.72916 120 112 101 
2.81967 -0.80423 4.12592 11 1 0 
2.63313 -0.588997 4.14191 15 0 0 
2.7143 -0.58997 4.13659 15 0 0 
2.68032 -0.589956 4.13873 15 0 0 
2.74767 -0.593859 4.14131 19 1 0 
2.73282 -0.600062 4.13879 138 121 114 
2.76304 -0.602004 4.13693 124 106 92 
2.73306 -0.611053 4.13522 144 127 119 
2.69718 -0.614871 4.13742 14 1 0 
2.74245 -0.620634 4.13454 13 0 0 
2.6408 -0.644045 4.13748 28 19 4 
2.76649 -0.662371 4.13618 138 126 114 
2.66143 -0.667001 4.13591 140 121 114 
0.416994 -0.746952 3.94038 229 126 117 
2.72562 -0.591893 4.13587 16 0 0 
2.66183 -0.587547 4.13651 11 0 0 
2.76865 -0.611593 4.13649 114 97 87 
2.78752 -0.617361 4.1353 123 111 89 
2.75537 -0.621165 4.1372 14 0 0 
2.6896 -0.621576 4.13794 54 43 13 
1.25145 0.524839 3.6389 116 96 87 
2.65242 -0.660706 4.13313 118 103 96 
2.76097 -0.684772 4.13283 124 108 92 
3.21815 1.46878 4.0517 98 84 71 
0.183726 -0.131844 3.5441 26 13 7 
2.76619 -0.714085 4.13565 117 107 97 
2.65051 -0.587547 4.13724 23 10 0 
3.53431 0.865979 3.94721 31 27 2 
3.44955 0.870428 3.95664 118 112 90 
2.31124 0.528127 3.62019 197 169 148 
2.76848 -0.642254 4.13618 10 0 0 
3.508 0.807133 3.94469 36 28 5 
2.74948 -0.716346 4.13331 27 16 0 
2.71977 -0.62637 4.13589 60 49 21 
2.62056 -0.626298 4.13556 142 130 108 
3.47936 0.848815 3.94716 101 99 78 
2.66904 -0.726642 4.13153 98 88 78 
2.77251 -0.597221 4.13632 20 0 0 
2.61666 -0.654046 4.13568 109 106 99 
2.76315 -0.632136 4.13316 58 45 13 
2.77018 -0.677698 4.13579 95 85 75 
3.68381 1.45731 4.01098 141 118 100 
0.400268 -0.751058 3.92801 219 132 113 
2.69363 -0.590162 4.14054 13 0 0 
2.64414 -0.606814 4.13957 115 98 78 
2.78151 -0.631109 4.13899 23 7 0 
2.63769 -0.633769 4.13564 11 0 0 
2.73649 -0.63044 4.13759 58 44 15 
2.70751 -0.61256 4.13532 24 10 0 
2.71661 -0.606819 4.13492 139 124 117 
2.71555 -0.595862 4.1276 131 116 111 
3.25472 1.22028 4.01652 53 32 11 
2.65557 -0.606769 4.13385 126 113 96 
2.78487 -0.641406 4.13533 120 107 99 
0.435693 -0.284339 3.99343 149 139 129 
2.44978 -0.362445 3.88947 100 61 4 
2.70654 -0.628186 4.13546 74 63 35 
0.431523 -0.305494 4.08406 26 9 0 
3.70946 1.16568 3.99309 182 154 132 
1.25268 0.541196 3.64408 190 167 159 
2.68552 -0.583829 4.0804 16 0 0 
2.86743 -0.310534 3.7008 15 1 0 
2.56971 -0.816488 4.12598 126 116 114 
0.473972 -0.247648 4.10426 209 184 162 
0.475272 -0.234431 4.08644 64 41 33 
2.90882 -0.297343 3.69711 93 84 75 
0.392518 -0.744687 3.92619 88 0 0 
2.76458 -0.620671 4.1429 72 55 47 
2.63482 -0.599018 4.13417 17 0 0 
0.449667 -0.259116 4.0685 52 38 29 
0.467466 -0.233758 4.09303 71 53 49 
3.10689 -0.638754 3.90179 156 132 108 
0.392597 -0.722399 3.93216 162 132 106 
0.352587 -0.597581 3.9348 95 50 17 
3.08692 -0.623229 3.90704 152 131 112 
3.70608 0.93338 3.94953 178 151 124 
2.00618 1.02952 3.69873 219 192 173 
2.12406 0.526645 3.61166 135 110 103 
0.415242 -0.716452 3.91711 124 64 54 
2.24357 -0.181614 3.90051 228 203 181 
0.456596 -0.243972 4.11504 55 31 21 
-11.7323 -3.50125 19.0334 171 111 101 
-11.6505 -3.38989 18.8526 14 0 0 
2.83144 -0.526865 4.13478 42 28 15 
2.68489 -0.611358 4.12936 32 19 0 
3.05056 -0.700467 3.88469 77 71 71 
0.363883 -0.492785 3.61381 108 90 70 
2.63819 -0.588016 4.13047 108 91 73 
0.334147 -0.581252 3.74527 96 73 55 
2.81659 -0.466301 4.13744 107 93 84 
0.42619 -0.288182 4.03024 133 120 111 
-11.5669 -3.50133 18.9669 182 102 103 
0.309878 -0.130699 3.41643 38 25 19 
3.68715 1.48462 4.06595 106 80 65 
3.21753 1.47242 4.06794 43 29 18 
0.411921 -0.550794 3.92182 77 60 52 
2.21502 1.0193 3.69261 192 166 149 
0.435164 -0.149719 3.82708 15 0 0 
0.426948 -0.746435 3.92788 206 109 102 
0.434062 -0.183737 3.82452 14 1 0 
-11.6233 -3.48327 19.0423 196 137 133 
-11.7743 -3.49704 19.2501 113 62 61 
0.418037 -0.605585 3.91399 176 134 96 
-11.9294 -3.17015 19.7272 46 28 18 
2.74895 -0.61984 4.12406 114 98 82 
-11.7137 -2.83505 18.9916 239 189 136 
2.68766 -0.592831 4.13258 112 93 87 
2.70364 -0.589243 4.13078 54 34 23 
-11.7153 -3.72253 19.1263 120 9 0 
-12.0392 -2.87587 19.1885 24 0 0 
0.441753 -0.284525 3.98501 131 118 109 
2.65397 -0.648566 4.12975 34 19 0 
3.68896 1.48931 4.07545 115 89 74 
-11.5653 -3.72099 18.9023 174 110 62 
0.410531 -0.751855 3.91524 188 130 93 
-11.5783 -3.63983 18.9754 199 116 110 
-11.6649 -3.47654 18.9316 166 117 103 
-11.793 -3.50033 19.3187 125 96 88 
-11.7029 -3.39016 18.9236 13 0 0 
0.337965 -0.580471 3.72389 20 5 2 
-11.8097 -3.1767 19.5451 136 119 111 
-11.9732 -3.09251 19.3003 20 10 0 
-11.7361 -2.89409 19.32 238 189 122 
-12.1058 -2.70413 19.3211 26 8 0 
0.287614 -0.238135 3.76948 158 129 99 
2.75602 -0.657926 4.12277 62 51 23 
3.22614 1.47264 4.06243 127 110 94 
-11.6675 -3.72697 19.0658 122 22 6 
-11.7213 -3.36346 19.3306 137 124 116 
-11.6533 -3.22462 18.7865 11 0 0 
0.401405 -0.61333 3.91693 10 0 0 
-11.7408 -3.17015 19.4405 118 100 96 
-11.897 -3.11562 19.1706 130 118 106 
-11.893 -3.08742 19.2164 9 0 0 
0.287005 -0.231506 3.78737 39 23 8 
-12.1172 -2.97276 19.321 130 111 94 
-11.9217 -2.89497 19.1846 18 4 3 
-11.7245 -2.84846 19.0179 205 166 123 
-11.6364 -2.86815 19.1741 240 190 117 
0.444711 -0.556779 3.96399 102 86 86 
-12.0353 -2.68987 19.2179 26 8 0 
2.6589 -0.410198 3.78316 54 10 0 
0.0970694 -0.151058 3.67944 154 136 126 
0.406356 -0.715923 3.92353 164 138 115 
-11.7287 -3.63978 19.2042 112 0 4 
-11.7591 -3.47 19.3129 15 0 0 
-11.7641 -3.37643 19.3845 137 124 116 
-11.9089 -3.27608 19.1267 20 5 0 
-12.0676 -3.19677 19.8428 15 3 5 
-11.8466 -2.65958 19.705 19 0 0 
-11.7204 -2.84348 19.0325 237 184 108 
-12.0092 -2.9023 19.273 7 0 0 
0.409964 -0.30779 4.11237 37 24 16 
-12.0141 -2.95347 19.1876 138 119 104 
0.302245 -0.121131 3.4712 57 40 32 
0.461396 -0.234532 4.105 64 41 33 
0.398595 -0.704108 3.92771 95 74 47 
-11.7613 -3.53462 19.2464 168 121 111 
-11.5811 -3.43831 18.7837 152 127 107 
-11.8552 -3.41593 19.1222 26 8 0 
-11.8837 -3.34229 19.1269 135 126 109 
-11.7659 -3.39056 19.3677 45 31 31 
3.12143 -0.6301 3.87757 158 136 113 
-11.9573 -3.10412 19.1973 145 126 109 
-11.8141 -3.1427 19.4789 18 6 8 
3.2094 1.45272 4.04905 105 89 74 
0.447444 -0.22052 4.10431 51 36 31 
0.422599 -0.752476 3.91328 147 26 15 
0.335404 -0.576378 3.60839 37 6 0 
2.20452 1.01676 3.6994 76 53 37 
2.42821 -0.946612 4.11386 21 1 0 
0.444912 -0.268566 4.12261 188 165 147 
0.40808 -0.740481 3.91169 125 6 2 
0.419636 -0.706578 3.93573 20 0 0 
-11.8236 -3.48836 19.3856 84 60 56 
-11.9761 -3.28101 19.2031 75 58 48 
-11.8318 -3.21475 19.5844 138 121 111 
0.406686 -0.607987 3.90342 8 0 0 
-12.016 -3.13978 19.2612 143 122 103 
-11.9918 -3.12356 19.3606 9 1 0 
-11.7803 -2.85156 18.9496 7 0 0 
-12.0361 -2.89672 19.4712 220 163 84 
-11.7179 -3.63611 19.1818 112 0 4 
-11.7471 -3.53566 19.225 168 121 111 
0.418368 -0.654182 3.96765 15 4 8 
-11.8951 -3.26931 19.1197 12 0 0 
-11.9166 -3.1101 19.2583 9 1 0 
0.36973 -0.594983 3.91387 97 47 20 
1.23278 1.02438 3.718 113 91 78 
1.24358 0.542974 3.6574 183 163 154 
2.20099 -0.121403 3.63539 70 42 31 
2.19519 -0.11742 3.65055 62 34 22 
2.23168 -0.119359 3.67893 72 43 35 
2.62477 -0.228101 3.77518 230 180 83 
2.35863 -0.239588 3.94097 108 86 65 
2.7734 -0.440022 4.13723 131 111 100 
3.05266 -0.706403 3.87533 149 135 109 
0.399023 -0.572364 3.66132 15 0 0 
2.51876 -0.132147 3.64666 17 0 0 
2.35873 -0.230861 3.92388 167 145 124 
2.5845 -0.321864 3.76483 246 206 75 
2.39051 -0.189549 3.84086 47 27 16 
0.518052 -0.38776 3.37027 91 31 0 
2.83186 -0.500865 4.1316 49 35 22 
2.77919 -0.505961 4.15512 117 107 97 
2.73935 -0.614331 4.12676 131 115 99 
2.67689 -0.61758 4.13387 72 61 31 
2.31968 0.0388162 3.47699 185 155 127 
0.458379 -0.539431 3.44807 144 128 115 
2.77034 -0.69243 4.13211 102 90 76 
2.09183 -0.16823 3.72455 127 102 80 
2.37637 -0.188221 3.81971 116 102 99 
0.408152 -0.24887 4.19049 171 145 130 
0.443178 -0.186526 3.81649 25 10 3 
2.65521 -0.54312 4.14787 141 121 94 
0.449992 -0.54259 3.47678 142 128 115 
0.505826 -0.130993 3.21796 22 12 10 
0.498514 -0.129719 3.23826 55 46 41 
0.428899 -0.628934 4.00545 24 4 0 
0.413607 -0.447709 4.02855 99 73 74 
2.54719 -0.422133 3.80383 245 202 72 
2.63999 -0.648509 4.12768 114 104 92 
2.76849 -0.411117 4.12125 195 173 152 
0.411426 -0.748069 3.90157 120 49 27 
2.55105 -0.349809 3.77352 153 116 0 
2.56536 -0.34162 3.7719 249 211 66 
2.25798 -0.187114 3.88368 115 92 78 
0.39605 -0.603524 3.63904 109 82 65 
2.82989 -0.517093 4.13695 34 17 1 
2.87299 -0.299577 3.66587 168 152 137 
3.54079 0.854419 3.95953 102 97 77 
0.413552 -0.657593 3.99918 22 2 0 
0.394457 -0.64428 3.93234 87 69 47 
0.402599 -0.59646 3.62918 15 0 0 
0.442567 -0.150784 3.81799 24 7 0 
2.29343 -0.190394 3.81504 49 23 6 
2.67481 -0.587312 4.12685 139 125 112 
2.77763 -0.495405 4.14142 96 86 76 
2.2794 -0.192021 3.87404 184 161 147 
2.66464 -0.534336 4.14094 128 112 86 
3.47447 0.851296 3.95716 30 26 1 
0.421115 -0.7287 3.9364 186 100 99 
2.63237 -0.62914 4.14306 118 103 82 
3.52012 0.852745 3.96914 93 93 67 
0.40831 -0.448716 4.05008 18 3 0 
2.75015 -0.524066 4.14397 87 74 57 
2.23288 -0.103059 3.7002 200 174 157 
2.31306 -0.130462 3.79249 115 89 72 
2.28975 -0.191027 3.83044 49 23 8 
2.54399 -0.405125 3.80341 215 167 65 
2.88768 -0.286426 3.66774 13 0 0 
2.76745 -0.422887 4.14044 31 2 0 
0.432052 -0.59537 4.01396 22 2 0 
2.66197 -0.40814 3.75847 44 0 0 
0.426899 -0.574592 4.01411 72 54 44 
2.54618 -0.3945 3.79761 86 36 0 
0.388478 -0.61018 3.91507 17 0 0 
0.373899 -0.574473 3.93139 117 87 61 
2.68622 -0.328369 3.77753 175 138 86 
0.40982 -0.577768 4.03447 53 38 33 
0.409065 -0.229219 4.17232 76 61 54 
0.386252 -0.576393 3.92032 26 7 0 
2.22902 -0.130205 3.67799 38 10 0 
3.03989 -0.77278 3.87843 153 130 114 
2.96865 -0.423137 3.79147 167 162 159 
0.424505 -0.596814 4.02531 22 2 0 
2.87066 -0.287097 3.66899 7 0 0 
3.53596 0.863352 3.95683 39 31 8 
3.45838 0.863527 3.96934 39 33 9 
0.451114 -0.470895 3.51137 13 0 0 
0.454993 -0.541523 3.46297 145 129 114 
0.339966 -0.23089 3.72699 37 15 2 
3.45642 0.852768 3.95379 37 31 7 
2.56436 -0.323387 3.76823 255 214 106 
0.355321 -0.652099 3.58238 51 11 0 
0.337445 -0.238714 3.71292 153 125 88 
0.40447 -0.405281 4.06329 10 0 0 
0.345808 -0.233039 3.70028 115 89 62 
2.72477 -0.598372 4.07596 25 9 0 
0.400294 -0.690039 3.92014 152 133 119 
2.19563 -0.115659 3.66251 31 2 0 
0.391264 -0.27495 4.18146 196 175 158 
2.54032 -0.24201 3.77074 17 0 0 
0.398002 -0.2173 3.97581 109 96 90 
2.24954 -0.193273 3.87199 67 41 28 
2.78421 -0.643421 4.15012 132 122 110 
3.18266 0.0188846 3.5259 43 17 4 
0.428708 -0.642715 4.00713 148 126 102 
0.441574 -0.551961 3.49895 80 71 62 
0.490218 -0.133368 3.25008 122 112 110 
0.39858 -0.264942 4.13344 18 8 0 
1.23658 0.525979 3.66462 105 85 78 
2.74766 -0.609477 4.12111 23 6 0 
2.73134 -0.620385 4.14817 15 0 0 
0.388967 -0.693292 3.93411 149 127 106 
2.32626 -0.130062 3.76992 61 44 37 
3.12083 -0.626059 3.85041 151 129 108 
0.39766 -0.238434 4.19021 60 42 38 
2.34245 -0.202444 3.85555 47 25 14 
0.366289 -0.654663 3.56282 63 27 1 
0.450056 -0.557703 3.48316 11 1 0 
0.410626 -0.239503 4.16873 58 40 36 
3.10618 -0.631286 3.8593 147 126 105 
3.12202 -0.615681 3.8592 79 58 55 
2.76564 -0.601601 4.15389 74 58 45 
0.370077 -0.238307 3.9886 95 82 66 
0.417093 -0.179437 3.96624 179 153 136 
0.387398 -0.681956 3.93222 21 0 0 
0.425848 -0.686851 3.96544 34 16 12 
0.401218 -0.653174 3.95294 11 6 3 
0.393731 -0.660416 3.99869 10 6 5 
3.13281 -0.647517 3.88231 152 128 104 
0.436736 -0.562904 3.50335 20 0 0 
0.391984 -0.260308 4.22078 189 161 140 
0.400969 -0.272055 4.17957 187 162 140 
0.430896 -0.538397 3.52984 8 1 0 
2.62317 -0.612393 4.14012 118 101 71 
2.9884 -0.401602 3.63923 149 137 123 
2.22394 -0.226055 3.95586 14 5 0 
3.30507 0.967103 4.03321 105 93 71 
2.50866 -0.254205 3.72888 37 15 0 
2.16149 -0.138586 3.6668 121 94 73 
2.7814 -0.455287 4.22277 53 37 24 
3.02875 -0.158078 3.72172 184 166 162 
2.29153 -0.159911 3.88461 164 144 137 
2.43677 -0.17162 3.94676 209 180 150 
2.22333 -0.181994 3.98106 208 182 165 
2.39362 -0.182378 3.81872 202 184 172 
2.37965 -0.189405 3.89275 80 58 47 
2.20133 -0.193251 4.10633 146 127 112 
2.39827 -0.190803 3.81223 203 180 166 
2.33546 -0.189594 3.77907 150 134 119 
2.34895 -0.19112 3.77077 122 109 101 
2.09942 -0.195012 3.8585 210 195 172 
2.35878 -0.194341 3.76376 81 68 59 
2.37748 -0.192015 3.62491 29 13 0 
2.3848 -0.201462 3.88407 200 174 159 
3.0909 -0.215572 4.15849 74 55 57 
2.35984 -0.199432 3.78682 13 0 0 
2.5888 -0.788304 4.00052 61 54 36 
2.34213 -0.203726 3.83474 170 154 139 
2.84137 -0.737175 3.78202 116 103 87 
2.19681 -0.209186 4.04919 218 201 181 
2.59132 -0.777376 4.00926 35 23 11 
2.20986 -0.212628 4.04008 145 129 114 
2.22497 -0.0962172 3.76303 105 78 59 
3.09552 -0.226435 4.25419 190 170 169 
3.12356 -0.227391 4.16128 83 56 37 
1.82261 -0.226314 4.08934 118 93 73 
3.13899 -0.242668 4.2589 104 77 58 
3.09634 -0.245988 4.14973 203 183 174 
2.63469 -0.225026 3.69063 234 184 85 
2.20789 -0.237199 4.03655 108 96 82 
2.5406 -0.229234 3.72639 71 40 20 
3.27897 1.20227 4.09856 38 23 2 
2.64728 -0.236273 3.6814 255 209 89 
2.70633 -0.242322 3.73523 186 137 96 
2.72024 -0.247178 3.72939 237 174 94 
2.7372 -0.268306 4.12418 81 21 0 
2.72892 -0.248502 3.6505 101 34 0 
2.2467 -0.262518 3.89569 61 43 23 
2.38031 -0.264703 3.85355 117 92 72 
0.218198 -0.253884 3.4523 154 128 105 
2.36433 -0.271913 3.92818 82 57 37 
2.4886 -0.267925 3.80244 201 172 140 
2.34527 -0.288455 3.78967 55 36 22 
3.0958 -0.293045 4.13407 197 175 164 
2.76264 -0.718531 4.16065 102 92 82 
2.48918 -0.273452 3.79397 42 8 0 
2.47823 -0.274756 3.80352 171 141 87 
2.74166 -0.304204 4.20726 100 43 13 
2.72471 -0.314444 4.39255 99 46 14 
3.18412 0.976736 3.5768 70 43 26 
2.92948 -0.275662 3.45415 126 118 116 
2.88803 -0.275659 3.45903 14 0 0 
0.608663 -0.536032 3.13214 78 63 40 
3.31848 0.553855 4.1464 27 0 0 
2.67446 -0.678289 4.08638 26 8 0 
3.33255 0.986035 4.02843 93 77 54 
2.90196 -0.284648 3.45413 166 152 143 
2.88816 -0.286161 3.45543 164 150 139 
2.67916 -0.655369 4.01461 63 41 30 
2.86513 -0.289213 3.45786 139 129 120 
3.34807 1.03669 4.21217 103 86 66 
3.77246 0.702938 4.85403 107 88 81 
2.72715 -0.357257 4.275 197 131 115 
2.65083 -0.672215 4.17784 19 5 0 
3.33752 0.940279 3.95338 91 73 53 
3.13143 -0.597273 3.69348 138 119 102 
2.47548 -0.324345 3.77954 222 192 82 
3.74039 1.00686 4.17698 198 171 150 
2.66547 -0.640267 4.02415 31 15 0 
3.29877 0.566125 4.05391 110 86 76 
2.60362 -0.318337 3.59066 243 205 72 
2.71599 -0.374332 4.26681 193 128 126 
2.70347 -0.367727 4.17942 211 154 137 
2.5911 -0.329859 3.6604 123 82 0 
2.57129 -0.341916 3.73387 142 102 0 
3.26653 0.923308 4.04158 44 27 7 
2.70027 -0.382493 4.17204 192 104 102 
3.54149 0.882969 3.98051 101 101 77 
2.57132 -0.341302 3.66233 152 115 0 
2.72768 -0.395384 4.16293 80 2 2 
2.70941 -0.404486 4.25112 179 138 134 
3.27691 0.550909 3.90152 134 106 94 
2.75483 -0.415955 4.24333 24 0 0 
3.53321 0.903078 4.05486 104 103 82 
2.48413 -0.377621 3.74812 245 204 80 
3.53221 0.930931 4.15236 107 100 81 
3.73936 0.623189 4.19097 121 95 80 
2.72785 -0.612521 4.04229 64 48 22 
2.75724 -0.429054 4.23641 48 21 4 
2.74749 -0.632515 4.21308 34 18 2 
2.72686 -0.617827 4.1283 35 20 1 
3.5482 0.926395 4.15614 50 43 24 
2.69124 -0.3796 3.60596 42 7 0 
2.75818 -0.613164 4.22619 121 104 96 
2.6941 -0.581609 4.04161 131 116 109 
2.54228 -0.383946 3.5976 54 30 2 
2.70684 -0.5931 4.14249 111 94 86 
2.65904 -0.576017 4.04393 32 16 1 
2.68012 -0.579665 4.06186 125 111 98 
2.70969 -0.579922 4.0614 42 22 13 
2.72077 -0.580039 4.06137 21 3 0 
2.73127 -0.591728 4.14437 28 9 0 
2.75781 -0.604179 4.23159 25 8 0 
2.66892 -0.577879 4.06324 19 3 0 
2.68622 -0.597702 4.20182 38 18 7 
2.75804 -0.45629 4.31672 111 95 82 
3.57049 0.915104 4.16303 98 93 71 
2.68173 -0.387469 3.60506 106 58 0 
2.4879 -0.398289 3.7356 39 0 0 
2.72677 -0.436275 4.05256 75 41 14 
2.70961 -0.452875 4.22453 53 27 4 
2.50113 -0.410045 3.7949 178 151 122 
2.57529 -0.395856 3.63464 100 51 0 
2.99883 -0.402633 3.65707 102 94 92 
2.9932 -0.409444 3.71841 23 13 4 
2.69689 -0.394909 3.59766 67 24 0 
2.82613 -0.541897 4.17966 19 7 0 
2.68296 -0.403632 3.6708 205 167 56 
2.63656 -0.546215 4.26188 18 5 0 
2.82176 -0.543619 4.27383 22 8 0 
2.75076 -0.464226 4.21762 47 20 3 
2.49104 -0.41248 3.72675 51 4 0 
2.94813 -0.416887 3.71314 141 137 134 
2.47076 -0.423019 3.79931 113 75 0 
3.26905 0.720694 3.96982 105 82 68 
2.77186 -0.515634 4.19001 123 113 103 
2.68462 -0.436399 3.65502 94 62 1 
2.82128 -0.525024 4.2839 45 29 14 
2.76821 -0.520283 4.28158 116 104 92 
2.82722 -0.509248 4.19699 38 24 11 
3.5457 0.873702 4.16648 98 102 79 
2.23665 -0.188962 3.9697 159 140 126 
2.05706 -0.171035 3.83611 128 103 83 
3.35719 1.20647 4.05612 49 31 9 
3.67952 1.4665 4.03071 47 21 6 
2.40831 -0.175309 3.73227 40 25 20 
3.68948 1.51065 4.11319 105 79 64 
2.10655 -0.157747 3.75196 127 101 76 
1.99829 -0.252945 4.33586 201 189 163 
2.33218 -0.24766 4.02958 98 76 63 
2.13641 1.13541 3.98436 213 185 171 
3.29774 1.19078 4.09738 99 95 68 
2.11324 -0.149412 3.75169 133 107 84 
2.57935 -0.405015 3.62873 242 199 71 
3.34516 1.17216 4.06878 100 94 70 
2.75486 -0.700508 4.07951 103 90 71 
3.53087 0.907395 4.157 99 94 74 
2.3217 -0.286113 3.87058 35 17 7 
2.01168 0.615671 3.99572 61 39 18 
2.11808 -0.140091 3.81217 141 114 93 
3.49453 0.885124 4.06747 96 91 71 
2.76098 -0.671923 4.09809 64 43 24 
2.77211 -0.672246 4.09924 95 82 73 
3.31293 0.992953 4.12963 34 19 0 
3.54871 0.890038 4.07696 95 90 70 
3.28456 0.967673 4.13435 85 73 51 
3.26805 0.932209 4.04954 96 84 62 
3.57161 0.909195 4.078 109 103 79 
3.49616 0.899437 4.06534 34 26 7 
3.64838 1.40485 3.88833 102 76 61 
0.157937 -0.138354 3.60748 82 68 67 
2.92917 -0.0796256 3.30332 178 120 38 
2.48181 -0.334011 3.77194 63 28 0 
3.28803 1.17699 3.99551 91 75 52 
3.32355 1.2517 4.16729 104 88 65 
0.193337 -0.78838 3.63214 89 55 20 
2.75853 -0.717286 4.25474 110 98 86 
2.57288 -0.407383 3.69354 236 194 60 
2.61875 -0.650436 4.10333 103 94 89 
0.224844 -0.779239 3.5882 147 108 69 
2.13361 -0.149286 3.73809 135 108 87 
2.7728 -0.689264 4.08888 95 82 73 
3.17461 0.914335 3.4104 100 73 54 
0.0657315 0.966635 5.61897 158 136 125 
3.82045 0.719564 4.98722 119 101 89 
2.92496 -0.0537215 3.36007 129 69 35 
2.20516 -0.110185 3.6256 43 19 9 
2.18123 -0.118182 3.70855 45 18 9 
2.23499 -0.129891 3.66697 38 10 6 
2.30484 -0.137899 3.84831 196 177 162 
2.29583 -0.150976 3.8797 62 42 35 
2.80278 -0.150497 3.63841 120 73 27 
2.6873 -0.153939 3.83752 226 192 167 
3.0303 -0.158952 3.78442 194 173 168 
2.69237 -0.157738 3.7522 103 65 29 
2.27939 -0.16104 3.93256 147 127 118 
