ply                 
format ascii 1.0    
element vertex 1253
property float x    
property float y    
property float z    
property uchar red  
property uchar green
property uchar blue 
end_header          
-1.39171 0.159131 4.17849 94 74 65 
-1.38644 0.126586 4.29698 128 23 40 
-1.03288 0.537502 3.17654 105 82 66 
-1.01558 0.52778 3.17372 196 168 146 
-1.34107 -0.108633 4.53285 46 12 10 
-1.34114 -0.108658 4.53351 46 12 10 
-0.92454 0.446633 3.16534 73 63 53 
-1.22643 0.132714 4.28388 176 129 121 
-0.899312 0.45212 3.18072 185 160 138 
-1.29988 -0.0551635 4.69322 6 1 5 
-0.912902 0.666708 3.24064 100 84 71 
-1.17113 0.144436 4.26817 195 116 85 
-1.27013 -0.0458453 4.65521 131 110 105 
-1.27981 -0.0369329 4.69986 133 110 104 
-0.8961 0.654199 3.23643 198 171 150 
-1.27004 -0.016747 4.68261 65 52 43 
-1.1617 0.141139 4.27283 247 205 189 
-1.2648 0.0534076 4.69801 62 43 29 
-1.26415 0.0532738 4.69552 62 43 29 
-1.25897 -0.0927119 4.69136 120 93 84 
-0.869559 0.464377 3.20308 89 80 63 
-1.25022 0.0208239 4.69152 161 100 45 
-1.24444 -0.0624486 4.68187 190 162 151 
-1.24695 0.049975 4.6901 168 134 109 
-1.2486 -0.0716784 4.70123 173 145 134 
-1.24569 -0.0673236 4.69814 138 110 99 
-1.14182 0.130533 4.28944 171 147 135 
-1.24302 0.0614166 4.68709 178 127 100 
-1.24195 -0.0142727 4.68584 189 164 157 
-1.14138 0.138382 4.29094 241 208 199 
-1.24009 0.0555412 4.6893 102 62 37 
-1.23353 0.0570187 4.69211 168 140 118 
-1.23016 -0.00706125 4.68544 116 92 82 
-1.2315 0.0383196 4.6985 121 88 69 
-1.23173 -0.0814455 4.70605 129 110 96 
-1.22794 0.0259171 4.69198 186 153 134 
-1.12661 0.128383 4.30593 192 162 151 
-1.12279 0.134938 4.30617 237 203 193 
-1.21657 0.0450495 4.7058 173 157 142 
-1.21536 0.0517634 4.70377 109 92 82 
-1.11624 0.11779 4.31227 103 81 70 
-1.11624 0.11779 4.31227 103 81 70 
-1.20744 0.0693338 4.72043 167 140 131 
-0.830947 0.488044 3.20031 249 238 216 
-0.830947 0.488044 3.20031 249 238 216 
-0.838964 0.614242 3.24846 100 83 65 
-0.836398 0.742689 3.30825 114 97 79 
-0.788908 0.80034 3.34796 116 100 85 
-0.769182 1.21659 3.41368 120 108 94 
-0.756717 0.906977 3.39186 122 109 93 
-0.997985 -1.99121 4.70313 39 25 24 
-0.997985 -1.99121 4.70313 39 25 24 
-0.986554 -1.96644 4.69854 110 97 88 
-0.985272 -1.9434 4.70706 108 88 77 
-0.983705 -1.98148 4.70752 37 26 22 
-0.981891 -1.97636 4.7009 37 26 22 
-0.981891 -1.97636 4.7009 37 26 22 
-0.980542 -1.86726 4.7203 37 33 34 
-0.976657 -1.91684 4.70437 80 53 23 
-0.976336 -1.90378 4.70544 44 18 0 
-0.974194 -1.89521 4.70964 83 49 12 
-0.980543 -1.74699 4.7358 43 34 37 
-0.975251 -1.81033 4.71862 35 22 14 
-0.972887 -1.82752 4.71414 67 44 10 
-0.966955 -1.84727 4.70856 153 126 83 
-0.968461 -1.72552 4.72422 25 13 15 
-0.959622 -1.84912 4.70687 41 17 0 
-0.951153 -1.95718 4.67851 62 34 0 
-0.954937 -1.83901 4.69999 176 131 72 
-0.967346 -1.57871 4.75632 36 25 29 
-0.96333 -1.58663 4.74506 113 104 105 
-0.949329 -1.84688 4.69507 78 53 33 
-0.94789 -1.88601 4.69768 182 124 16 
-0.951165 -1.74766 4.71587 133 117 117 
-0.968074 -1.36908 4.7893 38 29 22 
-0.948377 -1.82085 4.70721 180 128 27 
-0.958511 -1.56871 4.75385 112 103 106 
-0.958511 -1.56871 4.75385 112 103 106 
-0.95735 -1.58432 4.75207 130 122 120 
-0.959889 -1.34766 4.77548 35 24 22 
-0.941782 -1.76258 4.71133 32 24 22 
-0.938836 -1.73132 4.70088 30 18 18 
-0.707873 1.01518 3.42121 129 112 102 
-0.922766 -1.90797 4.67511 81 62 48 
-0.925617 -1.80959 4.69307 173 133 82 
-0.932691 -1.52793 4.74678 35 29 33 
-0.932691 -1.52793 4.74678 35 29 33 
-0.917883 -1.815 4.68872 57 30 0 
-0.912636 -1.9439 4.6688 45 26 11 
-0.912636 -1.9439 4.6688 45 26 11 
-0.915939 -1.79471 4.67984 37 26 32 
-0.912906 -1.92496 4.67273 44 23 4 
-0.928089 -1.41155 4.75016 37 27 28 
-0.909013 -1.86788 4.67807 77 33 0 
-0.915029 -1.69485 4.70353 33 25 23 
-0.920318 -1.53311 4.73502 105 99 99 
-0.93013 -1.28471 4.78042 173 140 135 
-0.905445 -1.81981 4.68743 103 68 14 
-0.897074 -1.95763 4.65828 48 22 0 
-0.904459 -1.6781 4.70279 29 24 21 
-0.904459 -1.6781 4.70279 29 24 21 
-0.893451 -1.94466 4.65984 171 126 23 
-0.893451 -1.94466 4.65984 171 126 23 
-0.897438 -1.8061 4.68515 171 131 62 
-0.897519 -1.8011 4.68842 54 34 9 
-0.89532 -1.80945 4.68295 178 130 32 
-0.888244 -1.96899 4.65497 129 111 111 
-0.907131 -1.25111 4.76765 171 142 136 
-0.879596 -1.95637 4.64955 33 14 8 
-0.887527 -1.69531 4.68987 175 164 160 
-0.895896 -1.41311 4.74389 177 149 146 
-0.899003 -1.2962 4.75715 166 138 135 
-0.883366 -1.62998 4.70343 82 73 74 
-0.891356 -1.39034 4.74389 127 96 94 
-0.863164 -0.317567 4.54939 173 164 157 
-0.877945 -1.68632 4.69488 38 24 24 
-0.870786 -1.79073 4.6746 35 24 28 
-0.873502 -1.6805 4.68632 130 114 117 
-0.873502 -1.6805 4.68632 130 114 117 
-0.873502 -1.6805 4.68632 130 114 117 
-0.883324 -1.33481 4.7437 170 141 137 
-0.869258 -1.6963 4.68466 183 170 162 
-0.858036 -1.85132 4.65426 42 16 0 
-0.874833 -1.39741 4.73572 109 78 76 
-0.872916 -1.38743 4.73218 172 142 140 
-0.867672 -1.33509 4.73478 170 142 139 
-0.847648 -1.84969 4.64285 46 21 0 
-0.868838 -1.41718 4.74725 176 143 138 
-0.860258 -1.45988 4.70601 32 27 24 
-0.84523 -1.81061 4.65465 61 19 0 
-0.84523 -1.81061 4.65465 61 19 0 
-0.861869 -1.35662 4.73497 172 143 139 
-0.854582 -1.42133 4.72146 47 29 27 
-0.85171 -1.44864 4.71282 186 171 166 
-0.847728 -1.51879 4.69183 176 158 154 
-0.850561 -1.30141 4.72739 171 143 140 
-0.851558 -1.28505 4.73606 173 143 143 
-0.851558 -1.28505 4.73606 173 143 143 
-0.829007 -1.80602 4.6471 185 133 31 
-0.829007 -1.80602 4.6471 185 133 31 
-0.829007 -1.80602 4.6471 185 133 31 
-0.840089 -1.48348 4.70051 190 166 162 
-0.8493 -1.24 4.74869 33 27 27 
-0.831929 -1.55569 4.66747 25 14 12 
-0.823681 -1.80205 4.64506 173 134 65 
-0.823681 -1.80205 4.64506 173 134 65 
-0.842635 -1.25951 4.73644 177 147 139 
-0.817194 -1.9682 4.61919 49 40 33 
-0.837049 -1.40082 4.71225 163 143 144 
-0.838202 -1.27332 4.71591 112 83 85 
-0.829677 -1.53033 4.6777 188 168 161 
-0.815409 -1.931 4.62016 85 41 0 
-0.814726 -1.9571 4.6195 65 48 28 
-0.83637 -1.3238 4.72887 177 152 148 
-0.83637 -1.3238 4.72887 177 152 148 
-0.814125 -1.89256 4.62565 62 17 0 
-0.814839 -1.8654 4.6311 64 18 0 
-0.814839 -1.8654 4.6311 64 18 0 
-0.812806 -1.90574 4.62455 76 30 0 
-0.83449 -1.25106 4.73376 160 145 140 
-0.811968 -1.84532 4.63326 77 33 0 
-0.825518 -1.45148 4.69943 129 105 101 
-0.811457 -1.82495 4.63611 81 41 0 
-0.808871 -1.86252 4.6291 188 136 63 
-0.829225 -1.26615 4.72574 173 148 141 
-0.824677 -1.41892 4.70682 195 180 177 
-0.825753 -1.3206 4.71114 172 147 143 
-0.826055 -1.34294 4.71444 181 150 147 
-0.807841 -1.91404 4.6296 176 127 34 
-0.813678 -1.67127 4.65654 30 24 24 
-0.818144 -1.58685 4.68185 80 68 72 
-0.821908 -1.31619 4.71754 83 53 51 
-0.815282 -1.38763 4.69413 170 146 142 
-0.815902 -1.37506 4.70429 177 146 143 
-0.81476 -1.42743 4.70256 57 35 37 
-0.819556 -1.27696 4.72621 159 141 139 
-0.815112 -1.39155 4.70587 174 155 151 
-0.797416 -1.803 4.62935 184 130 34 
-0.809567 -1.47753 4.69479 42 28 25 
-0.809567 -1.47753 4.69479 42 28 25 
-0.802781 -1.56032 4.66949 33 19 19 
-0.805012 -1.30442 4.70695 181 150 145 
-0.805012 -1.30442 4.70695 181 150 145 
-0.798919 -1.43459 4.68432 89 68 67 
-0.798919 -1.43459 4.68432 89 68 67 
-0.787328 -1.80244 4.62896 154 119 77 
-0.792844 -1.53967 4.666 196 171 164 
-0.777771 -1.77076 4.62867 47 32 39 
-0.792017 -1.30281 4.70351 166 147 141 
-0.789423 -1.3471 4.691 177 153 153 
-0.791481 -1.31172 4.71156 20 6 3 
-0.781017 -1.51935 4.65969 190 172 168 
-0.768272 -1.9051 4.59789 98 50 0 
-0.782025 -1.375 4.68911 35 26 31 
-0.782025 -1.375 4.68911 35 26 31 
-0.771213 -1.62838 4.64436 35 19 20 
-0.777189 -1.43728 4.67528 196 172 168 
-0.777156 -1.43847 4.67804 196 172 168 
-0.764483 -1.80434 4.61434 184 129 29 
-0.772212 -1.57039 4.65672 25 16 17 
-0.770485 -1.48827 4.65263 190 176 173 
-0.774635 -1.41373 4.67996 74 54 56 
-0.77042 -1.51537 4.65888 195 181 178 
-0.772949 -1.3934 4.67884 183 166 158 
-0.766436 -1.57146 4.66305 24 14 15 
-0.761126 -1.62031 4.636 117 105 105 
-0.766984 -1.44991 4.66879 194 173 170 
-0.766984 -1.44991 4.66879 194 173 170 
-0.75158 -1.83873 4.59236 188 135 43 
-0.776229 -1.23743 4.72466 29 17 19 
-0.761578 -1.54914 4.64689 128 109 111 
-0.776192 -1.23803 4.72649 29 17 19 
-0.75704 -1.64206 4.63068 24 13 11 
-0.747672 -1.84646 4.59912 109 54 0 
-0.756616 -1.5505 4.64881 195 175 174 
-0.746612 -1.83183 4.60246 80 35 0 
-0.74692 -1.81696 4.60336 62 18 0 
-0.74692 -1.81696 4.60336 62 18 0 
-0.735111 0.081782 4.45441 137 54 40 
-0.756446 -1.38257 4.67297 186 166 159 
-0.754673 -1.41419 4.66799 111 94 87 
-0.754673 -1.41419 4.66799 111 94 87 
-0.742563 -1.77482 4.60946 80 64 64 
-0.72911 0.0834026 4.44495 142 66 40 
-0.748077 -1.63628 4.64496 30 18 20 
-0.73821 -1.78627 4.60702 88 74 63 
-0.747025 -1.48738 4.65333 36 21 14 
-0.747863 -1.40272 4.66023 196 177 173 
-0.746648 -1.38944 4.66995 139 113 112 
-0.746648 -1.38944 4.66995 139 113 112 
-0.734679 -1.63122 4.62002 31 21 22 
-0.736689 -1.54755 4.64164 149 133 133 
-0.723777 -1.88241 4.57925 173 132 66 
-0.743936 -1.31405 4.68983 81 71 72 
-0.730397 -1.62147 4.61997 42 26 29 
-0.730275 -1.62167 4.62157 42 26 29 
-0.739193 -1.35924 4.67188 37 23 23 
-0.732046 -1.55681 4.63569 173 159 156 
-0.726418 -1.60063 4.61002 32 21 19 
-0.735988 -1.39586 4.66694 190 170 171 
-0.736347 -1.36683 4.66856 165 149 149 
-0.736347 -1.36683 4.66856 165 149 149 
-0.733249 -1.48418 4.65442 30 19 15 
-0.733177 -1.48416 4.65524 30 19 15 
-0.718921 -1.89063 4.58596 55 35 28 
-0.721057 -1.77799 4.59629 28 23 19 
-0.718405 -1.87831 4.58268 52 26 13 
-0.724887 -1.54288 4.62855 43 29 28 
-0.720589 -1.64474 4.60958 34 26 23 
-0.718158 -1.66309 4.59679 27 15 15 
-0.717823 -1.66514 4.60325 25 11 11 
-0.724315 -1.39443 4.6547 181 167 166 
-0.725079 -1.44637 4.66249 35 25 24 
-0.722432 -1.36349 4.66032 34 23 27 
-0.712326 -1.66955 4.60879 135 119 122 
-0.714175 -1.61614 4.61913 127 112 107 
-0.717537 -1.50844 4.64023 35 24 28 
-0.712216 -1.6334 4.61925 155 142 134 
-0.712216 -1.6334 4.61925 155 142 134 
-0.710031 -1.69021 4.61154 47 37 35 
-0.715917 -1.53808 4.65143 22 12 13 
-0.710016 -1.62176 4.62087 34 20 20 
-0.715214 -1.39159 4.65385 31 20 18 
-0.717751 -1.23625 4.67878 30 19 25 
-0.713704 -1.37418 4.6572 35 25 26 
-0.711953 -1.34461 4.65715 139 121 117 
-0.711953 -1.34461 4.65715 139 121 117 
-0.696437 -1.75683 4.5853 30 17 24 
-0.69689 -1.71064 4.59511 33 22 26 
-0.70542 -1.39005 4.6472 142 131 125 
-0.694372 -1.69382 4.59787 35 24 32 
-0.700791 -1.41495 4.63702 115 104 100 
-0.704711 -1.30571 4.65965 129 118 112 
-0.700396 -1.3522 4.64995 150 135 130 
-0.695656 -1.30091 4.65916 30 20 19 
-0.675783 -1.87946 4.56242 58 31 4 
-0.681692 -1.66285 4.60769 29 23 25 
-0.67198 -1.89629 4.55785 184 138 53 
-0.686434 -1.39668 4.64211 26 17 12 
-0.672442 -1.77121 4.57399 91 81 80 
-0.668772 -1.8725 4.56074 182 143 66 
-0.677044 -1.32607 4.63831 29 25 22 
-0.659579 -1.80069 4.55876 37 23 14 
-0.657223 -1.85579 4.55275 189 139 24 
-0.661212 -1.68913 4.57511 122 109 103 
-0.653232 -1.94918 4.53818 46 26 25 
-0.672462 -1.28945 4.64475 31 25 27 
-0.656893 -1.76368 4.55905 104 89 92 
-0.652967 -1.96128 4.54212 44 32 34 
-0.676608 -1.2389 4.68059 113 128 109 
-0.654465 -1.80115 4.55076 39 23 10 
-0.670938 -1.25742 4.65329 32 64 40 
-0.660704 -1.39455 4.61942 28 13 10 
-0.65244 -1.70928 4.57561 23 13 11 
-0.64391 -1.9521 4.53103 92 78 69 
-0.656889 -1.43365 4.60319 34 23 27 
-0.643587 -1.94624 4.54305 174 137 66 
-0.657008 -1.26298 4.63858 10 48 23 
-0.640463 -1.80396 4.54761 37 23 14 
-0.64062 -1.83066 4.55802 184 137 31 
-0.638207 -1.89491 4.54719 49 20 0 
-0.639223 -1.77023 4.55546 112 96 96 
-0.648912 -1.3337 4.62637 189 140 107 
-0.650121 -1.30269 4.63545 203 141 104 
-0.643995 -1.31854 4.62727 131 80 53 
-0.643995 -1.31854 4.62727 131 80 53 
-0.6243 0.0938905 4.40946 187 153 105 
-0.630746 -1.77594 4.55207 28 17 15 
-0.642311 -1.34089 4.62838 201 146 116 
-0.640873 -1.31977 4.62075 85 34 5 
-0.639619 -1.39582 4.61496 209 191 187 
-0.628283 -1.70283 4.55832 38 28 26 
-0.635241 -1.33953 4.62115 201 147 111 
-0.62055 -1.80637 4.53856 193 161 114 
-0.637305 -1.27813 4.64109 196 151 118 
-0.631663 -1.3968 4.60651 43 23 22 
-0.61766 0.0964757 4.42823 42 15 0 
-0.634099 -1.28279 4.62491 155 96 64 
-0.632299 -1.31541 4.62407 202 145 102 
-0.632299 -1.31541 4.62407 202 145 102 
-0.614367 -1.93171 4.52091 57 35 21 
-0.626596 -1.41046 4.5992 36 20 21 
-0.611915 -1.90963 4.52503 69 45 21 
-0.613235 -1.80042 4.53793 173 155 145 
-0.610617 -1.85186 4.52871 65 27 0 
-0.611085 -1.79203 4.53229 31 22 17 
-0.620667 -1.4185 4.59855 159 149 139 
-0.607293 -1.88624 4.52293 79 45 0 
-0.608249 -1.84165 4.52996 83 30 0 
-0.608249 -1.84165 4.52996 83 30 0 
-0.621553 -1.31669 4.61639 114 67 41 
-0.60607 -1.86701 4.52863 95 50 0 
-0.617783 -1.39541 4.59978 197 178 174 
-0.610505 -1.68594 4.55857 124 111 103 
-0.60404 -1.83693 4.53467 190 141 38 
-0.614648 -1.34277 4.60703 172 139 120 
-0.61518 -1.29934 4.61477 200 138 101 
-0.601884 -1.80793 4.53654 188 140 38 
-0.606172 -1.51355 4.57757 85 75 74 
-0.607337 -1.45127 4.58558 34 26 24 
-0.597423 -1.84571 4.53453 190 134 13 
-0.611873 -1.27481 4.61988 123 123 97 
-0.597409 -1.77757 4.53283 51 34 27 
-0.599737 -1.6969 4.54844 30 15 8 
-0.593085 -1.79259 4.52576 187 134 38 
-0.593085 -1.79259 4.52576 187 134 38 
-0.593948 -1.70933 4.54465 8 0 0 
-0.586419 -1.93557 4.49969 173 136 65 
-0.586419 -1.93557 4.49969 173 136 65 
-0.605299 -1.25823 4.61905 2 47 18 
-0.603283 -1.30104 4.61913 44 22 24 
-0.601548 -1.26881 4.62757 72 108 80 
-0.586825 -1.78488 4.53553 43 15 0 
-0.586745 -1.70866 4.53313 28 15 22 
-0.594302 -1.42731 4.58553 125 115 114 
-0.587475 -1.6667 4.54715 28 22 24 
-0.585373 -1.68867 4.53982 34 25 26 
-0.581085 -1.74475 4.52779 32 20 20 
-0.574266 -1.89691 4.5047 45 13 0 
-0.588276 -1.32787 4.60205 35 24 28 
-0.586425 -1.39447 4.60269 27 18 11 
-0.572124 -1.82259 4.51342 40 19 0 
-0.572124 -1.82259 4.51342 40 19 0 
-0.572037 -1.89072 4.51716 203 151 52 
-0.570959 -1.86238 4.50816 193 137 14 
-0.577624 -1.47446 4.57125 177 168 163 
-0.577624 -1.47446 4.57125 177 168 163 
-0.566097 -1.96306 4.51186 38 31 25 
-0.578069 -1.29656 4.59578 141 129 129 
-0.559583 -1.94253 4.48368 36 25 21 
-0.565355 -1.68934 4.53328 175 161 158 
-0.565795 -1.55338 4.54839 92 81 77 
-0.565795 -1.55338 4.54839 92 81 77 
-0.572676 -1.27899 4.59858 74 68 68 
-0.554491 -1.92465 4.49058 183 136 20 
-0.561684 -1.65817 4.53685 191 181 169 
-0.561684 -1.65817 4.53685 191 181 169 
-0.561459 -1.60341 4.53958 32 20 24 
-0.560389 -1.63409 4.54034 149 133 133 
-0.566242 0.0751649 4.50116 97 74 56 
-0.553465 -1.79399 4.50576 197 144 28 
-0.560207 -1.38606 4.56879 37 26 24 
-0.560207 -1.38606 4.56879 37 26 24 
-0.554825 -1.64951 4.5429 42 31 25 
-0.541977 -1.80063 4.50148 176 138 55 
-0.550896 -1.37332 4.56781 27 15 15 
-0.550896 -1.37332 4.56781 27 15 15 
-0.550567 -1.36218 4.56853 32 24 22 
-0.549345 -1.33635 4.58469 166 151 148 
-0.533984 -1.81255 4.49642 59 33 8 
-0.533984 -1.81255 4.49642 59 33 8 
-0.533039 -1.83244 4.49367 49 32 16 
-0.531525 -1.87214 4.48409 79 58 53 
-0.531525 -1.87214 4.48409 79 58 53 
-0.540043 -1.58351 4.54546 32 19 13 
-0.544797 -1.30644 4.57907 34 23 21 
-0.535966 -1.40508 4.55189 32 21 19 
-0.53439 -1.47904 4.54595 161 146 141 
-0.535918 -1.42597 4.56198 25 15 13 
-0.535853 -1.34599 4.56599 170 152 150 
-0.535853 -1.34599 4.56599 170 152 150 
-0.535182 -1.38968 4.56653 28 14 13 
-0.53449 -1.32133 4.56807 27 15 15 
-0.534054 -1.35996 4.56762 62 51 49 
-0.534054 -1.35996 4.56762 62 51 49 
-0.533171 -1.33782 4.56263 174 159 156 
-0.523204 -1.72145 4.49451 35 24 32 
-0.518188 -1.9002 4.47162 69 40 0 
-0.527366 -1.42329 4.54547 28 17 15 
-0.517774 -1.79623 4.48963 192 138 12 
-0.517774 -1.79623 4.48963 192 138 12 
-0.527738 -1.36969 4.55717 190 173 166 
-0.527738 -1.36969 4.55717 190 173 166 
-0.527738 -1.36969 4.55717 190 173 166 
-0.524651 -1.43909 4.54028 37 26 24 
-0.523878 -1.47511 4.54145 153 140 132 
-0.519619 -1.64446 4.51894 34 23 21 
-0.510643 -1.94035 4.46993 176 132 67 
-0.519961 -1.47901 4.54142 32 19 11 
-0.516936 -1.5272 4.53177 98 86 86 
-0.514174 -1.63399 4.51326 198 187 181 
-0.517757 -1.39901 4.54749 200 185 182 
-0.517757 -1.39901 4.54749 200 185 182 
-0.511099 -1.55917 4.52742 100 89 87 
-0.511099 -1.55917 4.52742 100 89 87 
-0.512762 -1.42759 4.54993 189 175 174 
-0.510811 -1.43052 4.54207 162 148 148 
-0.510536 -1.38753 4.55051 186 175 171 
-0.505807 -1.57132 4.51828 123 112 108 
-0.502728 -1.45376 4.53137 75 60 55 
-0.493396 -1.86132 4.46883 66 17 0 
-0.493396 -1.86132 4.46883 66 17 0 
-0.493038 -1.83498 4.47574 196 141 12 
-0.496793 -1.62447 4.50705 118 105 99 
-0.492341 -1.80674 4.47883 79 56 40 
-0.502165 -1.3926 4.54893 26 18 15 
-0.689628 -2.63593 6.42282 192 142 43 
-0.492042 -1.8084 4.48221 79 56 40 
-0.498107 -1.46403 4.53223 201 186 181 
-0.490226 -1.74766 4.48381 86 72 71 
-0.495804 -1.42895 4.54453 33 22 20 
-0.496557 -1.37066 4.55064 30 25 21 
-0.491137 -1.50858 4.51546 198 181 174 
-0.488959 -1.48804 4.52222 42 31 29 
-0.490482 -1.45092 4.53676 20 9 5 
-0.48775 -1.53105 4.52292 44 30 27 
-0.487048 -1.49796 4.51684 203 188 183 
-0.48681 -1.49109 4.51974 117 106 104 
-0.488104 -1.46112 4.5369 30 19 17 
-0.486607 -1.44358 4.5324 36 25 21 
-0.478401 -1.43977 4.51369 37 28 19 
-0.480176 -1.40112 4.53082 32 22 20 
-0.475945 -1.43417 4.52114 170 161 154 
-0.467803 -1.79041 4.46311 204 139 21 
-0.475058 -1.43045 4.52414 15 6 1 
-0.472274 -1.49737 4.50884 203 189 186 
-0.472274 -1.49737 4.50884 203 189 186 
-0.470083 -1.51941 4.50215 197 183 182 
-0.471743 -1.39348 4.5267 114 103 101 
-0.469718 -1.44357 4.51964 180 173 165 
-0.467099 -1.5113 4.50667 59 43 43 
-0.461203 -1.48841 4.50737 201 187 184 
-0.461203 -1.48841 4.50737 201 187 184 
-0.455098 -1.68954 4.47494 96 81 84 
-0.452735 -1.76691 4.45575 36 26 17 
-0.453724 -1.45049 4.5021 35 26 21 
-0.453884 -1.30333 4.53568 159 147 147 
-0.449373 -1.42034 4.51205 35 24 20 
-0.446893 -1.45582 4.4975 26 15 11 
-0.445782 -1.47069 4.50354 199 186 180 
-0.445782 -1.47069 4.50354 199 186 180 
-0.445545 -1.43308 4.50716 34 21 13 
-0.438936 -1.65084 4.47492 33 22 26 
-0.441121 -1.48685 4.49502 52 38 37 
-0.434172 -1.45858 4.49505 204 185 187 
-0.415199 -1.89219 4.42329 49 3 0 
-0.416215 -1.80125 4.4393 199 144 17 
-0.421254 -1.34084 4.50287 31 20 18 
-0.418981 -1.57581 4.49355 23 13 11 
-0.41969 -1.42635 4.49632 159 144 141 
-0.419816 -1.41052 4.50032 168 157 151 
-0.411908 -1.68029 4.44962 33 23 24 
-0.416028 -1.45101 4.48911 51 35 36 
-0.416028 -1.45101 4.48911 51 35 36 
-0.417162 -1.35852 4.50712 151 140 138 
-0.417162 -1.35852 4.50712 151 140 138 
-0.412408 -1.54315 4.47403 206 187 183 
-0.412843 -1.32566 4.50968 36 24 24 
-0.400311 -1.63059 4.45942 90 78 80 
-0.400311 -1.63059 4.45942 90 78 80 
-0.403385 -1.44871 4.48623 197 182 175 
-0.402872 -1.46351 4.48118 202 185 175 
-0.394644 -1.78104 4.43302 44 14 0 
-0.397669 -1.39389 4.4956 29 18 16 
-0.396951 -1.33934 4.49979 21 10 6 
-0.390426 -1.34303 4.49649 119 108 102 
-0.387237 -1.37955 4.47937 12 2 0 
-0.378972 -1.81444 4.41663 50 28 4 
-0.377673 -1.8666 4.40706 52 18 0 
-0.377673 -1.8666 4.40706 52 18 0 
-0.374387 -1.85114 4.4103 54 23 3 
-0.371076 -1.93398 4.38897 63 46 36 
-0.370752 -1.916 4.39363 187 142 27 
-0.37937 -1.33626 4.49228 33 22 18 
-0.379188 -1.27058 4.49932 157 146 144 
-0.370136 -1.74372 4.41671 36 25 31 
-0.367695 -1.82717 4.40446 58 34 0 
-0.365279 -1.80975 4.40341 64 39 19 
-0.305506 1.26212 3.40941 240 228 212 
-0.364337 -1.76056 4.42039 39 27 27 
-0.362484 -1.8205 4.40934 99 62 7 
-0.356924 -1.89609 4.38876 183 137 59 
-0.364429 -1.37466 4.47599 155 145 143 
-0.364429 -1.37466 4.47599 155 145 143 
-0.365503 -1.28944 4.48723 149 138 134 
-0.363673 -1.27275 4.47835 42 31 25 
-0.363635 -1.25612 4.48934 30 19 15 
-0.351653 -1.89026 4.38703 65 25 0 
-0.362659 -1.2945 4.48955 26 15 9 
-0.350826 -1.90491 4.38626 56 25 0 
-0.350826 -1.90491 4.38626 56 25 0 
-0.360306 -1.36927 4.47006 19 9 8 
-0.353313 -1.76932 4.4241 68 54 45 
-0.347408 -1.93004 4.37876 44 26 24 
-0.348233 -1.8817 4.38917 102 55 0 
-0.348233 -1.8817 4.38917 102 55 0 
-0.355496 -1.43168 4.46456 133 119 118 
-0.353426 -1.42766 4.46587 153 139 136 
-0.352124 -1.47868 4.45167 150 136 136 
-0.355494 -1.28222 4.4857 148 137 135 
-0.356488 -1.2376 4.50593 37 31 31 
-0.291874 1.27847 3.41352 89 75 64 
-0.356184 -1.23792 4.50801 37 31 31 
-0.350028 -1.41384 4.44844 43 29 28 
-0.349987 -1.36148 4.47373 140 130 129 
-0.338288 -1.77475 4.39831 179 147 109 
-0.346296 -1.32292 4.47694 141 130 126 
-0.346296 -1.32292 4.47694 141 130 126 
-0.332942 -1.81309 4.39478 56 30 3 
-0.339535 -1.39613 4.45859 162 148 145 
-0.339535 -1.39613 4.45859 162 148 145 
-0.330022 -1.85201 4.3843 86 49 0 
-0.334176 -1.61607 4.43145 129 115 114 
-0.324119 -1.9288 4.36233 42 18 0 
-0.334764 -1.33643 4.47411 150 138 138 
-0.335201 -1.26905 4.47961 139 127 127 
-0.31812 -1.91731 4.35909 76 53 3 
-0.3159 -1.92409 4.35699 42 25 9 
-0.316715 -1.89652 4.36831 89 61 40 
-0.326418 -1.33034 4.46994 156 145 143 
-0.315037 -1.90968 4.36291 59 31 10 
-0.315037 -1.90968 4.36291 59 31 10 
-0.312539 -1.94103 4.34834 182 168 165 
-0.312539 -1.94103 4.34834 182 168 165 
-0.32066 -1.30196 4.47734 26 16 7 
-0.305553 -1.94626 4.33747 43 33 24 
-0.332385 0.0588509 4.70085 90 85 79 
-0.309328 -1.25442 4.47053 39 28 32 
-0.305034 -1.37125 4.44108 42 30 30 
-0.321703 0.0608662 4.69649 108 97 93 
-0.259632 0.659623 4.63491 87 76 70 
0.373515 0.785875 4.33341 127 110 103 
0.404943 0.962392 4.42001 100 86 75 
0.447647 1.05563 4.06008 40 27 21 
0.440626 -0.053034 3.91382 125 122 117 
0.47221 0.816587 4.18427 118 105 97 
0.398185 1.24078 3.51995 46 42 39 
0.529495 1.16557 3.92274 148 119 63 
0.820051 0.610748 4.24889 194 180 171 
0.884733 1.03827 4.26591 105 71 72 
0.884733 1.03827 4.26591 105 71 72 
0.915705 1.07914 4.27526 148 134 134 
0.919504 1.10901 4.25394 27 26 22 
-0.961546 -1.54574 4.70779 40 36 37 
-0.948342 -1.58926 4.67031 107 101 105 
-0.919535 -1.72444 4.62078 50 41 42 
-0.967998 -1.36805 4.78726 44 37 31 
-0.992431 -1.19393 4.86568 163 155 153 
-0.958594 -1.39445 4.78022 59 49 48 
-0.965791 -1.27957 4.81468 94 83 81 
-0.950274 -1.39639 4.76647 44 28 28 
-0.954074 -1.36986 4.78552 42 28 27 
-0.920664 -1.50741 4.68266 34 28 32 
-0.956049 -1.33603 4.79783 38 20 20 
-0.941859 -1.40459 4.7615 52 37 32 
-0.967968 -1.24854 4.84623 109 101 99 
-0.971406 -1.19533 4.86616 84 74 73 
-0.938297 -1.387 4.76388 167 136 131 
-0.94333 -1.34554 4.78292 167 133 131 
-0.945425 -1.33031 4.79463 160 137 129 
-0.947207 -1.31933 4.80013 153 135 131 
-0.954627 -1.24806 4.82866 93 83 84 
-0.915876 -1.46767 4.726 37 31 31 
-0.925192 -1.37376 4.75626 106 76 76 
-0.937016 -1.31483 4.79459 158 133 126 
-0.929934 -1.31563 4.78491 169 141 137 
-0.934746 -1.29214 4.80546 165 134 129 
-0.87495 -1.66951 4.61819 171 162 155 
-0.917614 -1.37807 4.76584 164 135 131 
-0.930847 -1.26222 4.81623 54 39 34 
-0.870775 -1.62925 4.63161 31 25 25 
-0.871504 -1.60661 4.63548 88 79 80 
-0.883573 -1.53978 4.67686 32 26 26 
-0.915291 -1.31529 4.78092 165 135 133 
-0.91186 -1.33393 4.77849 164 136 132 
-0.862082 -1.65674 4.62032 130 116 115 
-0.85583 -1.66816 4.60768 174 163 161 
-0.901524 -1.33928 4.75932 103 75 72 
-0.908405 -1.30872 4.78509 119 91 88 
-0.913697 -1.26112 4.80467 161 132 128 
-0.898377 -1.37044 4.75749 164 134 134 
-0.896488 -1.33356 4.75404 160 134 133 
-0.890125 -1.39863 4.73596 110 79 76 
-0.852082 -1.64145 4.61718 179 166 160 
-0.891349 -1.38557 4.74913 171 140 138 
-0.898446 -1.3219 4.77351 166 140 139 
-0.891567 -1.35265 4.76571 164 141 135 
-0.914266 -1.22906 4.84072 28 24 21 
-0.843492 -1.65293 4.61008 138 128 127 
-0.841755 -1.6395 4.60667 24 18 20 
-0.895523 -1.27408 4.78309 126 96 94 
-0.893919 -1.30636 4.77807 166 140 139 
-0.91239 -1.19259 4.84029 110 105 102 
-0.885979 -1.33948 4.75873 159 134 130 
-0.873504 -1.39522 4.72731 103 73 71 
-0.877192 -1.3485 4.74793 89 64 60 
-0.859742 -1.45814 4.69503 39 31 29 
-0.860687 -1.40278 4.70208 173 142 139 
-0.873085 -1.36472 4.74524 99 70 72 
-0.868754 -1.32311 4.75169 163 144 140 
-0.849031 -1.44349 4.69598 182 165 157 
-0.878782 -1.24268 4.79556 168 135 130 
-0.853307 -1.41846 4.71202 40 25 22 
-0.835446 -1.50277 4.66693 43 25 21 
-0.850576 -1.37714 4.72323 117 89 88 
-0.836371 -1.47748 4.67842 182 158 156 
-0.84069 -1.4312 4.69441 41 27 24 
-0.862805 -1.27984 4.77187 121 92 88 
-0.901617 0.137233 4.92579 72 68 67 
-0.848455 -1.39578 4.73241 176 148 145 
-0.826805 -1.52413 4.66178 182 165 155 
-0.856607 -1.31199 4.7636 166 140 139 
-0.857045 -1.2944 4.76857 167 143 139 
-0.826093 -1.49828 4.66805 42 26 26 
-0.843241 -1.35535 4.73099 107 79 78 
-0.836798 -1.40035 4.70986 153 137 138 
-0.805765 -1.65241 4.60871 34 25 26 
-0.837936 -1.37186 4.72531 99 70 72 
-0.855128 -1.24924 4.78336 36 30 30 
-0.822338 -1.44576 4.6803 124 103 100 
-0.846409 -1.2968 4.76228 166 141 137 
-0.845562 -1.28462 4.75984 116 86 86 
-0.813531 -1.53822 4.6523 184 163 158 
-0.848154 -1.26896 4.76939 170 136 134 
-0.814024 -1.52496 4.65624 184 165 161 
-0.815448 -1.49001 4.66631 185 167 167 
-0.839363 -1.32917 4.74702 168 145 139 
-0.822255 -1.46249 4.69173 183 162 159 
-0.806765 -1.52484 4.64049 118 96 98 
-0.838794 -1.30826 4.75002 105 79 78 
-0.806473 -1.54822 4.64119 145 128 134 
-0.812921 -1.46662 4.66962 118 100 96 
-0.829152 -1.34853 4.73271 169 141 140 
-0.835926 -1.27755 4.76636 168 143 139 
-0.834278 -1.26453 4.76299 22 6 6 
-0.812917 -1.4235 4.69099 59 43 44 
-0.817423 -1.39117 4.70676 162 143 147 
-0.82469 -1.32132 4.73447 82 56 55 
-0.815807 -1.37607 4.70553 167 139 136 
-0.824243 -1.33955 4.73485 129 101 97 
-0.806333 -1.47157 4.67499 42 32 23 
-0.82221 -1.33475 4.73261 99 71 68 
-0.823549 -1.28408 4.75072 150 135 128 
-0.837883 -1.18632 4.80172 153 143 134 
-0.799423 -1.45931 4.67465 158 140 140 
-0.807709 -1.38702 4.7043 23 9 6 
-0.768917 -1.66897 4.57241 35 25 26 
-0.783061 -1.54567 4.62948 171 156 153 
-0.801112 -1.36516 4.70469 160 141 137 
-0.810164 -1.31292 4.73844 173 146 137 
-0.826415 -1.18523 4.80307 148 137 133 
-0.778221 -1.51347 4.64059 173 159 148 
-0.766814 -1.5767 4.6178 33 27 31 
-0.799559 -1.32302 4.73196 165 146 139 
-0.792949 -1.32673 4.72085 30 15 12 
-0.782537 -1.41603 4.68807 90 72 70 
-0.76946 -1.48533 4.64421 183 165 161 
-0.755258 -1.60593 4.59655 121 111 110 
-0.776597 -1.43613 4.67064 178 160 158 
-0.783818 -1.37891 4.70008 35 30 27 
-0.771795 -1.49088 4.66047 179 164 157 
-0.750976 -1.62822 4.58946 28 19 12 
-0.771299 -1.45836 4.66192 152 136 136 
-0.810498 -1.18852 4.80239 161 151 150 
-0.758597 -1.5353 4.62454 138 124 124 
-0.799855 -1.24871 4.77601 33 23 24 
-0.760879 -1.49253 4.64322 131 116 113 
-0.766001 -1.44767 4.66193 181 157 157 
-0.751276 -1.53947 4.61335 178 160 158 
-0.787379 -1.25592 4.75541 104 96 93 
-0.740765 -1.54471 4.61781 26 19 9 
-0.752333 -1.4264 4.65871 109 93 93 
-0.755473 -1.4161 4.67379 104 89 86 
-0.729042 -1.61734 4.58198 42 32 31 
-0.745173 -1.48342 4.64064 30 16 13 
-0.758229 -1.36543 4.69041 32 22 13 
-0.823995 -0.187151 4.94438 137 120 110 
-0.816886 -0.19806 4.92414 25 12 6 
-0.725002 -1.60893 4.58498 31 17 17 
-0.750092 -1.40743 4.67469 184 166 162 
-0.732427 -1.53835 4.61211 150 141 134 
-0.741976 -1.4788 4.64424 118 107 103 
-0.751138 -1.39198 4.68359 85 68 61 
-0.733826 -1.52815 4.62341 95 79 79 
-0.777913 -1.18791 4.78017 26 25 23 
-0.724161 -1.594 4.59198 30 22 20 
-0.72871 -1.54866 4.61161 169 162 152 
-0.714658 -1.63002 4.57009 32 23 18 
-0.7489 -1.36075 4.69313 129 122 116 
-0.80135 -0.263439 4.89372 157 142 135 
-0.754011 -1.32782 4.71355 28 22 22 
-0.70968 -1.67979 4.55779 20 10 0 
-0.730516 -1.47802 4.63701 34 23 21 
-0.723953 -1.54041 4.62042 28 23 17 
-0.741029 -1.3631 4.68512 34 24 22 
-0.702516 -1.67449 4.54934 154 144 135 
-0.735218 -1.4062 4.669 44 32 32 
-0.700296 -1.66526 4.54433 41 31 22 
-0.765472 -1.18558 4.78083 149 146 139 
-0.708744 -1.60253 4.58001 127 112 109 
-0.749121 -1.32544 4.72707 91 87 84 
-0.714733 -1.53515 4.61261 138 132 132 
-0.704042 -1.59116 4.57844 14 6 4 
-0.736154 -1.35376 4.69729 37 27 25 
-0.724113 -1.44446 4.65517 36 25 29 
-0.781963 0.150892 4.88669 26 22 23 
-0.713647 -1.48655 4.62253 27 17 18 
-0.72666 -1.39942 4.67012 176 162 159 
-0.698824 -1.61485 4.57136 43 33 32 
-0.793701 -0.334132 4.93232 155 150 146 
-0.739501 -1.27352 4.72548 159 145 144 
-0.726437 -1.37148 4.68815 40 26 26 
-0.687616 -1.67616 4.54784 32 31 29 
-0.69095 -1.61103 4.56119 140 132 130 
-0.725612 -1.34613 4.68974 25 17 15 
-0.736075 -1.24963 4.73412 160 140 141 
-0.713313 -1.41817 4.6541 105 96 97 
-0.715638 -1.35259 4.68328 123 108 103 
-0.707876 -1.39553 4.6647 126 119 111 
-0.725363 -1.2506 4.73165 33 27 27 
-0.715538 -1.32488 4.69765 34 24 23 
-0.672376 -1.63907 4.54099 31 25 27 
-0.699577 -1.39092 4.66096 131 121 120 
-0.705057 -1.36258 4.68364 141 130 124 
-0.655533 -1.74018 4.50538 104 96 93 
-0.694739 -1.38358 4.65591 25 15 14 
-0.705834 -1.30041 4.69909 148 137 133 
-0.755814 -0.221465 4.90749 133 113 104 
-0.699757 -1.31012 4.68883 26 16 14 
-0.704016 -1.29088 4.71243 159 150 143 
-0.655884 -1.67399 4.53394 123 109 108 
-0.688563 -1.40174 4.65716 34 23 21 
-0.697559 -1.31871 4.69337 97 87 86 
-0.645325 -1.68826 4.52124 16 8 5 
-0.691967 -1.29244 4.69964 33 28 24 
-0.635981 -1.73655 4.49889 35 25 26 
-0.681732 -1.33714 4.67468 33 28 24 
-0.631325 -1.74653 4.49469 104 93 91 
-0.678309 -1.31149 4.68003 76 66 65 
-0.684211 -1.28668 4.70368 108 122 107 
-0.639775 -1.62558 4.54541 130 124 126 
-0.679094 -1.30294 4.6943 39 27 29 
-0.664459 -1.4036 4.64698 35 24 18 
-0.677669 -1.27126 4.70339 29 62 35 
-0.67351 -1.32144 4.69347 30 13 19 
-0.622955 -1.68795 4.51666 50 42 40 
-0.665261 -1.39809 4.67865 23 15 13 
-0.614783 -1.73605 4.48836 19 10 13 
-0.654733 -1.42593 4.64149 114 102 104 
-0.670322 -1.30515 4.7022 33 24 19 
-0.702713 -0.292719 4.8426 140 127 121 
-0.625317 -1.62573 4.5423 147 142 136 
-0.664627 -1.27901 4.69688 6 45 18 
-0.671699 -1.41084 4.725 22 17 14 
-0.606959 -1.75021 4.48256 30 22 20 
-0.604402 -1.77013 4.47765 38 26 12 
-0.654623 -1.34623 4.67001 194 140 114 
-0.650073 -1.36134 4.65667 179 146 127 
-0.640647 -1.4302 4.62346 38 28 29 
-0.641957 -1.40121 4.63286 185 167 163 
-0.645651 -1.34814 4.6531 183 138 105 
-0.690747 -0.286829 4.85198 27 22 18 
-0.592983 -1.77822 4.46246 181 135 60 
-0.613758 -1.59981 4.548 120 114 114 
-0.63498 -1.45962 4.62755 24 18 18 
-0.633376 -1.42423 4.62544 123 111 111 
-0.622672 -1.50227 4.5923 84 74 73 
-0.64248 -1.30839 4.67143 155 95 58 
-0.637478 -1.32702 4.66451 193 134 104 
-0.585827 -1.76829 4.46572 179 136 42 
-0.589038 -1.73334 4.48352 106 98 96 
-0.59456 -1.68074 4.50559 43 32 26 
-0.621502 -1.43365 4.61659 139 128 124 
-0.589269 -1.72478 4.49143 27 17 15 
-0.594199 -1.66504 4.51222 27 19 17 
-0.589908 -1.75251 4.50452 32 28 16 
-0.629569 -1.3512 4.65993 190 143 113 
-0.606131 -1.51206 4.5751 90 81 82 
-0.626757 -1.32932 4.65932 107 52 31 
-0.613229 -1.44637 4.61535 36 25 29 
-0.620886 -1.34851 4.64709 136 94 69 
-0.69017 -0.321207 4.93255 129 109 102 
-0.583877 -1.69834 4.50663 34 25 26 
-0.615278 -1.42254 4.63048 102 91 89 
-0.672791 -0.271797 4.8718 27 19 16 
-0.611248 -1.42647 4.61698 41 31 30 
-0.580899 -1.6745 4.50119 35 29 31 
-0.605787 -1.45258 4.60119 105 97 95 
-0.620909 -1.31298 4.6618 187 131 98 
-0.611674 -1.34233 4.64053 166 135 115 
-0.618176 -1.28934 4.67217 109 114 92 
-0.596489 -1.43279 4.60336 126 116 117 
-0.576127 -1.62954 4.52657 87 76 80 
-0.575551 -1.60013 4.52578 22 11 15 
-0.570489 -1.67186 4.50572 127 113 113 
-0.608143 -1.31237 4.65802 40 21 17 
-0.612853 -1.27547 4.68136 4 48 21 
-0.560799 -1.67404 4.49339 187 174 165 
-0.602526 -1.29946 4.66732 35 31 30 
-0.587145 -1.39613 4.60817 20 16 5 
-0.54777 -1.77228 4.45451 184 131 25 
-0.579014 -1.47861 4.58351 170 161 152 
-0.60531 -1.24697 4.69002 133 158 137 
-0.592981 -1.33903 4.64361 34 28 28 
-0.558281 -1.64697 4.50641 176 168 157 
-0.56007 -1.59786 4.52525 38 29 34 
-0.565491 -1.55248 4.54666 99 89 88 
-0.557591 -1.62516 4.51534 146 131 128 
-0.592019 -1.31045 4.65546 128 123 120 
-0.537345 -1.75577 4.44241 39 18 0 
-0.549111 -1.6473 4.49111 26 17 8 
-0.553282 -1.62637 4.50701 159 143 144 
-0.586677 -1.32432 4.64508 39 29 30 
-0.550979 -1.63681 4.50918 34 26 23 
-0.592468 -1.2522 4.68787 125 144 125 
-0.585986 -1.28307 4.66136 11 17 3 
-0.615001 0.169605 4.80855 75 71 70 
-0.549821 -1.57767 4.53087 143 130 122 
-0.53586 -1.7192 4.47469 28 18 19 
-0.572887 -1.36296 4.62806 43 34 35 
-0.579561 -1.29612 4.65867 81 73 70 
-0.57735 -1.31418 4.65132 46 30 30 
-0.562268 -1.43386 4.59095 41 27 27 
-0.569762 -1.35027 4.62778 80 68 68 
-0.564501 -1.3976 4.60749 34 24 23 
-0.568518 -1.27089 4.62927 14 22 11 
-0.537795 -1.57702 4.52581 31 20 18 
-0.574924 -1.23256 4.68004 31 30 28 
-0.555356 -1.37476 4.61171 43 32 28 
-0.512282 -1.77489 4.43672 185 132 30 
-0.541352 -1.47226 4.558 45 33 33 
-0.54776 -1.40699 4.58669 37 26 20 
-0.553718 -1.34423 4.61892 170 152 152 
-0.555691 -1.3263 4.63247 26 18 16 
-0.546323 -1.41696 4.5953 136 126 125 
-0.536315 -1.48514 4.56454 167 156 152 
-0.506343 -1.77253 4.44491 172 141 77 
-0.546251 -1.38605 4.61306 182 167 164 
-0.500741 -1.75494 4.43126 96 83 75 
-0.554722 -1.29824 4.65723 26 21 17 
-0.537943 -1.39785 4.59323 34 23 19 
-0.532315 -1.45882 4.57489 105 95 94 
-0.512622 -1.6284 4.49783 177 167 158 
-0.538239 -1.37139 4.60627 64 51 45 
-0.530806 -1.43352 4.57792 23 18 14 
-0.49087 -1.7835 4.41561 61 35 0 
-0.533769 -1.43308 4.59264 88 80 77 
-0.527271 -1.469 4.56926 162 152 150 
-0.528717 -1.44973 4.57706 36 26 25 
-0.539712 -1.35554 4.62355 171 156 153 
-0.540083 -1.33786 4.6244 37 25 27 
-0.532283 -1.38295 4.60067 174 157 150 
-0.507349 -1.5809 4.51512 33 23 24 
-0.526364 -1.36799 4.60367 137 126 122 
-0.505353 -1.56983 4.51476 115 106 101 
-0.521945 -1.41163 4.58793 184 170 167 
-0.486676 -1.73247 4.44356 80 71 66 
-0.49739 -1.6255 4.49345 90 80 71 
-0.515222 -1.43484 4.57388 186 170 170 
-0.495098 -1.61542 4.49656 34 23 21 
-0.475737 -1.78394 4.41907 184 141 49 
-0.509706 -1.4479 4.56693 59 39 40 
-0.505554 -1.46255 4.55913 79 66 58 
-0.504802 -1.40105 4.5776 37 27 26 
-0.499412 -1.45053 4.56032 116 105 101 
-0.504656 -1.39122 4.58756 151 144 138 
-0.497904 -1.43591 4.56707 34 24 22 
-0.464043 -1.77399 4.42263 183 133 18 
-0.489143 -1.50467 4.53728 183 168 161 
-0.499941 -1.38113 4.58625 26 22 13 
-0.498618 -1.4225 4.58103 35 26 17 
-0.489157 -1.46437 4.54745 27 17 15 
-0.483723 -1.4746 4.53458 21 17 8 
-0.489259 -1.45212 4.55928 42 35 29 
-0.491859 -1.41845 4.57503 146 137 130 
-0.517681 -1.18077 4.68993 23 17 17 
-0.492818 -1.37641 4.59538 113 104 105 
-0.448244 -1.79772 4.40796 55 29 0 
-0.447167 -1.7877 4.41011 75 42 9 
-0.472099 -1.52636 4.52337 194 180 179 
-0.474984 -1.50634 4.53681 196 177 173 
-0.511051 -1.18117 4.69429 22 16 16 
-0.479759 -1.44673 4.56104 165 155 153 
-0.452905 -1.68061 4.45242 105 91 90 
-0.468903 -1.51744 4.52554 41 25 25 
-0.472896 -1.45434 4.55386 174 163 157 
-0.475934 -1.40696 4.5718 110 98 100 
-0.466463 -1.48133 4.53361 27 19 16 
-0.462989 -1.49464 4.52718 182 173 168 
-0.489632 -1.22817 4.64541 19 16 11 
-0.467841 -1.44307 4.5536 41 33 31 
-0.492736 -1.17736 4.68239 156 150 150 
-0.457394 -1.46352 4.542 35 31 30 
-0.43747 -1.64455 4.45799 32 27 23 
-0.450645 -1.52272 4.51615 189 175 172 
-0.457642 -1.44533 4.55336 158 154 143 
-0.448305 -1.48012 4.53307 190 177 171 
-0.453006 -1.43319 4.55421 41 34 28 
-0.410176 -1.85464 4.36888 55 25 1 
-0.443462 -1.49592 4.52269 40 35 32 
-0.45826 -1.32562 4.59105 32 25 19 
-0.459625 -1.32175 4.6013 156 147 138 
-0.420273 -1.69284 4.4291 30 21 26 
-0.412892 -1.7843 4.39791 188 139 11 
-0.452774 -1.35393 4.58842 142 135 125 
-0.441978 -1.41063 4.54634 31 25 25 
-0.448406 -1.34442 4.58224 37 25 25 
-0.438209 -1.47305 4.54022 196 177 170 
-0.429201 -1.48879 4.51887 138 127 121 
-0.411163 -1.67575 4.44089 32 26 26 
-0.417185 -1.56713 4.47193 23 14 9 
-0.437026 -1.43014 4.56287 146 135 129 
-0.425943 -1.45741 4.52618 147 133 124 
-0.45556 -1.17576 4.6688 153 148 145 
-0.413923 -1.5493 4.4919 193 178 173 
-0.392462 -1.76759 4.39886 44 25 0 
-0.423361 -1.43981 4.54062 147 137 135 
-0.418823 -1.46274 4.52566 45 31 28 
-0.445521 -1.17685 4.65935 12 6 8 
-0.427036 -1.36186 4.57547 29 22 12 
-0.420439 -1.42627 4.5487 163 150 144 
-0.400203 -1.62973 4.45684 87 77 76 
-0.422211 -1.37614 4.56718 160 149 143 
-0.420258 -1.39652 4.5584 83 78 72 
-0.392058 -1.65765 4.44298 94 84 85 
-0.376085 -1.7984 4.37676 47 29 9 
-0.405352 -1.47462 4.51468 197 180 173 
-0.416766 -1.36956 4.57067 43 35 24 
-0.407651 -1.4259 4.53572 34 24 22 
-0.415337 -1.30777 4.58261 30 20 18 
-0.397313 -1.46165 4.51529 97 78 72 
-0.401392 -1.40777 4.54248 34 23 19 
-0.409599 -1.3055 4.59553 157 153 144 
-0.401768 -1.3581 4.56463 25 20 17 
-0.36212 -1.74818 4.39064 37 25 29 
-0.38417 -1.43006 4.52864 38 26 26 
-0.357228 -1.71789 4.40158 99 92 86 
-0.396733 -1.3127 4.58882 141 134 124 
-0.353098 -1.76507 4.38173 175 145 81 
-0.388136 -1.36723 4.54964 31 22 15 
-0.390018 -1.32838 4.57514 35 25 26 
-0.384188 -1.38032 4.55769 30 23 17 
-0.383812 -1.35531 4.55758 41 29 29 
-0.370759 -1.50937 4.5035 197 188 181 
-0.386986 -1.32092 4.58463 39 27 27 
-0.383792 -1.34753 4.56959 138 128 126 
-0.370411 -1.4851 4.50844 164 145 138 
-0.386104 -1.29666 4.59235 148 138 137 
-0.370421 -1.46211 4.51845 160 147 139 
-0.382085 -1.33775 4.57876 56 49 43 
-0.369225 -1.44584 4.52476 35 23 23 
-0.374121 -1.38508 4.54843 108 103 99 
-0.3353 -1.80577 4.36335 179 144 76 
-0.337096 -1.76689 4.37875 177 152 111 
-0.359987 -1.46259 4.50573 176 159 152 
-0.330008 -1.77272 4.37 68 49 35 
-0.371812 -1.3147 4.57556 123 115 112 
-0.358828 -1.44688 4.51412 140 129 123 
-0.372917 -1.29167 4.58921 138 129 130 
-0.373172 -1.30942 4.60827 39 29 27 
-0.359916 -1.38759 4.54502 42 37 34 
-0.350105 -1.47207 4.49893 70 55 60 
-0.361982 -1.35827 4.55939 82 70 70 
-0.368571 -1.26856 4.59588 100 95 91 
-0.33494 -1.61826 4.43803 128 123 119 
-0.357159 -1.36403 4.54821 135 125 123 
-0.348639 -1.45395 4.50841 59 48 46 
-0.319573 -1.76567 4.3667 119 109 110 
-0.361918 -1.30872 4.58007 150 139 133 
-0.362242 -1.26682 4.58637 116 111 107 
-0.342658 -1.46349 4.49722 125 115 114 
-0.351455 -1.34511 4.55397 138 127 125 
-0.352571 -1.33088 4.56505 39 28 24 
-0.347498 -1.37139 4.54009 22 14 11 
-0.345168 -1.3961 4.53216 114 109 106 
-0.343709 -1.41603 4.52452 165 156 151 
-0.32457 -1.60749 4.43597 33 27 31 
-0.3388 -1.39818 4.51858 29 24 21 
-0.343988 -1.34021 4.54736 23 14 9 
-0.331494 -1.53814 4.48717 37 27 26 
-0.338977 -1.35577 4.54166 141 132 127 
-0.343198 -1.32251 4.56196 42 30 30 
-0.309548 -1.39448 4.51967 36 26 25 
-0.315595 -1.2814 4.57265 34 25 20 
0.369068 0.081755 4.45583 49 42 34 
0.395912 0.18472 4.45117 60 59 57 
-0.976811 -1.65925 4.70994 30 25 22 
-0.976718 -1.6493 4.71324 28 24 23 
-0.967711 -1.71098 4.68619 27 19 17 
-0.962016 -1.73137 4.6764 21 16 13 
-0.975805 -1.61908 4.72196 37 28 31 
-0.941245 -1.74468 4.66481 34 29 26 
-0.968054 -1.36768 4.78664 44 37 31 
-0.955126 -1.39068 4.76962 59 49 48 
-0.913329 -1.85062 4.65295 177 129 57 
-0.953922 -1.34011 4.78647 164 146 144 
-0.932379 -1.51911 4.71815 34 28 32 
-0.914828 -1.68085 4.66678 34 28 32 
-0.938333 -1.4426 4.74478 33 28 24 
-0.945659 -1.31943 4.78316 39 28 24 
-0.939328 -1.38683 4.7665 167 136 131 
-0.934198 -1.40023 4.75703 161 140 139 
-0.932886 -1.31878 4.78147 97 74 66 
-0.892534 -1.67929 4.65764 35 26 19 
-0.927539 -1.31285 4.77707 169 141 137 
-0.930125 -1.28763 4.79133 165 134 129 
-0.885954 -1.6549 4.66319 170 159 157 
-0.913753 -1.35994 4.75547 96 68 65 
-0.92254 -1.25493 4.79105 54 39 34 
-0.917685 -1.31644 4.77611 161 132 134 
-0.911189 -1.34364 4.76056 105 77 76 
-0.907525 -1.32931 4.76522 164 136 132 
-0.912752 -1.26899 4.78459 110 81 77 
-0.873586 -1.66913 4.65533 130 116 115 
-0.907913 -1.29741 4.77035 170 142 138 
-0.912545 -1.24668 4.78855 29 14 7 
-0.901895 -1.36099 4.75312 98 73 69 
-0.869443 -1.68353 4.64954 174 163 161 
-0.901761 -1.33868 4.75938 103 75 72 
-0.896999 -1.37589 4.74556 103 72 70 
-0.907179 -1.2556 4.78472 161 132 128 
-0.86732 -1.66142 4.65413 27 12 9 
-0.891262 -1.3889 4.73955 117 86 83 
-0.863131 -1.65373 4.65106 179 166 160 
-0.886756 -1.4162 4.73044 53 29 27 
-0.888218 -1.37009 4.74234 170 140 138 
-0.887965 -1.35567 4.74731 108 81 74 
-0.892555 -1.30964 4.76345 100 72 69 
-0.886095 -1.34601 4.74777 164 141 135 
-0.85566 -1.66634 4.64752 138 128 127 
-0.883245 -1.33663 4.75018 159 134 130 
-0.882642 -1.29761 4.76075 94 69 65 
-0.879988 -1.3189 4.75226 163 138 133 
-0.869113 -1.41244 4.72932 173 142 139 
-0.868378 -1.35471 4.74124 164 138 137 
-0.851749 -1.44569 4.70408 182 165 157 
-0.854583 -1.41888 4.71519 40 25 22 
-0.840609 -1.50826 4.68308 43 25 21 
-0.846907 -1.41057 4.70839 159 138 133 
-0.83188 -1.55547 4.66618 31 17 14 
-0.850604 -1.32261 4.73915 162 138 136 
-0.836018 -1.44083 4.69771 179 160 156 
-0.851357 -1.28893 4.75051 167 143 139 
-0.837011 -1.4 4.71018 153 137 138 
-0.798451 -1.78693 4.58871 172 125 35 
-0.825612 -1.44898 4.69085 124 103 100 
-0.842377 -1.2633 4.75088 170 136 134 
-0.816657 -1.52821 4.665 184 165 161 
-0.836232 -1.32611 4.73705 168 145 139 
-0.835673 -1.3046 4.73969 105 79 78 
-0.826033 -1.4034 4.70679 33 28 25 
-0.810063 -1.53971 4.65878 81 63 63 
-0.825874 -1.34491 4.72194 169 141 140 
-0.803074 -1.55485 4.65492 36 24 24 
-0.814912 -1.42572 4.69729 59 43 44 
-0.807229 -1.49195 4.6721 139 119 120 
-0.821727 -1.31821 4.72488 82 56 55 
-0.815804 -1.37633 4.70635 167 139 136 
-0.809688 -1.47492 4.68594 42 32 23 
-0.819309 -1.27983 4.73698 150 135 128 
-0.793233 -1.53442 4.65157 185 159 158 
-0.801357 -1.46153 4.6808 158 140 140 
-0.807759 -1.3497 4.71134 170 136 135 
-0.765725 -1.78899 4.57531 175 129 35 
-0.804779 -1.30783 4.7206 173 146 137 
-0.787233 -1.43545 4.67402 190 169 166 
-0.774878 -1.55391 4.64159 42 31 27 
-0.761751 -1.61337 4.61732 121 111 110 
-0.777199 -1.43621 4.67231 178 160 158 
-0.781798 -1.37617 4.69326 35 30 27 
-0.763411 -1.54014 4.63994 138 124 124 
-0.76709 -1.44871 4.66534 181 157 157 
-0.766252 -1.43256 4.6728 55 37 37 
-0.749183 -1.62459 4.61283 30 19 13 
-0.75782 -1.48621 4.64853 183 170 164 
-0.777918 -1.23204 4.73147 164 157 151 
-0.747202 -1.48542 4.6473 30 16 13 
-0.737072 -1.54288 4.62752 150 141 134 
-0.749278 -1.36751 4.68018 184 165 158 
-0.746494 -1.39091 4.67437 115 98 91 
-0.734445 -1.50313 4.63608 183 167 167 
-0.75234 -1.23553 4.7068 30 26 27 
-0.733466 -1.4921 4.64083 184 165 161 
-0.733566 -1.48117 4.64557 32 18 17 
-0.744814 -1.33436 4.68735 138 134 131 
-0.721467 -1.6088 4.60488 115 101 101 
-0.752069 -1.23789 4.71878 25 19 19 
-0.714464 -1.68253 4.58088 154 144 132 
-0.720044 -1.59348 4.60763 109 101 99 
-0.738979 -1.36133 4.67851 34 24 22 
-0.705515 -1.73665 4.5628 34 25 20 
-0.743929 -1.252 4.70637 35 27 24 
-0.732882 -1.38826 4.66672 168 149 145 
-0.711837 -1.64502 4.59037 101 94 86 
-0.734832 -1.30138 4.69155 91 85 85 
-0.729237 -1.35799 4.67387 127 113 112 
-0.725156 -1.44507 4.65851 36 25 29 
-0.706632 -1.6345 4.59186 34 22 24 
-0.706875 -1.61802 4.59603 159 149 148 
-0.732137 -1.26613 4.70062 159 145 144 
-0.688379 -1.77252 4.54719 18 11 5 
-0.691285 -1.73544 4.55848 28 18 19 
-0.699424 -1.62223 4.59047 140 132 130 
-0.691909 -1.69923 4.56356 40 39 35 
-0.720419 -1.34092 4.67232 25 17 15 
-0.727892 -1.2416 4.70596 160 140 141 
-0.719638 -1.22955 4.70468 48 41 35 
-0.680814 -1.69055 4.56254 33 25 23 
-0.704472 -1.32053 4.67267 126 114 114 
-0.69705 -1.38786 4.65215 131 121 120 
-0.666433 -1.76008 4.54044 38 26 28 
-0.693995 -1.40199 4.64633 177 167 165 
-0.669121 -1.67792 4.56142 114 103 101 
-0.700658 -1.29659 4.68205 148 137 133 
-0.694923 -1.30457 4.67204 26 16 14 
-0.695022 -1.2808 4.68041 159 150 143 
-0.649498 -1.78894 4.52355 90 82 79 
-0.687701 -1.27181 4.67954 32 49 30 
-0.673743 -1.398 4.63477 28 14 11 
-0.669764 -1.26306 4.6752 29 62 35 
-0.628749 -1.79192 4.51659 39 24 3 
-0.662894 -1.30846 4.65422 30 13 19 
-0.648817 -1.41833 4.61987 114 102 104 
-0.629191 -1.6311 4.55623 147 142 136 
-0.649117 -1.30725 4.65092 186 130 97 
-0.639159 -1.39799 4.62266 185 167 163 
-0.641691 -1.34337 4.63834 183 138 105 
-0.604261 -1.79416 4.50274 181 135 60 
-0.600374 -1.8282 4.49302 179 132 18 
-0.620826 -1.50062 4.58582 84 74 73 
-0.629972 -1.35623 4.6287 180 141 112 
-0.631209 -1.32006 4.64153 193 134 104 
-0.597891 -1.68057 4.52899 144 136 134 
-0.622354 -1.34678 4.63017 120 73 45 
-0.58926 -1.77223 4.503 30 6 0 
-0.590233 -1.7324 4.51258 127 117 115 
-0.587631 -1.7578 4.50664 32 29 12 
-0.608584 -1.41428 4.60534 102 91 89 
-0.572116 -1.77215 4.50067 35 30 27 
-0.574653 -1.67653 4.51995 127 113 113 
-0.577145 -1.60978 4.53793 152 140 140 
-0.588842 -1.46218 4.58669 124 115 110 
-0.574597 -1.62157 4.53547 145 133 133 
-0.58797 -1.42325 4.59531 33 23 22 
-0.564836 -1.70163 4.51312 30 19 17 
-0.58627 -1.3949 4.60466 20 16 5 
-0.560133 -1.68146 4.51532 20 9 7 
-0.562516 -1.61753 4.53135 104 94 92 
-0.58047 -1.23857 4.64184 125 144 125 
-0.570445 -1.3118 4.61655 158 144 143 
-0.566317 -1.32752 4.61027 35 21 21 
-0.534474 -1.73762 4.48651 77 65 65 
-0.539831 -1.61648 4.51943 151 135 136 
-0.534863 -1.63607 4.51381 26 17 8 
-0.557631 -1.31414 4.61198 169 158 156 
-0.557033 -1.30302 4.61818 25 16 7 
-0.523973 -1.71876 4.48599 33 22 28 
-0.538748 -1.37661 4.58368 182 167 164 
-0.522405 -1.61755 4.51736 40 30 29 
-0.53753 -1.39079 4.5826 173 159 156 
-0.527055 -1.4593 4.55346 40 30 28 
-0.506034 -1.77482 4.46294 51 35 20 
-0.504729 -1.78482 4.46039 42 20 7 
-0.523972 -1.4692 4.55491 27 17 15 
-0.527366 -1.40013 4.57423 38 28 27 
-0.534239 -1.28638 4.60848 177 166 160 
-0.535455 -1.27313 4.61519 21 11 10 
-0.523494 -1.39149 4.57181 42 31 29 
-0.489861 -1.79759 4.44594 55 22 0 
-0.52107 -1.361 4.58224 137 126 122 
-0.512415 -1.42012 4.56196 39 29 28 
-0.49852 -1.60619 4.50551 103 93 83 
-0.505313 -1.49789 4.53759 189 174 167 
-0.511331 -1.37227 4.57691 23 13 11 
-0.506112 -1.27936 4.598 116 110 110 
-0.48083 -1.62773 4.49417 40 29 27 
-0.483918 -1.47643 4.5362 21 17 8 
-0.48688 -1.37119 4.56028 35 26 17 
-0.443715 -1.77419 4.43593 183 143 81 
-0.457613 -1.4801 4.51827 37 28 21 
-0.457282 -1.43419 4.52774 27 24 19 
-0.431914 -1.77294 4.432 177 141 79 
-0.417328 -1.86633 4.39787 55 25 1 
-0.448176 -1.33182 4.55653 138 131 125 
-0.408567 -1.8245 4.40483 185 138 56 
-0.432293 -1.43364 4.5209 158 145 137 
-0.412198 -1.70558 4.44174 84 74 75 
-0.420224 -1.57238 4.48437 23 14 9 
-0.406163 -1.76294 4.42327 104 91 82 
-0.404117 -1.77417 4.41915 183 152 95 
-0.422593 -1.45359 4.51239 147 133 124 
-0.427789 -1.35572 4.54314 141 134 126 
-0.396761 -1.73807 4.42717 106 96 95 
-0.416208 -1.40183 4.52304 126 119 111 
-0.414485 -1.2984 4.5525 128 118 116 
-0.37956 -1.82519 4.39105 41 13 0 
-0.402173 -1.37529 4.5256 156 147 138 
-0.37201 -1.83295 4.38747 51 28 0 
-0.366992 -1.8052 4.39111 53 30 0 
-0.370912 -1.74211 4.41167 42 31 39 
-0.3845 -1.51072 4.47831 49 33 33 
-0.363988 -1.79422 4.39315 69 40 0 
-0.364835 -1.78497 4.39754 55 21 0 
-0.364849 -1.77406 4.40069 45 22 8 
-0.371059 -1.44901 4.48954 134 119 122 
-0.367596 -1.38992 4.50634 24 14 15 
-0.361704 -1.43498 4.49079 35 23 23 
-0.339531 -1.77091 4.38921 177 152 111 
-0.333414 -1.78919 4.38138 50 30 23 
-0.344774 -1.46481 4.47519 70 55 60 
-0.351735 -1.34459 4.51313 82 70 70 
-0.34542 -1.42498 4.48421 43 32 30 
-0.342261 -1.44494 4.47969 59 48 46 
-0.337943 -1.45743 4.47584 125 115 114 
-0.335485 -1.41692 4.48521 149 139 137 
-0.336522 -1.39677 4.49127 152 142 140 
-0.331731 -1.44512 4.47859 15 10 7 
-0.330393 -1.43075 4.48255 28 19 20 
-0.330894 -1.33628 4.50465 23 13 11 
-0.30272 -1.7621 4.37656 181 168 159 
-0.303407 -1.68402 4.39697 51 42 33 
-0.320452 -1.26865 4.52217 148 139 134 
-0.312578 -1.3032 4.50955 25 17 15 
