ply                 
format ascii 1.0    
element vertex 1272
property float x    
property float y    
property float z    
property uchar red  
property uchar green
property uchar blue 
end_header          
-1.46577 3.31021 5.51356 183 153 129 
-1.38563 3.36532 5.21636 103 72 44 
-1.50438 3.27986 5.68044 134 103 74 
-1.54743 3.23872 5.84571 182 153 111 
-1.52522 3.26481 5.77067 179 149 115 
-1.57449 3.22149 5.96355 100 78 64 
-1.57449 3.22149 5.96355 100 78 64 
-1.57106 3.22753 5.9536 173 146 125 
-1.52255 3.26054 5.78017 104 68 34 
-1.52255 3.26054 5.78017 104 68 34 
-1.53758 3.24964 5.86095 130 100 66 
-1.43719 3.31552 5.4754 122 92 64 
-1.51868 3.25643 5.79243 185 153 115 
-1.46842 3.28956 5.612 125 97 73 
-1.46842 3.28956 5.612 125 97 73 
-1.43655 3.31458 5.49259 198 167 138 
-1.41277 3.31864 5.40151 194 163 132 
-1.37002 3.3592 5.23701 227 195 156 
-1.35304 3.36702 5.18633 138 107 78 
-1.39909 3.33427 5.36833 198 168 130 
-1.3656 3.35243 5.24437 147 114 79 
-1.41006 3.3225 5.42272 188 160 121 
-1.46945 3.27138 5.65784 149 121 99 
-1.44855 3.29413 5.58289 105 76 44 
-1.4457 3.2969 5.57193 176 147 115 
-1.35037 3.35539 5.22243 143 108 86 
-1.51359 3.22735 5.866 171 146 115 
-1.42167 3.31387 5.50797 215 184 156 
-1.41971 3.31494 5.50163 192 161 132 
-1.41971 3.31494 5.50163 192 161 132 
-1.36553 3.34505 5.29756 140 105 75 
-1.4688 3.27421 5.70277 103 72 44 
-1.43299 3.30488 5.5698 195 165 131 
-1.32413 3.37023 5.14517 119 85 60 
-1.32568 3.3823 5.15214 202 168 141 
-1.32568 3.3823 5.15214 202 168 141 
-1.4869 3.2446 5.79449 116 85 64 
-1.4569 3.26904 5.6941 181 149 110 
-1.37179 3.32882 5.36044 144 113 85 
-1.31758 3.37142 5.15608 216 181 149 
-1.62637 3.10653 6.38713 151 141 131 
-1.38531 3.31986 5.44523 131 101 75 
-1.42163 3.29239 5.60007 195 167 128 
-1.47868 3.24146 5.83021 193 161 123 
-1.47868 3.24146 5.83021 193 161 123 
-1.37042 3.31798 5.42006 176 146 118 
-1.46177 3.24866 5.78948 95 67 46 
-1.60459 3.1689 6.36274 150 131 116 
-1.36524 3.33565 5.40837 140 109 81 
-1.43516 3.27891 5.69147 171 137 109 
-1.48065 3.23772 5.87513 143 117 90 
-1.32992 3.35364 5.27849 203 170 137 
-1.41116 3.27839 5.62111 175 148 119 
-1.90533 0.106565 7.62414 23 69 147 
-1.89409 0.0347512 7.58457 102 167 249 
-1.90024 0.0144507 7.61122 1 59 107 
-1.90164 0.15634 7.61946 34 83 149 
-1.34225 3.32987 5.3701 207 177 143 
-1.37156 3.30484 5.49293 181 150 121 
-1.28976 3.3681 5.16304 133 99 72 
-1.29416 3.35817 5.18953 189 160 128 
-1.88461 -0.0367991 7.5919 9 27 37 
-1.40133 3.28126 5.6311 118 89 57 
-1.35156 3.31427 5.43194 203 170 137 
-1.4257 3.2704 5.73394 177 143 115 
-1.89303 0.169962 7.64301 109 158 234 
-1.29803 3.35334 5.22015 108 74 47 
-1.3881 3.28416 5.58581 175 148 121 
-1.40212 3.2702 5.64573 216 179 137 
-1.31398 3.33995 5.2896 196 162 127 
-1.28453 3.35399 5.17855 128 98 72 
-1.44451 3.24452 5.83893 193 171 150 
-1.35646 3.31231 5.48206 196 166 130 
-1.43161 3.25403 5.79152 121 89 64 
-1.45184 3.24024 5.87751 191 173 149 
-1.86522 0.0239953 7.5901 23 69 93 
-1.37029 3.291 5.55812 127 96 67 
-1.38817 3.29428 5.63811 140 105 73 
-1.38754 3.28517 5.64013 218 178 142 
-1.42857 3.24885 5.8206 119 93 70 
-1.38638 3.28333 5.65236 151 108 74 
-1.41331 3.25369 5.76937 199 165 137 
-1.32976 3.32617 5.42654 207 173 146 
-1.40447 3.25539 5.73387 110 79 51 
-1.30783 3.32683 5.34907 129 97 74 
-1.33732 3.31009 5.48146 120 88 63 
-1.32299 3.31595 5.42394 139 108 80 
-1.37181 3.2802 5.64965 205 169 135 
-1.37181 3.2802 5.64965 205 169 135 
-1.29163 3.34031 5.31741 138 109 75 
-1.55497 3.11927 6.41751 159 149 140 
-1.23524 3.37452 5.09346 115 76 45 
-1.23178 3.37834 5.09005 197 162 130 
-1.25417 3.35913 5.19362 139 106 75 
-1.3789 3.26241 5.72486 120 86 59 
-1.37969 3.25699 5.73931 184 150 122 
-1.34064 3.28824 5.57768 213 183 145 
-1.30785 3.29971 5.44522 121 92 62 
-1.30297 3.31461 5.43335 187 156 127 
-1.37084 3.25601 5.72303 134 99 71 
-1.3687 3.24715 5.74487 136 110 85 
-1.32546 3.29302 5.56478 115 82 51 
-1.2962 3.31213 5.45302 193 162 133 
-1.3407 3.28059 5.6517 189 156 121 
-1.3457 3.26795 5.6729 130 91 58 
-1.35107 3.26176 5.69867 197 159 123 
-1.35975 3.26027 5.73909 203 173 145 
-1.31577 3.29157 5.55339 181 148 117 
-1.31928 3.28514 5.56954 227 185 147 
-1.2308 3.36476 5.19352 196 165 137 
-1.29261 3.30504 5.45884 138 105 72 
-1.21461 3.37713 5.12582 129 93 67 
-1.26386 3.33615 5.34561 199 168 139 
-1.26386 3.33615 5.34561 199 168 139 
-1.21167 3.37633 5.14273 189 155 117 
-1.26766 3.32483 5.38714 186 156 122 
-1.28389 3.30591 5.47301 209 176 143 
-1.2681 3.3143 5.4305 187 157 129 
-1.23725 3.33471 5.31716 111 81 55 
-1.33053 3.25621 5.72468 134 104 80 
-1.23778 3.33519 5.32725 240 206 179 
-1.31411 3.26409 5.67537 204 174 136 
-1.20279 3.36103 5.21883 196 162 135 
-1.25872 3.30695 5.46871 168 138 114 
-1.23943 3.30602 5.38492 189 158 129 
-1.22577 3.3343 5.32497 111 78 45 
-1.26351 3.30729 5.49395 129 95 67 
-1.18616 3.37408 5.15648 228 195 160 
-1.23304 3.33261 5.36272 134 99 71 
-1.27602 3.28759 5.56353 131 97 62 
-1.20247 3.35417 5.24116 199 166 133 
-1.20886 3.33785 5.27155 210 181 151 
-1.26831 3.30343 5.53571 201 161 126 
-1.18149 3.37003 5.16303 149 119 81 
-1.23514 3.30766 5.41209 191 158 123 
-1.29617 3.27419 5.68949 153 122 101 
-1.28998 3.27802 5.66528 192 156 120 
-1.22668 3.32344 5.38951 187 154 123 
-1.27336 3.2947 5.60081 188 155 122 
-1.19021 3.36179 5.2342 195 163 125 
-1.27191 3.28329 5.61396 122 92 64 
-1.15468 3.38363 5.10105 128 93 63 
-1.18936 3.34361 5.26302 133 103 79 
-1.24582 3.29492 5.5174 163 124 83 
-1.24923 3.30059 5.53364 167 128 87 
-1.19498 3.33652 5.2981 195 162 127 
-1.17771 3.36127 5.22212 213 181 142 
-1.21249 3.32703 5.3874 125 95 69 
-1.19234 3.32911 5.29826 145 112 77 
-1.25796 3.27248 5.60948 208 168 133 
-1.2494 3.27779 5.57483 184 156 116 
-1.17575 3.34888 5.24915 183 154 122 
-1.15751 3.36098 5.19567 185 155 127 
-1.17814 3.3365 5.29292 135 104 73 
-1.17965 3.33067 5.30783 183 150 117 
-1.13768 3.36819 5.14613 197 163 126 
-1.22035 3.28047 5.56399 122 86 60 
-1.15467 3.35345 5.26583 123 97 74 
-1.16205 3.35733 5.29993 188 157 129 
-1.13884 3.35261 5.20846 208 174 146 
-1.15447 3.32927 5.30532 187 157 123 
-1.15484 3.33032 5.30703 187 157 123 
-1.18634 3.3106 5.46067 216 177 138 
-1.16038 3.32213 5.3438 197 163 128 
-1.19941 3.29248 5.53687 114 78 56 
-1.11633 3.37951 5.14977 136 103 70 
-1.14206 3.34088 5.27615 195 162 121 
-1.60241 0.219471 7.45017 13 170 247 
-1.17975 3.3056 5.45959 169 131 94 
-1.11222 3.36474 5.14392 212 176 140 
-1.19756 3.28194 5.55458 196 156 120 
-1.19756 3.28194 5.55458 196 156 120 
-1.17476 3.30615 5.45497 200 157 122 
-1.11856 3.35981 5.20191 142 109 76 
-1.11856 3.35981 5.20191 142 109 76 
-1.17995 3.297 5.50446 188 154 117 
-1.11816 3.36456 5.2275 189 155 120 
-1.10412 3.36582 5.16204 126 95 64 
-1.16441 3.31891 5.45443 157 119 83 
-1.16441 3.31891 5.45443 157 119 83 
-1.14575 3.33816 5.37648 203 168 130 
-1.43846 2.59793 6.801 7 3 2 
-1.08354 3.36821 5.13033 155 128 107 
-1.11166 3.34382 5.26819 153 119 91 
-1.0867 3.36604 5.15368 180 153 126 
-1.08906 3.35928 5.19043 125 91 64 
-1.07487 3.37984 5.124 193 159 131 
-1.07516 3.37593 5.1346 103 75 53 
-1.53177 0.10911 7.38245 72 162 250 
-1.53177 0.10911 7.38245 72 162 250 
-1.13038 3.31529 5.43637 141 110 82 
-1.13038 3.31529 5.43637 141 110 82 
-1.12669 3.31192 5.45025 194 163 134 
-1.14279 3.28202 5.53698 126 97 79 
-1.12306 3.30865 5.45732 131 101 67 
-1.13749 3.29102 5.5307 208 179 149 
-1.05637 3.36613 5.13143 108 81 51 
-1.5103 0.205543 7.39547 0 62 131 
-1.5103 0.205543 7.39547 0 62 131 
-1.07041 3.35838 5.21168 187 155 116 
-1.49346 0.190454 7.35911 118 186 255 
-1.09681 3.3264 5.37388 213 178 138 
-1.0502 3.37734 5.16118 227 195 157 
-1.48746 0.173024 7.36206 108 178 247 
-1.06573 3.33713 5.25754 212 175 133 
-1.47683 0.139185 7.34188 104 181 253 
-1.47683 0.139185 7.34188 104 181 253 
-1.47194 0.149831 7.35275 0 72 115 
-1.1063 3.29947 5.50063 206 171 143 
-1.04398 3.3558 5.19227 128 98 72 
-1.08232 3.31997 5.42955 185 152 119 
-1.03181 3.35166 5.21364 199 166 131 
-1.01055 3.37436 5.12189 126 89 62 
-1.04191 3.33434 5.28886 143 111 88 
-1.02133 3.35568 5.18555 186 153 118 
-1.03395 3.33911 5.26401 194 165 135 
-1.0749 3.30377 5.47718 123 96 75 
-1.07135 3.30379 5.46083 231 199 178 
-1.06035 3.31346 5.42638 118 84 57 
-1.14072 3.24512 5.84658 194 177 159 
-1.0582 3.3061 5.43015 195 160 132 
-1.00173 3.36653 5.13909 198 160 123 
-1.00882 3.34777 5.20769 190 156 119 
-1.13148 3.24208 5.85048 82 80 68 
-1.12621 3.23876 5.83396 169 160 145 
-1.01992 3.33477 5.30039 227 188 155 
-1.0152 3.33661 5.28346 128 91 62 
-1.39848 0.477401 7.35567 2 16 43 
-1.04844 3.28633 5.49226 199 177 154 
-1.03587 3.31155 5.43177 121 91 67 
-0.99126 3.34793 5.23353 184 150 125 
-1.01913 3.30876 5.39627 176 151 120 
-1.00449 3.323 5.35065 204 171 138 
-1.00449 3.323 5.35065 204 171 138 
-0.962313 3.37188 5.12817 138 104 77 
-0.993173 3.32263 5.36134 109 78 49 
-1.00213 3.31411 5.41125 108 85 69 
-1.00213 3.31411 5.41125 108 85 69 
-0.987926 3.3248 5.34329 114 85 55 
-0.993724 3.30562 5.37773 198 173 143 
-0.978635 3.33208 5.29531 197 157 121 
-1.31272 -0.169749 7.16328 96 175 254 
-1.30898 -0.141248 7.15325 0 32 67 
-0.948012 3.35745 5.17765 180 149 118 
-0.935925 3.3724 5.11274 127 91 65 
-1.28898 -0.400916 7.10179 2 44 94 
-1.2844 -3.00173 7.11139 125 90 71 
-1.2922 -0.256564 7.13391 79 160 251 
-1.2852 -2.90482 7.14149 142 88 52 
-1.29179 -2.75578 7.17701 135 84 65 
-0.97723 3.31524 5.38939 208 184 158 
-1.26956 -3.07927 7.0857 106 77 63 
-0.927093 3.36358 5.12099 226 182 143 
-0.927093 3.36358 5.12099 226 182 143 
-1.28434 -0.119722 7.16136 78 151 245 
-0.964861 3.3291 5.34403 118 83 55 
-0.964861 3.3291 5.34403 118 83 55 
-1.27586 -0.0679395 7.12922 5 31 46 
-1.29805 -2.32587 7.29247 106 89 69 
-1.28072 -2.5242 7.2331 163 112 91 
-0.919175 3.35817 5.15218 195 164 133 
-1.3063 -1.91359 7.42994 146 131 124 
-0.933229 3.34336 5.26282 131 98 65 
-1.26474 -2.53827 7.21223 59 31 27 
-1.30106 -1.98129 7.41561 46 45 53 
-1.2543 -0.0665327 7.1346 0 26 64 
-1.26326 -2.50455 7.20971 122 65 48 
-1.25891 -2.58839 7.19046 51 34 40 
-1.24795 -2.72542 7.14675 117 72 53 
-0.9329 3.33514 5.30545 137 97 71 
-0.926661 3.35839 5.27378 174 139 109 
-1.24281 -0.0830192 7.12773 105 165 253 
-1.02516 2.62417 5.85291 131 155 155 
-1.30123 -1.52145 7.52248 50 45 52 
-1.30123 -1.52145 7.52248 50 45 52 
-1.2171 -3.01033 7.04813 103 60 51 
-0.894395 3.384 5.12273 125 93 68 
-0.923315 3.33327 5.30465 145 112 77 
-1.2911 -1.53552 7.49115 193 172 171 
-1.21221 -0.495641 7.02396 19 49 83 
-1.23685 -2.53187 7.18468 154 112 98 
-1.27194 -1.89572 7.38482 179 165 162 
-1.2675 -1.91128 7.36016 177 164 155 
-0.89763 3.36448 5.15976 121 82 53 
-0.923624 3.32945 5.31507 213 179 142 
-1.21502 -0.365577 7.06068 10 80 165 
-1.22902 -2.56248 7.16114 151 139 139 
-1.30604 -1.15521 7.60701 141 106 102 
-0.896165 3.35546 5.17408 216 180 148 
-1.2845 -1.57471 7.49413 194 166 152 
-1.24483 0.451583 7.25066 114 193 255 
-0.893902 3.35697 5.16808 130 93 67 
-0.938629 3.31379 5.43916 199 172 151 
-0.938629 3.31379 5.43916 199 172 151 
-0.954738 3.25853 5.53446 185 163 140 
-1.27265 -1.64942 7.45203 190 177 171 
-1.29917 -1.27398 7.60705 69 49 51 
-1.29917 -1.27398 7.60705 69 49 51 
-1.2126 -2.6852 7.1148 173 127 78 
-0.911049 3.33721 5.28995 207 171 139 
-1.21552 -2.5943 7.13405 49 37 39 
-1.09232 1.06673 6.3826 108 81 72 
-1.25627 -1.86559 7.37557 114 116 102 
-1.29473 -1.16174 7.60119 192 157 153 
-1.2077 -2.7097 7.10263 177 141 105 
-1.21157 -0.0387993 7.12509 70 158 248 
-1.29596 -1.06523 7.63548 182 146 148 
-0.885922 3.35892 5.17264 136 101 71 
-1.29443 -1.08291 7.6336 56 45 51 
-1.24549 -1.93529 7.35042 31 28 39 
-1.21088 -2.45466 7.16998 152 102 79 
-1.24077 -1.91279 7.34458 115 112 107 
-1.19547 -0.257129 7.06222 38 123 213 
-1.18888 -2.85552 7.05157 58 39 45 
-1.22845 -2.15609 7.28122 107 110 93 
-1.28267 -1.16264 7.59745 128 91 85 
-1.28267 -1.16264 7.59745 128 91 85 
-1.27978 -1.17699 7.59106 138 104 94 
-1.27978 -1.17699 7.59106 138 104 94 
-0.871134 3.37525 5.12042 120 85 57 
-0.887761 3.34728 5.22336 132 96 70 
-1.23893 -1.82001 7.36802 92 112 61 
-1.1989 -2.53419 7.13653 145 107 98 
-1.20533 -2.42862 7.18001 40 34 48 
-1.19183 -0.187828 7.08092 1 69 150 
-1.27784 -1.06019 7.60913 189 147 148 
-1.27769 -1.14439 7.61975 106 76 74 
-1.27801 -1.14546 7.6282 111 81 79 
-1.27144 -1.15494 7.59106 184 147 141 
-1.23567 -1.75141 7.38677 94 111 69 
-1.23567 -1.75141 7.38677 94 111 69 
-1.26944 -1.12216 7.58521 183 155 152 
-1.24472 -1.60661 7.44549 110 90 81 
-0.90399 3.33432 5.36048 207 186 165 
-1.26568 -1.07873 7.60776 180 149 147 
-1.18372 -2.49818 7.13271 116 65 46 
-0.8878 3.33922 5.29156 201 171 147 
-1.23305 -1.55782 7.4326 193 161 140 
-1.18237 -2.45314 7.13663 37 22 29 
-0.887997 3.32735 5.31027 125 99 84 
-0.86576 3.35815 5.18356 122 88 61 
-1.24559 -1.24732 7.54437 43 26 34 
-1.24559 -1.24732 7.54437 43 26 34 
-0.884782 3.33588 5.30716 126 100 83 
-1.15142 -2.99049 6.9919 85 64 59 
-1.15142 -2.99049 6.9919 85 64 59 
-1.17066 0.0398435 7.09126 2 31 47 
-1.15891 -2.70366 7.05378 131 103 100 
-1.21477 -1.7301 7.38774 46 48 47 
-1.22224 -1.49525 7.4403 166 147 141 
-1.14473 -3.0277 6.98509 144 115 97 
-1.16213 -2.52929 7.08776 45 14 0 
-1.15944 -2.60466 7.07274 48 17 0 
-1.2385 -1.29336 7.54572 171 150 149 
-1.16432 -2.55678 7.11225 178 140 103 
-1.21505 -1.62854 7.41901 40 42 55 
-1.13972 -2.92771 6.99931 163 125 80 
-1.13972 -2.92771 6.99931 163 125 80 
-0.855439 3.36526 5.19196 174 139 109 
-1.21262 -1.47822 7.46001 186 160 161 
-1.22441 -1.22416 7.5319 178 158 149 
-1.22468 -1.22638 7.53818 176 156 147 
-1.22468 -1.22638 7.53818 176 156 147 
-1.21622 -1.3444 7.49211 49 39 47 
-1.21622 -1.3444 7.49211 49 39 47 
-1.15152 -2.46624 7.10833 69 58 38 
-1.15162 -2.46781 7.1125 69 58 38 
-0.83947 3.37305 5.13098 227 188 147 
-1.14797 -2.50374 7.11707 177 135 85 
-1.14797 -2.50374 7.11707 177 135 85 
-1.21182 -1.25413 7.51065 178 159 152 
-1.12276 -2.97068 6.97227 126 109 101 
-0.829677 3.37866 5.09688 110 74 48 
-0.851866 3.34364 5.23947 203 177 144 
-1.14389 -2.387 7.1369 106 104 92 
-0.83186 3.35507 5.13189 211 175 139 
-1.11862 -2.86107 6.99453 89 61 37 
-1.20641 -1.21351 7.53032 117 97 96 
-1.10859 -3.00324 6.93772 80 54 31 
-1.11281 -3.00573 6.96691 141 114 97 
-1.14664 -2.24608 7.17202 101 98 93 
-1.10751 -2.97766 6.94824 63 41 44 
-1.01894 1.07156 6.3563 75 39 13 
-1.13018 0.0655892 7.06974 0 62 117 
-1.12266 -2.63901 7.04847 160 115 73 
-0.991236 1.10881 6.18768 168 133 95 
-0.991236 1.10881 6.18768 168 133 95 
-1.14359 -2.1186 7.18728 149 117 104 
-1.1161 -0.250654 7.00516 68 123 206 
-1.18757 -1.33275 7.46914 183 148 144 
-1.20103 -1.23348 7.55858 177 160 152 
-1.09989 -3.02568 6.9382 178 154 118 
-1.09707 -3.03669 6.92105 175 154 109 
-1.18804 -1.25932 7.50256 81 62 64 
-1.11917 0.0824861 7.05539 0 66 145 
-1.13708 -2.10684 7.21894 45 29 39 
-1.10326 -2.65246 7.01745 141 124 116 
-1.10049 -0.276457 6.97919 11 42 86 
-1.10049 -0.276457 6.97919 11 42 86 
-1.09586 -2.88232 6.97628 159 129 105 
-1.17471 -1.32687 7.46552 120 83 75 
-1.10037 -2.68144 7.0298 152 133 135 
-1.16107 -1.46283 7.41472 45 39 49 
-1.09316 -0.297615 6.96968 0 31 74 
-1.08998 -2.84429 6.9924 86 58 21 
-1.09309 -0.245872 6.98721 3 54 99 
-1.11456 -2.13206 7.16228 36 29 36 
-1.09162 -2.63237 7.02656 48 33 40 
-1.09363 -0.0814435 7.02218 64 158 246 
-1.08841 -0.227429 6.99372 113 173 245 
-1.08841 -0.227429 6.99372 113 173 245 
-0.825487 3.34555 5.25562 114 92 71 
-1.08545 -0.193785 7.00514 48 104 178 
-1.08209 -0.240375 6.99155 0 51 121 
-1.09179 0.0642621 7.05415 46 162 249 
-0.810008 3.36026 5.19521 134 100 65 
-1.06751 -2.85369 6.94295 74 50 26 
-0.989131 1.05955 6.40525 74 40 15 
-1.11743 -1.82743 7.27411 139 130 133 
-1.06526 -2.76748 6.96183 89 59 61 
-1.06526 -2.76748 6.96183 89 59 61 
-1.07182 -0.203864 6.98325 49 106 177 
-1.10605 -1.83364 7.23902 36 30 32 
-1.05133 -3.06151 6.8922 175 152 111 
-1.07394 -2.51394 7.04044 165 119 70 
-0.797688 3.35997 5.17223 131 97 62 
-0.987874 1.05018 6.46007 188 161 150 
-1.07651 -2.32276 7.0894 171 138 123 
-0.78499 3.35951 5.10698 201 163 127 
-1.10406 -1.77651 7.27659 139 127 131 
-0.783517 3.37488 5.10344 123 89 61 
-1.07754 0.313905 7.09368 64 154 250 
-1.09998 -1.74609 7.27039 51 38 32 
-1.0948 -1.81314 7.24938 122 108 108 
-1.05434 -2.67285 6.9889 143 127 130 
-1.07015 0.297473 7.07754 99 178 255 
-1.06569 0.0923282 7.05379 0 64 144 
-1.04161 -2.86663 6.92692 178 158 107 
-1.06592 0.0918732 7.07498 0 65 138 
-1.08989 -1.77421 7.256 155 140 143 
-0.965651 1.0669 6.41267 52 7 0 
-0.850948 3.2775 5.62132 214 194 170 
-0.836986 3.32097 5.52872 134 115 101 
-1.08158 -1.82877 7.22561 171 163 160 
-1.08158 -1.82877 7.22561 171 163 160 
-1.10512 -1.43856 7.38875 148 142 142 
-1.06097 0.32701 7.08676 83 183 255 
-1.06018 0.345854 7.09282 44 176 255 
-1.0955 -1.53034 7.35289 33 29 44 
-1.04514 -2.43212 7.02221 35 26 27 
-0.769466 3.37284 5.10473 201 165 133 
-1.02702 -2.96614 6.91324 176 153 109 
-1.05055 0.270437 7.04218 2 84 122 
-1.03141 -3.02301 6.96145 173 149 121 
-1.04799 0.243237 7.04688 1 82 147 
-1.05353 0.358081 7.09366 41 162 253 
-1.02962 -2.56556 6.98679 40 33 41 
-0.770213 3.35911 5.16355 139 112 83 
-1.02389 -2.6109 6.96298 84 69 72 
-1.04497 0.385958 7.08949 0 121 210 
-1.07146 -1.65838 7.29441 185 151 149 
-1.03712 0.244444 7.04647 92 176 249 
-1.04103 0.339373 7.07896 0 81 124 
-1.0316 0.307045 7.06693 7 82 124 
-0.755627 3.36437 5.13039 145 103 78 
-1.04986 -1.78824 7.2251 110 100 99 
-1.03192 0.363676 7.07919 29 171 253 
-0.994725 -2.95317 6.8718 115 82 51 
-1.04634 -1.62707 7.23137 188 154 145 
-1.07188 -1.21029 7.41811 169 149 140 
-0.986065 -2.79835 6.85992 155 118 76 
-1.00986 -2.28645 7.03527 37 30 37 
-1.00622 0.164021 7.01317 84 176 249 
-1.02976 -1.76207 7.2201 28 8 9 
-1.02976 -1.76207 7.2201 28 8 9 
-1.01013 0.355739 7.05956 87 201 255 
-1.01013 0.355739 7.05956 87 201 255 
-1.04812 -1.33248 7.36299 158 152 138 
-0.996915 0.132898 6.99158 87 189 251 
-1.0205 -1.76643 7.1891 141 127 127 
-1.00371 0.345898 7.05641 9 115 191 
-1.00338 0.548891 7.06955 2 36 74 
-0.966902 -2.89849 6.85489 74 48 23 
-1.03843 -1.30891 7.35004 41 38 57 
-1.05541 -1.02606 7.47871 111 84 75 
-0.974571 -0.189456 6.89343 0 48 117 
-0.993096 0.295072 7.03144 84 177 255 
-0.982343 0.13771 6.9766 96 194 255 
-0.986049 -2.12707 7.04332 39 28 34 
-0.986192 -2.13528 7.06437 36 23 30 
-0.974349 -2.37516 6.99469 66 56 47 
-1.04138 -1.03767 7.47169 118 94 90 
-0.970775 -2.35443 6.99285 158 130 116 
-1.00209 -1.67243 7.24064 188 152 136 
-1.00209 -1.67243 7.24064 188 152 136 
-0.952928 -2.61842 6.8982 115 76 45 
-0.710924 3.36897 5.09308 204 169 137 
-0.947075 -2.63446 6.90039 150 107 75 
-0.944263 -2.60253 6.90193 161 118 67 
-0.950441 -2.35585 6.98459 60 24 24 
-0.942782 -2.47935 6.9329 73 60 54 
-1.01072 -1.05531 7.42589 176 152 148 
-0.962284 0.485475 7.05061 15 112 181 
-0.948257 0.0980594 6.95138 17 150 251 
-0.948235 0.0976542 6.95506 17 150 251 
-0.949568 0.291077 6.98998 0 125 206 
-0.931922 -2.53125 6.90915 140 98 56 
-0.93593 -2.38018 6.96497 48 32 35 
-0.825432 1.11898 6.10934 91 46 13 
-0.927967 -2.49018 6.92197 169 132 90 
-0.826186 1.12698 6.1175 183 130 88 
-0.928103 -0.0585036 6.90093 75 174 255 
-0.825878 1.11192 6.14155 72 45 18 
-0.690426 3.37367 5.10826 108 77 56 
-0.983646 -1.09584 7.38219 158 138 131 
-0.904146 -2.81502 6.82335 63 40 50 
-0.923076 0.0366405 6.93994 28 167 250 
-0.929585 0.28419 6.9906 33 179 254 
-0.807659 1.34398 6.05168 138 117 70 
-0.807659 1.34398 6.05168 138 117 70 
-0.926224 0.307463 6.99048 14 165 244 
-0.973632 -1.11651 7.3841 168 153 146 
-0.936209 -1.82095 7.11811 158 137 134 
-0.934216 -1.81039 7.11815 155 126 120 
-0.922706 0.43321 7.0074 34 133 188 
-0.899842 -2.60304 6.87381 79 49 57 
-0.903759 0.00849459 6.89267 34 164 248 
-0.895473 -2.43169 6.90934 48 28 30 
-0.896261 -0.0317344 6.89096 15 137 248 
-0.892236 -2.37556 6.92233 146 68 68 
-0.889748 0.0213428 6.87766 29 167 255 
-0.910604 -1.88074 7.06529 165 147 143 
-0.910604 -1.88074 7.06529 165 147 143 
-0.924001 -1.61508 7.16952 182 145 139 
-0.782984 1.33668 6.05609 116 107 92 
-0.782984 1.33668 6.05609 116 107 92 
-0.872689 -2.64602 6.81043 55 33 36 
-0.883236 -2.41253 6.90023 65 25 23 
-0.901776 -1.86939 7.05401 35 14 13 
-0.90173 -1.85138 7.07143 37 31 43 
-0.874573 0.0162941 6.88942 29 165 251 
-0.902822 -1.64529 7.14215 185 148 132 
-0.877822 -2.2053 6.9568 165 97 62 
-0.927219 -1.07526 7.34806 118 106 106 
-0.872868 0.0835494 6.89879 12 160 246 
-0.886888 -1.81588 7.08247 124 125 117 
-0.883983 -1.8285 7.06667 46 27 20 
-0.883983 -1.8285 7.06667 46 27 20 
-0.820794 1.02276 6.56932 78 54 28 
-0.879429 -1.77233 7.08511 157 140 130 
-0.833294 -2.97518 6.73784 104 75 57 
-0.839288 -2.38183 6.85954 87 38 8 
-0.840856 -2.2974 6.89131 118 48 40 
-0.870209 -1.59439 7.12753 41 38 65 
-0.836159 -2.41001 6.8637 98 64 37 
-0.837005 -2.40552 6.88172 164 139 85 
-0.821413 -2.58064 6.81025 133 96 78 
-0.817291 -2.53199 6.82309 72 42 50 
-0.70166 3.24293 5.80561 208 192 176 
-0.785696 -2.83404 6.73348 173 152 121 
-0.80185 -2.28587 6.86546 168 144 54 
-0.798465 -2.0342 6.93299 118 55 40 
-0.793187 -2.14683 6.90399 141 99 41 
-0.770173 -2.50221 6.78838 154 116 71 
-0.770149 -2.50366 6.79085 154 116 71 
-0.778873 -2.11463 6.90288 140 100 65 
-0.729874 1.04021 6.51142 159 131 119 
-0.760014 -2.1305 6.89108 43 35 46 
-0.760014 -2.1305 6.89108 43 35 46 
-0.733765 -2.17886 6.85716 46 43 64 
-0.733765 -2.17886 6.85716 46 43 64 
-0.716499 -2.51395 6.7407 85 55 53 
-0.716499 -2.51395 6.7407 85 55 53 
-0.718477 -2.09583 6.85669 146 99 93 
-0.759233 -0.993908 7.25377 143 57 34 
-0.706373 -2.21079 6.82835 130 111 115 
-0.615212 1.16253 5.95555 73 39 14 
-0.741211 -1.39096 7.29265 163 64 45 
-0.694335 -2.07296 6.86382 77 30 22 
-0.701709 -1.7441 6.95284 176 165 161 
-0.688979 -2.07207 6.83154 183 157 160 
-0.647437 1.05803 6.4479 46 19 0 
-0.648246 1.05241 6.46573 213 182 161 
-0.684438 -1.93671 6.88285 100 71 65 
-0.665876 -2.27101 6.76538 178 163 160 
-0.677972 -1.9409 6.88929 113 94 90 
-0.672101 -2.08681 6.83534 89 88 104 
-0.667665 -2.15777 6.79764 144 108 108 
-0.672863 -2.08033 6.85381 47 32 39 
-0.66614 -1.94112 6.86677 93 75 71 
-0.657181 -2.08345 6.82351 59 47 57 
-0.659939 -1.95546 6.86494 185 166 159 
-0.659939 -1.95546 6.86494 185 166 159 
-0.650766 -2.06827 6.79589 190 157 152 
-0.656668 -1.93518 6.8621 187 170 162 
-0.658866 -1.83196 6.89518 189 160 152 
-0.652243 -1.92528 6.86556 184 166 156 
-0.639099 -2.15827 6.79156 170 124 111 
-0.631276 -2.23833 6.75084 74 57 65 
-0.646838 -1.70959 6.92679 139 121 107 
-0.630627 -2.22636 6.76193 116 101 108 
-0.641461 -1.72986 6.89655 190 162 148 
-0.618958 -2.22099 6.75709 78 63 70 
-0.630189 -1.67918 6.9032 42 14 10 
-0.617022 -2.22516 6.81701 83 66 74 
-0.602048 -2.11664 6.76305 171 119 98 
-0.602048 -2.11664 6.76305 171 119 98 
-0.583232 -2.21111 6.73197 136 119 127 
-0.576132 -2.25664 6.70737 64 47 53 
-0.576132 -2.25664 6.70737 64 47 53 
-0.575385 -2.27311 6.70229 130 115 120 
-0.575504 -2.265 6.70533 132 117 122 
-0.559208 -2.25911 6.68312 72 56 59 
-0.43965 3.36489 5.2617 110 94 79 
-0.546955 -2.0607 6.73283 189 155 153 
-0.538021 -2.05254 6.72155 178 153 156 
-0.534677 -1.59921 6.8476 166 67 48 
-0.523602 -2.07026 6.71301 35 34 48 
-0.523602 -2.07026 6.71301 35 34 48 
-0.52619 -1.71507 6.79352 145 54 36 
-0.512328 -2.24725 6.66385 131 119 123 
-0.516827 -1.92196 6.74596 93 74 67 
-0.48462 1.07917 6.34565 66 35 17 
-0.504687 -2.04555 6.6993 190 162 158 
-0.516988 -1.55416 6.87513 41 38 69 
-0.516988 -1.55416 6.87513 41 38 69 
-0.501114 -2.0359 6.69454 72 27 21 
-0.502949 -1.82145 6.76228 184 162 148 
-0.493091 -2.16402 6.66263 136 120 123 
-0.504252 -1.67934 6.84121 33 14 7 
-0.498909 -1.68773 6.80686 167 143 133 
-0.465372 -2.43649 6.56108 158 144 55 
-0.465372 -2.43649 6.56108 158 144 55 
-0.472844 -2.05366 6.66938 173 119 107 
-0.47871 -1.82626 6.74936 194 169 164 
-0.465585 -2.2384 6.62106 161 150 58 
-0.460372 -2.33819 6.60757 85 76 17 
-0.460372 -2.33819 6.60757 85 76 17 
-0.465348 0.30941 6.62707 0 70 104 
-0.47113 -1.70193 6.78027 150 136 127 
-0.454281 -2.33579 6.57784 98 91 65 
-0.454281 -2.33579 6.57784 98 91 65 
-0.459774 -1.8567 6.70816 113 74 69 
-0.458721 -1.83222 6.73761 187 164 156 
-0.464137 1.05468 6.7682 0 63 24 
-0.452851 -1.70844 6.7654 33 23 32 
-0.457927 -1.04791 6.82703 34 29 33 
-0.434067 -2.26761 6.58294 162 151 33 
-0.432268 -1.86512 6.69373 166 148 136 
-0.428518 -2.04395 6.64271 55 28 17 
-0.422617 -2.2965 6.57649 172 157 56 
-0.428996 1.06421 6.773 0 44 16 
-0.401616 -2.12617 6.60644 147 100 48 
-0.401923 -2.09508 6.61845 107 54 20 
-0.394984 -1.98193 6.64786 125 59 45 
-0.385714 -1.91009 6.65362 78 51 32 
-0.37624 -1.59987 6.72452 83 33 22 
-0.372712 -1.58053 6.71703 176 140 126 
-0.374436 -1.49198 6.75777 95 34 39 
-0.373342 -1.54495 6.74153 182 145 139 
-0.373342 -1.54495 6.74153 182 145 139 
-0.384549 -0.930373 6.93955 138 46 23 
-0.372799 -1.51706 6.7474 181 142 135 
-0.372425 -1.48109 6.75754 75 4 0 
-0.361741 -2.09149 6.57606 152 95 65 
-0.325729 1.31167 5.84199 10 0 0 
-0.346575 -2.31171 6.50612 154 113 93 
-0.340267 1.08968 6.27385 172 146 131 
-0.349606 -0.913479 6.91432 135 62 53 
-0.312848 -2.43445 6.437 86 58 46 
-0.312848 -2.43445 6.437 86 58 46 
-0.309872 -2.72982 6.40414 184 155 121 
-0.33072 -0.98527 6.88817 182 162 155 
-0.303985 -1.51384 6.69226 111 72 65 
-0.270565 1.16444 5.92229 54 26 4 
-0.287298 -2.30984 6.45936 163 119 82 
-0.296013 -1.58113 6.6863 126 99 108 
-0.29533 -1.15764 6.8047 153 69 58 
-0.287336 -1.59724 6.6694 57 34 50 
-0.268889 -2.49869 6.41872 178 161 109 
-0.279473 -1.56723 6.66156 127 106 103 
-0.27485 -1.73482 6.60087 56 43 52 
-0.274304 -1.54675 6.64986 127 107 100 
-0.274304 -1.54675 6.64986 127 107 100 
-0.269351 -1.53134 6.65489 86 59 52 
-0.264267 -1.57675 6.64354 126 94 97 
-0.272786 -0.869014 6.87055 204 182 168 
-0.262475 -1.60477 6.62779 61 44 62 
-0.262179 -1.606 6.6307 61 37 53 
-0.247635 -1.60973 6.60975 154 86 87 
-0.246455 -1.58304 6.62542 148 91 98 
-0.230685 -2.25495 6.42386 176 136 101 
-0.228792 -2.28468 6.44737 56 27 21 
-0.227507 -1.90486 6.50788 72 30 32 
-0.217557 -1.5749 6.59942 63 35 31 
-0.217653 -1.45879 6.6472 187 155 134 
-0.188412 -1.88981 6.46962 177 127 118 
-0.18226 -1.56695 6.58154 84 36 36 
-0.175367 -1.72446 6.52345 181 152 138 
-0.16786 -2.13687 6.42071 69 34 38 
-0.169419 -1.71771 6.51678 47 38 23 
-0.170057 -1.71468 6.54604 80 81 67 
-0.162509 -1.86932 6.48121 128 63 61 
-0.15895 -1.71881 6.51573 75 68 60 
-0.15895 -1.71881 6.51573 75 68 60 
-0.148986 -1.71546 6.47846 43 23 16 
-0.146226 -1.81966 6.4657 185 152 133 
-0.146167 -1.71415 6.50903 180 159 158 
-0.148495 -1.22984 6.643 59 30 35 
-0.133038 -1.72638 6.49329 146 112 102 
-0.13265 -1.74019 6.47232 99 65 53 
-0.13265 -1.74019 6.47232 99 65 53 
-0.127748 -1.59935 6.50963 187 154 135 
-0.119977 -1.8887 6.41936 178 123 126 
-0.112438 -2.08029 6.37189 181 161 152 
-0.112851 -1.83392 6.4455 109 54 47 
-0.110941 -1.83823 6.45603 108 55 47 
-0.11004 -1.77114 6.4348 187 155 134 
-0.115332 -0.91337 6.73295 194 162 147 
-0.106115 -1.88119 6.42946 183 125 123 
-0.0991124 -1.18271 6.60489 111 41 51 
-0.0978471 -1.34921 6.56598 156 96 85 
-0.0882579 -2.12658 6.34328 182 164 154 
-0.0852348 -2.1663 6.30206 70 44 43 
-0.0853569 -1.93441 6.39884 174 157 147 
-0.0853569 -1.93441 6.39884 174 157 147 
-0.0824144 -2.10575 6.3673 72 38 36 
-0.0815828 -1.81668 6.41963 190 153 135 
-0.0816714 -1.62493 6.48495 146 109 100 
-0.0790056 -2.08664 6.36221 158 112 112 
-0.0790056 -2.08664 6.36221 158 112 112 
-0.081822 -1.05517 6.68646 96 28 39 
-0.0753116 -2.07653 6.36554 108 61 55 
-0.0699396 -1.71061 6.44072 68 58 49 
-0.0680845 -1.98623 6.38013 159 118 112 
-0.0670057 -2.07473 6.33929 104 58 58 
-0.0662701 -1.96708 6.37137 99 71 68 
-0.0635947 -1.90535 6.37843 175 155 146 
-0.0644708 -1.59972 6.46072 190 155 135 
-0.0624074 -1.12402 6.57549 171 129 130 
-0.0573535 -1.65954 6.4411 189 154 134 
-0.0578586 -1.11283 6.57709 158 126 129 
-0.0518384 -2.0618 6.34018 108 84 74 
-0.0499174 -1.71669 6.41679 192 155 139 
-0.0480717 -1.87866 6.3709 78 32 32 
-0.050293 -1.086 6.6111 61 21 22 
-0.0495305 -1.11053 6.59252 47 17 17 
-0.0469072 -1.70282 6.42533 108 57 53 
-0.032587 -1.96745 6.35101 67 42 38 
-0.032587 -1.96745 6.35101 67 42 38 
-0.0324458 -1.96751 6.35177 67 42 38 
-0.0313868 -1.69072 6.4055 161 80 87 
-0.0275638 -1.75806 6.38457 167 80 86 
-0.0255647 -1.55629 6.5016 184 159 152 
-0.0203327 -1.98597 6.37067 184 164 155 
-0.0167847 -1.55623 6.48361 180 161 147 
-0.0171205 -1.04528 6.58342 197 163 161 
-0.0146125 -1.98385 6.32928 177 157 148 
-0.0136978 -1.56144 6.5032 179 161 147 
-0.0122439 -0.978527 6.5881 109 22 39 
-0.00907373 -2.07137 6.31932 175 158 150 
-0.00759617 -1.83739 6.35208 97 46 53 
-0.00668433 -1.80583 6.36398 183 161 150 
-0.0036964 -1.17294 6.53452 97 46 45 
-0.00134213 -2.15612 6.24269 97 60 44 
0.00253592 -1.17947 6.53423 115 42 53 
0.00749318 -2.13529 6.26905 102 66 52 
0.00749318 -2.13529 6.26905 102 66 52 
0.0077131 -1.53882 6.38438 179 161 149 
0.0284459 -1.97967 6.30035 87 53 52 
0.0284459 -1.97967 6.30035 87 53 52 
0.0300859 -1.14473 6.51715 83 32 37 
0.0316124 -1.14669 6.52648 81 30 35 
0.0332565 -2.02678 6.26991 131 114 104 
0.0332565 -2.02678 6.26991 131 114 104 
0.0396884 -0.991176 6.56244 180 162 148 
0.0780418 -0.878559 6.5519 200 154 138 
0.0826068 -1.91747 6.26589 142 125 117 
0.0960115 -0.906555 6.53148 208 164 151 
0.114839 -1.80442 6.27303 126 108 104 
0.117562 -1.7731 6.28429 126 108 108 
0.170477 0.680193 6.18765 7 8 10 
-1.94733 1.56037 6.72445 105 88 58 
-2.05383 -0.851038 7.30974 216 208 206 
-1.54077 1.97759 6.03395 227 224 219 
-1.96868 -0.0242772 7.39185 77 134 205 
-1.89756 0.0231971 7.34954 11 60 100 
-2.00657 -0.423919 7.77223 74 79 82 
-1.81139 -0.00899413 7.24779 68 93 123 
-1.84853 0.222088 7.3525 14 49 69 
-1.81492 0.103771 7.26163 11 64 130 
-1.81383 0.0355487 7.26268 97 158 241 
-1.82617 0.169312 7.3104 19 62 117 
-1.81141 0.0880311 7.27009 70 129 209 
-1.80834 -0.0344162 7.28399 11 27 40 
-1.8548 0.511791 7.41828 12 19 35 
-1.80826 0.165706 7.30023 98 147 216 
-1.78039 0.024381 7.24416 14 62 98 
-1.75654 0.00323171 7.22644 102 154 238 
-1.75506 0.0664838 7.23829 104 162 236 
-1.73846 0.0514434 7.2225 1 46 75 
-1.42642 1.90426 6.33097 83 82 80 
-1.41232 1.88405 6.321 17 16 12 
-1.41041 2.53541 6.51302 42 38 39 
-1.53163 0.143242 7.08203 8 75 104 
-1.39638 2.51926 6.5261 132 128 125 
-1.52948 0.212546 7.11007 13 173 249 
-1.39015 2.53381 6.52067 143 142 138 
-1.53814 0.522777 7.18684 14 27 44 
-1.46079 0.105057 7.03895 71 159 248 
-1.4601 0.209328 7.05972 90 171 253 
-1.44612 0.204163 7.0346 89 172 250 
-1.4423 0.0492404 7.03691 0 68 113 
-1.42768 0.184355 7.03375 106 173 244 
-1.4179 0.0982201 7.00508 99 178 255 
-1.41826 0.15967 7.03046 12 84 160 
-1.41331 0.150374 7.01811 79 156 224 
-1.40847 0.162955 7.03173 6 75 108 
-1.27672 -2.92227 7.00843 131 91 55 
-1.26559 -0.244362 6.8375 17 31 42 
-1.27898 -0.0067983 6.88915 13 30 48 
-1.2506 -0.369989 6.81998 84 153 246 
-1.25671 -0.160806 6.856 92 162 248 
-1.25395 -0.13513 6.85071 4 33 65 
-1.23611 -0.3848 6.80854 10 49 92 
-1.26828 -2.46418 7.07 53 35 25 
-1.3059 -1.86583 7.19253 207 191 178 
-1.26305 -2.44077 7.07054 59 41 39 
-1.23987 -0.155245 6.86266 11 84 179 
-1.25068 -2.4863 7.05048 153 114 97 
-1.26106 -2.31056 7.08922 59 50 45 
-1.26557 -2.26608 7.10936 103 87 64 
-1.26399 -2.30231 7.10715 139 130 121 
-1.25019 -2.42318 7.06341 144 124 115 
-1.26625 -2.25187 7.11574 106 88 68 
-1.22804 -0.114377 6.84548 81 149 246 
-1.26156 -2.27862 7.11081 171 158 139 
-1.21137 -0.261201 6.80708 45 101 196 
-1.23442 -2.4753 7.03892 66 37 33 
-1.23251 -2.44115 7.03403 113 64 47 
-1.23291 -2.42493 7.04431 178 140 117 
-1.21713 -2.57297 6.99734 178 137 109 
-1.21548 -2.56245 7.00088 43 16 9 
-1.21916 -2.46672 7.00944 58 29 25 
-1.23992 -2.2135 7.0812 84 80 69 
-1.20367 -0.172673 6.8188 72 155 247 
-1.22253 -2.37107 7.03486 102 99 84 
-1.25043 -1.90657 7.1364 50 48 61 
-1.2116 -2.40429 7.01958 95 69 52 
-1.23219 -2.39178 7.09929 98 89 80 
-1.26603 -1.85254 7.20014 142 125 117 
-1.20014 -2.50058 6.99201 149 140 131 
-1.1569 -0.473864 6.70091 15 53 74 
-1.16637 -2.85883 6.89277 65 42 52 
-1.2097 0.0671741 6.87541 0 31 63 
-1.18248 -2.65101 6.95374 174 142 117 
-1.18662 -2.52992 6.96429 50 35 38 
-1.19185 -0.078823 6.83364 97 162 246 
-1.18579 -0.0943872 6.81568 26 91 185 
-1.22963 -2.0651 7.11606 36 35 40 
-1.15169 -2.97237 6.87426 71 53 39 
-1.2454 -1.79546 7.1729 41 45 54 
-1.23715 -1.935 7.16788 41 38 49 
-1.19488 0.0741645 6.87269 121 201 255 
-1.23003 -1.83352 7.13944 182 170 158 
-1.18624 -2.3484 7.00507 40 40 50 
-1.23355 -1.85989 7.16131 175 161 152 
-1.22702 -1.87278 7.13732 175 161 158 
-1.24141 -1.6523 7.19955 43 44 49 
-1.22309 -1.81983 7.1469 109 99 89 
-1.25393 -1.46689 7.24656 45 39 49 
-1.1811 -2.38905 7.02122 24 13 17 
-1.17432 -2.36469 6.99417 28 38 40 
-1.2002 0.428782 6.91515 0 45 92 
-1.15364 -2.57765 6.92907 156 125 104 
-1.12757 -2.68932 6.84366 61 32 52 
-1.23854 -1.62028 7.21375 126 117 118 
-1.25119 -1.4888 7.25756 190 172 170 
-1.23712 -1.57281 7.2115 74 71 64 
-1.14759 -2.56168 6.92791 129 103 90 
-1.23661 -1.51567 7.21267 198 169 153 
-1.20633 -1.87289 7.11818 29 23 33 
-1.14986 -2.49562 6.93622 34 19 14 
-1.22976 -1.59391 7.19886 181 168 160 
-1.15627 -2.43904 6.96673 108 56 43 
-1.13323 -2.64158 6.89692 127 102 98 
-1.13372 -0.241106 6.74664 89 163 248 
-1.14032 -0.179868 6.77272 8 71 151 
-1.24043 -1.45348 7.26672 177 167 158 
-1.27673 -1.04969 7.38556 203 178 174 
-1.20029 -1.76397 7.13591 95 114 68 
-1.1366 -2.47211 6.93126 46 15 0 
-1.13399 -2.48796 6.92626 174 133 101 
-1.13148 -2.52913 6.9274 167 128 89 
-1.13221 -0.213064 6.77764 26 91 171 
-1.24761 -1.23799 7.31091 183 162 159 
-1.0117 0.99246 6.22254 24 22 25 
-1.1943 -1.69209 7.13775 96 108 68 
-1.13987 -2.4248 6.97501 67 51 36 
-1.25104 -1.1211 7.3432 195 161 152 
-1.20011 -1.54942 7.1762 119 99 92 
-1.09128 -0.462628 6.66786 30 46 79 
-1.24869 -1.02626 7.35498 184 145 150 
-1.24711 -1.04333 7.35244 52 37 40 
-0.956958 1.00974 6.05196 84 46 23 
-1.23736 -1.12197 7.32684 124 90 81 
-1.23415 -1.13367 7.3188 128 94 85 
-1.09611 -0.377998 6.71402 56 117 208 
-1.12231 0.0390908 6.79648 12 30 52 
-1.19266 -1.50677 7.18709 192 159 142 
-1.1736 -1.66877 7.13637 45 44 50 
-1.11045 -2.31583 6.92671 98 99 83 
-1.22521 -1.08409 7.31849 183 158 154 
-1.23753 -1.02736 7.36704 189 154 150 
-1.1331 -2.06608 7.01695 159 117 105 
-1.17012 -1.56809 7.14231 44 43 57 
-1.22777 -1.07367 7.35064 129 104 100 
-1.18206 -1.44698 7.19307 161 150 148 
-1.07905 -2.5928 6.86192 147 128 121 
-1.11502 -2.08502 6.97664 108 105 90 
-1.099 -0.180674 6.7838 35 97 174 
-1.22315 -1.04287 7.34994 185 154 151 
-1.12882 -2.0472 7.03556 108 59 29 
-1.20381 -1.20588 7.28904 35 16 20 
-1.20161 -1.22162 7.28511 178 159 161 
-1.09803 0.0451723 6.78826 0 33 62 
-1.11364 -2.04651 6.99696 170 124 109 
-1.193 -1.24263 7.26747 171 152 146 
-1.11435 -2.06332 7.00238 147 114 105 
-1.08234 -2.3374 6.89399 40 28 28 
-1.0721 -2.54422 6.86873 82 53 39 
-1.06257 -0.292468 6.67859 77 139 214 
-1.06355 -2.56233 6.845 46 33 42 
-1.06186 -2.58824 6.84222 35 26 29 
-1.17429 -1.29759 7.23179 50 38 42 
-1.09903 -2.03522 6.97524 37 16 21 
-1.14914 -1.48547 7.14801 150 122 121 
-1.0654 -2.42266 6.87621 149 121 97 
-1.08594 0.0639986 6.79096 0 50 107 
-1.0568 -0.265626 6.69979 29 57 94 
-1.06045 -0.218967 6.71537 0 49 122 
-1.04861 -2.53905 6.83176 159 135 123 
-1.17184 -1.21179 7.26111 180 158 161 
-1.07352 0.0784236 6.76528 0 60 139 
-1.05115 -0.28715 6.69924 14 43 83 
-1.04412 -2.57619 6.83256 151 138 132 
-1.04697 -0.236205 6.68963 24 68 117 
-1.1633 -1.23666 7.24251 171 153 149 
-1.04115 -2.59018 6.83231 160 145 148 
-1.08883 -2.08236 6.99562 33 27 29 
-1.04451 -2.48287 6.83954 38 25 17 
-1.13624 -1.44092 7.15478 161 148 142 
-1.1537 -1.27023 7.22083 39 30 33 
-1.0425 -0.205514 6.68657 5 59 131 
-1.04596 -2.44602 6.85638 165 123 75 
-1.01641 -2.79526 6.75779 179 157 108 
-1.16565 -1.17205 7.27381 121 103 101 
-1.04229 -0.21858 6.69467 109 162 232 
-1.14677 -1.28787 7.20981 185 157 154 
-1.12346 -1.45958 7.131 36 31 54 
-1.05766 -2.28834 6.91865 38 30 27 
-1.03159 -0.295242 6.67379 87 120 174 
-1.14999 -1.18197 7.23417 183 164 158 
-1.03079 -0.280044 6.67364 90 136 214 
-1.02982 -2.53923 6.8273 14 5 0 
-1.03338 -0.251643 6.68333 4 50 102 
-1.03855 -2.44954 6.86568 155 131 107 
-1.13467 -1.36114 7.19462 189 151 140 
-1.04673 -2.25754 6.89149 176 138 127 
-1.14633 -1.21513 7.23677 82 63 67 
-1.13429 -1.28205 7.20586 106 71 65 
-1.12321 -1.41591 7.17029 43 40 49 
-1.0263 -0.195137 6.68416 55 111 172 
-1.07877 -1.76439 7.01961 137 128 131 
-1.14081 -1.20972 7.27402 177 158 152 
-1.07322 -1.93386 7.04765 36 34 39 
-1.02164 -2.37602 6.8632 33 23 21 
-1.07484 -1.68105 7.04593 171 156 151 
-1.11237 -1.38834 7.18422 111 98 81 
-1.07186 -1.78951 7.04185 37 33 32 
-1.00346 -2.49894 6.80751 37 30 37 
-1.06571 -1.71466 7.02128 130 125 122 
-1.00082 -2.55051 6.80466 83 72 76 
-1.00826 -2.40584 6.83572 37 32 36 
-1.05971 -1.75487 7.01456 122 107 114 
-1.01299 -2.27419 6.85271 85 82 73 
-1.09263 -1.38957 7.13034 133 132 114 
-1.06296 -1.75225 7.03264 84 69 76 
-1.06622 -1.6921 7.04513 41 26 21 
-1.08892 -1.40439 7.12451 18 19 23 
-1.09393 -1.41146 7.15735 28 29 34 
-1.05915 -1.67384 7.02826 67 42 37 
-0.970336 -2.75227 6.75018 150 117 84 
-0.95016 -2.89924 6.67913 183 162 109 
-1.02966 0.324567 6.79278 14 122 212 
-1.04852 -1.69342 7.02353 179 153 152 
-1.01537 0.204195 6.7609 0 74 134 
-1.07248 -1.37791 7.13553 33 29 28 
-1.05199 -1.58509 7.06507 35 28 35 
-1.01329 0.312306 6.76554 88 179 252 
-1.06565 -1.38682 7.12236 152 149 144 
-1.00852 0.286007 6.76575 5 81 133 
-0.94449 -2.77 6.71302 140 116 90 
-0.937265 -2.84366 6.6883 141 118 102 
-0.978481 -2.27962 6.82667 120 116 107 
-0.965023 -2.50098 6.78568 32 22 23 
-1.02939 -1.69488 7.00843 83 59 57 
-0.983537 -2.22626 6.84986 35 30 36 
-1.00537 0.343243 6.76693 37 166 249 
-1.03154 -1.61232 7.02787 128 91 82 
-0.931143 -2.82226 6.68518 157 135 122 
-1.05425 -1.3495 7.11888 32 32 34 
-1.02066 -1.69003 6.99986 174 148 147 
-1.00144 0.251609 6.77548 3 81 130 
-0.954652 -2.46285 6.77069 127 110 100 
-0.990872 0.164481 6.73743 86 180 252 
-0.995329 0.235652 6.76017 94 175 254 
-0.995545 0.324746 6.76693 5 79 128 
-1.00098 0.37148 6.78851 0 122 212 
-0.953519 -2.25265 6.7817 168 149 143 
-1.01314 -1.69813 7.00383 129 111 109 
-0.962833 -2.25856 6.82957 33 18 13 
-0.954119 -2.48967 6.80881 37 8 0 
-0.930643 -2.66801 6.72083 124 105 107 
-0.993645 0.382425 6.7734 33 162 245 
-1.00556 -1.7218 6.9869 32 26 26 
-0.986964 0.293746 6.75851 5 84 114 
-1.03639 -1.36966 7.10099 27 23 24 
-1.00912 -1.58604 6.99851 158 121 112 
-0.95782 -2.24913 6.82193 46 27 23 
-0.956639 -2.30547 6.82232 94 78 63 
-1.04299 -1.32276 7.12914 31 28 21 
-0.907336 -2.87495 6.65111 80 56 54 
-0.986246 0.348359 6.76333 33 173 255 
-0.946513 -2.30505 6.79383 57 47 35 
-0.950781 -2.27909 6.81289 152 111 93 
-0.979925 0.265916 6.76034 85 170 250 
-0.944105 -2.2885 6.79882 161 131 107 
-0.997941 -1.70781 6.99426 18 4 1 
-0.959508 -2.06798 6.8526 35 31 30 
-0.962302 0.156788 6.70414 71 168 249 
-0.922055 -2.5403 6.73732 160 116 67 
-0.940076 -0.184019 6.64654 3 57 127 
-0.974273 0.352766 6.75963 18 128 203 
-0.969192 0.338945 6.74215 55 182 253 
-0.988313 -1.69132 6.98398 31 12 8 
-0.969058 0.282516 6.75431 0 74 150 
-0.945661 0.0517811 6.68112 15 58 100 
-0.980712 -1.67048 6.9707 175 146 138 
-0.918299 -2.41373 6.75172 57 45 29 
-0.88126 -2.89382 6.62715 159 136 95 
-0.958037 0.331014 6.73239 6 105 186 
-0.939748 0.130698 6.67095 91 196 253 
-0.913503 -2.4514 6.74715 173 131 89 
-0.923319 -2.28801 6.78226 49 15 14 
-0.909369 -2.46867 6.73965 136 98 61 
-1.01384 -1.2896 7.11919 156 148 135 
-0.966829 -1.71035 6.94111 54 48 48 
-1.00452 -1.34487 7.0822 148 148 114 
-0.951213 0.283454 6.73226 92 183 255 
-0.975335 -1.54737 6.98729 108 73 67 
-0.903477 -2.42273 6.73692 170 130 94 
-1.00513 -1.26858 7.11087 42 41 57 
-0.954209 0.353686 6.76207 23 115 190 
-0.90844 -2.30767 6.75887 40 33 40 
-0.928477 0.0955756 6.6806 12 59 115 
-0.96754 -1.61512 6.98767 185 149 133 
-0.998108 -1.30749 7.10155 146 146 110 
-0.846135 -2.95445 6.57459 171 147 103 
-1.01086 -1.03283 7.17418 177 152 148 
-0.962023 -1.55863 6.99708 106 69 63 
-0.922084 0.155502 6.69362 62 160 235 
-0.855627 -2.79449 6.61777 61 34 41 
-0.878173 -2.53875 6.70604 62 40 43 
-0.955361 -1.58025 7.00065 185 148 140 
-0.893989 -0.103802 6.60945 90 180 255 
-0.915625 0.218497 6.68398 97 185 255 
-0.963356 -1.31445 7.03533 29 27 32 
-1.00324 -0.999455 7.19506 116 95 92 
-0.921647 0.253245 6.7316 91 187 255 
-0.917652 0.300929 6.71989 49 181 253 
-0.870662 -2.36287 6.71565 44 24 33 
-0.961973 -1.28372 7.05687 14 12 17 
-0.920676 0.465965 6.74303 8 96 167 
-0.845935 -2.64801 6.64117 57 36 45 
-0.905726 0.242847 6.69465 98 196 255 
-0.901081 0.22558 6.67927 0 79 136 
-0.911726 0.255269 6.73073 12 131 213 
-0.870356 -2.31631 6.75055 153 74 69 
-0.883468 0.0340148 6.63858 28 174 251 
-0.872809 -0.0655549 6.60062 72 183 255 
-0.906151 -1.74328 6.89362 117 88 84 
-0.975345 -1.01837 7.1629 174 154 147 
-0.890734 0.260159 6.68638 32 170 245 
-0.902213 -1.73399 6.9042 116 86 78 
-0.871162 0.00753987 6.64087 30 167 248 
-0.848927 -2.31621 6.7234 153 77 64 
-0.883743 -1.83673 6.84862 42 14 10 
-0.879207 0.174465 6.67647 2 93 140 
-0.885395 -1.82804 6.86735 170 147 139 
-0.860045 -0.0297429 6.60941 17 145 244 
-0.877925 0.26712 6.67434 0 80 133 
-0.8361 -2.31592 6.69375 79 21 0 
-0.797788 0.981146 6.25738 46 21 1 
-0.796048 -2.89528 6.55438 168 146 99 
-0.95186 -1.06052 7.14068 158 134 132 
-0.84166 -2.30476 6.7257 96 3 0 
-0.876198 -1.81549 6.85152 44 19 22 
-0.873811 -1.79323 6.84993 31 29 43 
-0.894762 -1.56372 6.93965 188 151 143 
-0.939066 -1.07786 7.11823 167 149 147 
-0.792961 -2.81665 6.57324 83 53 42 
-0.883025 -1.65542 6.9076 27 10 3 
-0.877876 -1.67233 6.89225 45 35 33 
-0.777944 0.970227 6.22215 70 43 24 
-0.860941 0.321277 6.67411 32 175 245 
-0.839062 0.0167585 6.60656 27 168 239 
-0.813455 -2.3427 6.67551 96 58 35 
-0.874032 -1.59144 6.91189 187 148 143 
-0.818014 -2.23482 6.70068 116 49 43 
-0.802057 -2.5182 6.64694 136 95 75 
-0.780219 -2.77695 6.57237 160 132 93 
-0.838704 0.0806741 6.62573 13 164 247 
-0.849692 0.311322 6.66475 5 79 128 
-0.811906 -2.26355 6.69774 100 21 8 
-0.846235 -1.83663 6.83361 166 66 50 
-0.797098 -2.46865 6.65099 63 42 39 
-0.851989 -1.71678 6.86081 170 153 143 
-0.775483 -2.71829 6.58306 73 50 42 
-0.84745 -1.72922 6.85949 53 13 5 
-0.765355 -2.75855 6.55578 177 152 122 
-0.808843 -2.21979 6.72573 96 23 4 
-0.751623 -2.90543 6.50843 180 157 123 
-0.799276 -2.24738 6.68494 147 94 62 
-0.773903 -2.69444 6.60057 173 147 112 
-0.788697 -2.32302 6.66391 169 149 62 
-0.7585 -2.69174 6.5613 180 156 128 
-0.779457 -2.40525 6.6404 62 32 22 
-0.898002 -1.04102 7.1136 123 108 115 
-0.902245 -1.02848 7.1334 112 91 90 
-0.796232 -2.11726 6.72736 112 56 29 
-0.755498 -2.63398 6.57405 164 136 97 
-0.897664 -1.05228 7.13639 29 23 37 
-0.752407 -2.66995 6.58179 83 59 23 
-0.7814 -2.22606 6.68796 164 140 50 
-0.741638 -2.75194 6.55247 181 163 125 
-0.738075 -2.72848 6.54314 57 38 31 
-0.732497 -2.78419 6.52083 176 154 113 
-0.743419 -2.64646 6.56365 184 162 123 
-0.729571 -2.82559 6.51728 91 63 52 
-0.7483 -2.48607 6.58964 71 40 45 
-0.750096 -2.43733 6.61066 155 112 70 
-0.769941 -2.08156 6.69964 141 97 48 
-0.709381 -2.87592 6.4811 58 36 38 
-0.728466 -2.65005 6.56079 104 68 42 
-0.737811 -2.38074 6.60905 112 67 34 
-0.710357 -2.8028 6.51742 88 62 39 
-0.722785 -2.49941 6.5651 176 148 109 
-0.828906 -1.21504 6.99757 145 71 62 
-0.643707 1.05439 5.88889 75 21 0 
-0.720016 -2.53828 6.57756 106 79 49 
-0.716187 -2.59627 6.56497 80 39 21 
-0.713469 -2.54073 6.5576 171 145 118 
-0.69168 -2.8359 6.48364 59 35 35 
-0.744933 -2.02346 6.70432 51 14 0 
-0.712431 -2.37653 6.57368 159 137 54 
-0.737479 -2.06652 6.68277 37 33 34 
-0.696428 -2.63675 6.52552 152 124 102 
-0.70034 -2.55618 6.54842 153 131 120 
-0.683172 -2.78485 6.48475 125 97 96 
-0.70864 -2.42445 6.58501 159 144 79 
-0.692413 -2.65123 6.52494 71 50 33 
-0.695674 -2.6081 6.54163 172 146 121 
-0.739966 0.125464 6.54932 0 25 74 
-0.718588 -2.19835 6.64119 151 137 62 
-0.690578 -2.557 6.53179 62 39 33 
-0.698174 -2.4482 6.56426 83 53 53 
-0.74466 -1.88314 6.75576 36 14 16 
-0.68395 -2.67588 6.52134 120 102 90 
-0.807713 -1.13968 7.01696 95 55 53 
-0.810671 -0.996903 7.06279 175 154 151 
-0.714167 -2.11868 6.67207 41 39 60 
-0.725378 -1.87472 6.73021 137 86 85 
-0.724334 -1.84836 6.73247 46 31 36 
-0.670582 -2.54905 6.51938 69 42 49 
-0.674249 -2.50703 6.53643 82 54 53 
-0.713581 -1.87458 6.70421 89 36 32 
-0.692168 -2.18669 6.62245 132 118 117 
-0.688855 -2.19442 6.61098 126 115 111 
-0.697731 -2.03411 6.65527 131 99 88 
-0.640593 -2.77774 6.43679 65 40 46 
-0.685513 -2.14379 6.62372 137 122 127 
-0.710039 -1.83276 6.72398 135 108 91 
-0.698906 -1.82877 6.70432 162 133 117 
-0.664124 -2.23796 6.58889 158 140 74 
-0.763241 -1.02455 7.00491 32 10 13 
-0.675322 -1.94955 6.63546 139 87 74 
-0.647151 -2.36302 6.54407 94 75 6 
-0.66971 -2.01301 6.63687 191 162 164 
-0.750037 -1.00023 6.98522 95 41 39 
-0.653632 -2.16263 6.59193 180 166 157 
-0.648629 -2.2108 6.58725 172 157 154 
-0.658924 -2.08514 6.64027 35 6 2 
-0.673933 -1.78556 6.70107 110 90 83 
-0.680711 -1.6911 6.74069 179 167 167 
-0.672466 -1.79775 6.70814 162 133 129 
-0.650672 -2.10142 6.62173 133 104 100 
-0.651649 -2.03035 6.62223 35 42 52 
-0.664413 -1.87846 6.67787 105 74 72 
-0.64986 -2.05226 6.62329 153 151 154 
-0.656085 -1.87711 6.6622 107 82 85 
-0.732349 -0.958863 6.99219 144 61 45 
-0.660173 -1.79533 6.71516 91 62 56 
-0.638019 -2.02196 6.61984 46 37 40 
-0.646079 -1.88124 6.6561 100 79 76 
-0.64825 0.151709 6.485 0 30 62 
-0.605843 -2.47174 6.50147 90 62 38 
-0.572134 -2.83493 6.3547 132 108 62 
-0.589465 -2.66201 6.44142 73 42 47 
-0.657339 -1.71574 6.72087 183 166 156 
-0.635541 -2.01831 6.6349 196 166 164 
-0.616942 -2.14895 6.5526 69 54 59 
-0.6366 -1.87393 6.64927 196 173 167 
-0.619445 -2.09011 6.57878 161 116 110 
-0.613914 -2.1747 6.56234 57 42 49 
-0.65823 0.509148 6.55662 125 200 255 
-0.639079 -1.89031 6.67826 115 96 89 
-0.560924 -2.94395 6.3563 170 157 115 
-0.638768 -1.77539 6.67998 189 166 150 
-0.591206 -2.42168 6.486 154 145 42 
-0.634324 -1.87134 6.67302 187 166 161 
-0.588617 -2.46161 6.4814 160 144 48 
-0.55754 -2.89901 6.36421 90 61 55 
-0.563777 -2.74722 6.39801 97 57 21 
-0.600609 -2.15304 6.55349 69 54 57 
-0.563592 -2.79887 6.42085 95 66 52 
-0.623685 -1.78884 6.6611 179 121 107 
-0.563138 -2.63992 6.41553 86 56 48 
-0.625802 -1.65179 6.69793 139 120 113 
-0.476279 1.11055 5.61002 173 125 89 
-0.630905 -1.64392 6.72613 19 4 9 
-0.586546 -2.16492 6.56457 132 116 126 
-0.532789 -2.83636 6.33089 110 86 62 
-0.58431 -2.05378 6.55796 170 118 104 
-0.59421 -1.94655 6.61002 105 51 39 
-0.531678 -2.83463 6.35621 174 148 115 
-0.543396 -2.58825 6.41072 149 119 81 
-0.613477 -1.63361 6.71609 47 12 8 
-0.548556 1.01214 6.10927 209 191 169 
-0.531094 -2.70884 6.386 100 70 46 
-0.566461 -2.14593 6.53384 136 121 124 
-0.559441 -2.18941 6.50832 65 51 51 
-0.525948 -2.62038 6.37916 166 131 77 
-0.522353 -2.73983 6.3726 61 43 31 
-0.513115 -2.85815 6.33855 65 42 36 
-0.553014 -2.17546 6.51045 127 115 115 
-0.560761 -2.06177 6.55073 90 41 27 
-0.542435 -2.18847 6.47913 57 45 49 
-0.566214 -1.86561 6.58641 185 165 156 
-0.510405 -2.7024 6.37369 167 140 113 
-0.50751 -2.68716 6.36529 69 42 12 
-0.508418 -2.71205 6.37596 165 138 108 
-0.493915 -2.83951 6.32577 175 154 123 
-0.542769 -2.03386 6.53108 108 73 69 
-0.49345 -2.76925 6.32984 95 65 63 
-0.483647 -2.87275 6.29028 174 159 116 
-0.496931 -2.72187 6.35849 81 54 33 
-0.499141 -2.75769 6.38569 167 144 102 
-0.526111 -2.15138 6.48342 84 73 79 
-0.484069 -2.77932 6.32614 73 49 37 
-0.567484 -1.54171 6.69186 141 72 65 
-0.5318 -2.00149 6.54254 196 166 164 
