ply                 
format ascii 1.0    
element vertex 1272
property float x    
property float y    
property float z    
property uchar red  
property uchar green
property uchar blue 
end_header          
2.12473 -1.29523 4.70044 134 102 105 
2.13228 -1.36712 4.66409 162 148 161 
2.13302 -1.33926 4.65645 63 51 53 
2.14031 -1.28224 4.67837 56 41 46 
2.15959 -0.71468 4.82275 123 114 119 
2.15937 -0.735231 4.81368 87 60 65 
2.14094 -1.52346 4.6295 58 58 66 
2.15895 -1.22611 4.68788 151 138 148 
2.15889 -1.24595 4.68511 97 81 92 
2.16019 -1.25933 4.67661 101 85 95 
2.17046 -0.86748 4.75906 191 172 168 
2.16405 -1.27855 4.67265 154 143 149 
2.18642 -0.880079 4.74225 152 141 139 
2.19224 -0.916972 4.7332 193 173 164 
2.17827 -1.56815 4.6051 28 26 31 
2.18749 -1.1755 4.67671 197 182 177 
2.20451 -0.886955 4.7307 88 66 69 
2.21554 -0.879016 4.72705 98 71 76 
2.22919 -0.910443 4.70431 78 52 51 
2.24701 -0.934408 4.68388 134 106 103 
2.24752 -0.90174 4.66858 77 49 46 
2.2615 -0.633818 4.75543 60 48 48 
2.25576 -0.921544 4.66953 156 125 130 
2.26005 -0.879557 4.67506 96 65 63 
2.27109 -0.935395 4.6712 210 187 181 
2.33855 -0.589891 4.67834 176 147 149 
-1.20327 -2.35641 6.8489 155 124 104 
-1.17209 -2.43249 6.8019 132 118 109 
-1.12037 -2.88037 6.65646 81 54 45 
-1.13582 -2.71645 6.70674 55 34 41 
-1.11104 -2.89832 6.64469 85 58 49 
-1.15388 -2.32792 6.80613 139 101 90 
-1.14771 -2.30247 6.81031 39 36 45 
-1.08868 -2.78592 6.65424 143 114 72 
-1.1667 -2.03691 6.89151 102 102 92 
-1.07266 -2.82603 6.62927 113 95 95 
-1.1213 -2.23576 6.79645 97 94 85 
-1.05827 -2.83387 6.60675 59 35 33 
-1.17473 -1.71859 6.96443 79 93 60 
-1.04848 -2.92409 6.5859 113 92 65 
-1.05448 -2.80313 6.61272 93 66 57 
-1.04554 -2.73791 6.62521 145 115 89 
-1.01074 -3.03492 6.52616 134 121 115 
-1.03059 -2.82356 6.59358 154 130 92 
-1.03805 -2.69723 6.62837 84 58 25 
-1.09076 -2.12695 6.79829 90 90 88 
-1.09244 -2.03378 6.81358 99 97 84 
-1.05001 -2.54916 6.67848 142 130 130 
-1.00244 -2.86855 6.55119 167 148 118 
-1.02165 -2.71947 6.61396 70 46 20 
-1.04173 -2.50076 6.67784 47 33 32 
-1.03979 -2.52606 6.67293 64 53 59 
-0.993372 -2.9191 6.54687 103 84 52 
-1.02869 -2.48343 6.67527 134 116 104 
-0.994931 -2.72661 6.58608 169 146 102 
-0.986346 -2.8499 6.55843 161 136 114 
-1.02421 -2.38628 6.68851 147 115 77 
-1.02576 -2.20384 6.73022 157 133 121 
-0.981475 -2.57191 6.60672 138 122 123 
-1.10626 -1.31967 6.99931 175 142 133 
-0.956337 -2.73119 6.55149 109 78 57 
-0.937921 -2.89457 6.49935 167 139 117 
-1.04472 -1.73615 6.84485 36 33 40 
-0.986919 -2.34568 6.66664 37 32 38 
-1.05247 -1.63761 6.88182 129 117 117 
-0.931935 -2.92579 6.49955 96 66 66 
-1.02659 -1.53842 6.87825 28 26 37 
-0.910825 -2.81329 6.50835 78 53 48 
-0.936037 -2.4062 6.61372 105 93 79 
-0.929361 -2.41728 6.60619 41 18 2 
-0.885376 -2.91039 6.46516 147 123 87 
-0.883259 -2.93089 6.46234 107 84 70 
-0.937926 -2.19538 6.65743 37 18 20 
-1.03262 -1.31414 6.95891 40 35 41 
-0.9406 -2.21415 6.66744 157 129 117 
-0.905652 -2.50896 6.56988 131 100 69 
-0.932095 -2.22583 6.65633 141 109 94 
-0.941808 -2.02263 6.70566 32 26 28 
-0.86309 -2.82556 6.46059 150 125 95 
-0.895434 -2.3952 6.5889 159 125 90 
-0.839206 -2.93092 6.42077 95 67 63 
-0.906975 -2.24106 6.63929 52 20 23 
-0.887234 -2.37069 6.59145 146 116 80 
-0.892961 -2.26112 6.62053 37 25 39 
-0.838622 -2.82354 6.45254 86 58 46 
-0.860767 -2.48077 6.54741 68 44 44 
-0.948772 -1.57718 6.83656 174 139 133 
-0.810543 -2.95959 6.39889 145 131 120 
-0.811702 -3.00061 6.40513 148 134 123 
-0.819347 -2.79561 6.44205 83 54 50 
-0.837757 -2.52978 6.50983 46 24 27 
-0.855938 -2.31475 6.57909 39 24 29 
-0.831006 -2.59245 6.49732 54 33 40 
-0.795775 -2.94296 6.39144 81 62 48 
-0.764949 -3.26727 6.29357 90 54 56 
-0.798373 -2.83821 6.42267 102 76 59 
-0.8883 -1.71459 6.74862 133 111 100 
-0.829698 -2.28547 6.5703 129 91 72 
-0.778202 -2.75548 6.4222 77 50 43 
-0.759854 -2.91506 6.36564 161 141 108 
-0.768661 -2.76301 6.4067 146 124 100 
-0.754988 -2.95079 6.36365 91 71 64 
-0.751933 -2.84329 6.37929 155 133 92 
-0.800065 -2.29669 6.5433 96 62 37 
-0.803969 -2.18991 6.56475 108 42 43 
-0.931941 -1.03323 6.98147 155 133 135 
-0.736415 -2.96151 6.34368 141 122 115 
-0.761446 -2.6607 6.43651 65 44 41 
-0.743261 -2.87573 6.37637 100 75 53 
-0.84353 -1.71963 6.71787 109 99 98 
-0.738963 -2.84721 6.36936 160 141 101 
-0.842483 -1.73545 6.71607 49 30 26 
-0.757952 -2.63061 6.43761 160 135 104 
-0.717531 -2.99048 6.32441 77 63 62 
-0.73419 -2.80445 6.3853 93 69 45 
-0.712994 -2.92938 6.33365 88 59 63 
-0.737937 -2.65534 6.42233 65 43 30 
-0.743595 -2.58564 6.44451 157 132 101 
-0.72197 -2.8185 6.37179 162 137 106 
-0.72494 -2.67202 6.39926 49 28 23 
-0.767323 -2.17991 6.54653 150 128 43 
-0.730516 -2.59234 6.42353 170 147 115 
-0.768622 -2.12961 6.56121 157 134 56 
-0.735316 -2.43437 6.45164 57 37 36 
-0.716146 -2.74859 6.3814 86 59 50 
-0.738579 -2.39204 6.48397 133 102 73 
-0.711265 -2.45333 6.43661 157 135 98 
-0.70149 -2.491 6.42303 159 133 106 
-0.704121 -2.54518 6.42902 80 45 26 
-0.680462 -2.78093 6.34994 62 41 36 
-0.657005 -2.98985 6.27649 144 128 113 
-0.674836 -2.76432 6.34802 62 41 38 
-0.685633 -2.58927 6.39834 141 114 87 
-0.67235 -2.73234 6.35409 98 77 76 
-0.68393 -2.55664 6.40552 142 116 91 
-0.662861 -2.73847 6.34807 44 25 31 
-0.635308 -2.98558 6.26669 89 71 59 
-0.663186 -2.45858 6.40537 71 49 52 
-0.702115 -2.07722 6.54105 36 31 61 
-0.632024 -2.73293 6.32345 54 33 42 
-0.614386 -2.99052 6.26158 153 139 110 
-0.661173 -2.35282 6.43138 91 65 38 
-0.606407 -2.95988 6.25151 97 78 61 
-0.604475 -2.92429 6.25695 94 67 72 
-0.585866 -2.97814 6.23409 151 143 107 
-0.662569 -1.97157 6.53024 96 64 51 
-0.572267 -3.00099 6.21357 96 90 76 
-0.584606 -2.88213 6.26168 155 137 117 
-0.638479 -2.16966 6.46591 163 148 145 
-0.579777 -2.89564 6.26692 111 94 74 
-0.576065 -2.82788 6.26386 157 127 101 
-0.553462 -2.93011 6.22172 86 71 42 
-0.568574 -2.7866 6.27546 166 143 101 
-0.553326 -2.89501 6.24015 156 141 112 
-0.609416 -2.11774 6.45576 67 56 62 
-0.549632 -2.84939 6.24452 77 53 49 
-0.582679 -2.38182 6.37083 142 135 45 
-0.630659 -1.86297 6.54277 173 148 141 
-0.552907 -2.73756 6.27098 87 58 52 
-0.612117 -2.06073 6.4849 155 107 97 
-0.530027 -2.92296 6.20558 102 86 61 
-0.628793 -1.74266 6.56399 170 148 135 
-0.555448 -2.59719 6.30309 72 43 35 
-0.62396 -1.83621 6.55071 172 152 153 
-0.532464 -2.83882 6.23238 62 43 37 
-0.530789 -2.80672 6.23391 156 135 114 
-0.517755 -2.98213 6.18591 100 98 85 
-0.558722 -2.41098 6.35605 85 58 49 
-0.52402 -2.78598 6.23633 154 130 94 
-0.570808 -2.15656 6.41777 121 109 113 
-0.536271 -2.5468 6.30301 136 105 77 
-0.523535 -2.66305 6.26895 82 50 25 
-0.505835 -2.81006 6.21967 59 42 35 
-0.514802 -2.69271 6.25385 64 42 31 
-0.550964 -2.15229 6.39255 64 52 54 
-0.550652 -2.16891 6.39232 120 108 112 
-0.503186 -2.78097 6.22366 99 70 62 
-0.520327 -2.58522 6.28693 151 118 75 
-0.571679 -1.90861 6.48567 134 83 80 
-0.492373 -2.88451 6.195 121 105 72 
-0.54535 -2.14083 6.40388 118 106 106 
-0.552564 -2.02748 6.44017 103 56 46 
-0.500405 -2.64265 6.25066 74 44 18 
-0.487158 -2.7925 6.21094 152 134 112 
-0.477977 -2.83127 6.18793 161 147 108 
-0.489542 -2.67462 6.23732 68 44 32 
-0.490549 -2.703 6.24819 155 134 105 
-0.477633 -2.73536 6.21482 69 41 30 
-0.456989 -2.94924 6.14782 85 76 77 
-0.483795 -2.58774 6.25858 75 45 43 
-0.524064 -1.96871 6.43444 173 146 135 
-0.457235 -2.78546 6.19449 80 60 62 
-0.439554 -2.93812 6.14332 150 139 109 
-0.514875 -1.85953 6.44906 168 149 142 
-0.501304 -1.95945 6.42365 59 42 35 
-0.485114 -2.09124 6.3768 121 107 107 
-0.429933 -2.77506 6.18005 143 124 107 
-0.484576 -1.95903 6.41664 169 142 131 
-0.447285 -2.33333 6.28248 143 130 52 
-0.41814 -2.70932 6.18454 104 74 64 
-0.447296 -2.14361 6.34229 148 131 62 
-0.453962 -1.9669 6.38624 151 106 100 
-0.493805 -1.48206 6.55734 34 32 53 
-0.47737 -1.61019 6.50333 146 120 107 
-0.456021 -1.75508 6.43903 113 75 74 
-0.417179 -2.17378 6.30601 145 135 37 
-0.380082 -2.72173 6.16019 101 76 56 
-0.39725 -2.47738 6.23062 77 51 54 
-0.385652 -2.58412 6.20055 71 44 37 
-0.441116 -1.77695 6.42561 113 78 72 
-0.457071 -1.61019 6.49715 28 19 24 
-0.434999 -0.990627 6.4889 31 25 29 
-0.365482 -2.5882 6.18481 68 47 42 
-0.361962 -2.51813 6.18519 162 141 96 
-0.417632 -1.80641 6.40887 163 133 123 
-0.363737 -2.47722 6.19951 85 57 54 
-0.409975 -1.81802 6.39199 101 53 51 
-0.351735 -2.63448 6.16163 163 140 106 
-0.41481 -1.78571 6.41391 158 139 125 
-0.346047 -2.64942 6.15531 91 63 49 
-0.385446 -2.03446 6.32731 131 89 47 
-0.358318 -2.31883 6.23806 61 41 43 
-0.39974 -1.69133 6.42714 37 25 25 
-0.378479 -1.89571 6.35616 112 49 40 
-0.328484 -2.53719 6.16367 98 74 46 
-0.344501 -2.22759 6.24156 77 42 40 
-0.32595 -2.42794 6.17438 94 65 33 
-0.372241 -1.83864 6.36551 144 102 86 
-0.318524 0.558204 6.33344 70 152 238 
-0.3244 -2.46496 6.17946 156 131 90 
-0.306856 -2.57082 6.13404 150 128 114 
-0.333514 -2.21925 6.24116 133 92 74 
-0.347246 -2.00355 6.30028 133 84 54 
-0.297644 -2.61194 6.11761 168 143 113 
-0.300908 -2.46523 6.15879 167 141 106 
-0.301411 -2.43793 6.17049 75 51 25 
-0.301897 -2.34392 6.1874 75 46 48 
-0.28925 -2.53596 6.13527 162 143 113 
-0.288258 -2.47789 6.14351 91 63 59 
-0.360928 -1.53182 6.44889 76 38 17 
-0.285153 -2.36254 6.1607 161 137 91 
-0.357965 -1.51553 6.45017 160 124 110 
-0.357987 -1.47916 6.46242 162 124 111 
-0.357432 -1.45183 6.46929 164 124 116 
-0.357936 -1.43648 6.47287 83 25 23 
-0.277439 -2.32937 6.17489 162 140 99 
-0.256433 -2.62187 6.08986 123 102 75 
-0.260762 -2.5222 6.11509 162 142 115 
-0.24771 -2.60014 6.09075 102 76 59 
-0.255322 -2.44201 6.1264 170 150 100 
-0.245309 -2.50787 6.10717 108 84 58 
-0.191565 -2.72386 6.01838 110 90 63 
-0.331072 -0.94776 6.60849 42 17 13 
-0.222166 -2.16854 6.17041 156 127 93 
-0.264144 -1.66654 6.34679 48 27 36 
-0.268108 -1.50426 6.39592 112 95 87 
-0.336035 -0.847528 6.68784 197 179 169 
-0.170768 -2.56829 6.04288 122 86 72 
-0.238036 -1.54756 6.36358 136 75 83 
-0.240943 -1.49771 6.37902 60 36 36 
-0.236618 -1.52074 6.37225 121 75 75 
-0.158429 -2.43664 6.07093 168 136 97 
-0.208917 -1.5593 6.34188 173 113 113 
-0.208966 -1.51403 6.35674 55 26 30 
-0.136378 -2.39297 6.06701 53 32 31 
-0.119922 -2.49841 6.02217 168 141 98 
-0.166911 -1.66364 6.28264 159 130 124 
-0.162603 -1.64277 6.27837 96 85 79 
-0.15253 -1.65363 6.27586 64 53 49 
-0.14072 -1.75707 6.24086 172 142 131 
-0.108166 -2.00715 6.14827 181 157 147 
-0.176194 -1.0436 6.47989 52 23 28 
-0.0862776 -2.09208 6.09854 64 33 41 
-0.105994 -1.76516 6.2028 108 54 54 
-0.0847968 -2.05024 6.11661 176 158 148 
-0.101849 -1.81598 6.20509 165 115 114 
-0.112948 -1.50059 6.29884 174 145 131 
-0.0816975 -1.86507 6.16964 162 143 136 
-0.0536728 -2.18195 6.06124 151 126 129 
-0.0779815 -1.75228 6.1971 180 146 137 
-0.099026 -1.4699 6.29637 89 36 44 
-0.0745613 -1.78315 6.18872 132 60 71 
-0.047741 -2.12945 6.07549 118 100 98 
-0.0634583 -1.89974 6.1489 88 64 60 
-0.0455304 -2.15 6.06759 121 102 96 
-0.101944 -1.3591 6.33332 68 21 31 
-0.0777522 -1.56492 6.25252 130 97 88 
-0.103827 -1.20868 6.3736 139 89 82 
-0.0931497 -1.29885 6.33697 139 89 78 
-0.0243933 -2.19123 6.04839 185 165 167 
-0.0219665 -2.19544 6.03954 85 63 66 
-0.0611106 -1.54313 6.24285 176 147 129 
-0.0544043 -1.60243 6.22345 181 144 136 
0.0173506 -2.56933 5.92023 78 38 39 
-0.0246327 -1.89698 6.14258 78 38 47 
-0.0081972 -1.99498 6.0809 167 150 143 
-0.0133172 -1.91522 6.1093 167 148 144 
-0.000638247 -2.09426 6.05899 96 59 50 
-0.0257503 -1.7029 6.18008 152 71 78 
0.0145308 -2.1311 6.01837 93 64 60 
-0.0518697 -1.17192 6.3477 178 150 129 
-0.00622761 -1.77625 6.14625 73 35 48 
0.0165197 -2.01331 6.06772 91 77 66 
0.030574 -2.12182 6.02726 74 51 45 
0.0309265 -2.01967 6.05671 125 100 95 
0.0354615 -2.04441 6.04183 119 92 85 
0.0664393 -2.10972 6.01088 178 161 153 
0.0947461 -2.41173 5.90032 52 34 32 
0.0849735 -2.17708 5.9711 106 45 60 
0.0183972 -0.912488 6.36905 95 22 42 
0.029937 -0.989953 6.34969 131 106 102 
0.115926 -2.1492 5.96552 88 42 55 
0.0613185 -0.968063 6.33381 108 83 78 
0.113131 -1.74966 6.08789 122 108 107 
0.115762 -1.71791 6.09617 125 110 103 
1.41131 -0.567776 5.40674 111 100 108 
1.4195 -0.576138 5.39757 49 40 41 
1.4224 -0.602721 5.38786 69 62 56 
1.42453 -0.588126 5.38865 197 190 180 
1.4423 -0.643276 5.35261 74 62 64 
1.44672 -0.554011 5.38149 189 180 175 
1.4506 -0.609861 5.35957 119 109 100 
1.45162 -0.623548 5.35179 38 28 29 
1.45916 -0.56799 5.36684 50 39 33 
1.4633 -0.640929 5.34368 195 191 179 
1.47111 -0.605294 5.34261 45 34 28 
1.47135 -0.587525 5.34734 87 77 68 
1.47195 -0.595165 5.33974 195 185 176 
1.48748 -0.664583 5.30635 39 33 33 
1.4917 -0.716319 5.28337 66 57 52 
1.50306 -0.628308 5.29797 131 121 122 
1.50349 -0.814631 5.24165 149 136 143 
1.50896 -0.589851 5.31161 116 106 104 
1.51471 -0.678319 5.27837 136 126 125 
1.52164 -0.565541 5.31435 125 115 116 
1.52411 -0.637101 5.28133 199 189 179 
1.53131 -0.668611 5.26253 200 190 181 
1.54257 -0.573615 5.28613 35 25 24 
1.55277 -0.683798 5.2399 199 186 180 
1.55655 -0.69754 5.22837 94 83 77 
1.57164 -0.578821 5.25782 42 33 28 
1.58012 -0.801726 5.17964 208 199 184 
1.58668 -0.624416 5.22791 128 116 118 
1.59609 -0.594953 5.22842 78 69 64 
1.60436 -0.694788 5.19204 51 41 39 
1.62477 -0.529583 5.25472 121 113 110 
1.62621 -0.566224 5.21493 166 155 153 
1.63966 -0.584021 5.19992 192 184 165 
1.65006 -0.605545 5.17892 48 39 34 
1.67647 -0.612705 5.14865 113 104 99 
1.68402 -0.535578 5.18101 118 105 112 
1.69792 -0.753441 5.09375 105 91 106 
-1.15184 -2.93768 6.74418 85 58 49 
-1.19554 -2.36215 6.90784 139 101 90 
-1.19007 -2.33664 6.91419 39 36 45 
-1.12767 -2.82354 6.75008 143 114 72 
-1.21161 -2.06958 7.00195 102 102 92 
-1.13082 -2.68645 6.78148 104 84 85 
-1.11125 -2.86401 6.72418 113 95 95 
-1.2453 -1.57185 7.13649 151 142 135 
-1.09648 -2.87106 6.70114 59 35 33 
-1.01332 -0.411839 6.63074 1 50 83 
-1.21754 -1.6761 7.09284 80 93 67 
-1.08503 -2.7763 6.72316 145 115 89 
-1.06844 -2.86015 6.68798 154 130 92 
-1.07915 -2.73631 6.7308 84 58 25 
-1.05772 -2.75424 6.70418 70 46 20 
-1.08071 -2.53646 6.7752 47 33 32 
-1.03267 -2.76404 6.68099 169 146 102 
-1.02261 -2.88635 6.64986 161 136 114 
-1.06557 -2.23598 6.83118 157 133 121 
-0.99398 -2.76774 6.64735 109 78 57 
-1.1452 -1.39851 7.1181 36 36 48 
-1.17066 -1.20043 7.19734 82 63 69 
-1.05197 -1.68929 6.94996 45 32 39 
-0.929139 -2.90395 6.57567 69 48 57 
-1.07668 -1.37559 7.06886 118 113 110 
-0.940779 -2.54134 6.66124 131 100 69 
-0.92207 -2.40166 6.68287 146 116 80 
-0.929797 -2.29352 6.71723 37 25 39 
-0.853704 -2.83196 6.53305 83 54 50 
-0.868534 -2.55963 6.59126 46 24 27 
-0.91723 -1.5512 6.90269 173 144 128 
-0.833123 -2.32775 6.63236 96 62 37 
-0.878736 -1.76012 6.8147 49 30 26 
-0.797947 -2.15773 6.64114 157 134 56 
-0.733515 -2.10569 6.62915 36 31 61 
-0.832674 -0.976035 7.01041 157 133 131 
-0.769489 -1.51263 6.81278 151 58 43 
-0.667391 -2.19737 6.54841 163 148 145 
-0.561529 1.27107 6.67444 167 115 67 
-0.5517 -1.99426 6.51719 173 146 135 
-0.4721 -2.16884 6.41825 148 131 62 
-0.467527 -2.06318 6.42824 36 34 56 
-0.504552 -1.63083 6.58741 146 120 107 
-0.435147 -1.84189 6.47087 101 53 51 
-0.439154 -1.80776 6.4904 158 139 125 
-0.430127 -1.81904 6.47701 102 75 64 
-0.383897 -1.54954 6.52349 76 38 17 
-0.390883 -0.894032 6.73166 135 48 31 
-0.284274 -1.68464 6.41446 48 27 36 
-0.271931 -1.55686 6.44108 50 25 44 
-0.242117 -1.85993 6.33247 79 36 43 
-0.256923 -1.56322 6.42814 136 75 83 
-0.316816 -0.885824 6.68519 26 22 23 
-0.227307 -1.52987 6.42022 55 26 30 
-0.196173 -1.69734 6.34356 134 73 78 
-0.146899 0.761519 6.33344 69 112 191 
-0.170314 -1.67016 6.33872 64 53 49 
-0.154491 -1.80477 6.28869 136 70 74 
-0.132623 -1.86289 6.25497 92 50 54 
-0.081847 -1.66491 6.27661 74 61 52 
-0.0760964 -1.55805 6.29821 176 147 129 
-0.0937068 -1.02119 6.50749 89 21 32 
-0.0671372 -1.08036 6.42273 121 92 96 
-0.0224488 -0.948418 6.43238 99 20 42 
-0.00852555 -1.14576 6.37807 96 36 44 
-1.14248 -1.32179 7.35723 131 126 120 
-0.946902 -3.09275 6.87458 103 80 49 
-0.952827 -2.93652 6.90076 134 112 89 
-1.00237 -2.42102 7.02808 132 70 59 
-0.957775 -2.97954 6.91195 147 125 102 
-0.999979 -2.44366 7.02539 130 90 82 
-0.921195 -3.19125 6.83909 135 116 112 
-0.934392 -2.87154 6.89459 130 112 100 
-1.02974 -1.91282 7.14177 45 21 19 
-0.967032 -2.45375 6.99324 83 53 27 
-0.942988 -2.86129 6.92548 66 45 44 
-1.02438 -1.89702 7.14013 152 121 118 
-0.917426 -2.97232 6.87201 160 136 98 
-1.01618 -1.88455 7.13175 43 19 17 
-0.895101 -3.1953 6.82109 92 68 68 
-0.96061 -2.32726 7.01174 98 46 32 
-0.898146 -3.02725 6.84941 152 136 103 
-1.11815 -1.01275 7.40873 107 87 89 
-0.957468 -2.43436 7.007 147 131 54 
-1.00116 -1.80124 7.13149 38 28 26 
-1.00508 -1.72884 7.1433 40 33 25 
-1.02315 -1.61461 7.19014 168 135 126 
-0.900687 -2.87114 6.87715 53 35 23 
-0.886162 -2.94652 6.84432 83 56 45 
-0.29396 1.1763 5.75502 72 45 28 
-0.992735 -1.82347 7.12335 106 92 89 
-0.902532 -2.78116 6.89208 164 144 111 
-0.715796 0.196767 6.61968 10 77 130 
-0.997627 -1.84319 7.13796 55 21 12 
-0.983196 -1.77834 7.12462 137 112 108 
-0.930809 -2.32807 6.99332 152 123 65 
-0.880327 -2.79559 6.86652 93 65 53 
-0.474138 1.08827 6.15983 46 22 18 
-0.86443 -2.9593 6.83172 150 128 107 
-1.06599 -1.087 7.34719 146 128 124 
-0.676647 0.189707 6.57984 6 35 49 
-0.879014 -2.63079 6.89795 155 134 105 
-0.862121 -2.71722 6.86452 74 43 22 
-0.859644 -2.81081 6.85721 148 128 103 
-0.868381 -2.66937 6.88312 152 131 104 
-0.449596 1.08267 6.13992 159 141 131 
-0.838553 -2.92917 6.81322 93 75 71 
-0.858847 -2.69442 6.87066 140 114 91 
-0.845239 -2.85199 6.83486 158 143 112 
-0.849494 -2.77269 6.85134 144 117 96 
-0.879218 -2.41624 6.93608 103 85 11 
-0.845873 -2.73417 6.85423 145 123 110 
-0.855985 -2.53794 6.90272 147 129 63 
-0.878581 -2.10866 6.98194 72 40 27 
-0.837787 -2.53783 6.87733 61 41 17 
-0.391905 1.11038 6.06604 69 32 3 
-0.825598 -2.63313 6.85954 76 56 58 
-0.848699 -2.20932 6.95243 35 37 52 
-0.819226 -2.51687 6.87528 89 66 34 
-0.829906 -2.1215 6.9436 136 106 98 
-0.787461 -2.47807 6.84501 108 88 29 
-0.257766 1.14656 5.83531 58 32 9 
-0.806193 -2.34932 6.90209 140 132 69 
-0.828574 -1.89701 6.97079 130 111 104 
-0.786273 -2.25237 6.88173 161 146 141 
-0.778105 -2.30463 6.86423 173 157 160 
-0.722756 -2.98075 6.71602 166 142 104 
-0.78581 -2.17473 6.88989 134 114 107 
-0.726384 -3.07978 6.72125 65 47 37 
-0.777037 -2.14886 6.87545 145 130 127 
-0.716109 -3.02982 6.71118 90 68 47 
-0.719346 -3.11403 6.71494 154 141 107 
-0.773467 -2.13298 6.88497 97 92 98 
-0.229849 1.14587 5.81683 184 151 134 
-0.776588 -2.11758 6.89384 45 44 49 
-0.703616 -2.92698 6.70432 79 58 53 
-0.775929 -2.09608 6.90044 55 39 40 
-0.889987 -1.01761 7.20618 91 72 74 
-0.693756 -3.03293 6.69307 128 109 95 
-0.72542 -2.57304 6.78378 147 131 54 
-0.730924 -2.54404 6.79791 143 134 39 
-0.772907 -1.9512 6.91799 110 86 82 
-0.692386 -3.04773 6.69364 57 39 29 
-0.687349 -3.01031 6.68599 174 152 131 
-0.705939 -2.7776 6.73753 65 40 35 
-0.790171 -1.73309 6.97468 36 26 25 
-0.741826 -2.25745 6.84513 88 75 82 
-0.762998 -1.97754 6.90886 120 95 90 
-0.747943 -2.09381 6.87146 166 136 126 
-0.770626 -1.85721 6.93479 106 75 70 
-0.74551 -2.11856 6.86767 154 117 109 
-0.743013 -2.24246 6.85865 112 101 105 
-0.740058 -2.17944 6.85527 151 108 101 
-0.671371 -3.02635 6.67484 55 39 24 
-0.860934 -1.04833 7.18959 38 24 23 
-0.758361 -1.98683 6.92601 129 102 95 
-0.759562 -1.70336 6.94105 31 25 25 
-0.766191 -1.72345 6.95646 131 121 111 
-0.741663 -1.93242 6.89322 178 159 153 
-0.851002 -1.03492 7.17678 53 35 33 
-0.753236 -1.84004 6.92585 177 151 136 
-0.673857 -2.84942 6.70703 71 43 21 
-0.659341 -2.87458 6.67576 63 38 16 
-0.66016 -3.02921 6.67163 156 140 117 
-0.707748 -2.16667 6.82855 150 107 101 
-0.836583 -1.02021 7.17043 100 40 39 
-0.758747 -1.58024 6.97339 39 35 60 
-0.669825 -2.73794 6.72559 76 44 29 
-0.635159 -2.98737 6.6455 151 132 115 
-0.62919 -3.03553 6.63213 156 147 106 
-0.650847 -2.8297 6.6925 73 49 21 
-0.736248 -1.69173 6.93612 30 21 22 
-0.490697 0.41455 6.47865 16 155 246 
-0.637714 -2.86175 6.67373 65 47 25 
-0.629269 -2.88018 6.65727 153 136 110 
-0.678557 -2.27446 6.79632 122 109 116 
-0.690936 -2.0138 6.83726 133 82 79 
-0.624622 -2.92639 6.6485 57 38 24 
-0.678638 -2.16969 6.80632 151 108 99 
-0.731328 -1.87268 6.95376 113 51 36 
-0.622669 -2.75846 6.67027 73 39 40 
-0.613033 -2.95525 6.64359 97 79 55 
-0.599318 -2.97606 6.61654 69 51 41 
-0.628897 -2.47882 6.71637 86 64 41 
-0.22908 1.1212 5.95903 52 25 14 
-0.452828 0.361598 6.44308 68 142 247 
-0.440648 0.336004 6.4251 78 146 247 
-0.645245 -2.08131 6.79676 175 142 135 
-0.612935 -2.27115 6.73559 112 102 111 
-0.652884 -1.73425 6.85149 96 43 35 
-0.200443 1.11664 5.93944 101 74 65 
-0.633023 -1.96409 6.80458 170 147 141 
-0.611591 -2.12608 6.7493 145 131 130 
-0.617567 -2.10887 6.76481 112 111 117 
-0.63172 -1.90632 6.81052 185 160 155 
-0.60659 -2.21041 6.74372 115 103 105 
-0.554292 -2.89188 6.5961 113 85 81 
-0.399631 0.430318 6.39743 77 152 245 
-0.394257 0.319086 6.38188 64 146 246 
-0.61585 -1.98037 6.80203 93 63 52 
-0.599405 -2.06768 6.7654 178 154 150 
-0.580095 -2.06441 6.72893 170 140 130 
-0.556067 -2.37285 6.67408 92 75 49 
-0.562288 -2.26357 6.69391 149 128 49 
-0.509786 -2.89883 6.55815 84 68 42 
-0.555118 -2.15176 6.6968 34 35 56 
-0.564524 -2.07245 6.72551 155 111 100 
-0.524835 -2.7258 6.60663 90 66 40 
-0.51851 -2.62869 6.60371 82 58 54 
-0.500042 -2.85656 6.55707 162 148 113 
-0.526416 -2.29209 6.6429 143 132 40 
-0.523547 -2.33243 6.65554 105 90 23 
-0.575095 -1.68665 6.80511 158 135 127 
-0.588626 -1.55083 6.85024 42 34 58 
-0.344565 0.37371 6.35976 5 59 103 
-0.491671 -2.75482 6.57638 69 47 50 
-0.484757 -2.67472 6.56706 161 138 94 
-0.545654 -1.86829 6.75035 110 72 71 
-0.474308 -2.79718 6.54342 166 146 113 
-0.474883 -2.76498 6.54623 160 145 114 
-0.484587 -2.62931 6.57583 83 54 48 
-0.475985 -2.77883 6.55417 149 132 89 
-0.468818 -2.81516 6.53831 82 59 41 
-0.50915 -2.19764 6.66147 126 93 50 
-0.548677 -1.68186 6.78275 35 22 31 
-0.629921 -0.927846 7.00947 123 46 38 
-0.472071 -2.75394 6.56048 49 27 13 
-0.460377 -2.71016 6.54571 163 142 111 
-0.512292 -1.91205 6.71285 95 56 51 
-0.510793 -1.87122 6.71538 150 130 121 
-0.489813 -2.14079 6.65552 126 87 44 
-0.463222 -2.60307 6.57301 151 123 76 
-0.448289 -2.67837 6.54247 170 148 107 
-0.449969 -2.69603 6.54664 92 68 40 
-0.506556 -1.88887 6.71736 89 64 57 
-0.474055 -2.10046 6.63333 90 45 16 
-0.487835 -2.06835 6.67134 129 86 44 
-0.439958 -2.73111 6.5296 56 30 17 
-0.459502 -2.34492 6.60302 70 30 18 
-0.45989 -2.21772 6.61136 102 42 31 
-0.459157 -2.5954 6.59567 89 59 25 
-0.433427 -2.80088 6.52584 164 144 120 
-0.446165 -2.62025 6.56515 160 133 86 
-0.431291 -2.69066 6.5293 100 77 61 
-0.476864 -1.91049 6.67779 131 104 93 
-0.41837 -2.84336 6.50005 161 150 128 
-0.437704 -2.33814 6.57285 129 90 75 
-0.470396 -1.93071 6.67798 158 111 101 
-0.415527 -2.61255 6.52502 171 147 111 
-0.405583 -2.74838 6.49689 154 131 115 
-0.410266 -2.57668 6.51885 80 56 28 
-0.404491 -2.62947 6.51641 86 65 48 
-0.408483 -2.54767 6.53119 85 59 32 
-0.376972 -2.69693 6.48526 68 45 29 
-0.377813 -2.68077 6.49432 164 143 116 
-0.372576 -2.64482 6.49233 161 146 105 
-0.365734 -2.72472 6.47316 159 138 111 
-0.443213 -1.59602 6.71589 71 28 9 
-0.369209 -2.53672 6.49726 168 149 109 
-0.366988 -2.58794 6.48998 162 148 101 
-0.43972 -1.57988 6.71565 154 121 104 
-0.357708 -2.659 6.47386 102 81 50 
-0.433531 -1.492 6.71955 79 31 19 
-0.436631 -1.51139 6.72729 161 122 107 
-0.323213 -2.84667 6.42416 101 85 59 
-0.34176 -2.27707 6.49836 98 41 21 
-0.322966 -2.61208 6.45251 92 65 56 
-0.314336 -2.66745 6.43193 107 79 58 
-0.283706 -2.82918 6.36694 146 131 100 
-0.386623 -1.5521 6.6841 129 109 108 
-0.318368 -2.28457 6.49139 155 120 100 
-0.287515 -2.81344 6.39494 108 89 75 
-0.319207 -2.32382 6.49504 44 25 27 
-0.363028 -1.51371 6.66376 89 58 55 
-0.274981 -2.71982 6.39338 118 90 66 
-0.359602 -1.54509 6.65871 72 49 55 
-0.266392 -2.85303 6.37157 118 100 86 
-0.343088 -1.73768 6.61179 43 29 29 
-0.304395 -2.26159 6.49848 62 25 19 
-0.344089 -1.68118 6.63037 159 111 109 
-0.269641 -2.82028 6.40504 109 91 69 
-0.341651 -1.56574 6.64387 115 88 93 
-0.306178 -1.92373 6.54977 76 36 44 
-0.25769 -2.574 6.40863 157 130 87 
-0.394497 -0.976598 6.82343 47 25 27 
-0.31166 -1.55589 6.62056 60 34 33 
-0.377076 -0.964553 6.81297 172 146 149 
-0.305773 -1.57937 6.60863 128 81 87 
-0.376013 -0.86494 6.82424 193 181 165 
-0.305778 -1.58593 6.61923 106 60 62 
-0.357969 -0.946139 6.79506 174 158 161 
-0.251843 -1.96665 6.49372 75 33 37 
-0.344155 -0.923749 6.78984 118 108 109 
-0.343183 -0.959071 6.78821 52 17 24 
-0.231299 -1.92899 6.49328 85 41 40 
-0.1763 -2.73094 6.31833 113 90 76 
-0.235146 -1.72597 6.52217 159 126 119 
-0.227972 -1.76032 6.50905 172 139 130 
-0.237319 -1.71381 6.54044 82 74 63 
-0.230027 -1.7392 6.52417 177 150 141 
-0.234168 -1.54755 6.56051 64 31 24 
-0.211778 -1.86401 6.49099 132 73 77 
-0.216505 -1.83581 6.5083 177 145 132 
-0.186322 -2.09916 6.42541 172 155 147 
-0.213037 -1.7254 6.51175 69 49 38 
-0.211585 -1.69718 6.51378 81 79 67 
-0.168426 -2.20513 6.40526 57 30 35 
-0.164492 -2.14687 6.40172 169 155 144 
-0.180362 -1.8441 6.46893 105 55 54 
-0.201481 -1.54073 6.53845 109 81 70 
-0.152231 -2.2051 6.38365 151 129 132 
-0.117908 -2.62102 6.28637 68 43 47 
-0.266455 -0.938781 6.75084 79 26 34 
-0.104812 -2.7934 6.25176 157 144 102 
-0.260869 -0.87979 6.74478 27 30 19 
-0.134811 -2.27503 6.35667 52 31 28 
-0.220901 -1.09232 6.63889 151 116 112 
-0.152775 -1.9462 6.42622 160 145 138 
-0.181724 -1.52807 6.52082 107 76 73 
-0.227258 -1.07458 6.66318 53 22 20 
-0.250302 -0.907444 6.73142 172 157 152 
-0.171035 -1.58895 6.50252 127 100 83 
-0.117936 -2.29547 6.34273 67 46 43 
-0.141467 -1.85585 6.43209 134 63 69 
-0.195133 -1.16976 6.61299 151 107 108 
-0.130896 -1.87563 6.41838 120 57 65 
-0.144871 -1.5791 6.47982 109 80 64 
-0.14938 -1.58652 6.49447 130 101 85 
-0.0974806 -2.21196 6.33833 75 47 43 
-0.207345 -0.920429 6.68592 91 29 44 
0.049122 0.456327 6.06838 0 59 121 
-0.203613 -0.89727 6.67968 176 161 156 
-0.190814 -1.07808 6.63915 157 112 109 
0.0457553 0.470127 6.08475 85 153 252 
0.0533828 0.44062 6.06433 92 149 230 
-0.0694773 -2.62358 6.25718 53 23 21 
-0.109093 -1.89175 6.40421 68 28 29 
-0.161657 -1.21803 6.57481 81 28 38 
-0.11726 -1.75894 6.4355 176 142 133 
-0.151021 -1.23973 6.54816 135 92 83 
-0.117007 -1.71146 6.44379 141 128 122 
-0.071502 -2.28214 6.30059 172 157 152 
-0.0469079 -2.63153 6.22695 103 76 81 
-0.109697 -1.68445 6.43967 176 143 138 
-0.0723998 -2.18994 6.32626 89 56 41 
-0.0797648 -1.99573 6.35688 162 148 147 
-0.0876595 -1.69673 6.41866 140 69 73 
-0.0515239 -2.15753 6.31246 116 83 76 
0.100242 0.364276 6.01762 78 157 252 
-0.049975 -2.0992 6.31842 87 70 63 
-0.0684373 -1.8465 6.38046 75 33 35 
-0.0424123 -2.2216 6.30313 64 44 35 
-0.149246 -0.872125 6.6537 183 153 143 
-0.0809405 -1.52825 6.44946 94 39 44 
-0.0616587 -1.7744 6.39129 103 68 66 
-0.0347993 -2.13782 6.30881 108 79 71 
-0.097025 -1.20372 6.51879 171 143 131 
0.117187 0.481463 6.02583 6 57 86 
-0.126138 -0.990873 6.62373 93 20 37 
0.128926 0.327885 5.98975 9 91 165 
-0.120395 -1.03395 6.60957 78 27 36 
0.0207341 -2.75775 6.17116 96 46 47 
0.021059 -2.52894 6.18435 54 34 35 
-0.0869259 -1.06837 6.54522 61 27 26 
0.0229604 -2.67733 6.17623 125 88 80 
0.0230898 -2.62512 6.17863 151 108 65 
0.0264713 -2.69508 6.17566 110 70 58 
0.155351 0.437852 5.98337 67 140 243 
-0.0372452 -1.54341 6.43516 165 151 142 
0.161336 0.404585 5.97731 34 103 198 
0.17248 0.381436 5.95931 45 113 186 
-0.0339842 -1.16735 6.48422 103 38 46 
0.0397892 -2.24778 6.24911 144 118 121 
0.0703687 -2.21787 6.20895 196 182 171 
-0.00898234 -1.01332 6.50493 135 105 103 
0.0636434 -1.77961 6.30659 111 96 93 
0.0333114 -0.862508 6.49069 130 93 84 
0.0626308 -0.891507 6.46859 183 149 137 
0.0774728 -0.879121 6.45303 119 87 76 
0.0994363 -0.830469 6.46678 205 186 171 
1.36022 -2.23219 5.09751 37 32 36 
1.37199 -1.64899 5.23319 88 57 72 
1.37611 -1.72094 5.21194 96 90 104 
1.37501 -1.44957 5.25763 198 180 176 
1.39616 -2.00634 5.12873 27 23 20 
1.39194 -1.76672 5.19822 21 9 19 
1.40293 -2.02541 5.13979 207 203 191 
1.39839 -1.62197 5.21862 217 195 207 
1.41333 -2.04816 5.11849 193 187 187 
1.40297 -1.70481 5.20818 75 62 72 
1.419 -1.92448 5.14331 98 83 90 
1.42132 -1.61377 5.20586 82 60 72 
1.4291 -1.71281 5.16924 90 79 87 
1.39833 -0.563762 5.45656 106 96 97 
1.43105 -1.74265 5.18047 103 87 97 
1.43565 -1.77987 5.16551 113 88 109 
1.43561 -1.59293 5.20432 182 156 169 
1.44752 -1.76307 5.15976 221 201 210 
1.45062 -1.82398 5.14949 215 198 206 
1.45517 -1.93275 5.11999 210 200 190 
1.42105 -0.606677 5.42423 61 51 50 
1.44994 -1.7221 5.17052 196 181 186 
1.42042 -0.56577 5.44687 35 25 26 
1.42539 -0.703425 5.40798 132 120 134 
1.42307 -0.592783 5.43198 204 195 188 
1.45894 -1.83276 5.14709 107 88 94 
1.46062 -1.76738 5.15374 151 130 135 
1.43504 -0.822184 5.38194 137 125 135 
1.46503 -1.84696 5.12402 107 83 96 
1.43202 -0.620111 5.41863 197 187 185 
1.4267 -0.545099 5.4641 146 137 128 
1.46684 -1.8245 5.12948 172 151 158 
1.46364 -1.71805 5.15902 205 184 191 
1.44188 -0.7111 5.3803 137 125 137 
1.47586 -1.6061 5.1739 182 165 171 
1.48322 -1.83637 5.11462 120 97 105 
1.48468 -1.7591 5.13308 221 199 211 
1.48456 -1.73886 5.14005 219 197 209 
1.48662 -1.82279 5.12142 221 198 208 
1.48598 -1.79865 5.12818 223 199 212 
1.48488 -1.68053 5.1523 224 202 215 
1.48263 -1.64865 5.1754 135 113 126 
1.45786 -0.573052 5.41195 43 33 31 
1.45914 -0.616671 5.40199 203 195 184 
1.48516 -1.53558 5.17127 53 51 52 
1.46089 -0.665231 5.39584 128 120 118 
1.46169 -0.648488 5.40156 196 187 178 
1.46986 -0.610787 5.38968 23 14 5 
1.50301 -1.90851 5.08874 135 110 131 
1.46999 -0.593499 5.39907 60 51 44 
1.46931 -0.581947 5.40668 197 187 185 
1.47271 -0.62434 5.3829 191 182 173 
1.47443 -0.674299 5.37073 136 126 125 
1.47027 -0.602486 5.40501 190 181 172 
1.48014 -0.830722 5.33021 147 134 141 
1.4977 -1.46172 5.18161 127 106 101 
1.50889 -1.99048 5.07134 115 100 107 
1.50897 -2.02519 5.07154 41 37 34 
1.48921 -0.847263 5.31453 202 192 183 
1.48717 -0.702755 5.35234 201 188 179 
1.48611 -0.671518 5.36894 34 24 15 
1.49036 -0.72357 5.34336 44 35 28 
1.5235 -1.8632 5.0759 204 188 189 
1.52378 -1.91275 5.07277 222 196 209 
1.51542 -1.63272 5.15862 84 71 80 
1.52715 -1.99875 5.05624 213 199 188 
1.49251 -0.560225 5.39701 130 119 123 
1.50195 -0.826213 5.31388 147 134 143 
1.49769 -0.607254 5.36916 198 190 179 
1.50148 -0.687175 5.34362 127 117 108 
1.52916 -1.8838 5.08078 129 104 123 
1.50801 -0.595733 5.36105 116 107 100 
1.51368 -0.685294 5.32761 149 139 130 
1.50995 -0.618233 5.35852 206 197 190 
1.51785 -0.823154 5.29121 184 171 178 
1.51282 -0.675166 5.33998 62 52 43 
1.51199 -0.630724 5.35488 38 29 22 
1.54701 -1.99658 5.02678 89 73 76 
1.524 -0.829477 5.28575 69 58 56 
1.52284 -0.886367 5.29965 148 135 142 
1.5211 -0.569099 5.3493 115 105 106 
1.52317 -0.644124 5.33351 204 197 181 
1.55773 -2.05421 5.01606 102 81 96 
1.55434 -1.90533 5.0581 90 70 72 
1.53038 -0.675444 5.32025 198 188 179 
1.52633 -0.547986 5.36808 59 49 48 
1.53226 -0.657246 5.32331 25 15 6 
1.56807 -2.22834 4.9661 146 130 131 
1.53688 -0.743822 5.29665 201 190 184 
1.54221 -0.666992 5.31302 200 190 181 
1.54488 -0.680677 5.29971 36 26 17 
1.54371 -0.905629 5.29988 175 164 168 
1.54183 -0.580266 5.34554 23 14 7 
1.55129 -0.722031 5.28948 205 196 181 
1.54825 -0.591812 5.33063 194 185 178 
1.58422 -2.21726 4.95543 51 39 39 
1.55587 -0.705971 5.29141 86 76 67 
1.55671 -0.741836 5.28417 50 40 31 
1.58399 -2.03747 4.99299 54 49 46 
1.57815 -1.57167 5.06813 69 61 72 
1.578 -1.57889 5.09237 69 62 70 
1.58777 -2.00202 4.99631 213 198 195 
1.56295 -0.716692 5.2877 208 197 193 
1.55865 -0.578833 5.33244 119 110 105 
1.56497 -0.542782 5.32675 181 171 169 
1.57054 -0.612861 5.30202 199 191 180 
1.57118 -0.585531 5.31118 13 4 0 
1.57518 -0.677625 5.27587 203 192 188 
1.57767 -0.661472 5.27546 23 13 3 
1.57896 -0.692087 5.27564 33 22 18 
1.58052 -0.623404 5.28985 119 110 103 
1.59381 -0.795803 5.23397 141 128 137 
1.59899 -0.678588 5.26328 200 191 182 
1.60428 -0.701241 5.24447 46 36 34 
1.6041 -0.573585 5.28288 120 110 108 
1.61532 -0.712237 5.23258 208 200 198 
1.60945 -0.529245 5.3026 103 93 91 
1.62015 -0.680896 5.22805 122 114 111 
1.64489 -1.91607 4.96339 137 111 112 
1.62959 -0.704105 5.22828 51 40 44 
1.63445 -0.577322 5.25158 191 182 177 
1.63795 -0.530398 5.27719 40 30 29 
1.64008 -0.588813 5.25462 182 173 164 
1.64593 -0.575577 5.24963 91 81 80 
1.65052 -0.611736 5.23444 20 10 9 
1.65165 -0.624581 5.23058 200 190 188 
1.66881 -0.611469 5.21725 196 189 173 
1.67698 -0.665302 5.20215 150 141 146 
1.68197 -0.599365 5.19521 36 29 19 
1.68696 -0.694937 5.16015 82 72 80 
1.69742 -0.614122 5.19014 74 70 67 
1.69758 -0.517832 5.23527 56 50 52 
1.70398 -0.591153 5.1841 185 180 176 
1.70631 -0.568182 5.20576 13 4 0 
1.71031 -0.645462 5.17557 26 22 19 
1.71053 -0.539485 5.19527 59 53 53 
1.72253 -0.819167 5.12164 86 46 44 
1.72764 -0.645911 5.15413 203 194 187 
1.74054 -0.634201 5.13981 47 28 21 
1.73921 -0.605896 5.1694 57 24 33 
1.81145 -0.572481 5.09864 47 49 48 
1.86396 -1.35718 4.90578 160 142 156 
1.86816 -1.17147 4.92262 188 175 182 
1.87035 -1.37001 4.89392 169 153 163 
1.87664 -1.15904 4.92003 183 170 177 
1.87958 -1.31437 4.89148 68 52 55 
1.88488 -1.35056 4.88976 218 200 198 
1.89525 -1.34334 4.87825 52 36 37 
1.89851 -1.13296 4.91193 181 169 173 
1.89979 -1.33011 4.88595 46 26 25 
1.90382 -1.54853 4.84349 55 53 56 
1.91222 -1.27824 4.8711 198 181 189 
1.91684 -1.48956 4.83282 185 170 177 
1.91591 -1.29349 4.87353 105 86 90 
1.91936 -1.53386 4.82268 162 152 160 
1.91885 -1.52494 4.834 211 198 207 
1.92304 -1.33604 4.85175 229 210 206 
1.92288 -1.20019 4.8717 187 172 179 
1.92553 -1.51259 4.82429 47 36 42 
1.92778 -1.5286 4.82603 85 74 82 
1.938 -1.31175 4.8466 214 200 191 
1.94046 -1.54325 4.79636 51 49 50 
1.94863 -1.1161 4.86812 198 185 194 
1.95568 -1.50745 4.77325 104 93 97 
1.95404 -0.64766 4.96135 75 59 60 
1.95996 -1.23962 4.78484 190 177 187 
1.96373 -1.27779 4.83662 82 63 65 
1.9652 -1.11072 4.86795 179 163 164 
1.96569 -1.26019 4.86307 191 178 187 
1.9667 -1.33903 4.84211 85 69 72 
1.96813 -0.96158 4.88928 204 180 176 
1.9727 -1.22309 4.83766 158 142 152 
1.97352 -0.607196 4.94582 176 174 187 
1.97721 -1.26104 4.82579 102 85 93 
1.97558 -0.890287 4.91037 198 179 172 
1.97901 -1.47723 4.7759 200 189 195 
1.97769 -1.10787 4.8501 187 171 172 
1.97854 -0.645281 4.9223 58 55 62 
1.98047 -0.869279 4.88552 95 76 69 
1.97967 -0.615997 4.94662 56 54 65 
1.98699 -0.639201 4.91296 44 38 48 
1.98877 -1.08037 4.84883 151 122 114 
1.99553 -1.48208 4.75166 192 180 182 
1.99912 -0.676977 4.91802 68 62 64 
2.00418 -0.694719 4.90539 218 206 206 
2.0077 -0.674194 4.90239 201 192 193 
2.00922 -1.14351 4.82798 56 47 50 
2.01541 -0.638225 4.90438 154 148 160 
2.01626 -0.683877 4.90055 87 69 69 
2.01991 -0.627748 4.89972 65 63 68 
2.02301 -1.08182 4.81912 69 41 37 
2.02512 -0.639289 4.88552 76 65 73 
2.02859 -1.10847 4.80628 105 90 97 
2.03025 -1.16555 4.7976 56 43 52 
2.03157 -1.08868 4.80792 136 111 106 
2.03339 -0.688821 4.8836 173 143 141 
2.03436 -1.05578 4.81553 176 135 141 
2.03412 -0.643863 4.8874 196 184 186 
2.03796 -0.900267 4.83428 95 66 68 
2.03916 -1.10629 4.79549 189 174 181 
2.03997 -1.16132 4.7961 161 148 157 
2.04328 -1.5019 4.72722 209 201 199 
2.04641 -1.07854 4.79962 141 113 109 
2.04929 -0.853335 4.81922 98 74 74 
2.04894 -0.735766 4.86661 164 134 132 
2.05134 -1.14172 4.77465 186 173 180 
2.0543 -1.46808 4.71156 185 172 182 
2.05347 -0.778793 4.85747 85 56 58 
2.05701 -1.49198 4.69056 112 97 100 
2.05824 -0.666468 4.86999 81 65 66 
2.0605 -1.11033 4.77798 187 172 175 
2.0608 -1.06928 4.7882 169 147 159 
2.06217 -1.46811 4.69885 68 55 65 
2.06441 -1.48423 4.69591 181 165 175 
2.06395 -1.0949 4.78202 93 79 79 
2.06535 -0.890793 4.80236 91 60 68 
2.06609 -1.45414 4.70194 198 185 195 
2.06895 -0.77522 4.83604 161 131 131 
2.07294 -1.26606 4.74462 85 73 73 
2.07877 -1.31462 4.73278 112 94 90 
2.07871 -0.879758 4.83173 143 107 117 
2.08011 -0.845465 4.81544 172 142 150 
2.08152 -1.29404 4.73164 101 83 79 
2.08411 -1.30517 4.72224 213 202 198 
2.09158 -1.02998 4.75841 75 59 59 
2.09375 -0.809588 4.79595 89 61 60 
2.09474 -0.872853 4.80967 116 89 94 
2.09501 -0.761394 4.82341 93 64 60 
2.09678 -0.840949 4.80267 76 52 50 
2.09769 -1.83213 4.58843 141 139 114 
2.09849 -0.856273 4.77941 204 183 180 
2.09883 -1.35923 4.69755 192 179 186 
2.09929 -1.81056 4.61347 44 38 38 
2.10088 -1.02837 4.74193 207 188 181 
2.10121 -0.716764 4.82185 200 180 181 
2.10793 -1.8052 4.59651 211 206 203 
2.10858 -1.12185 4.73536 196 181 184 
2.10959 -1.4902 4.64194 91 78 88 
2.11014 -1.7973 4.60508 51 45 45 
2.11022 -1.27259 4.73741 99 80 84 
2.11102 -1.50381 4.65591 207 194 204 
2.11172 -0.744453 4.81088 102 74 70 
2.11327 -1.25676 4.72489 156 141 148 
2.11594 -0.691481 4.79182 129 120 123 
2.11927 -0.748888 4.79173 203 180 172 
2.12006 -0.724354 4.80167 104 95 96 
2.1194 -1.50213 4.64289 61 48 58 
2.11985 -1.86674 4.55589 208 206 185 
2.12171 -1.52976 4.62718 167 162 168 
2.12376 -0.709429 4.79263 89 83 85 
2.12355 -1.29105 4.68953 130 102 99 
2.12565 -1.12999 4.72112 179 164 171 
2.12619 -0.711699 4.81405 84 73 77 
2.12964 -0.759647 4.78607 193 173 164 
2.12842 -1.93531 4.54988 215 205 195 
2.1306 -0.944764 4.735 199 181 169 
2.13019 -1.88112 4.56547 139 134 112 
2.13093 -1.86345 4.5649 211 204 188 
2.13324 -0.889431 4.7397 71 55 55 
2.13297 -1.3677 4.67014 157 144 154 
2.13714 -0.450481 4.88165 164 160 148 
2.13628 -1.1309 4.72942 90 74 77 
2.13675 -1.8866 4.54286 211 205 183 
2.14019 -1.28112 4.67743 89 70 72 
2.143 -1.92154 4.53381 137 130 102 
2.14707 -1.29924 4.66394 102 86 87 
2.15272 -0.707165 4.76382 132 120 124 
2.15353 -0.728308 4.76322 104 80 78 
2.15212 -1.91972 4.52242 132 131 100 
2.15436 -1.90393 4.52787 207 204 189 
2.15703 -1.22164 4.67163 153 140 150 
2.15977 -1.25862 4.6734 106 93 100 
2.1621 -1.27238 4.656 161 145 155 
2.16139 -1.72542 4.56698 135 132 115 
2.16376 -1.37013 4.63314 155 144 152 
2.16644 -0.861434 4.72525 193 173 174 
2.16971 -0.430471 4.83071 137 129 118 
2.16584 -1.88353 4.53117 212 205 189 
2.16604 -1.89333 4.52276 126 119 101 
2.16972 -0.842544 4.72456 117 81 81 
2.16909 -1.16248 4.65931 205 191 188 
2.16897 -1.904 4.51671 206 201 182 
2.17375 -0.47415 4.79782 187 178 171 
2.17034 -1.72894 4.58294 124 123 103 
2.17097 -1.8069 4.53949 84 80 68 
2.17157 -1.73988 4.55502 206 202 190 
2.1779 -1.79141 4.52983 212 207 203 
2.18323 -0.875064 4.71601 160 146 145 
2.18558 -0.483285 4.80067 96 82 79 
2.18775 -0.90854 4.6961 192 174 162 
2.18996 -0.849508 4.7108 106 80 81 
2.19221 -1.81015 4.52236 142 140 115 
2.2 -0.880184 4.69519 104 78 77 
2.20832 -0.471866 4.76229 105 88 81 
2.21105 -0.541571 4.75939 52 46 48 
2.21121 -0.872555 4.69312 100 79 78 
2.22444 -0.916488 4.67394 204 181 173 
2.23332 -0.4546 4.7743 90 72 72 
2.23464 -0.861308 4.66147 88 58 56 
2.24475 -0.897143 4.64826 89 66 58 
2.2461 -1.84879 4.53133 126 126 88 
2.25297 -0.917167 4.64935 167 136 131 
2.25052 -1.73183 4.49484 209 205 194 
2.25559 -1.71355 4.48516 50 45 39 
2.25452 -1.92314 4.44322 206 202 201 
2.26602 -1.70955 4.47701 212 208 199 
2.27443 -0.493665 4.70412 173 148 143 
2.26623 -1.72221 4.46988 42 38 27 
2.27462 -1.69451 4.46861 206 201 195 
2.27472 -1.71676 4.4649 143 140 125 
2.28089 -0.878256 4.63242 194 169 162 
2.27611 -1.68502 4.47568 53 49 46 
2.28451 -1.68874 4.45295 51 47 36 
2.28443 -1.90975 4.42129 124 123 95 
2.29503 -0.488285 4.6795 168 145 139 
2.29246 -1.7037 4.45126 118 114 85 
2.31184 -0.535028 4.66814 130 101 97 
2.30598 -1.72698 4.43963 52 51 47 
2.30928 -1.76961 4.42237 201 196 190 
2.31363 -1.71506 4.52016 134 132 107 
2.313 -1.78824 4.40801 131 131 97 
2.31572 -1.78585 4.42542 39 36 21 
2.32652 -0.638898 4.62804 66 47 49 
2.33222 -0.623248 4.61075 170 149 148 
2.33515 -0.813728 4.58737 189 177 177 
2.33828 -0.743222 4.60447 123 108 113 
2.34321 -0.525422 4.6236 113 84 80 
2.35038 -0.830679 4.56863 179 158 157 
2.35778 -0.803601 4.56071 209 203 205 
2.35802 -0.813938 4.55302 135 123 127 
2.3618 -0.619908 4.59443 104 78 77 
2.3618 -0.734055 4.58005 78 52 53 
2.36277 -0.747152 4.56744 150 130 131 
2.36697 -0.65849 4.59293 55 40 43 
2.37169 -0.75716 4.57273 204 194 193 
2.37356 -0.563983 4.58074 139 107 108 
2.36383 -1.90137 4.33618 124 122 99 
2.37865 -0.742968 4.57388 115 104 98 
2.37822 -0.786929 4.5566 124 114 115 
2.38223 -0.717932 4.55923 86 73 64 
2.38623 -0.750063 4.56124 209 206 201 
2.38846 -0.50735 4.58667 160 136 132 
2.37617 -1.90163 4.35387 56 52 40 
2.39055 -0.774879 4.54271 193 181 181 
2.39467 -0.667117 4.57071 51 40 48 
2.39557 -0.722313 4.55402 85 68 58 
2.3967 -0.679866 4.565 184 169 162 
2.40188 -0.711419 4.55994 106 89 82 
2.4039 -0.657294 4.55812 181 168 175 
2.40644 -0.700565 4.55429 86 67 60 
2.39651 -1.68512 4.35465 48 41 31 
2.4104 -0.648533 4.55077 162 151 159 
2.41063 -0.666988 4.54723 132 114 112 
2.4107 -0.578933 4.54303 56 36 37 
2.4098 -0.776012 4.53125 160 149 147 
2.41119 -0.72924 4.52868 191 180 174 
2.41279 -0.717549 4.54845 115 102 93 
2.41367 -0.700628 4.53952 204 190 179 
2.41812 -0.603874 4.5519 92 78 78 
2.41879 -0.674131 4.54898 209 198 194 
2.42089 -0.650969 4.54734 196 180 183 
2.42259 -0.795903 4.51272 150 144 154 
2.41137 -1.67202 4.33573 139 130 115 
2.41098 -1.92769 4.32742 42 38 37 
2.42604 -0.754169 4.53286 194 178 181 
2.42626 -0.700891 4.53442 198 194 185 
2.42094 -1.42486 4.42929 53 52 50 
2.43088 -0.595874 4.52358 65 43 46 
2.42677 -1.11044 4.44569 208 194 185 
2.42691 -1.09928 4.43432 203 188 185 
2.4205 -1.7301 4.33931 99 93 93 
2.42966 -1.03753 4.46749 140 120 121 
2.43461 -0.737428 4.5095 81 69 71 
2.4333 -1.0898 4.44219 101 87 86 
2.4396 -0.663311 4.53144 114 102 102 
2.43319 -1.22197 4.4221 113 103 101 
2.44057 -0.679883 4.52342 192 180 182 
2.43412 -1.28032 4.41478 123 111 111 
2.42798 -1.76535 4.3248 42 38 26 
2.44083 -0.778492 4.50844 106 96 104 
2.44137 -0.724785 4.51072 197 183 182 
2.43467 -1.26139 4.41272 148 138 139 
2.44047 -1.03419 4.47011 138 120 118 
2.44309 -0.759563 4.5017 210 195 200 
2.44037 -1.06448 4.45526 211 192 185 
2.446 -0.631579 4.51988 82 68 68 
2.4397 -1.22851 4.41846 213 203 204 
2.43462 -1.63783 4.3417 51 39 39 
2.44596 -0.783182 4.48161 126 115 123 
2.44945 -0.649986 4.53138 70 55 50 
2.4405 -1.30266 4.40265 79 69 77 
2.44362 -1.25735 4.41814 208 198 199 
2.45036 -0.674755 4.50946 111 100 96 
2.44991 -0.752071 4.50248 213 197 200 
2.45007 -0.773797 4.49392 207 192 197 
2.45185 -0.641074 4.51245 190 171 165 
2.44393 -1.32649 4.39925 129 124 146 
2.44475 -1.33774 4.39862 170 167 176 
2.44796 -1.078 4.43521 99 79 78 
2.44863 -1.11619 4.43387 135 122 114 
2.45013 -1.08976 4.44039 213 195 195 
2.44072 -1.92457 4.30946 135 133 120 
2.45061 -1.03569 4.4445 199 180 174 
2.44788 -1.27552 4.40563 208 198 199 
2.44958 -1.1288 4.42561 205 191 180 
2.44114 -1.85218 4.29249 119 117 94 
2.45725 -0.665105 4.50667 208 197 191 
2.45749 -0.642435 4.49833 118 97 94 
2.45239 -1.30834 4.39777 181 183 196 
2.46169 -0.505553 4.51962 133 111 113 
2.45308 -1.28916 4.39757 205 201 200 
2.45188 -1.3939 4.38081 119 114 111 
2.44638 -1.86455 4.2931 202 199 184 
2.44696 -1.7913 4.29641 40 36 27 
2.44806 -1.62731 4.31044 58 50 48 
2.46479 -0.495666 4.53315 109 80 82 
2.45603 -1.20168 4.40873 208 194 185 
2.45694 -1.18651 4.42022 87 69 59 
2.4635 -0.621323 4.50827 85 71 71 
2.46329 -0.705168 4.49298 118 104 104 
2.45642 -1.31601 4.39135 115 114 128 
2.46506 -0.630957 4.50208 99 80 73 
2.46136 -1.00733 4.42846 136 118 116 
2.4612 -1.11105 4.42044 125 113 113 
2.46825 -0.655122 4.50341 78 63 56 
2.46051 -1.28854 4.38338 61 59 60 
2.46531 -1.05063 4.4279 210 191 185 
2.46157 -1.33233 4.37276 196 196 208 
2.46603 -1.03979 4.42666 108 89 83 
2.46518 -1.13389 4.39951 109 84 80 
2.45602 -1.85381 4.2729 126 125 97 
2.46844 -1.07388 4.42887 196 177 173 
2.4702 -1.01961 4.4429 210 191 185 
2.47076 -1.03181 4.42996 214 195 189 
2.4697 -1.0952 4.40894 89 74 77 
2.46903 -1.19464 4.38857 94 63 58 
2.46841 -1.33065 4.38002 171 168 179 
2.47168 -1.11261 4.41845 203 183 184 
2.47643 -0.693601 4.4749 206 194 196 
2.47803 -0.657489 4.49133 87 68 61 
2.4775 -0.667784 4.47714 87 73 72 
2.47851 -0.611865 4.48775 93 79 78 
2.47419 -1.04195 4.41776 206 187 181 
2.47309 -1.1488 4.40157 75 55 48 
2.47264 -1.28267 4.39113 79 73 77 
2.48297 -0.536979 4.49676 97 71 74 
2.47394 -1.26807 4.37759 106 95 101 
2.48367 -0.551069 4.496 99 73 76 
2.47889 -1.0107 4.43021 100 80 79 
2.4838 -0.624576 4.49099 180 152 148 
2.47553 -1.24686 4.38501 91 73 63 
2.4756 -1.3423 4.37729 68 65 76 
2.47018 -1.88718 4.27201 42 39 34 
2.47922 -1.31065 4.38567 112 112 124 
2.47394 -1.48311 4.31539 63 58 64 
2.48651 -0.721733 4.4728 202 188 188 
2.48046 -1.07389 4.39435 206 188 186 
2.47607 -1.66351 4.3159 55 46 39 
2.48061 -1.31639 4.37078 205 204 210 
2.48865 -0.652306 4.46425 62 42 35 
2.48374 -1.13413 4.39919 72 43 45 
2.49118 -0.618017 4.47061 180 152 151 
2.49174 -0.644146 4.47389 198 167 162 
2.49309 -0.626456 4.47625 101 70 67 
2.49213 -0.731251 4.46465 146 127 131 
2.48317 -1.47098 4.34964 159 144 139 
2.5254 1.728 4.8744 156 146 145 
2.48767 -1.09963 4.3942 75 54 51 
2.48595 -1.30652 4.36905 193 193 203 
2.48277 -1.42704 4.32816 65 61 76 
2.49499 -0.685944 4.46481 137 121 122 
2.48816 -1.27308 4.37421 80 70 79 
2.49226 -0.99411 4.41772 169 150 144 
2.49091 -1.08832 4.39523 184 168 168 
2.49636 -0.711627 4.46141 93 79 78 
2.48569 -1.41691 4.32854 183 175 188 
2.48787 -1.3341 4.34874 70 68 73 
2.49407 -1.05183 4.40133 214 190 190 
2.48596 -1.65389 4.30085 198 188 186 
2.49265 -1.17414 4.37504 161 132 128 
2.49229 -1.28573 4.364 113 111 124 
2.49217 -1.29554 4.36026 123 121 132 
2.49224 -1.25034 4.36035 200 181 175 
2.48354 -1.88389 4.25311 195 192 187 
2.49611 -1.06654 4.39575 202 187 184 
2.50104 -0.741365 4.4465 100 81 83 
2.49681 -1.01986 4.39361 210 190 189 
2.4938 -1.32079 4.35667 185 183 188 
2.4944 -1.3419 4.34951 189 187 188 
2.49749 -1.15176 4.37726 154 126 122 
2.50192 -0.788477 4.42181 92 81 89 
2.49907 -1.16312 4.37059 89 58 56 
2.49784 -1.27276 4.35455 176 175 183 
2.49858 -1.18193 4.3629 134 103 98 
2.50682 -0.649676 4.46046 171 157 157 
2.5056 -0.712733 4.44134 166 152 151 
2.49823 -1.28477 4.34958 185 184 189 
2.50583 -0.752931 4.44043 197 178 171 
2.49714 -1.42789 4.33602 69 63 77 
2.49807 -1.44371 4.33562 136 121 128 
2.50899 -0.785409 4.46053 177 158 160 
2.50282 -1.07374 4.38356 203 182 179 
2.50507 -0.972996 4.40851 137 118 114 
2.50648 -0.866625 4.42064 159 139 138 
2.50252 -1.19677 4.36387 207 174 169 
2.50816 -1.0289 4.40119 119 101 97 
2.50363 -1.34294 4.33554 122 120 125 
2.50692 -1.17406 4.36257 96 62 60 
2.50122 -1.65016 4.28839 58 49 44 
2.50497 -1.49718 4.31506 190 185 182 
2.51872 -0.606346 4.45744 97 70 77 
2.52085 -0.64166 4.45709 162 144 140 
2.51064 -1.29519 4.33348 101 101 101 
2.5114 -1.28958 4.34216 206 206 204 
2.5175 -0.903117 4.40567 215 201 200 
2.51805 -0.878174 4.41227 64 53 51 
2.52042 -0.705369 4.43522 126 112 109 
2.51285 -1.27442 4.34161 193 194 189 
2.505 -1.81903 4.24677 203 198 168 
2.51851 -0.929275 4.39802 208 196 198 
2.50475 -1.82722 4.23701 40 34 12 
2.51807 -1.00159 4.38758 210 200 188 
2.51328 -1.38843 4.32777 126 115 121 
2.51802 -1.02755 4.38182 205 190 183 
2.5182 -1.04956 4.37912 205 190 183 
2.52426 -0.621516 4.43945 153 127 130 
2.52007 -0.909811 4.38938 56 42 41 
2.52212 -0.838592 4.40368 69 56 63 
2.51951 -1.03422 4.36899 132 113 106 
2.5134 -1.64735 4.27755 65 56 49 
2.52255 -1.09919 4.35943 170 131 124 
2.52033 -1.31917 4.32673 176 174 179 
2.52226 -1.23805 4.34318 152 145 152 
2.5272 -0.945894 4.39537 212 198 197 
2.57015 1.99155 4.87022 125 114 108 
2.52353 -1.2705 4.33625 185 183 194 
2.53269 -0.712108 4.43508 206 191 184 
2.52886 -1.09368 4.36688 190 168 157 
2.52272 -1.48905 4.29684 199 193 193 
2.52554 -1.30927 4.32853 74 72 77 
