ply                 
format ascii 1.0    
element vertex 573
property float x    
property float y    
property float z    
property uchar red  
property uchar green
property uchar blue 
end_header          
-1.39739 0.177881 4.22746 94 74 65 
-1.3926 0.143287 4.34665 128 23 40 
-1.02809 0.573079 3.22278 105 82 66 
-1.01057 0.563163 3.21989 196 168 146 
-1.34869 -0.0986768 4.58216 46 12 10 
-1.34876 -0.0987107 4.58283 46 12 10 
-0.918608 0.480457 3.21082 73 63 53 
-1.23027 0.148824 4.33443 176 129 121 
-0.893022 0.485692 3.22652 185 160 138 
-1.30712 -0.0467447 4.74481 6 1 5 
-0.905831 0.702731 3.28958 100 84 71 
-1.17406 0.160628 4.31901 195 116 85 
-1.27678 -0.0369571 4.70674 131 110 105 
-1.28668 -0.0284445 4.75183 133 110 104 
-0.888834 0.690008 3.28525 198 171 150 
-1.27661 -0.00779244 4.73471 65 52 43 
-1.16453 0.157171 4.32372 247 205 189 
-1.27095 0.0631534 4.75109 62 43 29 
-1.27028 0.0630466 4.74859 62 43 29 
-1.26584 -0.0850411 4.74273 120 93 84 
-0.86283 0.497681 3.24936 89 80 63 
-1.25633 0.0301018 4.74425 161 100 45 
-1.2509 -0.0542911 4.73358 190 162 151 
-1.25284 0.059678 4.74317 168 134 109 
-1.25524 -0.0638855 4.75299 173 145 134 
-1.25225 -0.0594428 4.74994 138 110 99 
-1.14447 0.146086 4.34046 171 147 135 
-1.24878 0.0713041 4.74029 178 127 100 
-1.24812 -0.00547697 4.73816 189 164 157 
-1.14398 0.154028 4.34207 241 208 199 
-1.24585 0.0652984 4.74248 102 62 37 
-1.2392 0.0667254 4.74536 168 140 118 
-1.23612 0.00178084 4.7379 116 92 82 
-1.23726 0.0476597 4.7516 121 88 69 
-1.2382 -0.0739508 4.75783 129 110 96 
-1.2337 0.0351426 4.74489 186 153 134 
-1.1291 0.143607 4.35715 192 162 151 
-1.12519 0.150235 4.35749 237 203 193 
-1.2221 0.0543116 4.75912 173 157 142 
-1.22084 0.0611433 4.75716 109 92 82 
-1.11866 0.132721 4.36347 103 81 70 
-1.11866 0.132721 4.36347 103 81 70 
-1.21275 0.0787089 4.77421 167 140 131 
-0.8235 0.521533 3.24701 249 238 216 
-0.8235 0.521533 3.24701 249 238 216 
-0.831104 0.649007 3.29713 100 83 65 
-0.827992 0.778542 3.35906 114 97 79 
-0.779608 0.836269 3.40002 116 100 85 
-0.757532 1.25761 3.47154 120 108 94 
-0.746499 0.943719 3.44575 122 109 93 
-1.0117 -2.01444 4.7341 39 25 24 
-1.0117 -2.01444 4.7341 39 25 24 
-0.999935 -1.98927 4.72979 110 97 88 
-0.998533 -1.96598 4.73866 108 88 77 
-0.997156 -2.00469 4.73869 37 26 22 
-0.995262 -1.99941 4.73207 37 26 22 
-0.995262 -1.99941 4.73207 37 26 22 
-0.99335 -1.88881 4.75292 37 33 34 
-0.989629 -1.93901 4.73628 80 53 23 
-0.989233 -1.92575 4.73751 44 18 0 
-0.987024 -1.91711 4.74185 83 49 12 
-0.992732 -1.76682 4.76995 43 34 37 
-0.987654 -1.83098 4.75189 35 22 14 
-0.985335 -1.8484 4.74718 67 44 10 
-0.979404 -1.86843 4.74134 153 126 83 
-0.980306 -1.74493 4.75854 25 13 15 
-0.971963 -1.87033 4.73964 41 17 0 
-0.96387 -1.97982 4.70979 62 34 0 
-0.967127 -1.86 4.73282 176 131 72 
-0.978461 -1.59619 4.79263 36 25 29 
-0.974393 -1.60412 4.78119 113 104 105 
-0.961459 -1.86797 4.72778 78 53 33 
-0.960225 -1.90776 4.72997 182 124 16 
-0.962841 -1.76742 4.74992 133 117 117 
-0.978142 -1.38368 4.82833 38 29 22 
-0.960388 -1.84168 4.74035 180 128 27 
-0.969429 -1.58607 4.79029 112 103 106 
-0.969429 -1.58607 4.79029 112 103 106 
-0.968331 -1.6019 4.78832 130 122 120 
-0.969671 -1.3618 4.81466 35 24 22 
-0.953382 -1.78257 4.7452 32 24 22 
-0.950182 -1.75069 4.73501 30 18 18 
-0.696433 1.05286 3.47688 129 112 102 
-0.934761 -1.92993 4.70701 81 62 48 
-0.937169 -1.83019 4.72627 173 133 82 
-0.942965 -1.5447 4.78371 35 29 33 
-0.942965 -1.5447 4.78371 35 29 33 
-0.929332 -1.83567 4.72185 57 30 0 
-0.924652 -1.96641 4.70026 45 26 11 
-0.924652 -1.96641 4.70026 45 26 11 
-0.927217 -1.81496 4.71313 37 26 32 
-0.924835 -1.94722 4.70444 44 23 4 
-0.937659 -1.42656 4.78848 37 27 28 
-0.920582 -1.88932 4.71051 77 33 0 
-0.925817 -1.71381 4.73819 33 25 23 
-0.930393 -1.54988 4.77183 105 99 99 
-0.939126 -1.2981 4.82047 173 140 135 
-0.916725 -1.84062 4.72052 103 68 14 
-0.908891 -1.98032 4.68953 48 22 0 
-0.914989 -1.69685 4.73767 29 24 21 
-0.914989 -1.69685 4.73767 29 24 21 
-0.905145 -1.96718 4.69126 171 126 23 
-0.905145 -1.96718 4.69126 171 126 23 
-0.90851 -1.8267 4.71841 171 131 62 
-0.908575 -1.82166 4.72177 54 34 9 
-0.90637 -1.83008 4.71616 178 130 32 
-0.899977 -1.99188 4.68608 129 111 111 
-0.91555 -1.26395 4.80806 171 142 136 
-0.891107 -1.97903 4.68079 33 14 8 
-0.897849 -1.71426 4.72448 175 164 160 
-0.904964 -1.42825 4.78225 177 149 146 
-0.907514 -1.30966 4.79697 166 138 135 
-0.893308 -1.64809 4.73895 82 73 74 
-0.900228 -1.40514 4.78252 127 96 94 
-0.865053 -0.31357 4.59879 173 164 157 
-0.888087 -1.70524 4.72968 38 24 24 
-0.881328 -1.8111 4.70802 35 24 28 
-0.883516 -1.69925 4.72112 130 114 117 
-0.883516 -1.69925 4.72112 130 114 117 
-0.883516 -1.69925 4.72112 130 114 117 
-0.891766 -1.34879 4.783 170 141 137 
-0.879288 -1.7153 4.71928 183 170 162 
-0.868649 -1.87247 4.68683 42 16 0 
-0.883466 -1.41231 4.77426 109 78 76 
-0.881452 -1.40214 4.77081 172 142 140 
-0.875848 -1.34904 4.77405 170 142 139 
-0.858054 -1.87073 4.67536 46 21 0 
-0.877527 -1.43257 4.7857 176 143 138 
-0.868915 -1.47547 4.74359 32 27 24 
-0.855422 -1.83119 4.68773 61 19 0 
-0.855422 -1.83119 4.68773 61 19 0 
-0.870076 -1.37095 4.77402 172 143 139 
-0.86299 -1.43654 4.75966 47 29 27 
-0.860197 -1.46419 4.75063 186 171 166 
-0.856473 -1.5352 4.72865 176 158 154 
-0.858266 -1.31484 4.76705 171 143 140 
-0.859217 -1.29833 4.77598 173 143 143 
-0.859217 -1.29833 4.77598 173 143 143 
-0.838898 -1.82653 4.68021 185 133 31 
-0.838898 -1.82653 4.68021 185 133 31 
-0.838898 -1.82653 4.68021 185 133 31 
-0.848549 -1.49949 4.73783 190 166 162 
-0.856717 -1.25275 4.78926 33 27 27 
-0.840554 -1.57246 4.70368 25 14 12 
-0.833461 -1.82249 4.67821 173 134 65 
-0.833461 -1.82249 4.67821 173 134 65 
-0.850018 -1.27245 4.77669 177 147 139 
-0.827702 -1.99101 4.65017 49 40 33 
-0.845046 -1.41569 4.75066 163 143 144 
-0.845527 -1.28623 4.75583 112 83 85 
-0.838162 -1.54684 4.71431 188 168 161 
-0.825687 -1.95323 4.65159 85 41 0 
-0.825135 -1.97975 4.65063 65 48 28 
-0.843988 -1.33768 4.76833 177 152 148 
-0.843988 -1.33768 4.76833 177 152 148 
-0.82419 -1.91425 4.65759 62 17 0 
-0.824785 -1.88672 4.66341 64 18 0 
-0.824785 -1.88672 4.66341 64 18 0 
-0.82292 -1.92764 4.65632 76 30 0 
-0.841694 -1.26388 4.77412 160 145 140 
-0.821766 -1.86637 4.66583 77 33 0 
-0.833576 -1.46705 4.73717 129 105 101 
-0.821144 -1.84571 4.66895 81 41 0 
-0.818701 -1.88381 4.66144 188 136 63 
-0.836406 -1.27912 4.76586 173 148 141 
-0.832568 -1.43407 4.74501 195 180 177 
-0.833132 -1.33426 4.7505 172 147 143 
-0.833573 -1.357 4.75358 181 150 147 
-0.817941 -1.93616 4.66135 176 127 34 
-0.822623 -1.68983 4.69137 30 24 24 
-0.826775 -1.60437 4.71788 80 68 72 
-0.829225 -1.32988 4.75704 83 53 51 
-0.822815 -1.40218 4.7326 170 146 142 
-0.823409 -1.38955 4.74299 177 146 143 
-0.822531 -1.44272 4.74065 57 35 37 
-0.826651 -1.29017 4.76625 159 141 139 
-0.822702 -1.40632 4.7444 174 155 151 
-0.806743 -1.8234 4.66243 184 130 34 
-0.817509 -1.49354 4.73224 42 28 25 
-0.817509 -1.49354 4.73224 42 28 25 
-0.810989 -1.57735 4.70576 33 19 19 
-0.811972 -1.3179 4.74654 181 150 145 
-0.811972 -1.3179 4.74654 181 150 145 
-0.806426 -1.44985 4.7222 89 68 67 
-0.806426 -1.44985 4.7222 89 68 67 
-0.796495 -1.82289 4.66206 154 119 77 
-0.800775 -1.55639 4.70251 196 171 164 
-0.786616 -1.79075 4.66217 47 32 39 
-0.798759 -1.31628 4.74312 166 147 141 
-0.796327 -1.36112 4.73 177 153 153 
-0.79829 -1.32544 4.75115 20 6 3 
-0.788634 -1.53573 4.6964 190 172 168 
-0.777604 -1.9269 4.62954 98 50 0 
-0.788962 -1.38948 4.72779 35 26 31 
-0.788962 -1.38948 4.72779 35 26 31 
-0.779227 -1.64635 4.6797 35 19 20 
-0.784349 -1.45258 4.71311 196 172 168 
-0.78433 -1.45384 4.71589 196 172 168 
-0.773259 -1.82475 4.64735 184 129 29 
-0.779964 -1.58758 4.69285 25 16 17 
-0.777746 -1.50413 4.68967 190 176 173 
-0.781642 -1.42874 4.71813 74 54 56 
-0.777849 -1.53173 4.69567 195 181 178 
-0.779814 -1.40809 4.71723 183 166 158 
-0.774127 -1.58879 4.69925 24 14 15 
-0.768913 -1.6381 4.67138 117 105 105 
-0.774035 -1.46539 4.70645 194 173 170 
-0.774035 -1.46539 4.70645 194 173 170 
-0.760271 -1.85948 4.62478 188 135 43 
-0.782441 -1.25024 4.76528 29 17 19 
-0.769017 -1.56594 4.6832 128 109 111 
-0.782412 -1.25088 4.76713 29 17 19 
-0.764865 -1.66014 4.66576 24 13 11 
-0.756367 -1.86745 4.63154 109 54 0 
-0.763993 -1.56737 4.68513 195 175 174 
-0.755221 -1.85263 4.63508 80 35 0 
-0.755456 -1.83753 4.63616 62 18 0 
-0.755456 -1.83753 4.63616 62 18 0 
-0.732589 0.0922688 4.50815 137 54 40 
-0.762981 -1.39711 4.71149 186 166 159 
-0.761337 -1.42916 4.7061 111 94 87 
-0.761337 -1.42916 4.7061 111 94 87 
-0.750821 -1.79482 4.64283 80 64 64 
-0.726459 0.0940047 4.49865 142 66 40 
-0.75578 -1.65451 4.68028 30 18 20 
-0.746456 -1.80645 4.64024 88 74 63 
-0.753924 -1.50337 4.69047 36 21 14 
-0.754334 -1.41746 4.69842 196 177 173 
-0.75306 -1.4041 4.70839 139 113 112 
-0.75306 -1.4041 4.70839 139 113 112 
-0.742064 -1.64912 4.65519 31 21 22 
-0.74372 -1.56439 4.678 149 133 133 
-0.732232 -1.90385 4.61111 173 132 66 
-0.74996 -1.3278 4.72935 81 71 72 
-0.737662 -1.63924 4.65526 42 26 29 
-0.737546 -1.63947 4.65689 42 26 29 
-0.745332 -1.37349 4.71072 37 23 23 
-0.739035 -1.57375 4.67189 173 159 156 
-0.733476 -1.61796 4.64548 32 21 19 
-0.742261 -1.41064 4.70531 190 170 171 
-0.742473 -1.38118 4.70728 165 149 149 
-0.742473 -1.38118 4.70728 165 149 149 
-0.739922 -1.50021 4.69165 30 19 15 
-0.739852 -1.5002 4.69248 30 19 15 
-0.727368 -1.91232 4.6178 55 35 28 
-0.728956 -1.798 4.62956 28 23 19 
-0.726766 -1.89975 4.61464 52 26 13 
-0.731667 -1.55955 4.66487 43 29 28 
-0.727797 -1.6628 4.64454 34 26 23 
-0.725386 -1.68129 4.63142 27 15 15 
-0.725078 -1.68345 4.63791 25 11 11 
-0.730361 -1.40909 4.69301 181 167 166 
-0.731446 -1.46194 4.70026 35 25 24 
-0.728299 -1.37776 4.69905 34 23 27 
-0.719539 -1.68804 4.64347 135 119 122 
-0.721158 -1.6339 4.65453 127 112 107 
-0.724054 -1.52475 4.67709 35 24 28 
-0.719265 -1.65145 4.65446 155 142 134 
-0.719265 -1.65145 4.65446 155 142 134 
-0.71733 -1.70908 4.64602 47 37 35 
-0.722608 -1.55502 4.68805 22 12 13 
-0.716972 -1.63966 4.65623 34 20 20 
-0.721102 -1.40626 4.69221 31 20 18 
-0.722912 -1.24879 4.71918 30 19 25 
-0.719485 -1.38862 4.69581 35 25 26 
-0.717546 -1.3586 4.6961 139 121 117 
-0.717546 -1.3586 4.6961 139 121 117 
-0.703803 -1.7765 4.61877 30 17 24 
-0.704043 -1.72969 4.62922 33 22 26 
-0.711128 -1.40466 4.68555 142 131 125 
-0.701403 -1.71265 4.63221 35 24 32 
-0.70653 -1.42985 4.67499 115 104 100 
-0.709989 -1.31916 4.69911 129 118 112 
-0.705829 -1.36628 4.68878 150 135 130 
-0.700767 -1.31433 4.69869 30 20 19 
-0.683421 -1.9009 4.59428 58 31 4 
-0.688392 -1.68139 4.64253 29 23 25 
-0.679635 -1.91796 4.58947 184 138 53 
-0.691869 -1.41143 4.68038 26 17 12 
-0.679477 -1.79109 4.60725 91 81 80 
-0.676257 -1.89384 4.59269 182 143 66 
-0.681937 -1.33972 4.67741 29 25 22 
-0.666524 -1.82092 4.59156 37 23 14 
-0.664411 -1.87683 4.58484 189 139 24 
-0.667629 -1.70778 4.60938 122 109 103 
-0.660818 -1.97154 4.56903 46 26 25 
-0.677107 -1.30264 4.68435 31 25 27 
-0.663596 -1.78333 4.59229 104 89 92 
-0.660628 -1.98389 4.57287 44 32 34 
-0.68116 -1.25173 4.72111 113 128 109 
-0.661307 -1.82131 4.58349 39 23 10 
-0.675414 -1.27022 4.69335 32 64 40 
-0.665657 -1.40912 4.65759 28 13 10 
-0.658833 -1.7283 4.60968 23 13 11 
-0.651343 -1.97447 4.5618 92 78 69 
-0.661942 -1.44865 4.64075 34 23 27 
-0.651024 -1.96867 4.57401 174 137 66 
-0.661252 -1.27576 4.67848 10 48 23 
-0.647092 -1.82419 4.58031 37 23 14 
-0.647431 -1.85145 4.5905 184 137 31 
-0.645294 -1.9166 4.57881 49 20 0 
-0.645676 -1.79004 4.58863 112 96 96 
-0.653376 -1.34747 4.66535 189 140 107 
-0.654465 -1.31609 4.67487 203 141 104 
-0.648304 -1.33212 4.66645 131 80 53 
-0.648304 -1.33212 4.66645 131 80 53 
-0.619909 0.104545 4.46335 187 153 105 
-0.637087 -1.79584 4.58517 28 17 15 
-0.646719 -1.35484 4.66731 201 146 116 
-0.645119 -1.3333 4.65987 85 34 5 
-0.64424 -1.41047 4.65312 209 191 187 
-0.63421 -1.72166 4.59235 38 28 26 
-0.639509 -1.3534 4.66005 201 147 111 
-0.626853 -1.82663 4.57119 193 161 114 
-0.641337 -1.29128 4.6809 196 151 118 
-0.636139 -1.4114 4.64461 43 23 22 
-0.613218 0.106887 4.48234 42 15 0 
-0.638054 -1.29583 4.66452 155 96 64 
-0.636401 -1.32895 4.66329 202 145 102 
-0.636401 -1.32895 4.66329 202 145 102 
-0.621196 -1.95378 4.55189 57 35 21 
-0.631044 -1.42521 4.63709 36 20 21 
-0.6186 -1.93141 4.55633 69 45 21 
-0.61939 -1.82062 4.57064 173 155 145 
-0.61698 -1.87278 4.56073 65 27 0 
-0.617143 -1.81204 4.56505 31 22 17 
-0.625065 -1.4334 4.63635 159 149 139 
-0.613772 -1.90765 4.55449 79 45 0 
-0.614524 -1.86243 4.56212 83 30 0 
-0.614524 -1.86243 4.56212 83 30 0 
-0.625471 -1.33022 4.65555 114 67 41 
-0.612444 -1.88819 4.56048 95 50 0 
-0.622016 -1.40998 4.63787 197 178 174 
-0.616065 -1.70461 4.59285 124 111 103 
-0.61024 -1.85772 4.56694 190 141 38 
-0.61857 -1.35662 4.64582 172 139 120 
-0.618901 -1.31261 4.65415 200 138 101 
-0.6079 -1.8283 4.56918 188 140 38 
-0.610793 -1.52975 4.61408 85 75 74 
-0.611664 -1.46659 4.62291 34 26 24 
-0.603567 -1.86668 4.56672 190 134 13 
-0.615427 -1.28778 4.6596 123 123 97 
-0.603178 -1.79743 4.56581 51 34 27 
-0.605156 -1.71567 4.58252 30 15 8 
-0.598845 -1.81263 4.5585 187 134 38 
-0.598845 -1.81263 4.5585 187 134 38 
-0.599333 -1.72828 4.57856 8 0 0 
-0.592763 -1.95758 4.53049 173 136 65 
-0.592763 -1.95758 4.53049 173 136 65 
-0.608659 -1.27097 4.65897 2 47 18 
-0.606845 -1.31446 4.65856 44 22 24 
-0.604937 -1.28185 4.66746 72 108 80 
-0.592478 -1.80495 4.56847 43 15 0 
-0.591975 -1.72749 4.56695 28 15 22 
-0.598298 -1.44233 4.62317 125 115 114 
-0.592537 -1.68504 4.58161 28 22 24 
-0.590496 -1.70727 4.57395 34 25 26 
-0.586406 -1.76411 4.56115 32 20 20 
-0.580229 -1.91844 4.53604 45 13 0 
-0.591697 -1.34157 4.64104 35 24 28 
-0.59018 -1.40923 4.64091 27 18 11 
-0.57768 -1.84305 4.54573 40 19 0 
-0.57768 -1.84305 4.54573 40 19 0 
-0.577973 -1.91232 4.54869 203 151 52 
-0.576694 -1.88341 4.53995 193 137 14 
-0.581572 -1.49012 4.60824 177 168 163 
-0.581572 -1.49012 4.60824 177 168 163 
-0.572315 -1.98577 4.54249 38 31 25 
-0.581142 -1.30974 4.63511 141 129 129 
-0.565493 -1.96459 4.5143 36 25 21 
-0.570151 -1.70798 4.5674 175 161 158 
-0.569912 -1.57006 4.58426 92 81 77 
-0.569912 -1.57006 4.58426 92 81 77 
-0.57558 -1.29197 4.63816 74 68 68 
-0.560248 -1.94654 4.52148 183 136 20 
-0.566266 -1.67638 4.57137 191 181 169 
-0.566266 -1.67638 4.57137 191 181 169 
-0.56575 -1.62079 4.57479 32 20 24 
-0.564832 -1.65197 4.57518 149 133 133 
-0.56139 0.0840277 4.55585 97 74 56 
-0.558551 -1.814 4.53839 197 144 28 
-0.563399 -1.4004 4.60685 37 26 24 
-0.563399 -1.4004 4.60685 37 26 24 
-0.559274 -1.6677 4.5776 42 31 25 
-0.546905 -1.82075 4.534 176 138 55 
-0.553874 -1.3875 4.60604 27 15 15 
-0.553874 -1.3875 4.60604 27 15 15 
-0.553481 -1.37619 4.6069 32 24 22 
-0.552154 -1.35017 4.62352 166 151 148 
-0.538837 -1.83284 4.52877 59 33 8 
-0.538837 -1.83284 4.52877 59 33 8 
-0.537975 -1.85301 4.52575 49 32 16 
-0.53662 -1.89323 4.51561 79 58 53 
-0.53662 -1.89323 4.51561 79 58 53 
-0.543915 -1.60076 4.58101 32 19 13 
-0.547357 -1.31975 4.61822 34 23 21 
-0.538832 -1.41963 4.58962 32 21 19 
-0.537612 -1.49469 4.58276 161 146 141 
-0.53893 -1.44098 4.59957 25 15 13 
-0.538445 -1.3598 4.60456 170 152 150 
-0.538445 -1.3598 4.60456 170 152 150 
-0.538002 -1.40418 4.60459 28 14 13 
-0.536935 -1.33479 4.60696 27 15 15 
-0.536699 -1.37401 4.60605 62 51 49 
-0.536699 -1.37401 4.60605 62 51 49 
-0.535667 -1.35148 4.60127 174 159 156 
-0.527391 -1.74033 4.52797 35 24 32 
-0.523186 -1.92165 4.50272 69 40 0 
-0.530176 -1.43809 4.58295 28 17 15 
-0.522264 -1.81625 4.52215 192 138 12 
-0.522264 -1.81625 4.52215 192 138 12 
-0.530303 -1.3838 4.59541 190 173 166 
-0.530303 -1.3838 4.59541 190 173 166 
-0.530303 -1.3838 4.59541 190 173 166 
-0.527487 -1.45409 4.57754 37 26 24 
-0.526901 -1.49069 4.57829 153 140 132 
-0.523416 -1.66245 4.55355 34 23 21 
-0.515735 -1.96245 4.50055 176 132 67 
-0.522945 -1.49468 4.57823 32 19 11 
-0.520102 -1.54352 4.56791 98 86 86 
-0.517811 -1.65177 4.54796 198 187 181 
-0.520295 -1.41351 4.5853 200 185 182 
-0.520295 -1.41351 4.5853 200 185 182 
-0.514332 -1.57596 4.56315 100 89 87 
-0.514332 -1.57596 4.56315 100 89 87 
-0.515386 -1.4426 4.58744 189 175 174 
-0.513394 -1.44548 4.57947 162 148 148 
-0.512912 -1.40193 4.58851 186 175 171 
-0.508993 -1.58821 4.5538 123 112 108 
-0.505276 -1.46899 4.56842 75 60 55 
-0.49779 -1.88224 4.50042 66 17 0 
-0.49779 -1.88224 4.50042 66 17 0 
-0.497307 -1.85557 4.50772 196 141 12 
-0.50009 -1.64211 4.54185 118 105 99 
-0.496456 -1.82692 4.51117 79 56 40 
-0.504434 -1.40711 4.58688 26 18 15 
-0.70779 -2.6928 6.46338 192 142 43 
-0.496173 -1.82866 4.51457 79 56 40 
-0.500642 -1.47946 4.56917 201 186 181 
-0.494006 -1.76699 4.51691 86 72 71 
-0.498156 -1.444 4.58202 33 22 20 
-0.498627 -1.38487 4.58888 30 25 21 
-0.493749 -1.52454 4.55173 198 181 174 
-0.491449 -1.50376 4.5588 42 31 29 
-0.492845 -1.46624 4.57392 20 9 5 
-0.490456 -1.54747 4.55901 44 30 27 
-0.489544 -1.51379 4.55326 203 188 183 
-0.489275 -1.50684 4.55627 117 106 104 
-0.490485 -1.47662 4.57395 30 19 17 
-0.488855 -1.45875 4.56962 36 25 21 
-0.480439 -1.45469 4.5508 37 28 19 
-0.482091 -1.41564 4.56855 32 22 20 
-0.477941 -1.44911 4.55839 170 161 154 
-0.471397 -1.81026 4.49555 204 139 21 
-0.47703 -1.44537 4.56147 15 6 1 
-0.474513 -1.51316 4.54523 203 189 186 
-0.474513 -1.51316 4.54523 203 189 186 
-0.472383 -1.53547 4.53822 197 183 182 
-0.473473 -1.40788 4.5645 114 103 101 
-0.471664 -1.45867 4.55678 180 173 165 
-0.469325 -1.52731 4.54288 59 43 43 
-0.463218 -1.5041 4.54388 201 187 184 
-0.463218 -1.5041 4.54388 201 187 184 
-0.457993 -1.70802 4.50873 96 81 84 
-0.455945 -1.78638 4.48844 36 26 17 
-0.455401 -1.46556 4.53902 35 26 21 
-0.454884 -1.31652 4.57469 159 147 147 
-0.450854 -1.43509 4.54945 35 24 20 
-0.448478 -1.47095 4.53434 26 15 11 
-0.447451 -1.48614 4.54026 199 186 180 
-0.447451 -1.48614 4.54026 199 186 180 
-0.44702 -1.44798 4.54436 34 21 13 
-0.441372 -1.6688 4.50921 33 22 26 
-0.442776 -1.50246 4.53147 52 38 37 
-0.435567 -1.47379 4.53185 204 185 187 
-0.418391 -1.91343 4.45421 49 3 0 
-0.418988 -1.82124 4.47148 199 144 17 
-0.421844 -1.35438 4.54119 31 20 18 
-0.420769 -1.59292 4.52897 23 13 11 
-0.420694 -1.44115 4.53356 159 144 141 
-0.42075 -1.42512 4.53778 168 157 151 
-0.414 -1.69852 4.48338 33 23 24 
-0.417083 -1.46613 4.52599 51 35 36 
-0.417083 -1.46613 4.52599 51 35 36 
-0.417798 -1.3724 4.54528 151 140 138 
-0.417798 -1.3724 4.54528 151 140 138 
-0.413852 -1.55953 4.50967 206 187 183 
-0.413245 -1.33909 4.54826 36 24 24 
-0.401989 -1.64823 4.49388 90 78 80 
-0.401989 -1.64823 4.49388 90 78 80 
-0.404224 -1.46381 4.52314 197 182 175 
-0.403765 -1.47878 4.51786 202 185 175 
-0.396953 -1.80074 4.46543 44 14 0 
-0.398157 -1.40829 4.53327 29 18 16 
-0.397149 -1.35295 4.53815 21 10 6 
-0.390532 -1.35668 4.53479 119 108 102 
-0.387433 -1.39357 4.51708 12 2 0 
-0.381163 -1.83454 4.4485 50 28 4 
-0.380091 -1.88741 4.43821 52 18 0 
-0.380091 -1.88741 4.43821 52 18 0 
-0.376682 -1.87176 4.44167 54 23 3 
-0.373693 -1.95566 4.41914 63 46 36 
-0.373283 -1.93745 4.42406 187 142 27 
-0.379256 -1.34981 4.53065 33 22 18 
-0.378742 -1.2832 4.53854 157 146 144 
-0.37181 -1.76275 4.44946 36 25 31 
-0.369738 -1.84738 4.43608 58 34 0 
-0.367188 -1.82968 4.43523 64 39 19 
-0.28668 1.30138 3.46915 240 228 212 
-0.366025 -1.77993 4.45299 39 27 27 
-0.364427 -1.84069 4.4411 99 62 7 
-0.359118 -1.91724 4.4194 183 137 59 
-0.364236 -1.38868 4.51377 155 145 143 
-0.364236 -1.38868 4.51377 155 145 143 
-0.364908 -1.30227 4.52614 149 138 134 
-0.36293 -1.28522 4.51737 42 31 25 
-0.36284 -1.26847 4.52868 30 19 15 
-0.353728 -1.91132 4.41774 65 25 0 
-0.362055 -1.30746 4.52843 26 15 9 
-0.352963 -1.92619 4.41678 56 25 0 
-0.352963 -1.92619 4.41678 56 25 0 
-0.360001 -1.38315 4.50786 19 9 8 
-0.354889 -1.78893 4.45663 68 54 45 
-0.349602 -1.95164 4.40892 44 26 24 
-0.350216 -1.90267 4.42001 102 55 0 
-0.350216 -1.90267 4.42001 102 55 0 
-0.355433 -1.44649 4.50157 133 119 118 
-0.353314 -1.44244 4.50294 153 139 136 
-0.352218 -1.49408 4.48799 150 136 136 
-0.354701 -1.29497 4.52471 148 137 135 
-0.35554 -1.24991 4.54566 37 31 31 
-0.272772 1.31784 3.47354 89 75 64 
-0.35524 -1.25027 4.54776 37 31 31 
-0.34973 -1.4282 4.48552 43 29 28 
-0.349494 -1.37535 4.51168 140 130 129 
-0.339574 -1.7942 4.43056 179 147 109 
-0.345551 -1.33624 4.51539 141 130 126 
-0.345551 -1.33624 4.51539 141 130 126 
-0.334339 -1.83312 4.42654 56 30 3 
-0.339016 -1.4104 4.496 162 148 145 
-0.339016 -1.4104 4.496 162 148 145 
-0.331548 -1.87253 4.41549 86 49 0 
-0.33466 -1.63346 4.46596 129 115 114 
-0.32589 -1.95029 4.39237 42 18 0 
-0.333905 -1.34999 4.5124 150 138 138 
-0.334005 -1.28162 4.51876 139 127 127 
-0.319726 -1.93861 4.38925 76 53 3 
-0.3175 -1.94548 4.38704 42 25 9 
-0.318219 -1.91762 4.39882 89 61 40 
-0.325384 -1.34379 4.50829 156 145 143 
-0.316567 -1.93092 4.39321 59 31 10 
-0.316567 -1.93092 4.39321 59 31 10 
-0.314149 -1.9626 4.37812 182 168 165 
-0.314149 -1.9626 4.37812 182 168 165 
-0.31941 -1.31509 4.5161 26 16 7 
-0.307046 -1.9678 4.36708 43 33 24 
-0.324796 0.0635915 4.75786 90 85 79 
-0.307627 -1.26678 4.50983 39 28 32 
-0.303792 -1.38508 4.47869 42 30 30 
-0.313928 0.0656356 4.75352 108 97 93 
-0.247531 0.673643 4.69863 87 76 70 
0.396594 0.802167 4.39713 127 110 103 
0.429077 0.979887 4.48666 100 86 75 
0.474133 1.07895 4.12461 40 27 21 
0.461813 -0.0438775 3.96355 125 122 117 
0.497384 0.834716 4.2471 118 105 97 
0.426807 1.27416 3.58165 46 42 39 
0.558182 1.19178 3.98741 148 119 63 
0.84882 0.623064 4.31007 194 180 171 
0.916479 1.05602 4.33241 105 71 72 
0.916479 1.05602 4.33241 105 71 72 
0.948041 1.09715 4.34234 148 134 134 
0.952115 1.12769 4.32118 27 26 22 
