ply                 
format ascii 1.0    
element vertex 484
property float x    
property float y    
property float z    
property uchar red  
property uchar green
property uchar blue 
end_header          
-0.176025 -0.0861454 1.26679 46 42 41 
-0.359132 -0.215711 1.28425 251 231 220 
-0.353708 -0.121583 1.27897 255 237 223 
-0.354084 -0.21701 1.28402 71 55 39 
-0.378476 -0.210833 1.28532 19 7 0 
-0.360049 -0.21752 1.2843 107 91 75 
-0.191805 -0.0787379 1.26733 153 145 143 
-0.291816 -0.128895 1.27665 73 60 44 
-0.387764 -0.20651 1.28601 242 228 217 
-0.312843 -0.226571 1.2822 75 51 39 
-0.357718 -0.203805 1.284 249 237 223 
-0.315989 -0.143086 1.27797 83 67 52 
-0.315069 -0.14126 1.27788 41 22 8 
-0.358704 -0.201749 1.28423 35 21 8 
-0.365968 -0.201336 1.2859 99 82 62 
-0.311998 -0.230356 1.28244 37 11 0 
-0.149418 -0.0549737 1.26411 204 200 197 
-0.393402 -0.113899 1.28189 92 85 75 
-0.148974 -0.0603623 1.26422 188 184 183 
-0.321899 -0.194087 1.28197 208 192 177 
-0.387027 -0.115545 1.28175 108 91 81 
-0.316163 -0.228172 1.28278 98 79 65 
-0.332843 -0.19127 1.28233 116 100 84 
-0.346702 -0.107058 1.278 93 69 57 
-0.35216 -0.203409 1.28352 114 98 83 
-0.331182 -0.208699 1.28298 72 52 28 
-0.162921 -0.101683 1.26727 64 61 56 
-0.378408 -0.210698 1.28508 19 7 0 
-0.345402 -0.100281 1.2772 82 65 57 
-0.175763 -0.0857824 1.2669 24 20 19 
-0.356333 -0.122036 1.27969 68 44 34 
-0.307388 -0.202943 1.28153 110 94 71 
-0.0299881 -0.0765864 1.25608 48 45 40 
-0.365178 -0.203103 1.28437 38 24 0 
-0.129733 -0.0736146 1.26237 210 206 203 
-0.31242 -0.223175 1.28228 250 222 208 
-0.146447 -0.0554206 1.26313 210 206 203 
-0.327381 -0.228918 1.28347 42 25 7 
-0.315352 -0.141715 1.27826 109 90 76 
-0.311935 -0.23038 1.28254 37 11 0 
-0.0962646 0.000571082 1.25714 202 199 194 
-0.0986386 -0.113288 1.26303 180 176 175 
-0.380902 -0.209706 1.28614 45 35 25 
-0.311347 -0.233661 1.28237 71 56 35 
-0.150934 -0.097997 1.26566 155 154 152 
-0.380279 -0.213518 1.28589 90 78 62 
-0.150946 -0.0887497 1.26565 25 24 22 
-0.0326349 -0.0866408 1.25681 196 188 185 
-0.316188 -0.226605 1.28213 92 70 59 
-0.162899 -0.136431 1.26756 62 59 50 
-0.174717 -0.0846825 1.26676 59 55 54 
-0.0888355 -0.057178 1.25867 171 171 169 
-0.130278 -0.0591763 1.26213 176 175 173 
-0.191511 -0.0787256 1.26775 162 154 152 
-0.0476279 -0.0621905 1.25648 176 177 172 
-0.313283 -0.21657 1.28132 28 10 0 
-0.0145864 -0.0481001 1.2537 175 170 167 
-0.351964 -0.203753 1.28385 166 150 134 
-0.120585 -0.0542363 1.26138 171 170 166 
-0.356676 -0.216396 1.28325 40 23 5 
-0.033787 -0.0500628 1.25568 16 12 9 
-0.387201 -0.110686 1.28139 86 68 58 
-0.157857 -0.0955184 1.26609 206 205 201 
-0.356517 -0.119782 1.27952 255 241 230 
-0.191616 -0.0776358 1.26768 232 224 221 
-0.163024 -0.0936285 1.26616 206 204 205 
-0.155317 -0.0967254 1.26647 182 181 177 
-0.322303 -0.194057 1.28298 208 192 177 
-0.165935 -0.108701 1.26902 47 42 39 
-0.0461149 -0.0970537 1.25902 63 58 52 
-0.162384 -0.087524 1.26621 192 190 191 
-0.0326424 -0.0868134 1.25677 196 188 185 
-0.162493 -0.101445 1.2672 13 10 5 
-0.327753 -0.140522 1.27895 100 86 73 
-0.037774 -0.08577 1.25654 85 80 76 
-0.176052 -0.0859886 1.26713 46 42 41 
-0.10886 0.024966 1.25451 143 139 136 
-0.122769 -0.108603 1.26329 33 29 26 
-0.168314 -0.109137 1.26751 69 64 58 
-0.15517 -0.0792552 1.26491 182 182 180 
-0.0962522 0.000196971 1.25756 215 212 207 
-0.15009 -0.13243 1.2664 39 31 28 
-0.12924 -0.0731852 1.26291 209 205 202 
-0.151968 -0.0730614 1.26481 200 199 197 
-0.312883 -0.223336 1.28236 249 226 210 
-0.358211 -0.203771 1.28365 244 232 218 
-0.111091 -0.0327409 1.25985 34 29 25 
-0.38773 -0.206375 1.28636 242 228 217 
-0.0307951 -0.0347105 1.25428 48 40 37 
-0.352532 -0.121163 1.27916 68 54 41 
-0.378861 -0.210745 1.28513 36 26 16 
-0.351868 -0.215231 1.28428 40 22 8 
-0.35846 -0.216116 1.28006 16 0 0 
-0.117668 -0.120485 1.26456 210 211 206 
-0.120848 -0.0541929 1.26184 146 145 141 
-0.0135098 -0.0532327 1.25366 179 175 172 
-0.098988 -0.113244 1.26348 196 192 191 
-0.0122338 -0.0533232 1.25509 224 220 217 
-0.0621346 -0.119401 1.25995 30 25 19 
-0.0595791 -0.11922 1.26 23 17 5 
-0.0148027 -0.048182 1.25359 142 137 134 
-0.0223947 -0.0854535 1.25616 80 75 69 
-0.147944 -0.0387687 1.26277 212 208 207 
-0.364978 -0.203246 1.28451 63 49 23 
-0.0333795 -0.027872 1.25384 194 190 187 
-0.365697 -0.2016 1.28466 99 82 62 
-0.107701 0.0249753 1.25596 200 197 192 
-0.316566 -0.226463 1.28147 75 55 44 
-0.32124 -0.198311 1.28178 248 233 212 
-0.151204 -0.13223 1.26491 126 119 113 
-0.164421 -0.134611 1.26762 57 48 41 
-0.100752 0.00484307 1.25803 181 180 176 
-0.0479856 -0.0964644 1.25684 150 145 139 
-0.323598 -0.129277 1.27789 120 106 93 
-0.350532 -0.127994 1.2791 155 142 125 
-0.00897031 -0.0817798 1.25425 62 57 54 
-0.0620075 -0.119301 1.25985 30 25 19 
-0.313463 -0.223903 1.28264 253 230 216 
-0.311006 -0.223106 1.28216 89 63 48 
-0.380873 -0.213547 1.28576 55 46 29 
-0.322776 -0.205905 1.28222 49 32 12 
-0.358722 -0.204213 1.28447 243 231 215 
-0.306938 -0.201899 1.28133 54 36 14 
-0.317166 -0.196418 1.2816 248 232 217 
-0.106767 0.0247718 1.25714 217 214 209 
-0.109012 0.0245259 1.25635 200 196 193 
-0.100634 0.0109738 1.25766 181 180 178 
-0.0328423 -0.0281518 1.25364 199 195 192 
-0.111432 -0.0329342 1.25942 40 35 32 
-0.0929048 -0.0438425 1.25865 189 189 187 
-0.137029 -0.0523658 1.26198 198 197 195 
-0.0128657 -0.0530907 1.25311 211 207 204 
-0.148013 -0.0542993 1.26364 97 93 90 
-0.120832 -0.0545675 1.26187 173 172 168 
-0.0205337 -0.0556318 1.25386 220 221 216 
0.00169969 -0.056302 1.25366 67 61 61 
-0.0166911 -0.0561896 1.25409 46 48 43 
-0.138729 -0.0620398 1.26353 203 202 198 
-0.0473828 -0.0628075 1.25606 202 203 198 
-0.034353 -0.0631379 1.25537 213 212 208 
-0.129354 -0.0731731 1.26277 209 205 202 
-0.0297069 -0.0771226 1.25637 22 18 15 
-0.155053 -0.0798697 1.26492 184 183 179 
-0.190195 -0.0799661 1.26769 55 50 46 
-0.0212368 -0.0823459 1.25624 58 53 47 
-0.175444 -0.0859397 1.26746 57 53 52 
-0.025841 -0.0862559 1.25629 214 211 206 
-0.0327564 -0.0870945 1.25664 203 195 192 
-0.151242 -0.0896311 1.26567 43 42 40 
-0.156631 -0.0895853 1.26552 199 198 196 
-0.163017 -0.0937407 1.26717 206 204 205 
-0.140288 -0.0951268 1.26443 157 153 150 
-0.117784 -0.0956007 1.26328 114 109 105 
-0.157483 -0.0962349 1.26613 207 206 202 
-0.134866 -0.0973966 1.26432 173 172 170 
-0.16293 -0.101452 1.2666 64 61 56 
-0.134897 -0.104182 1.26488 206 200 200 
-0.122364 -0.109362 1.26317 62 58 55 
-0.388209 -0.115033 1.28116 73 55 45 
-0.0992173 -0.113354 1.26319 196 192 191 
-0.352502 -0.121486 1.27915 98 84 71 
-0.0658525 -0.120185 1.26062 19 20 15 
-0.356524 -0.122464 1.27957 108 86 75 
-0.151146 -0.132279 1.26559 126 119 113 
-0.149082 -0.132682 1.26774 48 43 40 
-0.133304 -0.132183 1.26537 83 76 68 
-0.0961465 -0.127243 1.26395 211 206 202 
-0.392961 -0.113568 1.28138 79 70 61 
-0.00822378 -0.0717017 1.25436 51 50 46 
-0.311413 -0.191662 1.28113 43 29 16 
-0.0971247 -0.062637 1.26016 173 172 168 
-0.0167 -0.056391 1.25427 46 48 43 
0.00170485 -0.0561342 1.25352 67 61 61 
-0.0656074 -0.120648 1.26123 32 28 25 
-0.327714 -0.194153 1.28247 54 39 20 
-0.138032 -0.0552853 1.26273 196 192 191 
-0.12038 -0.0552091 1.26191 193 192 188 
-0.148275 -0.0544454 1.2633 172 168 165 
-0.132681 -0.132421 1.26647 66 62 53 
-0.150338 -0.132529 1.26652 64 56 53 
-0.164394 -0.134729 1.26765 57 48 41 
-0.0888177 -0.120911 1.26251 216 213 204 
-0.118574 -0.120216 1.26404 222 221 217 
-0.0591293 -0.118873 1.26018 75 71 59 
-0.0158049 -0.0472495 1.25343 187 180 174 
-0.313609 -0.223086 1.28252 242 221 204 
-0.311915 -0.231935 1.28309 58 35 21 
-0.372083 -0.115792 1.27994 28 15 7 
-0.160633 -0.114159 1.26695 190 191 185 
-0.0991415 -0.113741 1.26417 222 218 217 
-0.0776575 -0.112588 1.26108 180 175 172 
-0.0851449 -0.110972 1.26239 211 207 204 
-0.168098 -0.109631 1.26714 20 15 9 
-0.106376 -0.0372656 1.25987 48 37 31 
-0.352577 -0.201813 1.28425 45 29 16 
-0.358091 -0.201557 1.28387 57 43 32 
-0.162519 -0.101234 1.26693 13 10 5 
-0.365702 -0.217003 1.28423 25 14 0 
-0.0461476 -0.0962825 1.25809 67 62 58 
-0.0952144 -0.0298376 1.25843 27 26 22 
-0.0286026 -0.096292 1.25699 58 55 50 
-0.15769 -0.0962663 1.26538 207 206 202 
-0.152145 -0.072278 1.26501 202 198 195 
-0.139909 -0.0953391 1.26372 194 190 187 
-0.00837093 -0.0718657 1.25419 153 149 146 
-0.358884 -0.213789 1.28341 251 233 223 
-0.114908 -0.0731079 1.26312 55 51 50 
-0.129671 -0.0729152 1.26275 209 206 201 
-0.0322968 -0.0876875 1.25693 236 226 224 
-0.162505 -0.0879382 1.26671 168 166 167 
-0.0258379 -0.0858968 1.2555 211 208 203 
-0.334204 -0.204024 1.28236 47 30 12 
-0.359027 -0.204374 1.28388 248 236 222 
-0.196041 -0.0824293 1.26757 90 86 83 
-0.383987 -0.209479 1.28571 211 199 183 
-0.112744 0.0270788 1.25692 29 28 24 
-0.106369 0.0241366 1.25779 204 201 196 
-0.190453 -0.0798508 1.26733 43 38 35 
-0.0111201 -0.0784916 1.25495 98 97 93 
-0.322874 -0.20603 1.28203 40 23 5 
-0.356267 -0.216793 1.28412 63 46 30 
-0.307645 -0.202302 1.28104 64 46 26 
-0.0351853 -0.0216241 1.25378 157 152 149 
-0.330532 -0.209931 1.28264 138 118 93 
-0.364911 -0.20338 1.28479 123 111 87 
-0.30771 -0.122818 1.27698 94 75 68 
-0.133147 -0.132235 1.26616 83 76 68 
-0.117307 -0.127415 1.2625 186 183 178 
-0.0973352 -0.126171 1.26282 228 219 214 
-0.0806428 -0.124115 1.26206 186 182 171 
-0.0894902 -0.120673 1.26141 210 208 196 
-0.388166 -0.112037 1.28172 105 87 77 
-0.167923 -0.110063 1.26737 66 61 55 
-0.162259 -0.101059 1.26647 23 20 15 
-0.157777 -0.0967671 1.26607 205 204 200 
-0.135426 -0.0963975 1.26534 186 182 179 
-0.121843 -0.0962489 1.2628 123 114 115 
-0.0284284 -0.0958289 1.25746 64 61 56 
-0.164423 -0.094548 1.26578 219 215 216 
-0.155402 -0.0897679 1.26479 206 205 203 
-0.0328662 -0.0881447 1.25655 225 217 214 
-0.333045 -0.18971 1.28209 58 42 27 
-0.193785 -0.0866961 1.26869 92 87 83 
-0.16224 -0.0866298 1.26604 202 200 201 
-0.115184 -0.0843837 1.26232 179 178 176 
-0.00852347 -0.0819163 1.25444 146 141 137 
-0.195893 -0.0823484 1.26778 90 86 83 
-0.316022 -0.196463 1.28154 238 223 204 
-0.0107456 -0.0799012 1.2548 93 92 88 
-0.19231 -0.0800949 1.26612 48 44 45 
-0.352923 -0.201521 1.28482 71 54 44 
-0.129703 -0.0731697 1.26305 213 209 206 
-0.152029 -0.0721254 1.26406 202 198 195 
-0.334439 -0.203578 1.28314 94 75 60 
-0.359489 -0.204602 1.28419 242 230 214 
-0.0351074 -0.0635303 1.25542 199 198 194 
-0.0950832 -0.0627612 1.25986 222 218 215 
-0.323033 -0.206666 1.28267 47 30 12 
-0.31756 -0.198637 1.28329 137 119 99 
0.0123701 -0.0562963 1.2518 195 192 187 
-0.139738 -0.0561616 1.26324 131 127 126 
-0.120693 -0.0553916 1.26119 176 175 171 
-0.358177 -0.213653 1.28356 250 232 220 
0.0123278 -0.053376 1.25213 102 99 94 
-0.115073 -0.0516501 1.26042 175 171 168 
-0.35111 -0.214841 1.2824 49 31 17 
-0.0157172 -0.0470063 1.25289 155 148 142 
-0.365169 -0.216971 1.28444 34 25 10 
-0.147451 -0.0385738 1.26269 218 214 213 
-0.107298 -0.0382412 1.25986 44 34 32 
-0.110722 -0.0340149 1.26087 54 50 49 
-0.0973654 -0.0285127 1.25992 38 34 31 
-0.0351648 -0.022253 1.25381 46 45 41 
-0.0949644 0.00582949 1.25613 153 153 151 
-0.110546 0.0280063 1.25704 32 31 27 
-0.311687 -0.222652 1.28237 120 92 78 
-0.315225 -0.223799 1.28304 242 223 208 
-0.316249 -0.233698 1.28276 221 199 178 
-0.141862 -0.0399454 1.26182 95 94 90 
-0.0981767 -0.126471 1.26206 230 217 209 
-0.0808593 -0.124046 1.26178 186 182 171 
-0.112981 -0.122583 1.26378 51 51 43 
-0.353062 -0.119435 1.27925 78 62 47 
-0.0996192 -0.114333 1.26337 223 219 218 
-0.0861841 -0.110401 1.26144 212 204 202 
-0.127752 -0.106916 1.26428 204 200 197 
-0.157389 -0.0978541 1.26649 199 196 191 
-0.121056 -0.0960147 1.26383 41 35 35 
-0.322543 -0.192686 1.28149 242 226 210 
-0.0461707 -0.095616 1.25828 76 72 69 
-0.139728 -0.0945973 1.26388 185 181 178 
-0.155898 -0.0894631 1.26516 205 204 202 
-0.0261997 -0.0871636 1.25459 170 167 162 
-0.164091 -0.0869735 1.26656 205 204 202 
-0.0368621 -0.0848714 1.25676 59 56 51 
-0.0221969 -0.0841956 1.2561 76 73 66 
-0.00763263 -0.0804609 1.25827 81 80 78 
-0.192254 -0.0804925 1.2672 48 44 45 
-0.126338 -0.0759544 1.26281 70 66 63 
-0.152988 -0.072022 1.26278 202 201 197 
-0.1519 -0.0626353 1.26475 209 208 204 
-0.0130438 -0.0538358 1.25213 200 196 193 
-0.0501238 -0.0511489 1.25448 157 147 137 
-0.0156924 -0.0473097 1.25248 155 148 142 
-0.147684 -0.0388386 1.26229 218 214 213 
-0.107554 -0.0385335 1.26014 56 51 48 
-0.315858 -0.196632 1.28182 238 223 204 
-0.1115 -0.0346525 1.25946 60 58 59 
-0.328646 -0.197091 1.28424 243 228 207 
-0.102156 0.01215 1.25763 180 179 175 
-0.358004 -0.212983 1.28298 233 215 203 
-0.390466 -0.20713 1.28741 70 56 43 
-0.384861 -0.207219 1.28677 229 217 191 
-0.360066 -0.20515 1.28544 238 226 212 
-0.357286 -0.202459 1.28515 56 42 33 
-0.353126 -0.202578 1.2846 60 44 31 
-0.0219799 -0.0840567 1.25647 65 62 55 
-0.17454 -0.0868816 1.26706 46 40 40 
-0.190705 -0.082066 1.2676 61 57 54 
-0.0251451 -0.0869748 1.2565 216 213 206 
-0.0394993 -0.0677683 1.25532 167 163 160 
-0.32092 -0.195844 1.28222 81 65 52 
-0.0363579 -0.0618501 1.25557 219 218 214 
-0.0459153 -0.0954973 1.25893 78 74 71 
-0.0156999 -0.047457 1.25341 155 148 142 
-0.127849 -0.0992123 1.26527 153 152 148 
-0.14061 -0.0398238 1.26353 131 130 126 
-0.146908 -0.0382634 1.2626 221 217 216 
-0.030044 -0.037972 1.25495 57 53 50 
-0.111579 -0.0348942 1.26058 59 57 58 
-0.150038 -0.0318367 1.26192 157 156 152 
-0.0971864 -0.030139 1.26001 61 63 62 
-0.0332344 -0.0222245 1.25302 27 23 20 
-0.10192 0.0129178 1.25799 202 203 198 
-0.114577 0.0239525 1.25681 60 61 56 
-0.127785 -0.107576 1.26458 201 197 194 
-0.0859489 -0.110149 1.26197 232 222 221 
-0.166714 -0.110734 1.26874 58 55 50 
-0.0763264 -0.113331 1.26155 178 168 167 
-0.365103 -0.216633 1.28421 34 25 10 
-0.356888 -0.212009 1.28342 227 214 197 
-0.384845 -0.207044 1.28505 233 221 197 
-0.134238 -0.1314 1.26462 77 70 62 
-0.149002 -0.131769 1.2687 56 52 49 
-0.333903 -0.203522 1.28271 78 59 45 
-0.354115 -0.202469 1.28537 81 64 56 
-0.32419 -0.197237 1.28266 77 61 45 
-0.332199 -0.190331 1.28234 60 44 28 
-0.317483 -0.227974 1.28199 137 120 104 
-0.0938189 0.0115284 1.25615 217 213 210 
-0.312576 -0.232844 1.28184 152 129 111 
-0.317553 -0.223053 1.28227 231 219 197 
-0.308191 -0.202082 1.28363 65 47 27 
-0.12942 -0.0435964 1.26058 189 185 182 
-0.062727 -0.0177862 1.25376 67 63 60 
-0.103647 -0.087867 1.26273 210 207 200 
-0.0827198 0.0145259 1.25643 49 48 44 
-0.0747344 -0.0685859 1.25934 88 85 80 
3.09027 -0.107996 3.98085 153 152 150 
6.83428 -0.413669 7.81811 250 251 237 
6.84927 -0.423665 7.84868 6 8 0 
3.00757 -0.192228 3.79504 247 248 243 
3.06084 -0.108785 3.87271 236 235 231 
3.02415 -0.127199 3.83222 250 249 247 
3.01383 -0.155129 3.81467 225 227 222 
3.01226 -0.164427 3.80975 236 237 231 
3.01002 -0.183222 3.80333 221 221 213 
6.83184 -0.460075 7.82784 26 28 23 
6.78533 -0.492748 7.73473 47 49 48 
3.34535 -0.221865 3.90548 253 255 249 
1.81747 -0.110568 2.30285 12 14 9 
1.80554 -0.119382 2.30637 59 62 53 
1.80046 -0.132381 2.28929 56 58 53 
3.41982 -0.272457 3.83711 21 11 2 
0.562169 -0.143863 1.80811 27 29 26 
3.24088 -0.307064 3.95011 237 244 236 
3.41672 -0.267764 3.82974 218 199 193 
6.29289 -0.533998 6.45543 27 29 26 
-0.169823 -0.0405425 1.26611 54 55 57 
-0.0820821 -0.0285313 1.26085 0 1 2 
3.18485 -0.0387029 4.24521 26 9 17 
-0.328467 0.29002 1.26198 222 212 202 
2.96897 -0.194974 3.7519 199 197 198 
3.0572 -0.0980582 3.95364 177 178 173 
3.08158 -0.070469 3.82452 15 5 0 
-0.334697 -0.124462 1.27782 48 39 34 
-0.512064 0.348112 0.794993 248 216 203 
3.02337 -0.111171 3.94756 192 191 189 
3.50545 -0.216216 3.78608 254 246 235 
-0.246242 -0.124792 1.27316 62 68 68 
-78160.1 20918.4 -62711.1 162 162 162 
0.573066 -0.146434 1.82149 15 17 14 
6.65696 -0.881957 8.27207 16 22 18 
0.168993 -0.0359998 1.0619 41 48 41 
0.28192 -0.0204066 1.01017 49 51 46 
3.26663 -0.290717 3.99345 227 234 227 
3.40341 -0.227394 3.81433 214 205 200 
6.88858 -0.531851 7.87933 51 51 49 
6.89564 -0.465585 7.89248 26 28 23 
3.01916 -0.172605 3.8122 255 255 248 
3.09707 -0.118597 3.83791 9 0 0 
3.03032 -0.117372 3.83718 242 241 237 
3.03312 -0.194735 3.81797 227 227 225 
3.06254 -0.106509 3.95457 149 149 147 
3.16626 -0.0762507 4.01631 175 166 169 
3.62899 -0.042781 3.80423 252 247 243 
3.51278 -0.124376 3.65159 14 13 11 
-0.436718 0.366904 0.627743 193 184 177 
-0.521237 0.352199 0.767335 205 199 183 
3.03236 -0.0307602 3.9402 255 248 241 
3.20658 -0.137754 3.76832 64 63 59 
0.0447937 -0.428626 1.09916 38 21 14 
3.66921 -0.0431787 3.83628 247 242 238 
3.0394 -0.127263 3.8452 255 255 253 
6.83851 -0.477146 7.7816 29 30 25 
6.90842 -0.494335 7.90534 17 19 16 
3.32004 -0.220538 3.88059 231 234 227 
3.61543 0.0158536 3.96131 20 0 0 
3.40239 -0.28277 3.80499 235 211 209 
-0.503923 0.370848 0.652486 0 3 2 
-0.183651 -0.00661871 0.752756 0 6 2 
0.04288 -0.0504359 1.0654 8 12 11 
3.06177 -0.111077 3.98609 216 216 214 
3.12663 -0.119087 3.86455 89 80 71 
-0.336727 0.22096 1.27047 71 67 64 
3.3539 -0.223153 3.77406 255 254 248 
3.08284 -0.0433341 3.9549 21 25 36 
6.90703 -0.462379 7.91006 14 19 12 
2.99783 -0.125586 3.80511 255 255 253 
3.17318 -0.0747942 4.02392 180 171 174 
3.01847 -0.0675277 3.94287 0 1 0 
3.19443 -0.32544 3.8861 248 253 249 
3.29211 -0.294306 4.01943 236 246 237 
3.03523 -0.10791 3.961 234 234 232 
-0.540747 0.362248 0.692348 247 225 212 
-0.298018 -0.145568 1.28057 60 51 42 
3.23403 -0.292492 3.8467 235 242 235 
3.14117 -0.0502693 4.18952 38 22 32 
-0.348785 0.289402 1.26405 228 220 209 
3.18357 -0.137019 3.74857 64 63 59 
6.61581 -0.64155 7.61126 30 35 31 
0.141539 -0.012574 1.03547 62 67 61 
6.64835 -0.479802 7.64769 18 18 16 
3.04749 -0.105259 3.93244 130 129 127 
3.11008 -0.100453 3.94068 1 0 0 
-0.46044 0.329933 0.932896 215 180 160 
2.95088 -0.125077 3.77548 0 0 0 
3.07421 -0.10941 3.99768 202 202 200 
3.16558 -0.0285268 4.14364 176 155 160 
3.24986 -0.293002 3.85972 227 234 226 
7.09463 -0.568469 8.10314 29 41 29 
0.00920451 -0.0585423 1.24079 143 145 144 
0.0233146 -0.0595519 1.25708 55 59 58 
3.08931 -0.0854063 3.98605 68 67 62 
3.0039 -0.103944 3.93101 234 236 235 
-0.144865 -0.0817162 1.27251 176 180 179 
-0.161744 -0.0703924 1.25894 117 121 122 
3.12077 -0.0318431 4.12502 4 2 5 
-0.534139 0.35757 0.72738 164 145 138 
3.21536 -0.0325923 4.19446 199 178 185 
-155.329 45.8132 -132.802 113 127 136 
3.06626 -0.104427 3.90878 2 2 2 
3.10579 -0.0665785 4.03917 0 1 6 
0.0251348 -0.0739974 1.25577 22 18 17 
3.24178 -0.0358 4.22256 210 191 197 
3.24876 -0.0371998 4.25532 1 0 2 
-0.497172 0.362116 0.703641 65 48 40 
3.01129 -0.147564 3.92029 71 68 61 
3.443 -0.0682748 4.11096 187 156 161 
-0.465913 0.370796 0.654236 55 50 54 
3.32914 -0.0757093 4.18907 151 132 136 
3.06752 -0.0869852 3.9116 216 216 218 
-0.0132089 -0.428035 1.10811 206 176 138 
3.61903 0.0229853 3.99543 9 0 2 
3.38086 0.00101191 4.04993 47 23 23 
-0.104321 -0.104952 1.26108 211 211 213 
-0.0282052 -0.0856652 1.26679 88 90 89 
-0.0023597 -0.0565588 1.26328 219 220 222 
3.242 -0.0209668 4.06783 207 182 186 
3.14894 -0.0348328 4.15064 1 0 2 
3.14126 -0.0332084 4.11285 199 176 184 
3.32428 -0.000255095 3.98662 52 23 19 
3.6114 0.0175261 3.94376 188 157 155 
3.6416 0.0231542 4.00766 7 0 0 
