ply                 
format ascii 1.0    
element vertex 647
property float x    
property float y    
property float z    
property uchar red  
property uchar green
property uchar blue 
end_header          
-0.17605 -0.0861234 1.26639 46 42 41 
-0.358995 -0.21556 1.28378 251 231 220 
-0.353602 -0.121533 1.27853 255 237 223 
-0.353949 -0.216857 1.28356 71 55 39 
-0.378328 -0.210689 1.28486 19 7 0 
-0.35991 -0.217367 1.28384 107 91 75 
-0.191814 -0.0787223 1.26692 153 145 143 
-0.291747 -0.128834 1.27622 73 60 44 
-0.387611 -0.206371 1.28554 242 228 217 
-0.312733 -0.226403 1.28173 75 51 39 
-0.357585 -0.203667 1.28354 249 237 223 
-0.3159 -0.143011 1.27753 83 67 52 
-0.314981 -0.141187 1.27744 41 22 8 
-0.358571 -0.201613 1.28377 35 21 8 
-0.36583 -0.2012 1.28543 99 82 62 
-0.311888 -0.230184 1.28197 37 11 0 
-0.149462 -0.0549798 1.26369 204 200 197 
-0.393275 -0.113858 1.28144 92 85 75 
-0.149017 -0.0603627 1.26381 188 184 183 
-0.321792 -0.193956 1.28151 208 192 177 
-0.386904 -0.115502 1.2813 108 91 81 
-0.316051 -0.228002 1.28232 98 79 65 
-0.332729 -0.191144 1.28187 116 100 84 
-0.346605 -0.107023 1.27757 93 69 57 
-0.35203 -0.203271 1.28306 114 98 83 
-0.331065 -0.208553 1.28252 72 52 28 
-0.162948 -0.10164 1.26684 64 61 56 
-0.37826 -0.210554 1.28461 19 7 0 
-0.345308 -0.100253 1.27677 82 65 57 
-0.175822 -0.0856879 1.26642 6 8 7 
-0.356226 -0.121986 1.27926 68 44 34 
-0.307288 -0.202801 1.28108 110 94 71 
-0.0301679 -0.0765206 1.25555 2 4 3 
-0.365041 -0.202966 1.28391 38 24 0 
-0.129789 -0.0736 1.26195 210 206 203 
-0.312311 -0.223011 1.28182 250 222 208 
-0.146493 -0.0554263 1.26272 210 206 203 
-0.327261 -0.228749 1.283 42 25 7 
-0.315264 -0.141641 1.27782 109 90 76 
-0.311825 -0.230208 1.28208 37 11 0 
-0.0963615 0.000509233 1.25677 202 199 194 
-0.098717 -0.113225 1.26258 180 176 175 
-0.380752 -0.209563 1.28567 45 35 25 
-0.311236 -0.233485 1.28191 71 56 35 
-0.15097 -0.0979572 1.26523 155 154 152 
-0.380129 -0.213371 1.28543 90 78 62 
-0.150984 -0.0887199 1.26522 25 24 22 
-0.0327766 -0.0866024 1.25635 196 188 185 
-0.316076 -0.226437 1.28166 92 70 59 
-0.162919 -0.13635 1.26711 62 59 50 
-0.174738 -0.0846591 1.26634 59 55 54 
-0.0889269 -0.057178 1.25825 171 171 169 
-0.130336 -0.059177 1.26171 176 175 173 
-0.191521 -0.0787098 1.26733 162 154 152 
-0.047756 -0.0621816 1.25604 176 177 172 
-0.313175 -0.216414 1.28086 28 10 0 
-0.0147469 -0.0481043 1.25325 175 170 167 
-0.351835 -0.203615 1.28339 166 150 134 
-0.120652 -0.0542415 1.26097 171 170 166 
-0.35654 -0.216245 1.28279 40 23 5 
-0.0339295 -0.050066 1.25524 16 12 9 
-0.38708 -0.110648 1.28094 86 68 58 
-0.157888 -0.0954819 1.26566 206 205 201 
-0.35641 -0.119734 1.27908 255 241 230 
-0.191626 -0.0776211 1.26727 232 224 221 
-0.163051 -0.0935947 1.26574 206 204 205 
-0.155351 -0.0966872 1.26604 182 181 177 
-0.3222 -0.193928 1.28253 208 192 177 
-0.165958 -0.10865 1.26858 47 42 39 
-0.0462435 -0.0970041 1.25855 63 58 52 
-0.162413 -0.0874966 1.26579 192 190 191 
-0.0327843 -0.0867746 1.25631 196 188 185 
-0.16252 -0.101402 1.26677 13 10 5 
-0.327658 -0.14045 1.27851 100 86 73 
-0.0379106 -0.0857333 1.25608 85 80 76 
-0.176071 -0.0859638 1.2667 46 42 41 
-0.108943 0.0248808 1.25414 143 139 136 
-0.122826 -0.108549 1.26285 33 29 26 
-0.168335 -0.109087 1.26707 69 64 58 
-0.155206 -0.0792363 1.26448 182 182 180 
-0.0963439 0.000137011 1.25717 215 212 207 
-0.150122 -0.132352 1.26595 39 31 28 
-0.129297 -0.0731707 1.26249 209 205 202 
-0.152008 -0.0730487 1.26439 200 199 197 
-0.312774 -0.223171 1.28189 249 226 210 
-0.358078 -0.203634 1.28319 244 232 218 
-0.111167 -0.0327681 1.25944 34 29 25 
-0.387577 -0.206235 1.28589 242 228 217 
-0.0309437 -0.0347312 1.25387 48 40 37 
-0.35243 -0.121114 1.27872 68 54 41 
-0.378712 -0.210601 1.28466 36 26 16 
-0.351735 -0.21508 1.28382 40 22 8 
-0.358322 -0.215967 1.27961 16 0 0 
-0.117733 -0.12042 1.26413 210 211 206 
-0.120914 -0.054198 1.26142 146 145 141 
-0.0136711 -0.0532311 1.25321 179 175 172 
-0.0990662 -0.113181 1.26302 196 192 191 
-0.0123978 -0.0533208 1.25464 224 220 217 
-0.0622497 -0.119331 1.2595 30 25 19 
-0.0596928 -0.119146 1.25953 23 17 5 
-0.0149629 -0.0481861 1.25315 142 137 134 
-0.0225471 -0.0854152 1.25569 80 75 69 
-0.147992 -0.0387917 1.26236 212 208 207 
-0.364841 -0.203109 1.28405 63 49 23 
-0.0335224 -0.0278999 1.25342 194 190 187 
-0.36556 -0.201464 1.2842 99 82 62 
-0.107786 0.0248904 1.25559 200 197 192 
-0.316453 -0.226296 1.28101 75 55 44 
-0.321132 -0.198175 1.28133 248 233 212 
-0.151233 -0.132153 1.26447 126 119 113 
-0.164441 -0.134532 1.26718 57 48 41 
-0.100846 0.0047767 1.25766 181 180 176 
-0.0481108 -0.0964167 1.25638 150 145 139 
-0.323509 -0.129217 1.27745 120 106 93 
-0.350426 -0.127937 1.27867 155 142 125 
-0.00913597 -0.0817448 1.25379 62 57 54 
-0.0621225 -0.119231 1.2594 30 25 19 
-0.313353 -0.223738 1.28217 253 230 216 
-0.310899 -0.222941 1.2817 89 63 48 
-0.380722 -0.2134 1.2853 55 46 29 
-0.322665 -0.205761 1.28176 49 32 12 
-0.358591 -0.204075 1.28401 243 231 215 
-0.306839 -0.201758 1.28088 54 36 14 
-0.317061 -0.196285 1.28114 248 232 217 
-0.106854 0.0246874 1.25676 217 214 209 
-0.109097 0.0244414 1.25598 200 196 193 
-0.100724 0.0109031 1.25727 181 180 178 
-0.0328888 -0.0284832 1.2534 221 222 224 
-0.111507 -0.0329614 1.25902 40 35 32 
-0.0929944 -0.043857 1.25824 189 189 187 
-0.137083 -0.0523743 1.26157 198 197 195 
-0.0130271 -0.0530895 1.25266 211 207 204 
-0.148059 -0.0543061 1.26323 97 93 90 
-0.120898 -0.0545722 1.26145 173 172 168 
-0.0206878 -0.0556282 1.25341 220 221 216 
0.00152186 -0.0562952 1.2532 67 61 61 
-0.0168491 -0.0561849 1.25364 46 48 43 
-0.138781 -0.0620377 1.26311 203 202 198 
-0.0475147 -0.0627995 1.25564 202 203 198 
-0.0344965 -0.0631283 1.25494 213 212 208 
-0.129411 -0.0731587 1.26234 209 205 202 
-0.029852 -0.0770949 1.25591 22 18 15 
-0.155089 -0.07985 1.2645 184 183 179 
-0.190177 -0.0798715 1.26737 26 26 24 
-0.0213904 -0.0823112 1.25577 58 53 47 
-0.175463 -0.0859148 1.26704 57 53 52 
-0.0259925 -0.0862194 1.25585 214 211 206 
-0.0328977 -0.0870556 1.25617 203 195 192 
-0.15128 -0.0896004 1.26525 43 42 40 
-0.156664 -0.0895554 1.2651 199 198 196 
-0.163045 -0.0937063 1.26674 206 204 205 
-0.140333 -0.0950894 1.264 157 153 150 
-0.117847 -0.0955605 1.26285 114 109 105 
-0.157515 -0.0961975 1.2657 207 206 202 
-0.134915 -0.0973561 1.26389 173 172 170 
-0.162956 -0.101409 1.26617 64 61 56 
-0.134945 -0.104134 1.26444 206 200 200 
-0.122421 -0.109307 1.26273 62 58 55 
-0.388085 -0.114991 1.28072 73 55 45 
-0.099295 -0.113291 1.26273 196 192 191 
-0.352397 -0.121436 1.27871 98 84 71 
-0.0659643 -0.120114 1.26017 19 20 15 
-0.356416 -0.122414 1.27913 108 86 75 
-0.151175 -0.132202 1.26515 126 119 113 
-0.149115 -0.132602 1.26729 48 43 40 
-0.133354 -0.132108 1.26494 83 76 68 
-0.0962257 -0.127164 1.26348 211 206 202 
-0.392835 -0.113527 1.28093 79 70 61 
-0.00839068 -0.0716782 1.25389 51 50 46 
-0.311313 -0.191534 1.28067 43 29 16 
-0.0972092 -0.0626314 1.25973 173 172 168 
-0.0168584 -0.056386 1.25381 46 48 43 
0.00152735 -0.0561278 1.25306 67 61 61 
-0.0657156 -0.120573 1.26076 32 28 25 
-0.327603 -0.194023 1.28201 54 39 20 
-0.138084 -0.0552906 1.26231 196 192 191 
-0.120446 -0.0552131 1.26149 193 192 188 
-0.14832 -0.0544522 1.26289 172 168 165 
-0.132727 -0.13234 1.26601 66 62 53 
-0.150374 -0.132455 1.26609 64 56 53 
-0.164414 -0.134649 1.26721 57 48 41 
-0.0889039 -0.120839 1.26205 216 213 204 
-0.118634 -0.120148 1.26359 222 221 217 
-0.0592475 -0.118803 1.25973 75 71 59 
-0.0159641 -0.0472549 1.25298 187 180 174 
-0.313503 -0.222925 1.28207 242 221 204 
-0.311808 -0.231764 1.28263 58 35 21 
-0.371968 -0.115748 1.2795 28 15 7 
-0.160659 -0.114102 1.26651 190 191 185 
-0.09922 -0.113677 1.26371 222 218 217 
-0.0777547 -0.112524 1.26062 180 175 172 
-0.085236 -0.11091 1.26193 211 207 204 
-0.168119 -0.10958 1.26671 20 15 9 
-0.106456 -0.0372877 1.25946 48 37 31 
-0.352448 -0.201676 1.28379 45 29 16 
-0.357958 -0.201421 1.28341 57 43 32 
-0.162546 -0.101192 1.2665 13 10 5 
-0.36556 -0.216851 1.28377 25 14 0 
-0.0462756 -0.0962342 1.25763 67 62 58 
-0.0953034 -0.029867 1.25802 27 26 22 
-0.0287484 -0.0962415 1.25652 58 55 50 
-0.157721 -0.0962294 1.26496 207 206 202 
-0.152185 -0.072266 1.26459 202 198 195 
-0.139954 -0.0953018 1.26329 194 190 187 
-0.00861504 -0.0717031 1.25358 51 52 54 
-0.358747 -0.213641 1.28295 251 233 223 
-0.114977 -0.0730918 1.26269 55 51 50 
-0.129697 -0.0729417 1.26239 163 165 164 
-0.0324388 -0.0876477 1.25647 236 226 224 
-0.162535 -0.0879101 1.26628 168 166 167 
-0.0259859 -0.0858588 1.25503 211 208 203 
-0.334086 -0.203884 1.2819 47 30 12 
-0.358893 -0.204235 1.28342 248 236 222 
-0.196046 -0.0824102 1.26715 90 86 83 
-0.383835 -0.209337 1.28525 211 199 183 
-0.112826 0.0269919 1.25655 29 28 24 
-0.106456 0.0240528 1.2574 204 201 196 
-0.190463 -0.0798339 1.26691 43 38 35 
-0.011284 -0.0784604 1.25448 98 97 93 
-0.322763 -0.205887 1.28157 40 23 5 
-0.356131 -0.21664 1.28365 63 46 30 
-0.307545 -0.202161 1.28058 64 46 26 
-0.0353269 -0.0216588 1.25336 157 152 149 
-0.330415 -0.209784 1.28218 138 118 93 
-0.364773 -0.203242 1.28433 123 111 87 
-0.307632 -0.122763 1.27654 94 75 68 
-0.133198 -0.132158 1.26572 83 76 68 
-0.117365 -0.12734 1.26205 186 183 178 
-0.0974126 -0.126094 1.26237 228 219 214 
-0.0807365 -0.124037 1.26159 186 182 171 
-0.089575 -0.120601 1.26096 210 208 196 
-0.388043 -0.111997 1.28128 105 87 77 
-0.167944 -0.110011 1.26694 66 61 55 
-0.162286 -0.101017 1.26604 23 20 15 
-0.157808 -0.0967292 1.26564 205 204 200 
-0.135475 -0.0963577 1.26491 186 182 179 
-0.121902 -0.0962087 1.26237 123 114 115 
-0.0285749 -0.0957787 1.25698 64 61 56 
-0.164449 -0.0945135 1.26535 219 215 216 
-0.155435 -0.089738 1.26437 206 205 203 
-0.0330078 -0.0881045 1.25608 225 217 214 
-0.332932 -0.189586 1.28163 58 42 27 
-0.193791 -0.0866719 1.26827 92 87 83 
-0.16227 -0.0866034 1.26561 202 200 201 
-0.115251 -0.0843558 1.26188 179 178 176 
-0.00868938 -0.0818811 1.25397 146 141 137 
-0.195898 -0.0823293 1.26736 90 86 83 
-0.315918 -0.196329 1.28109 238 223 204 
-0.0109097 -0.0798684 1.25433 93 92 88 
-0.192317 -0.0800784 1.26571 48 44 45 
-0.352794 -0.201384 1.28435 71 54 44 
-0.12976 -0.0731552 1.26263 213 209 206 
-0.152068 -0.0721139 1.26364 202 198 195 
-0.334321 -0.203438 1.28268 94 75 60 
-0.359354 -0.204463 1.28373 242 230 214 
-0.0352472 -0.0635189 1.25497 199 198 194 
-0.0951738 -0.0627575 1.25945 222 218 215 
-0.322922 -0.206521 1.28221 47 30 12 
-0.317455 -0.198501 1.28283 137 119 99 
0.0121801 -0.0562896 1.25136 195 192 187 
-0.139789 -0.056166 1.26283 131 127 126 
-0.120759 -0.0553957 1.26077 176 175 171 
-0.35804 -0.213505 1.2831 250 232 220 
0.0121393 -0.053372 1.25166 102 99 94 
-0.115144 -0.0516579 1.26 175 171 168 
-0.350977 -0.214691 1.28194 49 31 17 
-0.0158786 -0.0470126 1.25247 155 148 142 
-0.365026 -0.21682 1.28398 34 25 10 
-0.147505 -0.0385994 1.2623 218 214 213 
-0.107377 -0.0382624 1.25945 44 34 32 
-0.1108 -0.0340403 1.26046 54 50 49 
-0.0974541 -0.028543 1.2595 38 34 31 
-0.0353059 -0.022287 1.25339 46 45 41 
-0.0950571 0.00576369 1.25574 153 153 151 
-0.11063 0.0279186 1.25666 32 31 27 
-0.311579 -0.222488 1.2819 120 92 78 
-0.315114 -0.223634 1.28257 242 223 208 
-0.316134 -0.233522 1.28229 221 199 178 
-0.141913 -0.0399671 1.26141 95 94 90 
-0.0982529 -0.126394 1.26161 230 217 209 
-0.0809527 -0.123969 1.26132 186 182 171 
-0.113045 -0.122512 1.26332 51 51 43 
-0.352958 -0.119387 1.27881 78 62 47 
-0.0996963 -0.114269 1.26292 223 219 218 
-0.0862777 -0.110345 1.261 212 204 202 
-0.127806 -0.106864 1.26384 204 200 197 
-0.157421 -0.0978148 1.26606 199 196 191 
-0.121116 -0.0959742 1.26339 41 35 35 
-0.322436 -0.192558 1.28103 242 226 210 
-0.0462993 -0.0955683 1.25781 76 72 69 
-0.139773 -0.0945608 1.26345 185 181 178 
-0.155931 -0.0894333 1.26474 205 204 202 
-0.0263465 -0.0871246 1.25413 170 167 162 
-0.164119 -0.0869466 1.26613 205 204 202 
-0.0369999 -0.0848355 1.2563 59 56 51 
-0.0223522 -0.084161 1.25565 76 73 66 
-0.00780324 -0.0804254 1.25779 81 80 78 
-0.192262 -0.0804752 1.26678 48 44 45 
-0.126397 -0.0759367 1.26239 70 66 63 
-0.153025 -0.0720114 1.26237 202 201 197 
-0.151941 -0.0626336 1.26433 209 208 204 
-0.0132073 -0.0538346 1.2517 200 196 193 
-0.0502486 -0.0511531 1.25405 157 147 137 
-0.0158509 -0.0473154 1.25203 155 148 142 
-0.147731 -0.0388617 1.26189 218 214 213 
-0.107633 -0.0385543 1.25973 56 51 48 
-0.315755 -0.196498 1.28136 238 223 204 
-0.111576 -0.0346778 1.25905 60 58 59 
-0.328534 -0.196956 1.28378 243 228 207 
-0.102244 0.012078 1.25725 180 179 175 
-0.357868 -0.212836 1.28252 233 215 203 
-0.390311 -0.20699 1.28694 70 56 43 
-0.384709 -0.207078 1.2863 229 217 191 
-0.359931 -0.20501 1.28498 238 226 212 
-0.357153 -0.202321 1.28469 56 42 33 
-0.352998 -0.202441 1.28415 60 44 31 
-0.0221332 -0.0840199 1.25601 65 62 55 
-0.174566 -0.0868586 1.26665 46 40 40 
-0.190714 -0.0820467 1.26718 61 57 54 
-0.0252944 -0.0869351 1.25603 216 213 206 
-0.0396338 -0.0677529 1.25488 167 163 160 
-0.320818 -0.195713 1.28177 81 65 52 
-0.0364968 -0.0618406 1.25512 219 218 214 
-0.0460445 -0.0954494 1.25847 78 74 71 
-0.0158593 -0.0474621 1.25296 155 148 142 
-0.127905 -0.0991685 1.26483 153 152 148 
-0.140663 -0.0398449 1.26312 131 130 126 
-0.146956 -0.0382869 1.2622 221 217 216 
-0.0301906 -0.0379884 1.25451 57 53 50 
-0.111655 -0.0349189 1.26017 59 57 58 
-0.150085 -0.0318672 1.26153 157 156 152 
-0.097275 -0.0301677 1.25959 61 63 62 
-0.0333811 -0.0222587 1.25262 27 23 20 
-0.102035 0.0129914 1.25755 187 188 190 
-0.114663 0.0238665 1.25645 60 61 56 
-0.127839 -0.107523 1.26413 201 197 194 
-0.0860388 -0.110089 1.26151 232 222 221 
-0.166736 -0.110681 1.26831 58 55 50 
-0.076425 -0.113266 1.26109 178 168 167 
-0.364961 -0.216482 1.28375 34 25 10 
-0.356756 -0.211863 1.28296 227 214 197 
-0.384694 -0.206905 1.28459 233 221 197 
-0.134287 -0.131326 1.26419 77 70 62 
-0.149035 -0.131691 1.26825 56 52 49 
-0.333786 -0.203382 1.28225 78 59 45 
-0.353985 -0.202331 1.28491 81 64 56 
-0.324081 -0.197103 1.2822 77 61 45 
-0.332086 -0.190206 1.28189 60 44 28 
-0.317369 -0.227806 1.28153 137 120 104 
-0.093913 0.0114571 1.25576 217 213 210 
-0.312465 -0.23267 1.28138 152 129 111 
-0.31744 -0.22289 1.2818 231 219 197 
-0.308092 -0.20194 1.28317 65 47 27 
-0.129485 -0.0436158 1.26019 189 185 182 
-0.0627955 -0.0179072 1.25451 43 42 47 
-0.103728 -0.08784 1.26234 210 207 200 
-0.0828277 0.0144507 1.2561 49 48 44 
-0.0748411 -0.0685771 1.25896 88 85 80 
3.08811 -0.108991 3.97546 153 152 150 
6.82325 -0.415315 7.7991 250 251 237 
6.83816 -0.42529 7.82951 6 8 0 
3.00567 -0.192998 3.7902 247 248 243 
3.05879 -0.109733 3.86764 236 235 231 
3.02217 -0.128099 3.82725 250 249 247 
3.01189 -0.155972 3.80976 225 227 222 
3.01033 -0.165251 3.80486 236 237 231 
3.00811 -0.18401 3.79846 221 221 213 
6.82084 -0.461589 7.8088 26 28 23 
6.77467 -0.494146 7.71621 47 49 48 
3.3433 -0.222627 3.90058 253 255 249 
1.81679 -0.110884 2.30108 12 14 9 
1.80486 -0.119689 2.30458 59 62 53 
1.7998 -0.132666 2.28754 56 58 53 
3.41793 -0.273116 3.83252 21 11 2 
0.5619 -0.143953 1.80682 27 29 26 
3.23885 -0.307691 3.94498 237 244 236 
3.41483 -0.268428 3.82518 218 199 193 
6.28612 -0.535003 6.44354 27 29 26 
-0.169957 -0.0405575 1.26557 54 55 57 
-0.0823081 -0.0285515 1.26028 0 1 2 
3.18237 -0.0399476 4.239 26 9 17 
-0.328506 0.289601 1.26164 222 212 202 
2.96713 -0.195723 3.74716 199 197 198 
3.05507 -0.0990615 3.94831 177 178 173 
3.07953 -0.0714649 3.81961 15 5 0 
-0.334634 -0.124399 1.27733 48 39 34 
-0.51253 0.34788 0.794985 248 216 203 
3.02127 -0.112149 3.94223 192 191 189 
3.50363 -0.216952 3.78175 254 246 235 
-0.246274 -0.124716 1.27262 62 68 68 
-78354.1 20967.5 -62793.3 162 162 162 
0.572799 -0.146526 1.82018 15 17 14 
6.64565 -0.8823 8.25043 16 22 18 
0.168429 -0.035903 1.06147 41 48 41 
0.281307 -0.0202983 1.0098 49 51 46 
3.26453 -0.291387 3.98819 227 234 227 
3.40151 -0.228118 3.80979 214 205 200 
6.8775 -0.533177 7.86012 51 51 49 
6.88443 -0.467104 7.87314 26 28 23 
3.01723 -0.173416 3.8073 255 255 248 
3.09505 -0.119513 3.83298 9 0 0 
3.02833 -0.118291 3.8322 242 241 237 
3.03119 -0.195508 3.81307 227 227 225 
3.06042 -0.107497 3.94924 149 149 147 
3.164 -0.0773184 4.01085 175 166 169 
3.62703 -0.0437963 3.79994 252 247 243 
3.51113 -0.125204 3.64771 14 13 11 
-0.437458 0.366749 0.627784 193 184 177 
-0.521731 0.351977 0.767343 205 199 183 
3.03021 -0.0318841 3.93488 255 248 241 
3.20464 -0.138607 3.76372 64 63 59 
0.0444098 -0.428122 1.09858 38 21 14 
3.66722 -0.0442065 3.83192 247 242 238 
3.0374 -0.128167 3.84021 255 255 253 
6.82766 -0.478601 7.76286 29 30 25 
6.89721 -0.495775 7.88598 17 19 16 
3.31802 -0.221293 3.87575 231 234 227 
3.61312 0.014667 3.95643 20 0 0 
3.40056 -0.283403 3.8005 235 211 209 
-0.504582 0.37067 0.652538 0 3 2 
-0.184312 -0.00642274 0.752585 0 6 2 
0.0423782 -0.0503299 1.06496 8 12 11 
3.05962 -0.11207 3.98066 216 216 214 
3.12457 -0.120013 3.85956 89 80 71 
-0.336733 0.220618 1.2701 71 67 64 
3.35204 -0.223869 3.7696 255 254 248 
3.08066 -0.0444389 3.94957 21 25 36 
6.89577 -0.463912 7.89063 14 19 12 
2.99588 -0.126477 3.80021 255 255 253 
3.17091 -0.0758678 4.01844 180 171 174 
3.01635 -0.0685846 3.93754 0 1 0 
3.1925 -0.326014 3.88114 248 253 249 
3.28999 -0.294979 4.01411 236 246 237 
3.03311 -0.108898 3.95563 234 234 232 
-0.541322 0.362056 0.692398 247 225 212 
-0.297985 -0.145477 1.28005 60 51 42 
3.23212 -0.293112 3.84191 235 242 235 
3.13877 -0.0514671 4.18347 38 22 32 
-0.348799 0.288982 1.26371 228 220 209 
3.18165 -0.137865 3.744 64 63 59 
6.60578 -0.642497 7.59334 30 35 31 
0.140961 -0.0124908 1.03507 62 67 61 
6.638 -0.481208 7.62949 18 18 16 
3.04539 -0.10624 3.92717 130 129 127 
3.10794 -0.101444 3.93543 1 0 0 
-0.460773 0.329646 0.932798 215 180 160 
2.94897 -0.125958 3.77063 0 0 0 
3.07204 -0.110411 3.99222 202 202 200 
3.16318 -0.0297444 4.13775 176 155 160 
3.24794 -0.293627 3.85489 227 234 226 
7.08283 -0.569751 8.08288 29 41 29 
0.00888549 -0.0585105 1.2402 143 145 144 
0.0230005 -0.0595258 1.25648 55 59 58 
3.08713 -0.0864463 3.98064 68 67 62 
3.00183 -0.104929 3.92571 234 236 235 
-0.145006 -0.0816825 1.27194 176 180 179 
-0.161887 -0.0703672 1.25839 117 121 122 
3.11842 -0.0330477 4.11916 4 2 5 
-0.534674 0.357365 0.727412 164 145 138 
3.21289 -0.0338235 4.18843 199 178 185 
-158.826 46.8387 -135.645 113 127 136 
3.06417 -0.105399 3.9036 2 2 2 
3.10354 -0.0676773 4.03359 0 1 6 
0.0248216 -0.0739533 1.25517 22 18 17 
3.23927 -0.0370369 4.21646 210 191 197 
3.24622 -0.038449 4.24911 1 0 2 
-0.497771 0.361918 0.703667 65 48 40 
3.00926 -0.148463 3.91504 71 68 61 
3.44055 -0.0693897 4.10541 187 156 161 
-0.4666 0.370618 0.654274 55 50 54 
3.32665 -0.0768492 4.18316 151 132 136 
3.06542 -0.0879901 3.9064 216 216 218 
-0.0135532 -0.42753 1.10753 206 176 138 
3.61665 0.0217697 3.99043 9 0 2 
3.37843 -0.000205183 4.04451 47 23 23 
-0.104509 -0.104882 1.2605 211 211 213 
-0.0284597 -0.0856155 1.26618 88 90 89 
-0.0026471 -0.0565408 1.26267 219 220 222 
3.23962 -0.022159 4.06224 207 182 186 
3.14655 -0.0360423 4.14472 1 0 2 
3.1389 -0.0344037 4.10705 199 176 184 
3.32194 -0.00144224 3.98137 52 23 19 
3.60912 0.016345 3.93894 188 157 155 
3.63921 0.0219336 4.00265 7 0 0 
-0.343359 -0.136063 1.27593 81 70 64 
-0.102656 -0.0529476 1.25825 136 137 139 
-0.386259 -0.114592 1.27554 169 160 161 
6.8651 -0.835692 8.47588 42 47 41 
6.86617 -0.901887 8.47118 28 34 22 
-36.5007 13.2399 -32.4373 15 16 18 
-36.3039 13.2364 -32.7418 3 4 8 
-35.0602 13.3232 -32.6801 53 59 59 
-36.782 12.3458 -32.6635 8 12 15 
-35.174 12.0862 -32.4349 216 214 215 
-36.7224 12.3406 -32.7549 13 19 19 
-35.3039 13.0214 -32.8255 2 3 5 
-35.6609 12.2203 -33.4819 32 44 40 
-34.5347 12.7986 -32.5229 23 24 28 
-32.8039 11.3831 -31.595 171 171 171 
-34.6452 12.8459 -32.7799 5 6 11 
-34.5553 11.6152 -32.4039 33 44 40 
-31.7556 13.168 -31.1108 218 225 231 
-34.6876 14.1484 -32.1342 36 40 43 
-31.8039 13.2052 -31.2303 26 31 34 
-31.7059 9.90199 -32.057 179 179 181 
-32.1603 9.99541 -32.5383 194 194 196 
-35.0706 12.3149 -33.3095 0 0 2 
-35.1045 13.5964 -32.5998 172 173 178 
-34.4848 11.6983 -32.6462 33 34 38 
-31.0539 11.7979 -31.3511 5 6 10 
-35.1999 11.6358 -33.0733 28 29 31 
-32.4245 13.717 -31.6933 23 33 43 
-31.9339 12.4474 -31.9735 0 1 7 
-36.9926 14.1958 -33.1688 4 5 9 
-30.775 12.0178 -31.0057 0 0 8 
-39.0803 11.5129 -34.3515 184 187 192 
-34.1527 11.6828 -32.2873 23 31 33 
-34.0563 12.6868 -32.6679 14 15 19 
-31.0768 12.0456 -31.3541 13 14 19 
-31.3661 10.7089 -32.0088 21 24 29 
-33.7629 13.1905 -32.222 131 131 133 
-32.0561 10.8526 -32.1005 11 9 10 
-36.5215 12.3346 -32.5344 228 232 231 
-34.1026 11.7734 -31.9509 28 39 35 
-34.4889 11.7836 -32.3371 19 30 26 
-35.122 11.801 -32.9693 27 38 34 
-36.0941 12.4122 -33.3384 174 172 173 
-33.9481 11.8625 -32.1378 174 178 179 
-34.6382 11.8575 -32.7476 31 39 41 
-33.7233 12.5464 -32.1707 0 0 7 
-31.525 12.2799 -31.564 19 24 30 
-35.8918 11.9882 -32.6687 211 212 214 
-34.7655 12.1075 -32.4956 166 168 167 
-33.7708 12.5164 -31.8984 19 22 27 
-33.6535 12.4718 -31.6383 0 1 4 
-31.7809 12.4236 -32.0631 0 0 8 
-34.0869 11.8419 -32.1914 33 41 43 
-33.9782 11.5107 -32.1116 12 13 15 
-35.2401 11.6269 -32.0688 0 2 1 
-33.9011 12.8164 -31.8569 15 19 22 
-31.605 11.9814 -31.6761 0 4 7 
-31.4705 11.8983 -31.394 0 0 5 
-34.565 13.1914 -32.4931 8 12 15 
-31.9544 13.5146 -31.2123 23 33 43 
-36.1359 11.9716 -32.0268 154 158 159 
-32.031 13.84 -31.2631 29 33 36 
-37.7579 12.4043 -34.4145 197 199 198 
-34.4406 11.8516 -32.5486 46 58 58 
-34.0636 11.3448 -32.7167 0 0 2 
-33.9943 13.9988 -32.4062 17 16 21 
-34.8985 11.5929 -33.2462 1 0 5 
-34.7557 13.4582 -32.2747 172 173 178 
-31.274 10.6673 -31.7603 42 47 51 
-31.6928 11.1143 -31.9083 7 11 12 
-34.6467 12.8197 -32.6807 179 178 183 
-35.4164 13.0736 -32.9252 2 3 5 
-36.8322 13.4426 -33.0882 2 3 7 
-34.7223 13.1333 -32.6566 15 19 22 
-34.2786 13.0384 -31.9361 26 32 32 
-33.6099 13.1046 -31.6764 15 16 18 
-34.6486 13.4367 -32.0931 0 0 4 
-38.3351 13.0745 -34.157 140 144 145 
-37.9613 12.8293 -33.8975 230 234 233 
-34.2845 11.9076 -32.3613 38 48 49 
-31.6123 9.83109 -31.955 208 208 210 
-35.5924 12.3033 -33.426 33 45 43 
-34.724 11.9306 -32.8395 23 33 34 
-34.7143 11.8643 -32.585 22 34 32 
-36.363 12.143 -33.1125 211 212 214 
-34.007 11.5146 -32.1518 12 13 15 
-33.6713 11.1712 -32.0188 0 0 4 
-33.5426 11.1184 -31.7194 21 22 24 
-34.6563 11.4617 -32.5634 27 29 28 
-33.3285 12.393 -31.7693 0 0 7 
-34.6323 11.4191 -32.3665 0 0 2 
-37.5391 12.1486 -33.4129 7 8 10 
-35.6559 11.7004 -32.4311 197 199 198 
-32.907 13.5243 -31.1672 17 18 22 
-34.0943 11.9513 -32.3433 0 0 2 
-35.9989 12.1084 -31.9194 167 171 174 
-39.9636 11.7853 -35.2506 205 206 210 
-36.058 13.8369 -32.449 7 7 9 
-35.1236 12.2353 -32.7461 17 17 17 
-32.9165 13.9224 -32.194 17 27 39 
-32.9773 12.4292 -32.4995 1 1 11 
-49.8746 13.8434 -46.4448 3 1 4 
-33.8405 11.2781 -32.4999 0 0 2 
-32.0604 11.2525 -32.3098 1 7 7 
-47.8681 13.1477 -44.3997 129 127 128 
-32.332 13.4852 -31.7873 24 29 33 
-34.5137 13.0292 -32.4202 18 22 25 
-38.3538 12.9819 -34.2657 230 234 233 
-36.7904 12.3896 -32.6583 160 164 167 
-34.6517 12.1467 -32.9408 3 3 5 
-34.6853 12.0842 -32.7651 32 40 42 
-34.3053 11.3393 -30.3181 192 196 197 
-33.9928 11.8402 -32.8574 169 169 169 
-35.5207 11.8646 -32.2914 141 142 144 
-34.3393 11.5386 -32.2525 33 42 37 
-36.2275 14.0601 -33.6077 0 0 4 
-33.2674 11.5939 -31.4602 176 180 181 
-33.6079 11.1746 -31.9682 0 0 4 
-31.6168 12.0487 -31.9154 2 6 9 
-33.4548 11.1115 -31.6107 35 37 36 
-36.7173 13.4458 -33.1789 2 3 7 
-38.0389 12.9695 -33.8775 140 144 145 
-34.7847 11.4972 -32.4903 14 14 16 
-33.9552 12.6657 -32.3987 2 6 15 
-34.2834 14.1189 -32.5176 17 18 22 
-36.6462 11.8667 -32.5691 14 15 17 
-36.0174 10.9082 -33.119 151 150 156 
-38.6231 11.4033 -34.0009 203 208 214 
-34.31 11.4017 -32.4395 35 37 36 
-32.4645 10.1078 -32.7475 211 211 213 
-32.5093 12.0672 -30.7069 6 9 16 
-34.5678 11.4362 -32.7996 144 143 148 
-34.9453 11.9793 -32.9767 29 41 39 
-34.6499 11.9569 -32.6283 214 229 226 
-35.3716 12.9579 -31.9297 2 3 7 
-35.4535 12.9529 -31.7586 13 14 18 
-31.3208 12.2658 -31.5248 13 16 23 
-34.8432 13.1023 -32.5651 26 30 31 
-34.4428 12.0374 -32.7213 21 22 24 
-37.939 11.187 -33.3634 226 229 234 
-34.9753 10.6153 -32.1098 153 153 161 
-34.1814 11.2874 -31.8659 14 14 16 
-32.6598 12.4473 -33.1464 143 147 150 
-36.4158 13.3861 -32.8906 0 0 4 
-34.9398 10.6151 -32.0743 157 157 167 
-31.8011 10.9581 -30.665 9 7 8 
-35.9374 13.5454 -33.6639 28 32 35 
-34.2868 12.7588 -32.2009 21 25 28 
-34.0011 11.1609 -30.8732 97 99 98 
-34.6921 12.0609 -32.6104 45 54 53 
-34.9934 12.1044 -33.0336 172 184 182 
-31.6323 13.1596 -30.9963 186 193 201 
-34.6257 13.4162 -32.1754 174 177 182 
-32.5668 11.219 -30.6087 245 255 255 
-37.8182 14.1696 -36.1174 3 7 16 
-36.3352 11.066 -33.424 150 150 158 
-40.9421 17.2493 -40.4868 76 83 91 
-31.4767 12.128 -31.6696 19 23 26 
-35.5946 11.8903 -32.4025 211 212 214 
-36.6798 12.2912 -35.1281 10 11 15 
-35.4336 13.7341 -32.8158 5 4 9 
-38.2084 11.6158 -35.1437 158 161 170 
-48.45 11.9006 -45.1292 20 18 19 
