ply
format ascii 1.0
comment PCL generated
element vertex 1205
property float x
property float y
property float z
property uchar red
property uchar green
property uchar blue
element face 0
element camera 0
property float view_px
property float view_py
property float view_pz
property float x_axisx
property float x_axisy
property float x_axisz
property float y_axisx
property float y_axisy
property float y_axisz
property float z_axisx
property float z_axisy
property float z_axisz
property float focal
property float scalex
property float scaley
property float centerx
property float centery
property int viewportx
property int viewporty
property float k1
property float k2
end_header
0.29604 0.67821902 3.1795399 46 46 46
0.30423099 0.678276 3.1808801 42 41 39
0.41279599 0.74686497 3.49417 34 31 30
0.40630701 0.74316502 3.4746399 34 32 30
0.42186999 0.74560201 3.4860201 37 33 33
0.43054199 0.74539697 3.48299 39 36 35
0.438555 0.74470198 3.4758101 39 37 35
0.44906199 0.74319702 3.4865401 39 36 36
0.476567 0.75655502 3.5176101 40 39 38
0.47006699 0.748344 3.50563 35 34 34
0.50180399 0.74970597 3.5027299 37 36 36
0.53176999 0.75639403 3.52512 42 40 41
0.55037397 0.75709999 3.53179 44 42 43
0.56106001 0.75694901 3.5374899 42 40 41
0.58432001 0.75859499 3.52648 40 39 40
0.59715599 0.75159299 3.49051 42 40 40
0.61194301 0.74937201 3.47212 44 43 42
0.62658501 0.74456698 3.42802 65 63 64
0.63477999 0.733163 3.4077899 73 73 74
0.63749701 0.73665702 3.39008 80 80 81
0.660487 0.72325498 3.3484001 94 97 100
0.66794199 0.722758 3.34254 103 106 110
0.675309 0.72163397 3.33605 112 114 118
0.76214498 0.73687398 3.36659 141 143 146
0.77014703 0.73654997 3.3656199 104 104 105
0.77941298 0.73696899 3.3634801 74 73 72
0.78174502 0.728571 3.36025 73 73 73
1.24603 0.835244 3.77494 64 61 62
1.25345 0.83417898 3.76267 63 61 61
1.26215 0.828399 3.7562201 29 28 29
1.27134 0.82827097 3.75246 24 24 26
1.30837 0.83514899 3.74259 43 40 41
1.32371 0.826478 3.70825 54 52 51
1.32991 0.82052201 3.7005899 58 55 54
1.33776 0.819408 3.6684401 74 72 71
1.3474 0.81779802 3.67257 78 77 77
1.35068 0.81215698 3.6559899 85 85 85
1.35824 0.81085098 3.6452701 92 95 98
1.37086 0.80675501 3.61127 102 108 112
1.38149 0.80913502 3.6075499 149 155 159
1.37925 0.80642903 3.6076901 136 141 145
1.3901401 0.80871999 3.60639 171 175 180
1.38739 0.806054 3.6038301 178 183 188
1.39873 0.80820203 3.60274 171 175 180
1.40956 0.80900401 3.60113 168 173 178
1.44116 0.81781298 3.6376901 167 172 176
1.44116 0.81781298 3.6376901 167 172 176
1.47355 0.813999 3.6498499 174 177 180
1.4785 0.82217598 3.6467099 86 88 88
1.49112 0.82329899 3.65253 40 39 37
1.7625999 0.90308201 3.9960301 30 28 28
1.77785 0.89634699 3.95978 30 28 28
1.77416 0.88283998 3.9238801 31 28 28
1.7899899 0.88700098 3.9223001 37 34 33
1.79593 0.88186198 3.8836401 45 42 40
1.80055 0.874318 3.8721099 45 42 40
1.81454 0.87701797 3.8694401 59 57 56
1.82397 0.87502599 3.86994 63 61 60
1.82319 0.87283802 3.8406999 78 78 79
1.87769 0.85917997 3.78721 155 157 161
1.8901401 0.85878199 3.7909 163 165 168
1.93538 0.873142 3.83482 168 170 173
1.92936 0.87083298 3.82232 168 170 173
1.9417 0.87102097 3.82987 151 152 152
1.94835 0.86873502 3.8266201 72 72 71
1.9521101 0.87313098 3.8076899 53 50 48
-1.38007 0.43571299 2.30124 91 91 88
-1.37477 0.43860099 2.3018899 97 97 94
-1.36633 0.438043 2.30405 95 95 90
-1.36061 0.439744 2.30426 100 99 96
-1.13778 0.45384899 2.34868 108 111 113
-1.13281 0.45594999 2.35303 118 122 125
-1.12849 0.45874301 2.35796 153 159 161
-1.02925 0.466957 2.3900399 165 172 177
-1.02226 0.47278699 2.4107499 165 171 175
-1.0223 0.47282901 2.41029 165 171 175
-1.0110199 0.470442 2.4005301 170 175 180
-1.00639 0.46948999 2.4026201 171 176 183
-0.96302497 0.47588801 2.41401 164 170 176
-0.95988399 0.47420901 2.39782 164 170 176
-0.640311 0.51957703 2.55515 170 175 180
-0.636213 0.51589298 2.5532 172 177 183
-0.571109 0.52855301 2.5971501 169 176 182
-0.57341897 0.52917701 2.6007199 171 177 184
-0.56466699 0.53099102 2.5929 166 173 179
-0.56686002 0.53052598 2.59501 167 174 180
-0.558101 0.530734 2.59499 162 169 175
-0.247289 0.659944 3.1719 63 58 58
-0.23967201 0.66255701 3.1712 64 60 59
0.0337773 0.71448702 3.3510101 59 55 54
0.045966599 0.70588398 3.34443 53 50 49
0.054739501 0.70482498 3.3278999 49 46 45
0.064195096 0.70449102 3.31827 44 40 39
0.100926 0.70891303 3.34148 36 33 33
0.13994899 0.695418 3.26807 49 45 44
0.154208 0.68723398 3.22352 59 56 55
0.158461 0.68166 3.2076099 62 59 59
0.170561 0.673922 3.1554401 67 65 66
0.279024 0.68117797 3.1733999 182 184 190
0.29177299 0.68474102 3.1745 98 99 101
0.400967 0.753048 3.47122 44 41 38
0.43364099 0.75270402 3.47702 47 43 41
0.449902 0.75156498 3.4830599 46 44 42
0.48470199 0.765279 3.5176101 46 44 43
0.51698202 0.764274 3.5172999 43 42 41
0.55367702 0.76700002 3.5379801 47 46 46
0.56224501 0.77249599 3.53087 49 48 49
0.57301402 0.77252603 3.5372801 43 43 43
0.586891 0.77041799 3.5264499 45 44 45
0.59911603 0.76222801 3.4803901 45 44 44
0.60356301 0.75464499 3.4749801 43 42 41
0.61395299 0.76119697 3.4728 51 50 50
0.62348402 0.74837399 3.4365499 63 61 62
0.63189 0.75059003 3.41957 74 73 74
0.65637499 0.73439699 3.36023 85 87 89
0.67125899 0.73014498 3.3385701 94 98 102
0.68599099 0.73179102 3.32693 163 168 172
0.75813401 0.74451101 3.36707 166 168 172
0.76691198 0.74478197 3.3636799 96 97 97
0.77502 0.74457002 3.3629899 78 78 77
0.78222698 0.743801 3.36097 80 79 77
0.79116303 0.742405 3.3619001 79 78 76
1.24036 0.85793197 3.8183501 69 67 67
1.20682 0.83741403 3.7249701 70 68 68
1.24928 0.84546298 3.7632699 70 66 66
1.32967 0.83215898 3.6985199 63 61 60
1.32731 0.83187699 3.6991401 61 59 58
1.33201 0.825041 3.6805699 68 65 64
1.45972 0.82292497 3.64485 161 165 169
1.46806 0.82203799 3.6437199 172 175 178
1.47385 0.83097303 3.64218 116 117 117
1.4850301 0.83138001 3.6470499 41 40 39
1.48804 0.82901502 3.63269 42 40 38
1.7539901 0.908503 4.0002799 30 28 28
1.76779 0.91090798 3.98546 31 29 29
1.7721 0.90364301 3.96909 30 28 27
1.77572 0.89783502 3.92384 35 33 33
1.78155 0.89154601 3.9196999 36 33 32
1.79063 0.89912498 3.9192901 42 39 38
1.79498 0.891388 3.9059401 43 40 39
1.80084 0.88847297 3.8729999 57 54 53
1.80161 0.88907403 3.87292 58 55 54
1.8082 0.88291198 3.87063 59 57 56
1.80603 0.88140202 3.86092 61 59 58
1.8208899 0.883524 3.8493099 75 73 74
1.93326 0.881091 3.81585 159 160 163
1.95253 0.88197601 3.8202801 54 51 49
1.94602 0.88109702 3.8224499 100 99 98
1.95367 0.87806398 3.80954 53 49 47
-1.4127001 0.42024201 2.19998 154 160 166
-1.4144 0.42038399 2.20087 154 160 166
-1.39689 0.42342299 2.2119801 154 158 164
-1.36322 0.44472501 2.2999699 107 106 102
-1.3611701 0.44028899 2.3043001 100 99 96
-1.1351399 0.460136 2.3459301 111 114 117
-1.1316299 0.46396601 2.35449 143 148 150
-1.12419 0.461555 2.3591299 165 172 176
-1.0338 0.47231701 2.3894999 167 174 179
-1.0295399 0.47566399 2.3933101 162 169 174
-1.02428 0.478632 2.4119501 165 170 174
-1.01606 0.47692901 2.4042399 168 173 177
-1.0161999 0.47689801 2.4034801 168 173 177
-0.96497601 0.48295999 2.42343 161 167 173
-0.95975298 0.48517501 2.42539 135 140 146
-0.89561599 0.502671 2.5148399 88 96 96
-0.88808298 0.502765 2.5124199 89 96 97
-0.63802999 0.52607602 2.56181 170 176 181
-0.632182 0.52882701 2.5632701 175 182 187
-0.62893403 0.52324897 2.56441 177 184 188
-0.57467002 0.53492397 2.59955 173 180 186
-0.573457 0.53570098 2.5971501 173 179 185
-0.56687599 0.536726 2.5897501 169 177 182
-0.56041002 0.53670502 2.5925901 168 175 181
0.055890199 0.71326703 3.3229899 53 50 48
0.104474 0.71752799 3.34078 36 32 33
0.111974 0.71477598 3.3333499 36 33 33
0.123338 0.719558 3.3199401 42 39 39
0.12948 0.71644402 3.31725 46 43 42
0.14567 0.69805098 3.2422099 54 50 50
0.15562101 0.70017803 3.2232001 66 63 63
0.150809 0.69525301 3.22732 57 54 54
0.276894 0.691172 3.1630001 167 169 173
0.287779 0.69151199 3.1724401 154 156 157
0.40080199 0.75834602 3.4625299 48 45 42
0.441524 0.76094502 3.4832201 51 48 45
0.48505899 0.77508199 3.5129399 51 50 47
0.49311501 0.77437401 3.51898 50 49 47
0.512209 0.77168101 3.5150101 57 55 55
0.52118498 0.771703 3.51495 46 44 44
0.53001201 0.77158201 3.5143099 53 52 52
0.53945202 0.77174097 3.5150001 53 52 52
0.55144 0.77275002 3.5258 51 50 51
0.56556499 0.78232402 3.5369 52 51 52
0.58137202 0.78025103 3.5358601 44 44 44
0.59495902 0.77461398 3.5072999 48 47 47
0.607777 0.765414 3.47385 48 47 47
0.63254499 0.74389499 3.3805599 75 75 76
0.63992 0.74624598 3.3877201 79 80 81
0.641177 0.74987102 3.3683901 84 85 86
0.64419299 0.74145401 3.3622601 82 83 85
0.65925997 0.74192798 3.3559301 90 93 96
0.66781998 0.74339998 3.3364899 110 115 118
0.67498398 0.73777997 3.33533 111 116 119
0.68054301 0.73946899 3.32478 173 177 181
0.68841201 0.73893797 3.32757 180 184 188
0.76209301 0.75266099 3.3652999 174 176 178
0.76964998 0.75228202 3.3590801 87 87 86
1.19971 0.84681201 3.72489 79 77 76
1.24145 0.85213399 3.74336 72 69 68
1.26275 0.847458 3.74947 34 31 32
1.30963 0.843593 3.71909 46 45 44
1.33435 0.84011501 3.70328 67 64 62
1.33187 0.83657199 3.6731801 70 67 66
1.3342 0.829449 3.6558299 72 70 70
1.3453799 0.83723998 3.65224 75 74 75
1.35247 0.83183098 3.65119 83 83 85
1.46621 0.83137101 3.64273 157 159 160
1.4847 0.83233899 3.64061 43 42 40
1.7462 0.92373902 3.9960201 37 35 35
1.75255 0.91814101 3.9823501 34 32 32
1.76748 0.91422999 3.94754 33 31 32
1.7789201 0.91151297 3.95976 34 31 31
1.78465 0.90844798 3.9275701 43 40 40
1.78774 0.90075397 3.88255 51 47 47
1.79672 0.89634401 3.88592 54 51 49
1.80713 0.89660197 3.86465 68 67 65
1.81233 0.88949001 3.8547101 73 72 71
1.8133301 0.89062101 3.8594799 72 71 70
1.82136 0.89115697 3.83799 75 75 76
1.93092 0.893583 3.8123 156 156 161
1.94373 0.89372098 3.8178101 106 106 105
1.9507101 0.89455998 3.8187399 62 60 58
1.95719 0.89038801 3.81933 55 53 50
1.95674 0.89225799 3.81515 57 55 52
1.98194 0.89454198 3.84324 55 52 49
2.00207 0.89966297 3.8584499 56 53 49
-1.42721 0.41823801 2.17892 155 160 165
-1.41398 0.42197099 2.17892 157 161 166
-1.40546 0.42094499 2.1930001 154 160 165
-1.40184 0.424402 2.1989601 155 160 166
-1.39964 0.42891601 2.2100101 156 160 166
-1.39877 0.42870301 2.2262001 151 155 160
-1.3996201 0.43285799 2.24332 143 146 148
-1.37466 0.44205099 2.2883601 102 102 98
-1.3710001 0.445508 2.2931199 103 104 99
-1.36519 0.44731101 2.289 103 103 99
-1.13348 0.46818301 2.34603 118 122 125
-1.12778 0.46737599 2.3585701 162 168 172
-1.03324 0.4806 2.38978 165 172 177
-1.02738 0.484056 2.4107101 163 169 172
-1.01947 0.48252299 2.40395 166 172 175
-1.01125 0.48064199 2.39553 169 175 178
-0.90679502 0.510692 2.5256801 89 97 97
-0.90051198 0.51133198 2.5261199 92 99 100
-0.89273602 0.51155198 2.52404 93 100 101
-0.89279002 0.51157302 2.5246201 92 100 101
-0.63861001 0.534486 2.5633199 169 175 180
-0.63755 0.53332698 2.56212 169 176 181
-0.569215 0.54327703 2.5901799 170 177 183
-0.56263298 0.542184 2.5880799 168 175 181
-0.55678099 0.53985602 2.5799401 168 174 181
0.033177599 0.72237498 3.34253 63 60 58
0.0410996 0.72272003 3.3343101 61 58 56
0.048652101 0.72256702 3.32392 59 56 54
0.056542601 0.721138 3.31551 56 53 51
0.100352 0.72697598 3.3483701 41 38 38
0.108015 0.72469801 3.3336699 38 34 34
0.115788 0.72228199 3.32776 38 35 35
0.134104 0.71546 3.26546 49 46 45
0.14103401 0.71153498 3.26057 55 51 50
0.278772 0.70171797 3.1746399 151 151 152
0.282406 0.69963098 3.1666701 152 152 152
0.29129699 0.69803298 3.16711 74 74 74
0.47697699 0.77530098 3.5051899 52 50 47
0.49353299 0.783548 3.5130301 59 58 57
0.49701601 0.779109 3.5026801 60 58 58
0.51390302 0.78443402 3.51334 61 59 59
0.52294898 0.78445899 3.5118001 51 49 49
0.53280002 0.78495198 3.51039 63 61 62
0.541354 0.78781301 3.52123 63 61 62
0.54754001 0.78079599 3.5248301 57 55 56
0.568986 0.79004699 3.5366001 55 54 55
0.57688099 0.78814399 3.5360999 47 46 47
0.58638 0.78740603 3.5316401 46 45 46
0.60764199 0.776591 3.4721301 53 52 51
0.613662 0.76913899 3.4562399 58 57 57
0.61592102 0.76686603 3.4247799 63 62 62
0.62253398 0.76203603 3.42171 68 67 67
0.63125598 0.76228601 3.4209299 75 75 75
0.66872102 0.74755698 3.33689 109 114 118
0.67213601 0.74437398 3.3229101 108 112 115
0.683837 0.74585801 3.3291399 170 173 177
0.69252002 0.74655801 3.3257999 167 171 175
0.70163202 0.75092298 3.3329799 168 171 175
0.71232998 0.75204003 3.3382199 171 174 178
0.72435898 0.75371301 3.34447 165 168 172
0.73271799 0.75345498 3.3425801 173 176 180
0.75500101 0.75800401 3.3659301 168 169 174
0.76212299 0.76041597 3.3605299 149 150 152
0.76947898 0.75521702 3.3605199 90 90 90
1.21225 0.85753101 3.7244501 87 85 85
1.22103 0.85118401 3.72559 80 78 77
1.2554899 0.85608798 3.74176 66 64 63
1.26661 0.854635 3.74141 28 27 28
1.31006 0.85837501 3.7241499 44 43 42
1.31335 0.85007602 3.7075801 50 48 47
1.32655 0.85271198 3.6912301 68 65 64
1.32716 0.84429097 3.6702099 70 67 66
1.33943 0.85123998 3.67347 73 71 72
1.3372101 0.84216702 3.6514399 74 72 73
1.3446701 0.83574998 3.60619 84 85 88
1.36032 0.83742797 3.6238401 88 91 95
1.46623 0.84367198 3.6394501 150 151 152
1.4778301 0.83935702 3.6364901 51 51 50
1.48219 0.847031 3.6331 57 55 54
1.4864 0.83906198 3.63236 51 50 48
1.51085 0.85010999 3.6495099 54 52 52
1.72605 0.92918599 3.9951899 44 43 43
1.75157 0.93533099 3.9952099 40 38 39
1.76397 0.932289 3.9930799 37 35 35
1.76994 0.92891198 3.9716799 35 33 33
1.7733999 0.92125398 3.9349599 40 38 37
1.77733 0.91291797 3.9224999 43 40 41
1.80352 0.90485901 3.87957 63 62 60
1.80112 0.90587002 3.8433499 72 70 70
1.81274 0.903458 3.85355 74 72 73
1.82162 0.89814001 3.81972 80 81 84
1.9506 0.90140402 3.80955 66 64 60
1.95467 0.90501398 3.81374 69 67 63
-1.4382 0.420252 2.17325 157 162 167
-1.43303 0.42261899 2.1733601 142 147 152
-1.42826 0.424575 2.17839 139 142 147
-1.41998 0.42456901 2.17238 127 130 135
-1.41171 0.425246 2.1924901 157 160 166
-1.40478 0.42854199 2.19348 144 147 152
-1.40562 0.43560201 2.2374201 152 155 159
-1.37909 0.448585 2.2888401 102 102 99
-1.36713 0.450286 2.29948 103 104 99
-1.36174 0.45236799 2.29931 105 105 102
-1.1303999 0.47194999 2.35197 146 151 153
-1.12126 0.47465399 2.36642 167 173 180
-1.10541 0.47734201 2.3545201 169 175 182
-1.0988801 0.47643301 2.3568399 169 175 181
-1.08837 0.47903299 2.3639901 170 176 182
-1.07587 0.47592801 2.35601 170 177 183
-1.06559 0.474787 2.35132 170 177 183
-1.05009 0.484615 2.3784399 172 177 183
-1.04175 0.48280299 2.38572 170 176 181
-1.0381 0.48678899 2.3919499 168 174 179
-1.02925 0.488249 2.40361 161 167 170
-1.01887 0.49112499 2.4112201 169 175 178
-0.65748 0.53153801 2.54936 166 171 177
-0.64075601 0.53965402 2.5636401 167 173 177
-0.64069903 0.54144102 2.56517 167 173 177
-0.63388401 0.53869599 2.5602801 173 180 185
-0.62997103 0.53440702 2.5580499 175 182 187
-0.559506 0.54734701 2.58494 166 172 178
0.0325385 0.73024601 3.3341 67 64 62
0.044979401 0.7256 3.29814 63 60 58
0.092995897 0.73542601 3.34849 46 43 42
0.137851 0.72080898 3.2541101 54 51 51
0.142507 0.71772802 3.23173 56 53 53
0.290151 0.70837098 3.1717601 70 69 67
0.29638901 0.70481902 3.16366 56 55 53
0.469937 0.78151798 3.4881499 49 47 44
0.484712 0.78371102 3.5039899 57 56 54
0.50746202 0.78988099 3.5025499 70 68 68
0.549721 0.79088801 3.5241699 63 61 62
0.58136499 0.79654402 3.53476 48 47 48
0.59280699 0.79172802 3.5144701 50 49 50
0.60012698 0.78539002 3.4885199 52 51 50
0.60583401 0.78937697 3.4782701 56 55 54
0.61503202 0.77575099 3.4505601 62 61 61
0.61825502 0.76956999 3.4219601 67 65 66
0.620987 0.77614701 3.4131 77 76 76
0.66792297 0.75731498 3.3237901 75 79 82
0.67643499 0.75705099 3.3274801 90 93 96
0.67831999 0.75305498 3.3278999 118 121 124
0.68333298 0.75620002 3.3278899 134 136 139
0.69165498 0.75616097 3.3317599 149 151 154
0.69763398 0.75843698 3.33216 147 148 151
0.72000498 0.76142198 3.3452499 147 148 151
0.72834498 0.761141 3.3433101 142 143 146
0.73545098 0.76018697 3.3385799 154 155 159
0.74444199 0.76022297 3.3381 150 150 154
0.77012002 0.7633 3.3571501 93 92 92
1.20314 0.85920101 3.7258301 90 87 87
1.21997 0.86406797 3.7254901 90 87 87
1.23999 0.86491501 3.7298901 83 81 80
1.27097 0.86384702 3.74102 30 28 29
1.30984 0.86697102 3.7450299 40 39 39
1.32032 0.85962999 3.7096601 58 57 55
1.31283 0.85912597 3.6783099 60 58 57
1.31023 0.85866898 3.67224 60 58 57
1.33182 0.85264403 3.66503 73 71 71
1.33404 0.84066898 3.6213701 77 77 78
1.34343 0.83853197 3.6097701 85 86 89
1.4115 0.848463 3.60888 154 156 158
1.42298 0.84894401 3.61519 161 164 167
1.43683 0.85083699 3.6201701 168 171 174
1.46079 0.85160297 3.6383801 169 170 171
1.46978 0.85177702 3.6347101 100 100 99
1.7156301 0.93965501 3.97715 52 51 51
1.74052 0.93751597 3.9939699 46 45 45
1.7676899 0.94139397 3.9844601 38 36 36
1.76999 0.92866498 3.9524901 38 35 35
1.77132 0.93659902 3.96399 38 37 37
1.78447 0.92112899 3.9154201 46 43 43
1.79612 0.92232502 3.8960299 59 57 57
1.7950799 0.91293299 3.85147 70 68 68
1.78988 0.90699899 3.8059399 73 72 73
1.8089401 0.90543401 3.81549 76 76 78
1.8247401 0.90533203 3.8085599 91 94 97
1.92694 0.90581399 3.8118999 163 166 172
1.9366 0.9059 3.8132601 120 119 121
1.93689 0.90493602 3.81323 116 116 118
-1.41561 0.42730001 2.17571 100 102 107
-1.41092 0.42889699 2.1811199 99 100 105
-1.40745 0.43243599 2.18734 104 105 109
-1.40229 0.434829 2.1877501 114 116 120
-1.3978601 0.43375999 2.20051 96 98 103
-1.3698601 0.45445201 2.2930701 112 113 111
-1.36466 0.457156 2.2950599 114 114 112
-1.13306 0.48008499 2.3665199 164 170 173
-1.1241 0.479487 2.3624301 169 175 179
-1.1233701 0.48164999 2.36812 170 174 180
-1.11245 0.47895199 2.35548 170 175 181
-1.10388 0.47930601 2.3549399 170 175 182
-1.09638 0.48098701 2.34551 140 143 152
-1.09184 0.48213401 2.35444 153 158 165
-1.08523 0.48376399 2.37656 171 178 184
-1.06122 0.48263401 2.3659599 173 178 185
-1.05665 0.484956 2.36497 167 172 179
-1.05222 0.48752901 2.36515 143 148 154
-1.04556 0.487207 2.37867 172 176 182
-1.03405 0.49034601 2.3970499 164 169 174
-1.0295399 0.49283099 2.39604 161 164 169
-1.02588 0.49683699 2.4026101 145 147 152
-1.0201 0.49732399 2.4118299 167 170 175
-1.01077 0.49746501 2.4093299 169 173 178
-1.0039001 0.49600601 2.4084401 171 177 181
-0.67782301 0.52685499 2.4848101 164 171 178
-0.66850001 0.52704698 2.49893 170 177 183
-0.67297202 0.530159 2.48964 169 174 181
-0.66526097 0.53244299 2.50565 169 175 181
-0.66470701 0.53054202 2.5007901 169 175 182
-0.65205002 0.53743201 2.54352 161 165 171
-0.64620697 0.54092699 2.5584199 160 166 170
-0.64343101 0.54530102 2.5615499 163 169 173
-0.63120502 0.542382 2.5420699 171 178 182
-0.59230399 0.54980499 2.5678101 170 176 182
-0.58668703 0.545901 2.5678599 173 179 185
-0.57646501 0.54989398 2.5738399 178 184 190
-0.55983597 0.55424702 2.5852399 166 172 179
0.026778201 0.734106 3.31725 69 66 64
0.034598 0.73449802 3.3092999 68 66 64
0.0433768 0.73573601 3.3048301 66 63 62
0.13327201 0.72739899 3.27407 51 47 47
0.13822199 0.72359699 3.2548399 54 50 50
0.136292 0.73097903 3.2575099 48 44 44
0.28514999 0.71514899 3.17046 77 76 74
0.30054301 0.71759498 3.17471 57 56 54
0.46940699 0.79109502 3.4851501 48 45 44
0.47815901 0.79204899 3.4932001 52 50 49
0.493637 0.79224402 3.5049601 67 66 67
0.51741201 0.798805 3.50826 62 60 60
0.52419698 0.79276597 3.50524 59 57 57
0.60013801 0.79555702 3.4870801 53 52 51
0.60250503 0.79493499 3.4703701 55 54 53
0.60717601 0.79163402 3.4558799 61 59 58
0.611242 0.784693 3.44085 67 65 65
0.66631502 0.76822698 3.3324399 85 89 93
0.67181402 0.76604098 3.3271899 70 74 76
0.68085498 0.76499802 3.3283899 95 98 99
1.13761 0.86917698 3.71487 106 104 102
1.16541 0.86799502 3.71526 101 101 98
1.19444 0.87414801 3.71648 94 93 92
1.20155 0.87290299 3.71295 99 97 95
1.21929 0.876638 3.72399 97 96 94
1.2357399 0.872419 3.73118 88 86 84
1.24555 0.87406403 3.7318599 89 88 87
1.24544 0.87392801 3.73474 89 88 86
1.24611 0.87354398 3.7358501 89 87 86
1.25533 0.87294197 3.73404 73 70 69
1.26703 0.87383002 3.73876 34 32 33
1.28897 0.879821 3.74787 35 34 35
1.30093 0.88288498 3.7500701 42 40 40
1.30786 0.87361997 3.73229 46 44 44
1.30453 0.87689 3.73509 45 43 43
1.30432 0.86434698 3.6814201 55 53 52
1.3066601 0.85944998 3.6712401 58 56 55
1.3115799 0.86623102 3.6605899 71 69 69
1.31883 0.86053598 3.6435399 80 77 78
1.32627 0.85806602 3.6315899 85 83 84
1.33314 0.85286701 3.62363 88 87 89
1.34587 0.84909898 3.6183701 94 94 97
1.3627501 0.853953 3.6141 84 86 90
1.37415 0.85379499 3.6133299 77 80 84
1.37893 0.85115498 3.60144 100 103 107
1.38669 0.85007 3.59587 152 153 157
1.3974 0.85053599 3.59694 156 156 159
1.4089299 0.859056 3.61392 131 131 133
1.41923 0.85833001 3.6108999 125 126 127
1.43019 0.85789102 3.61638 143 145 147
1.45355 0.85778898 3.62988 139 141 142
1.46355 0.85894901 3.63043 139 139 139
1.47253 0.862387 3.6273999 59 59 57
1.6988 0.94394702 3.95013 57 56 56
1.7528 0.95384198 3.98453 45 43 44
1.77636 0.93718302 3.9379399 46 44 44
1.76765 0.92636901 3.8721001 54 51 52
1.79301 0.90711802 3.77512 88 88 91
1.79676 0.90511799 3.75387 93 95 98
1.88826 0.91435301 3.7915599 171 176 180
1.91687 0.91832203 3.8039501 167 168 172
1.93095 0.91873902 3.8117499 173 173 175
1.94622 0.912929 3.80286 78 76 72
1.9620399 0.916875 3.81656 78 75 70
1.9827 0.92391402 3.84325 79 75 71
-1.41856 0.429212 2.1637499 123 124 128
-1.41429 0.43351099 2.1591001 154 159 161
-1.40661 0.43391401 2.1693599 140 143 146
-1.40373 0.43774101 2.1768601 152 155 158
-1.39877 0.43838501 2.1937101 128 131 134
-1.1218899 0.48452801 2.3531899 95 99 103
-1.11173 0.482591 2.34726 100 104 109
-1.10343 0.482712 2.34694 107 109 117
-1.05612 0.493238 2.3651099 124 128 134
-1.04594 0.49706101 2.38551 117 119 124
-1.0485801 0.49142501 2.3715301 113 116 122
-1.03383 0.49859801 2.39694 104 104 109
-1.01674 0.5011 2.3965199 113 114 120
-1.01018 0.499962 2.3973899 113 114 120
-0.66919601 0.53347802 2.4907601 167 171 178
-0.64876401 0.54233599 2.53947 159 165 170
-0.58283198 0.55235398 2.5709701 178 183 189
-0.55919999 0.56484002 2.6018801 159 163 170
0.0271562 0.743074 3.3134699 73 68 66
0.034996402 0.743312 3.3051801 72 69 68
0.0426789 0.74347597 3.2964399 70 66 66
0.135405 0.735053 3.26384 46 42 42
0.14087801 0.73710901 3.2499001 51 47 48
0.29182601 0.720604 3.1648901 55 55 54
0.47811699 0.80206198 3.49195 60 58 56
0.485461 0.80118001 3.4932899 63 61 61
0.492309 0.79846603 3.4905 68 67 67
0.504161 0.800942 3.5019 71 70 70
0.51819402 0.80897802 3.5028601 67 66 66
0.52632099 0.80406499 3.50456 65 63 63
0.57201099 0.81247699 3.5239401 55 53 53
0.66979003 0.77652198 3.3350999 96 102 106
0.67499799 0.77415103 3.32917 110 114 118
0.69031698 0.77704197 3.33002 117 120 123
1.13985 0.87992698 3.73965 87 85 84
1.1571701 0.87977898 3.7309999 80 78 78
1.1692801 0.88073403 3.7341001 80 79 78
1.17985 0.88151699 3.7330201 78 76 76
1.1897 0.87933397 3.7286401 85 83 82
1.2077399 0.88381398 3.7172699 101 100 97
1.2279201 0.882456 3.7265899 97 95 93
1.23987 0.88249499 3.73263 92 89 87
1.25067 0.884175 3.7362599 93 91 89
1.2505 0.88264602 3.73528 92 90 88
1.26061 0.88100702 3.73193 45 43 42
1.26493 0.888794 3.7286999 36 35 35
1.30398 0.89144301 3.7343099 47 45 47
1.30225 0.87646699 3.7044101 53 50 51
1.30638 0.87216502 3.6722701 66 64 64
1.31704 0.87305897 3.6526699 68 66 66
1.3206199 0.86385298 3.642 81 79 79
1.33403 0.85788703 3.60776 78 76 79
1.33947 0.85893703 3.59497 69 69 73
1.46578 0.86916101 3.6333301 96 95 94
1.70258 0.948291 3.9526701 59 58 58
1.74502 0.96064699 3.9661 52 50 49
1.78475 0.917346 3.8078799 78 76 77
1.77878 0.91927099 3.7987499 78 77 77
1.78267 0.911089 3.77812 82 82 83
1.79081 0.91184199 3.75755 81 81 84
1.86824 0.91431499 3.7683201 146 151 154
1.89134 0.92476302 3.78844 122 125 126
1.89116 0.92336398 3.7844999 122 124 125
1.90315 0.92077202 3.79266 145 146 149
1.9182 0.92784601 3.79719 118 119 119
1.93223 0.92909801 3.8062601 122 121 120
1.94103 0.92772299 3.80599 90 86 84
-1.4087 0.43748599 2.16309 159 164 167
-1.4066401 0.43226901 2.1489999 156 161 164
-1.40334 0.44355899 2.19344 156 160 163
-1.39431 0.446706 2.20614 151 154 158
-1.11265 0.48814401 2.34448 126 129 135
-1.10429 0.488197 2.34393 128 130 138
-1.09956 0.49060601 2.34899 138 141 149
-1.0516 0.49581599 2.36514 144 148 154
-1.04825 0.50003898 2.3727 158 162 168
-1.04255 0.50140101 2.3931 134 135 141
-1.0233099 0.50211501 2.39416 126 127 132
-1.0078599 0.50514901 2.3889201 152 156 162
-1.0013 0.50420499 2.38957 142 146 151
-0.66567099 0.54239202 2.51244 127 131 138
-0.66018099 0.54492402 2.5172901 110 113 120
-0.64958698 0.544348 2.51859 127 132 138
-0.641289 0.54696101 2.51298 107 112 118
-0.63236099 0.54525399 2.4965701 122 127 134
-0.602364 0.54679698 2.5081999 110 112 120
-0.585168 0.55857098 2.56973 144 146 154
0.0187493 0.75058299 3.3132701 76 72 70
0.026589699 0.75083297 3.3050301 76 72 70
0.0344106 0.75116402 3.2974701 75 72 71
0.0496471 0.74218398 3.25545 72 68 68
0.134803 0.74548 3.26385 51 47 47
0.141358 0.74053901 3.257 54 50 51
0.14767399 0.74179697 3.2432201 66 63 64
0.29136899 0.72809398 3.1601901 73 72 73
0.296058 0.72545701 3.1654899 59 58 58
0.46797299 0.80486202 3.48715 37 36 35
0.490201 0.80777001 3.49594 75 75 75
0.49626201 0.80538303 3.4866199 77 76 76
0.51057398 0.80987197 3.50213 78 78 77
0.51555198 0.81670499 3.4975801 76 77 77
0.532785 0.81363201 3.5002201 73 74 73
0.55132002 0.81786901 3.5149701 69 68 68
0.56406999 0.81980598 3.51965 67 65 66
0.57189202 0.81678402 3.5116999 56 54 54
0.59957802 0.81606698 3.49422 48 47 46
0.59802002 0.8132 3.49752 45 44 43
0.60171002 0.81097901 3.4709101 51 50 49
0.60689098 0.79842502 3.4296999 55 53 53
0.60977101 0.79977298 3.4242201 61 59 59
0.67435199 0.78140301 3.3206999 115 120 124
0.66925597 0.783099 3.3259101 88 95 99
0.68238699 0.77964801 3.3259799 150 154 158
0.69005901 0.78421003 3.32323 159 163 166
1.16447 0.88952398 3.7362299 17 16 18
1.1798199 0.89124101 3.7353401 13 11 14
1.1824501 0.88781399 3.71861 25 23 25
1.19154 0.88393199 3.7151 64 63 62
1.20035 0.89153099 3.71366 111 110 109
1.21893 0.88956398 3.7239799 107 106 104
1.24445 0.89192301 3.73402 101 99 96
1.2542599 0.89237797 3.73229 99 97 95
1.25422 0.89163601 3.7341199 98 96 94
1.2634799 0.89182597 3.7304299 39 37 37
1.30372 0.89049602 3.7067299 52 49 50
1.3063999 0.88508302 3.6737001 56 54 54
1.31271 0.87932903 3.6651399 63 61 61
1.32293 0.879852 3.64486 67 65 66
1.32442 0.871472 3.63236 68 66 68
1.33364 0.86433798 3.60553 69 67 70
1.6909699 0.95776099 3.9505301 63 61 60
1.73616 0.96540701 3.9631901 54 53 52
1.7767299 0.93381798 3.7987101 60 59 60
1.78827 0.93175203 3.7849901 65 64 65
-1.40592 0.441396 2.1693799 159 164 168
-1.4067301 0.44774899 2.1887801 157 162 165
-1.40282 0.45313901 2.21486 157 162 165
-1.3986501 0.45648 2.21456 156 160 163
-1.1117899 0.495267 2.3447499 163 169 175
-1.08574 0.49687201 2.3564501 167 171 179
-1.07901 0.49702701 2.35533 165 171 177
-1.07107 0.49604401 2.3483801 167 173 178
-1.0641299 0.495985 2.3455701 168 175 180
-1.05724 0.49622199 2.3429599 170 176 181
-1.04603 0.49902099 2.33828 171 179 184
-1.04102 0.50678802 2.38569 167 173 178
-1.0439399 0.50267398 2.37289 167 173 177
-1.03845 0.49680999 2.33571 170 178 183
-1.03716 0.51052302 2.3912599 166 173 176
-1.02966 0.50963902 2.3922801 164 169 174
-1.01524 0.50793803 2.3954 161 165 171
-1.01125 0.51479799 2.4088099 171 177 184
-0.996539 0.516527 2.4182701 165 171 178
-0.64732802 0.53858501 2.4532199 155 159 166
-0.63985503 0.54315901 2.45979 168 174 182
-0.62474799 0.54548001 2.4899299 139 145 152
-0.62879002 0.54750401 2.48157 161 167 175
-0.618195 0.54594302 2.4936399 132 137 144
-0.60930502 0.551323 2.49651 162 167 175
-0.59765297 0.55593902 2.5177801 161 166 173
-0.58478498 0.56486601 2.56708 131 133 141
0.0260954 0.75858802 3.29672 81 77 75
0.038660198 0.75318199 3.2716501 77 75 73
0.046345301 0.75348997 3.2636099 78 76 75
0.140761 0.75097603 3.257 66 63 64
0.140669 0.750862 3.25666 66 63 64
0.15104701 0.743433 3.2237501 72 69 71
0.289698 0.736781 3.1614399 85 86 87
0.29581901 0.73259997 3.16026 60 60 60
0.444803 0.82462502 3.5050199 42 42 43
0.45366201 0.82472801 3.5035701 72 71 72
0.46780801 0.81444299 3.48454 41 40 40
0.47529399 0.81386 3.4879601 68 68 67
0.48335201 0.822815 3.4895101 82 82 82
0.50628603 0.81679201 3.4932699 85 86 85
0.53498298 0.82253999 3.5000899 83 83 83
0.54305297 0.820553 3.49208 80 80 80
0.55628699 0.82520998 3.5052199 77 77 77
0.58998501 0.82667202 3.5158 47 46 44
0.605515 0.82051098 3.4642999 69 69 67
0.60469598 0.82228202 3.47943 66 65 64
0.60648602 0.80963898 3.4481599 63 62 61
0.66902101 0.78502202 3.323 89 95 99
0.66898203 0.78981602 3.3176301 97 103 107
0.68192101 0.78669298 3.31868 166 170 174
0.67356497 0.78815198 3.3113899 117 123 127
0.70502698 0.79518902 3.3367801 166 171 174
1.19137 0.895473 3.7174201 53 51 52
1.20982 0.89635098 3.7184 113 112 110
1.22888 0.89996499 3.73211 116 113 111
1.2386 0.900123 3.7309999 105 102 100
1.24821 0.90036303 3.73103 113 111 109
1.25836 0.89960599 3.72685 71 69 68
1.25949 0.89947301 3.72522 58 56 55
1.27405 0.90819198 3.72718 40 39 38
1.30296 0.90051502 3.72258 47 45 46
1.3158 0.88510698 3.65154 64 63 63
1.33076 0.87746203 3.60677 87 86 87
1.33652 0.87212998 3.5957699 87 86 88
1.69289 0.97105598 3.94257 62 60 60
1.70344 0.967884 3.95485 62 60 60
1.71734 0.97021401 3.93839 59 58 57
1.73593 0.96658301 3.94677 50 49 48
1.76632 0.95967799 3.9016399 50 48 48
1.74922 0.94761902 3.8308301 52 50 51
1.7807 0.94223899 3.78861 77 76 77
1.78553 0.93550998 3.77596 75 75 76
1.79032 0.92903697 3.7635601 70 70 73
1.78693 0.93463302 3.7593901 85 85 87
-1.40888 0.458525 2.21416 157 162 165
-1.0830801 0.50260103 2.35357 171 177 184
-1.07534 0.50221902 2.34847 170 177 183
-1.04143 0.50850499 2.36711 172 178 185
-1.04021 0.50527 2.3428299 172 179 186
-1.02658 0.51457399 2.3826201 158 164 168
-1.0203 0.514929 2.38989 165 170 176
-1.00429 0.52222103 2.4112899 168 176 184
-0.99835497 0.52323502 2.4172699 168 176 184
-0.99055499 0.52230299 2.4070001 167 176 184
-0.99102497 0.52367097 2.4181399 167 175 184
-0.65603501 0.542651 2.4565499 169 176 183
-0.64888 0.54958397 2.47281 172 179 186
-0.63129503 0.54307002 2.4459 172 180 188
-0.61893398 0.55450797 2.48105 173 182 190
-0.62446302 0.553065 2.4741001 172 180 189
-0.61057299 0.556889 2.49212 172 180 188
-0.59893 0.56172299 2.5129001 172 181 188
-0.604765 0.56207001 2.51051 172 181 189
-0.603908 0.56083101 2.5086701 172 181 188
-0.596286 0.56607801 2.53269 172 181 188
-0.58524197 0.56750798 2.54882 172 179 186
-0.58711898 0.56320202 2.5278399 172 180 187
0.0255624 0.76516902 3.2834799 86 82 81
0.14175799 0.76338202 3.2653201 68 66 66
0.141847 0.76348299 3.2658999 68 66 66
0.15857901 0.75970602 3.2483301 74 73 74
0.43905199 0.833139 3.5057499 21 21 24
0.44912499 0.83244997 3.50353 74 74 75
0.45668 0.83135301 3.49684 71 70 71
0.47474301 0.82296902 3.4821501 74 73 73
0.49224901 0.83029199 3.4860599 97 97 98
0.50228602 0.82793301 3.4937799 90 91 91
0.522237 0.82762098 3.49032 81 82 82
0.539814 0.83211398 3.49368 87 87 88
0.55512798 0.83696097 3.50769 82 83 83
0.56436098 0.83307999 3.5149801 78 78 79
0.57206303 0.83209801 3.51174 73 71 71
0.58076698 0.83196503 3.5123799 60 57 57
0.59062201 0.83488899 3.5107901 58 57 56
0.59989899 0.82729799 3.4734099 67 67 65
0.61162102 0.81989503 3.4490499 78 77 77
0.667826 0.79154098 3.3120201 103 109 113
0.66836101 0.79929698 3.3264699 105 111 116
0.67371702 0.79565299 3.30515 131 136 140
0.68182403 0.79367697 3.3102801 165 170 173
0.71425498 0.80227 3.3345001 160 163 167
1.1914901 0.90992898 3.7221799 56 56 56
1.19871 0.903238 3.7084899 117 116 115
1.2108001 0.90429002 3.7156501 120 118 116
1.2253 0.914051 3.7258999 127 124 122
1.22184 0.90645999 3.7246301 122 120 118
1.23428 0.907974 3.7265799 115 112 109
1.24395 0.90817302 3.7257299 121 119 116
1.25351 0.90794599 3.72542 115 112 111
1.25712 0.915528 3.72141 95 93 91
1.26386 0.90820801 3.7248099 44 43 41
1.26687 0.91571999 3.7197001 53 52 50
1.29857 0.89763099 3.66241 61 59 60
1.3041199 0.89284003 3.6273201 72 71 71
1.34123 0.89631498 3.6489 86 86 88
1.67511 0.98237002 3.93873 72 68 68
1.68672 0.98187202 3.9422801 68 65 65
1.69889 0.980748 3.94402 68 66 66
1.71016 0.98005599 3.9400899 68 66 66
1.72682 0.97913802 3.94927 63 62 61
1.76678 0.97469902 3.90136 55 53 54
1.75815 0.96121699 3.86608 54 52 53
1.77703 0.96416098 3.8529401 71 68 70
1.77739 0.94962299 3.8038499 78 77 78
1.77837 0.94092101 3.7626901 85 84 86
-0.62059802 0.56696898 2.5214801 174 182 191
-0.58785301 0.57320398 2.5417399 172 180 188
0.045740701 0.76126599 3.2563801 83 80 79
0.13635001 0.76782203 3.27121 62 60 60
0.13638701 0.76782501 3.27107 62 60 60
0.142987 0.77233303 3.26579 70 68 69
0.14300101 0.77241302 3.2662101 70 68 69
0.434762 0.841151 3.5046301 17 19 22
0.44349501 0.84091598 3.5046201 32 33 35
0.452923 0.839881 3.5000701 84 83 84
0.46064299 0.83824497 3.4902501 61 60 61
0.475903 0.83407903 3.4853799 81 79 81
0.48385501 0.831563 3.48385 90 89 90
0.497107 0.83803898 3.4899099 100 101 100
0.53035301 0.83528399 3.4874101 89 89 90
0.54580498 0.84029502 3.50056 89 90 91
0.56780601 0.83971602 3.5099001 80 80 80
0.58290601 0.84140003 3.5123601 65 62 62
0.59142202 0.84324503 3.5063 64 62 62
0.596048 0.835976 3.48224 68 67 66
0.60411698 0.83888799 3.47228 71 70 69
0.61011899 0.833731 3.4593101 73 71 72
0.67156398 0.80463099 3.31809 109 116 120
0.68075502 0.80734801 3.3160801 125 129 132
0.688106 0.80542898 3.3197 137 140 142
0.691854 0.80097002 3.3155701 149 153 156
0.70051599 0.80110902 3.3178 153 158 160
1.19481 0.916421 3.7077501 88 86 85
1.20645 0.91264999 3.71086 126 124 122
1.24204 0.92343998 3.7168601 127 124 121
1.24195 0.92354602 3.7172401 126 124 121
1.25167 0.92346799 3.71737 125 122 120
1.26162 0.92364198 3.71842 67 66 64
1.2697901 0.92307198 3.7137101 60 59 58
1.30093 0.90341598 3.6459799 69 68 67
1.35025 0.91265702 3.6529901 91 91 92
1.3539 0.90495002 3.64046 91 91 93
1.3681099 0.90302801 3.6265399 93 94 97
1.69166 0.99379402 3.94434 75 73 73
1.7066801 0.99199998 3.9517801 76 74 73
1.71738 0.99097401 3.9493101 73 71 70
1.7323101 0.99126297 3.95523 71 70 69
1.77205 0.98253101 3.8899801 68 66 66
1.76671 0.95158702 3.7681 81 80 81
1.7698801 0.953269 3.7746699 81 80 82
1.77136 0.94512498 3.7564299 83 83 84
0.142781 0.77807403 3.2539899 70 68 69
0.143013 0.77837098 3.2553 70 69 70
0.439246 0.84826303 3.50144 17 19 21
0.447732 0.84780002 3.50051 69 70 71
0.45970699 0.847175 3.4874799 66 66 67
0.46706501 0.84337002 3.4805901 46 45 46
0.474024 0.83910698 3.47293 81 80 81
0.48307201 0.83932102 3.4749601 95 95 95
0.52905297 0.84665197 3.49821 91 92 91
0.54477799 0.85119098 3.5024099 99 100 101
0.56596601 0.85126001 3.5102301 90 90 90
0.57523698 0.85187697 3.51456 76 75 75
0.59161198 0.852808 3.5002899 67 65 65
0.61284798 0.84000999 3.45345 70 68 69
0.619941 0.83598202 3.4454801 83 83 84
0.62450302 0.84202403 3.4359801 87 87 90
0.69174498 0.81191599 3.3218501 114 116 118
0.68570203 0.81131703 3.31106 100 101 104
0.701047 0.80845898 3.3113799 123 125 125
1.17406 0.93141699 3.7278299 18 17 21
1.18329 0.929519 3.73421 23 21 24
1.18944 0.923217 3.7221601 61 60 61
1.20787 0.91970998 3.6979699 132 129 127
1.22674 0.92481601 3.7181001 132 130 127
1.2368701 0.93114603 3.71382 123 120 117
1.2464401 0.93127 3.71416 131 128 125
1.25613 0.931319 3.71471 110 108 105
1.33523 0.92677498 3.68641 75 73 75
1.34211 0.92230499 3.67995 81 80 83
1.35647 0.91702598 3.6412201 67 66 68
1.36195 0.90985501 3.6331501 71 70 73
1.36771 0.91358501 3.6212101 89 89 92
1.71031 0.998743 3.9544899 78 75 74
1.7395 1.0050499 3.9672599 77 74 73
1.75425 1.00521 3.9732001 72 71 70
1.76717 0.99004298 3.9016299 65 64 62
1.77709 0.99027002 3.87853 71 69 69
1.77417 0.97668701 3.84273 72 72 72
0.139208 0.78905898 3.25962 69 66 69
0.144435 0.78333402 3.23839 69 67 69
0.43472201 0.85576898 3.5004201 14 17 20
0.45083401 0.85548502 3.4960001 91 91 92
0.47878599 0.84669501 3.4721601 98 98 98
0.48859999 0.84759098 3.4769299 103 104 103
0.48767701 0.84675503 3.47194 102 103 102
0.49681601 0.85143399 3.4834299 107 108 107
0.51277798 0.85076803 3.48402 98 98 97
0.53575301 0.85645503 3.49915 103 104 104
0.54080802 0.85842198 3.4960599 106 107 108
0.54969501 0.85858399 3.5002899 103 104 104
0.56047899 0.861835 3.4969201 102 102 102
0.557522 0.85451502 3.4992299 98 98 98
0.570472 0.85930401 3.5114 89 89 89
0.57067502 0.85984302 3.51162 89 89 89
0.57967901 0.85843498 3.50912 75 73 74
0.61035401 0.850815 3.4549301 75 73 74
0.61743599 0.84648001 3.4456999 77 76 78
0.68036199 0.82151401 3.31426 73 75 77
1.16978 0.939273 3.71755 21 21 24
1.18083 0.94066101 3.7279401 19 17 21
1.18643 0.93513799 3.71717 58 57 59
1.19344 0.93074399 3.7121501 68 67 67
1.21012 0.93648601 3.69767 140 138 136
1.22693 0.94023401 3.7111001 138 136 133
1.24344 0.94063801 3.71139 135 131 129
1.24278 0.94010502 3.7131901 133 130 127
1.25257 0.94029403 3.7118001 131 129 126
1.2605799 0.93954402 3.71187 77 75 73
1.26878 0.93876499 3.7101099 68 66 64
1.32414 0.94231898 3.7144101 71 69 71
1.32938 0.93279302 3.6984 74 72 73
1.33968 0.935467 3.6812401 82 81 84
1.34411 0.92917299 3.6675701 91 91 93
1.35225 0.92494798 3.65168 85 84 86
1.36458 0.92195898 3.6340001 73 73 76
1.68295 1.00622 3.9432199 87 84 84
1.68364 0.99997997 3.92506 83 80 79
1.73053 1.0209301 3.97667 83 80 80
1.73902 1.01738 3.9683299 83 80 79
1.77622 0.99316198 3.84829 72 72 72
1.7771699 0.99359 3.8532801 72 71 71
1.78465 0.98161697 3.82921 74 74 76
0.43892199 0.86309099 3.4976799 18 20 21
0.44734001 0.86268097 3.4953401 72 73 73
0.45795199 0.85945702 3.4879301 78 78 78
0.474087 0.85399097 3.4700501 79 79 78
0.489952 0.85782701 3.4735701 108 110 108
0.49047399 0.85796303 3.47455 109 110 108
0.50000799 0.85904503 3.48226 110 111 109
0.507595 0.85767102 3.48066 106 106 105
0.51919901 0.866009 3.4839399 99 99 97
0.52750999 0.86097503 3.49405 96 96 95
0.55371398 0.86381799 3.5011301 105 105 105
0.56898499 0.87140602 3.5100501 103 102 102
0.58152097 0.86985803 3.49982 76 74 73
0.59823102 0.856601 3.45632 73 72 71
0.60658598 0.86259598 3.45485 74 73 73
0.614501 0.85723698 3.44346 77 77 78
0.62083101 0.85122401 3.4298601 82 82 84
0.68041903 0.83203202 3.3211999 136 138 140
1.18468 0.94875801 3.7195301 44 43 45
1.19086 0.94310498 3.70945 66 66 66
1.19698 0.93737602 3.69906 121 120 119
1.2234 0.94893998 3.71263 142 139 137
1.23779 0.94858599 3.70684 130 127 124
1.2479 0.94873297 3.7091401 136 133 131
1.26589 0.94760197 3.7097099 68 66 64
1.31945 0.94969898 3.72667 68 66 67
1.33035 0.94800001 3.7049 76 74 75
1.3430001 0.93941402 3.6616499 93 93 95
1.35144 0.93650597 3.6527901 77 76 77
1.67585 1.01275 3.92555 91 89 87
1.71529 1.03148 3.9758799 87 84 83
1.73118 1.03136 3.9792099 87 84 83
1.78459 1.01142 3.9015901 69 68 67
1.78782 1.00594 3.85921 77 77 78
1.80093 0.99837798 3.8552101 81 80 82
0.136599 0.799043 3.2592001 71 69 70
0.14443099 0.79358298 3.23773 74 72 74
0.435606 0.87170702 3.5007601 15 20 20
0.43815601 0.87195599 3.49104 18 22 22
0.453513 0.870354 3.48791 101 101 100
0.461844 0.86603099 3.47823 65 65 62
0.46917701 0.86208397 3.47119 56 56 54
0.477981 0.86261201 3.46859 96 96 94
0.49628499 0.86593801 3.4746699 112 112 111
0.506818 0.87085998 3.4798501 112 112 111
0.513668 0.87339401 3.4800601 107 107 106
0.56940502 0.87987 3.5060401 108 107 106
0.57498401 0.87520099 3.50278 89 88 86
0.58063501 0.87706703 3.4916501 76 74 72
0.59902602 0.86724597 3.4587801 81 80 80
0.61242598 0.86862898 3.44368 82 81 82
0.61900997 0.86257201 3.42979 82 82 84
0.64410198 0.85334402 3.37904 78 79 83
0.68079901 0.84311903 3.3308799 125 125 126
0.69300902 0.84104699 3.3253901 136 137 137
1.17704 0.95209903 3.7212801 22 19 23
1.18832 0.95600498 3.70821 69 69 69
1.19497 0.94987398 3.6969399 96 96 95
1.2326 0.95590597 3.7111599 136 134 131
1.2456 0.95949 3.7101901 138 135 133
1.25273 0.95654303 3.70558 130 127 125
1.26139 0.95590597 3.7055199 73 70 68
1.27535 0.95772398 3.7166901 68 65 63
1.32355 0.95411199 3.7111499 72 70 71
1.32319 0.95676601 3.7007999 75 73 74
1.3301899 0.95328099 3.6914599 79 77 79
1.33614 0.94685298 3.67553 89 88 90
1.34024 0.951298 3.6632199 94 94 95
1.35009 0.94678301 3.6538301 75 74 75
1.68129 1.02518 3.93046 96 94 92
1.78157 1.02343 3.8956001 71 70 70
1.78328 1.01346 3.8735099 72 71 71
1.79567 1.01599 3.8584299 79 80 81
1.80126 1.00884 3.8505199 87 87 89
0.45154899 0.88187498 3.4888999 103 105 103
0.45838499 0.87722498 3.4802599 88 88 86
0.466373 0.873079 3.47071 58 57 55
0.472449 0.86909801 3.46367 78 78 76
0.48309699 0.87124598 3.4658 101 100 99
0.49454901 0.87761003 3.46415 111 111 109
0.521088 0.87670302 3.4833 96 95 94
0.57965702 0.88789701 3.4907999 75 72 70
0.594329 0.88162601 3.47909 83 80 80
0.59811902 0.87810302 3.4618101 84 83 83
0.60625899 0.872482 3.45432 90 90 90
0.60670799 0.87869102 3.44806 94 94 94
0.617006 0.87543702 3.43593 88 89 90
0.63873702 0.86018199 3.38623 89 91 94
0.67440701 0.85942101 3.3602099 62 60 60
0.69300199 0.85264301 3.3366101 64 63 64
1.17022 0.958013 3.71211 26 23 28
1.19223 0.96271998 3.6962099 71 72 71
1.1992199 0.95840102 3.6905601 140 140 138
1.20953 0.95974398 3.6944101 144 143 141
1.22744 0.96458697 3.7128201 146 144 141
1.23954 0.96655899 3.70524 134 132 130
1.24974 0.96698099 3.7061901 138 136 134
1.25767 0.965918 3.7037599 100 98 96
1.26758 0.96570897 3.7072301 65 62 60
1.3113 0.97416401 3.7244501 73 71 71
1.31642 0.96829098 3.7202301 73 71 72
1.31771 0.96661198 3.70085 78 76 77
1.32776 0.96374297 3.69435 80 78 79
1.33398 0.95651001 3.6744399 91 90 91
1.3475699 0.95665503 3.65645 77 76 77
1.35426 0.95382702 3.6479499 77 76 76
1.6794 1.03083 3.9100201 101 99 97
1.78477 1.0296 3.8789501 81 80 81
1.78941 1.02206 3.8669901 76 77 77
1.80897 1.0276901 3.8679099 91 91 93
1.82267 1.01785 3.8248899 85 86 88
-0.51031601 0.62402201 2.5805399 107 111 116
0.46267399 0.88369602 3.47083 70 69 68
0.472363 0.88461798 3.45754 79 78 77
0.4781 0.878286 3.4630201 100 98 97
0.48677999 0.87821001 3.4618199 106 106 104
0.50691497 0.88462102 3.4718499 109 109 106
0.51909697 0.88538098 3.4771299 98 97 95
0.56976402 0.892097 3.49927 83 82 81
0.58007902 0.89576 3.4883499 79 76 75
0.59274501 0.88574702 3.4611001 84 81 81
0.597646 0.88300598 3.4469399 85 85 84
0.62962198 0.87136501 3.39271 98 102 104
0.64106601 0.87019402 3.3865499 81 82 85
0.650446 0.87277299 3.3800099 83 82 82
0.661084 0.86514199 3.36007 56 55 54
0.68062502 0.86014998 3.35148 65 64 64
0.79405999 0.91429901 3.5369599 140 140 138
0.801781 0.91340899 3.5329001 66 64 64
1.16671 0.96711302 3.7093599 30 27 32
1.17215 0.97646999 3.71246 27 24 29
1.1863 0.96884 3.7081201 65 64 65
1.20371 0.96639001 3.68817 146 146 145
1.22636 0.97125602 3.71105 146 145 142
1.23438 0.97452003 3.7041199 134 132 131
1.27314 0.97549301 3.70784 61 59 57
1.31856 0.974222 3.70801 78 76 77
1.31853 0.97490901 3.6914301 76 74 75
1.33084 0.96833402 3.6737101 92 91 93
1.34262 0.96879601 3.6580901 81 79 80
1.3546 0.96621501 3.6486399 77 74 74
1.36095 0.96029001 3.64061 68 66 66
1.68536 1.04353 3.9150901 108 106 105
1.78873 1.0343 3.8599801 80 80 82
1.79773 1.03018 3.85813 86 87 88
1.8274699 1.02663 3.8204999 74 73 75
1.8349 1.02457 3.81056 54 54 53
1.84402 1.01843 3.8077199 52 52 52
-0.51973498 0.63006699 2.57517 156 160 169
-0.51329201 0.631975 2.579 139 143 149
0.44285199 0.89313298 3.4925301 49 51 49
0.45038399 0.89223999 3.4846301 108 110 108
0.46040601 0.89502698 3.47106 84 84 84
0.48374599 0.88641298 3.4581599 101 100 99
0.49311599 0.89735401 3.47052 106 105 103
0.49871901 0.89023602 3.46948 110 110 107
0.514853 0.89279598 3.4749999 109 108 106
0.527605 0.899656 3.4764299 104 102 101
0.54482502 0.90350997 3.4884801 102 101 99
0.55559897 0.89904302 3.4932401 104 103 102
0.56870598 0.90669698 3.4942901 115 114 114
0.564556 0.899203 3.4960999 105 104 104
0.56384897 0.89895999 3.4937501 106 106 105
0.57319498 0.89886999 3.4939001 83 81 80
0.57217199 0.89850903 3.4941199 86 84 83
0.59188598 0.899593 3.4744699 84 82 81
0.59377998 0.89166898 3.4502201 85 83 82
0.63712102 0.88057399 3.39241 83 85 87
0.645863 0.88071799 3.3854101 81 81 81
0.65785003 0.87409401 3.3682499 60 58 56
0.78865999 0.92409801 3.5392799 144 142 140
0.796287 0.92366499 3.5369999 143 142 140
0.81067997 0.91723901 3.52212 35 35 35
0.81343001 0.91775 3.51881 36 35 36
1.16579 0.98426902 3.71084 32 30 34
1.1772701 0.98597002 3.7121999 24 21 26
1.18615 0.982333 3.70819 58 57 59
1.1907099 0.976264 3.6990399 73 72 73
1.19809 0.97406298 3.68608 134 134 133
1.20815 0.97453099 3.6854999 146 146 144
1.22925 0.98360199 3.69994 143 141 139
1.2265 0.97979701 3.7040901 146 144 142
1.23825 0.98297101 3.6995101 133 132 130
1.2479 0.98293197 3.7002499 141 140 137
1.25754 0.98288703 3.7009699 113 113 110
1.26647 0.98244101 3.7002699 69 67 65
1.31292 0.985524 3.70613 75 73 74
1.3241 0.98280299 3.6843801 89 87 89
1.3354599 0.97501099 3.66342 91 89 90
1.3463399 0.974473 3.6593299 77 74 75
1.35639 0.97697699 3.64553 67 64 62
1.36357 0.97134399 3.64449 62 58 58
1.67586 1.0555201 3.91222 112 111 110
1.6898201 1.0556099 3.91853 113 111 110
1.70302 1.05538 3.9233799 112 110 110
1.74224 1.06906 3.95261 106 105 104
1.7495199 1.06626 3.94646 93 92 92
1.75093 1.05494 3.9131501 75 74 74
1.78538 1.0472701 3.8630199 76 76 78
1.7969 1.0420001 3.8571701 89 89 91
1.80357 1.04142 3.8394799 89 89 90
1.81015 1.03698 3.8280399 88 88 89
1.82319 1.03703 3.82688 78 78 79
1.83173 1.03546 3.8187599 62 60 60
-0.73740202 0.61206597 2.5079501 165 171 179
-0.70440298 0.61429602 2.51368 166 172 180
-0.55359 0.63964301 2.5875599 167 173 182
-0.53245699 0.63896602 2.5831399 159 166 172
-0.526326 0.63673902 2.57426 159 165 171
-0.517214 0.637164 2.5760801 156 160 167
0.43973699 0.90559602 3.49542 18 21 22
0.453399 0.89948702 3.4790599 116 117 116
0.480744 0.89378399 3.4532101 98 96 94
0.49360701 0.89750201 3.4677899 106 105 103
0.50188297 0.89770597 3.46907 110 109 108
0.502873 0.89781398 3.46755 110 110 108
0.510957 0.90030003 3.4711599 115 114 113
0.51958197 0.90035498 3.4744201 105 103 102
0.55834299 0.91159397 3.48807 121 121 120
0.54991698 0.91190702 3.4844 103 101 99
0.56054097 0.91331297 3.4925201 121 121 120
0.57255298 0.914823 3.4907601 103 102 101
0.57688701 0.905819 3.4888101 83 81 79
0.58394003 0.91287899 3.4836299 79 76 76
0.59031701 0.91107899 3.4779501 81 79 78
0.62928599 0.88854998 3.3954899 93 95 98
0.63551903 0.88657498 3.38553 82 82 84
0.64573699 0.88339001 3.38697 80 80 79
0.65485501 0.883241 3.37887 63 61 58
0.655047 0.88314497 3.3782799 63 61 58
0.7802 0.93015897 3.52036 147 145 143
0.78797603 0.933806 3.53109 147 144 143
0.79141402 0.93098998 3.5295501 149 146 145
0.800102 0.93122202 3.5307801 104 102 101
0.809331 0.92881399 3.52439 37 37 37
0.80674201 0.92769802 3.5258999 37 36 36
1.18401 0.99287099 3.70735 38 36 39
1.1936899 0.98395902 3.69259 72 71 72
1.20328 0.98229802 3.6835301 149 148 148
1.2217799 0.99050897 3.6934099 148 147 145
1.2327 0.98997998 3.69151 134 133 131
1.23166 0.99170601 3.6942101 138 137 135
1.25265 0.99154699 3.69859 141 140 138
1.26222 0.99076802 3.69785 77 76 74
1.2682101 0.98859298 3.6910999 69 67 65
1.3123 0.99498898 3.7009499 67 65 67
1.31792 0.98836601 3.69117 74 72 73
1.32805 0.98987103 3.67361 91 89 90
1.34062 0.980295 3.65011 76 72 72
1.3505501 0.98269999 3.6549001 75 71 70
1.69438 1.06761 3.9219601 121 121 119
1.70778 1.06747 3.92715 111 110 109
1.75345 1.07811 3.9477799 93 93 92
1.75991 1.0685 3.9250801 72 72 71
1.7912199 1.05538 3.85496 86 87 88
1.7978801 1.04995 3.84444 87 87 89
1.81794 1.0542901 3.8506 84 84 84
1.82778 1.04634 3.8266499 66 64 65
-0.73105597 0.61353898 2.49684 167 173 181
-0.730681 0.61284 2.4932101 168 173 181
-0.72191101 0.61537403 2.51739 164 171 179
-0.71310401 0.61722898 2.5118101 167 172 181
-0.69597399 0.61130601 2.48841 168 174 181
-0.55584401 0.64852297 2.59618 155 159 169
-0.54995698 0.64567399 2.58742 160 165 174
-0.542687 0.64579499 2.5873599 158 164 170
-0.528575 0.64375001 2.5770299 153 159 165
-0.52191597 0.64330399 2.5769899 153 158 166
-0.51378202 0.64069998 2.5703299 146 149 156
-0.50773197 0.639498 2.5671999 100 102 106
0.44284999 0.91093898 3.48386 35 38 39
0.441268 0.90996701 3.48839 24 27 28
0.45038399 0.91001397 3.47633 113 116 115
0.44828999 0.90726501 3.4788899 100 102 103
0.457912 0.90611899 3.47031 100 100 101
0.461734 0.90594202 3.46681 75 75 75
0.468806 0.902363 3.45789 64 63 62
0.47721401 0.90211397 3.45434 97 95 93
