ply                 
format ascii 1.0    
element vertex 1277
property float x    
property float y    
property float z    
property uchar red  
property uchar green
property uchar blue 
end_header          
-2.5914 3.27701 9.21648 87 108 125 
-2.34127 3.42296 8.3523 29 37 50 
-2.38693 3.31265 8.63167 70 97 118 
-2.11477 -0.226126 7.70729 88 92 103 
-2.56584 3.2641 9.29088 173 181 192 
-2.47455 3.3244 8.98058 4 34 42 
-2.16753 0.614554 7.94527 57 74 84 
-2.40289 3.33488 8.84486 29 44 63 
-1.76549 -1.55694 6.60043 129 130 134 
-2.40765 3.3108 8.93206 43 115 187 
-2.18615 3.67823 8.12825 11 24 43 
-2.18963 3.64272 8.14292 108 195 240 
-2.1466 0.603002 8.06503 111 213 251 
-1.98887 -0.833169 7.54273 59 54 74 
-2.06343 -0.267858 7.82106 64 29 53 
-2.04727 -0.314586 7.77515 107 115 134 
-2.01931 -0.734937 7.67034 55 35 60 
-2.00792 -0.137873 7.66789 186 190 202 
-1.98885 -0.168979 7.6817 140 54 63 
-2.12156 -0.0314461 8.19632 103 120 130 
-1.95892 -0.844923 7.60494 61 29 42 
-1.96207 -0.845354 7.61715 61 29 42 
-2.0195 -0.331207 7.8344 182 191 200 
-1.95754 -0.859958 7.62547 186 173 183 
-2.10747 -0.0345021 8.21049 178 194 207 
-1.94807 -0.935556 7.61674 182 171 177 
-2.10976 -0.0445554 8.22166 74 88 99 
-2.08192 -0.00889422 8.13003 80 102 113 
-1.93708 -0.598944 7.59904 172 180 193 
-2.03618 3.89004 7.95268 98 129 134 
-1.96724 -0.175706 7.76126 189 186 205 
-1.92936 -0.758766 7.62667 93 38 59 
-2.22307 3.58844 8.71507 74 86 98 
-1.97098 -0.245113 7.79137 14 56 106 
-2.08205 3.61497 8.1739 88 164 222 
-2.03861 0.707872 8.0521 27 35 58 
-2.13801 0.491026 8.48925 78 80 92 
-1.90836 -1.05833 7.62671 80 42 53 
-1.90969 -1.00993 7.63672 113 42 50 
-1.90105 -0.642668 7.60262 3 43 94 
-2.05694 0.00880754 8.20011 169 187 199 
-2.15853 3.6398 8.56455 48 78 89 
-1.88499 3.84972 7.50978 138 169 174 
-1.88732 -1.05964 7.59463 71 44 51 
-1.88176 -0.710586 7.57858 26 32 68 
-1.91082 -0.657082 7.69794 28 76 122 
-2.07494 3.57576 8.28325 96 128 151 
-1.94432 -0.127434 7.82573 57 98 130 
-2.17683 3.58987 8.69761 77 90 106 
-1.90227 -0.854602 7.6739 186 173 180 
-2.04763 0.0120012 8.24807 72 88 101 
-1.9301 -0.0887615 7.7939 175 188 204 
-2.04539 0.0328376 8.24953 202 245 254 
-2.0316 0.0459244 8.19177 186 230 239 
-2.10185 3.65563 8.43193 4 40 74 
-2.05098 0.000795131 8.27427 175 189 200 
-1.88135 -1.04834 7.62796 177 156 171 
-2.31275 5.50436 9.26903 26 29 44 
-1.92866 0.778373 7.81463 95 110 131 
-1.88235 -0.77502 7.66159 27 24 45 
-1.88155 -0.83529 7.6688 75 51 65 
-1.87591 -0.866722 7.65421 170 170 178 
-2.2777 5.4953 9.23063 125 124 132 
-2.00759 3.62618 8.17127 92 123 152 
-1.85909 -0.829737 7.65881 55 80 100 
-1.89414 0.818401 7.77903 154 174 185 
-1.85942 0.849837 7.65566 144 160 194 
-1.94713 3.69084 8.00468 161 219 255 
-1.84677 0.854274 7.65031 79 100 131 
-1.83817 0.861855 7.62224 179 206 225 
-2.25261 5.53628 9.25132 125 124 129 
-1.83532 -0.824297 7.66502 44 64 89 
-1.97704 3.62853 8.2025 78 114 146 
-1.95076 0.0640294 8.28669 156 169 177 
-2.00622 3.55508 8.56835 7 18 36 
-1.91952 0.0882557 8.26272 196 218 231 
-1.78308 -2.94489 7.74306 119 109 108 
-1.88346 0.29784 8.16009 140 143 150 
-1.72065 0.887494 7.48325 132 132 142 
-1.72113 1.03356 7.49122 62 61 69 
-1.91051 3.60226 8.27633 94 146 193 
-1.70245 0.99332 7.43378 86 78 89 
-1.72563 -2.7312 7.60158 12 16 28 
-1.70482 0.892352 7.45373 79 79 87 
-1.87803 0.298151 8.23754 118 123 127 
-1.69217 0.984633 7.43356 176 168 157 
-1.8615 0.224684 8.18563 103 113 123 
-1.88446 3.61617 8.24291 65 87 108 
-1.86677 0.315183 8.22524 172 172 170 
-1.6912 -2.92061 7.52772 15 16 20 
-1.67765 1.01304 7.41344 129 124 118 
-1.62008 -1.94695 7.21922 45 41 40 
-1.67106 0.945051 7.44615 154 140 131 
-1.65885 -2.66159 7.50473 162 158 159 
-1.6533 0.990592 7.43012 27 23 37 
-1.84527 0.349147 8.29083 171 165 169 
-1.85848 0.315282 8.35195 179 179 171 
-1.58565 -1.93995 7.20366 149 126 92 
-1.5779 -1.9 7.21052 124 118 96 
-1.64121 -2.66665 7.52381 56 59 66 
-1.64161 0.969321 7.46058 143 129 126 
-1.63089 -2.92916 7.50655 33 25 22 
-1.63176 0.565533 7.46177 76 67 58 
-1.79302 0.353202 8.2252 153 154 156 
-1.87956 3.50513 8.57958 109 107 110 
-1.60625 0.489872 7.4243 89 84 90 
-1.97686 5.55358 9.02838 21 29 42 
-1.6101 -2.55929 7.51533 101 104 113 
-1.77771 0.35724 8.23669 57 58 62 
-1.60448 -2.55242 7.51951 23 25 37 
-1.75646 0.357477 8.19753 58 58 60 
-1.59906 -2.55888 7.53723 94 96 108 
-1.58669 -2.61815 7.52119 6 5 1 
-1.58478 -2.66462 7.52783 144 147 138 
-1.58358 -2.67511 7.52082 38 39 41 
-1.56607 -2.64547 7.48894 25 25 35 
-1.92952 3.11086 9.09301 162 160 161 
-1.97792 3.20263 9.31266 162 160 163 
-1.56612 -2.85601 7.52122 24 24 32 
-1.56929 -2.43498 7.55318 62 76 87 
-1.56431 1.01215 7.47785 38 37 53 
-1.56225 0.987677 7.48498 29 29 41 
-1.55613 -2.86492 7.52778 134 137 144 
-1.55418 -2.71979 7.51865 124 128 139 
-1.55967 0.734324 7.52547 86 79 71 
-1.54879 -2.5328 7.56689 32 36 47 
-1.54413 -2.60168 7.54893 134 134 142 
-1.54662 0.739399 7.50223 33 26 20 
-1.55238 0.903782 7.53124 179 170 161 
-1.54554 0.723868 7.51621 37 31 33 
-1.53351 -2.5142 7.52922 119 123 132 
-1.53275 1.00668 7.46634 123 119 118 
-1.53948 0.7323 7.51221 97 92 89 
-1.68874 0.310565 8.25155 85 87 84 
-1.5326 -2.51517 7.56225 25 32 42 
-1.5296 0.576985 7.50495 94 91 72 
-1.52423 -2.71184 7.54586 140 144 155 
-1.52863 0.65542 7.50168 69 71 66 
-1.51874 -2.59394 7.55095 87 97 106 
-1.51888 -2.50977 7.55336 114 120 132 
-1.52038 -2.39447 7.57039 149 158 163 
-1.51925 -2.46333 7.58099 32 40 53 
-1.66216 0.303384 8.29188 144 145 140 
-1.8362 5.5459 9.05486 169 158 152 
-1.50367 -2.44854 7.56926 86 99 108 
-1.65616 3.62709 8.24309 152 156 165 
-1.65221 3.65669 8.26526 149 157 170 
-1.84351 5.48595 9.18636 22 26 38 
-1.37517 -3.56852 7.09484 175 137 128 
-1.45609 -2.83884 7.55238 137 145 147 
-1.44989 -2.78019 7.5648 88 91 106 
-1.44856 -2.6566 7.57863 113 121 132 
-1.43666 -2.63782 7.57128 121 131 143 
-1.43329 -2.7744 7.57085 103 107 119 
-1.42004 -2.83307 7.56532 161 170 165 
-1.43003 -2.33135 7.60765 154 166 166 
-1.42096 -2.48318 7.5742 142 155 163 
-1.42578 -2.34091 7.59613 83 89 89 
-1.32782 1.02277 7.03931 73 82 97 
-1.41692 -2.66764 7.58816 84 87 104 
-1.41896 -2.35068 7.60071 161 161 161 
-1.41551 -2.53077 7.59986 85 99 112 
-1.41537 -2.47785 7.60088 44 58 67 
-1.4095 -2.48441 7.59404 115 130 137 
-1.31701 1.02562 7.04678 59 68 83 
-1.41017 -2.49514 7.59743 34 48 57 
-1.41362 -2.32411 7.62457 79 88 95 
-1.4014 -2.38108 7.5889 149 164 171 
-1.40139 -2.48627 7.61218 37 50 58 
-1.30006 1.01092 7.03278 82 92 104 
-1.53417 3.62228 8.21225 189 179 178 
-1.38938 -2.89471 7.59672 31 38 54 
-1.38992 -2.78415 7.5949 81 89 102 
-1.56779 3.50137 8.42252 16 26 38 
-1.38746 -2.47681 7.58751 78 92 105 
-1.28867 1.0489 7.0476 103 107 119 
-1.52887 3.60429 8.27946 199 194 191 
-1.28644 0.445017 7.06838 218 214 203 
-1.28103 0.99631 7.03035 66 75 92 
-1.36757 -2.58898 7.58486 42 52 64 
-1.20596 -1.91985 6.7137 166 73 0 
-1.20837 -1.89557 6.72489 215 166 29 
-1.3688 -2.55011 7.60641 141 156 163 
-1.36627 -2.46782 7.60592 162 174 172 
-1.20002 -1.94817 6.71327 231 140 49 
-1.35949 -2.77122 7.5959 101 109 122 
-1.19386 -1.91607 6.69311 245 138 68 
-1.26619 0.998286 7.04076 56 64 77 
-1.35965 -2.51424 7.61296 137 152 159 
-1.62781 5.55226 8.89759 129 127 132 
-1.35816 -2.79007 7.61422 67 76 91 
-1.18961 -1.94722 6.70826 180 97 0 
-1.35112 -2.4838 7.59472 55 65 74 
-1.35591 -2.48653 7.63047 47 53 65 
-1.34661 -2.52503 7.59624 45 60 67 
-1.35178 -2.46882 7.62068 62 66 75 
-1.18938 -1.92048 6.73018 166 86 0 
-1.25347 0.445782 7.03087 175 171 160 
-1.2553 1.08366 7.07036 55 61 77 
-1.33268 -2.47329 7.60681 175 173 158 
-1.3268 -2.81961 7.58963 118 128 138 
-1.32912 -2.49523 7.60063 161 171 163 
-1.26634 0.42873 7.20189 196 195 190 
-1.32834 -2.84305 7.61428 43 51 62 
-1.33025 -2.86661 7.64492 94 100 114 
-1.26056 0.416718 7.22389 220 213 203 
-1.31663 -2.48473 7.61176 65 79 90 
-1.323 -2.58117 7.66019 106 123 133 
-1.30708 -2.49687 7.62378 152 170 184 
-1.16119 -1.68764 6.79729 198 151 11 
-1.22078 1.07642 7.07513 17 24 40 
-1.30466 -2.65638 7.64661 96 110 123 
-1.21354 1.02378 7.0603 15 21 35 
-1.29829 -2.59145 7.62509 104 121 129 
-1.55973 3.54443 8.97494 107 90 83 
-1.21235 1.06997 7.08141 70 80 92 
-1.14246 -1.93556 6.76603 240 131 66 
-1.14052 -1.95364 6.75861 247 162 56 
-1.14562 -1.90169 6.79326 216 164 26 
-1.28732 -2.57131 7.63425 96 114 128 
-1.19966 0.983488 7.06516 88 96 107 
-1.14126 -1.95676 6.79669 179 81 6 
-1.4508 3.59898 8.44961 79 96 78 
-1.12813 -1.92298 6.7693 233 147 44 
-1.18175 0.8751 7.02464 75 78 97 
-1.12828 -1.95578 6.78429 244 165 64 
-1.20206 1.11343 7.14412 9 21 33 
-1.12821 -1.94418 6.7863 241 138 63 
-1.26389 -2.74904 7.60221 52 65 71 
-1.26536 -2.83237 7.61974 50 66 79 
-1.11928 -1.94902 6.77883 169 78 0 
-1.17149 0.849728 7.02777 99 108 123 
-1.18188 0.989577 7.08096 24 32 45 
-1.26323 -2.62016 7.64302 106 124 138 
-1.25462 -2.77543 7.63113 59 77 79 
-1.36856 0.362008 8.2557 64 54 44 
-1.4205 3.5837 8.50057 180 162 100 
-1.24007 -2.80281 7.57911 51 73 84 
-1.10842 -1.95748 6.80243 241 158 52 
-1.10287 -1.92056 6.78434 232 158 51 
-1.43321 5.61674 8.60956 16 22 34 
-1.09712 -1.95781 6.78702 171 90 0 
-1.09981 -1.9418 6.80415 194 75 17 
-1.45339 3.52719 8.78542 193 146 56 
-1.09554 -1.92537 6.79189 175 80 0 
-1.23562 -2.54652 7.63953 99 117 129 
-1.09014 -1.94858 6.7932 244 137 59 
-1.22867 -2.50855 7.6347 127 139 139 
-1.41361 3.57556 8.62616 119 91 28 
-1.40766 3.59024 8.60609 190 165 108 
-1.39564 3.6106 8.54039 183 178 120 
-1.40014 3.59052 8.56785 180 159 102 
-1.08502 -1.95131 6.81015 176 87 0 
-1.33763 3.663 8.20941 24 33 40 
-1.23785 3.72055 7.61484 25 57 78 
-1.42525 3.53538 8.76163 110 75 7 
-1.33229 0.383237 8.27148 100 91 76 
-1.4039 3.56822 8.63544 182 160 100 
-1.38773 3.59183 8.55752 115 103 43 
-1.07801 -1.90211 6.81399 219 161 35 
-1.36119 3.60382 8.41277 12 39 24 
-1.20564 -2.86855 7.62335 167 173 173 
-1.42433 3.51946 8.8187 182 147 83 
-1.07677 -1.99455 6.85496 225 171 10 
-1.20436 -2.41367 7.65685 160 173 189 
-1.32779 3.65449 8.29796 100 126 78 
-1.38823 3.50576 8.68642 110 86 26 
-1.34104 3.59752 8.40032 169 187 165 
-1.36734 3.54802 8.5892 132 106 29 
-1.19095 -2.58589 7.65801 53 65 79 
-1.19544 -2.28799 7.69493 53 63 65 
-1.36563 3.53719 8.63387 134 104 32 
-1.37963 3.51981 8.7276 179 151 86 
-1.35337 0.341975 8.63986 148 141 122 
-1.39663 3.51568 8.85042 112 72 21 
-1.37706 3.51047 8.73784 125 99 40 
-1.17224 -2.59022 7.64589 43 61 73 
-1.32224 3.5585 8.43504 215 183 82 
-1.1736 -2.56914 7.65496 128 133 129 
-1.36498 3.50836 8.7242 126 100 39 
-1.38679 3.53224 8.87634 180 151 85 
-1.36138 3.51916 8.7214 173 148 84 
-1.22094 0.998589 7.89467 36 27 18 
-1.27513 0.396319 8.25506 99 85 72 
-1.36334 3.49787 8.76457 109 83 24 
-1.30922 3.60746 8.41653 159 163 136 
-1.33927 3.54322 8.61729 216 180 70 
-1.16552 -2.61787 7.66267 128 147 153 
-1.26814 0.354994 8.25981 57 49 38 
-1.31178 3.5816 8.46109 205 184 93 
-1.2627 0.366856 8.23994 102 94 81 
-1.2482 3.65962 8.06839 189 192 173 
-1.15878 -2.41328 7.66105 131 135 136 
-1.26739 0.165135 8.30681 181 167 154 
-1.32553 3.56099 8.58184 155 120 30 
-1.31274 3.5772 8.51193 196 165 83 
-1.25724 3.63938 8.17214 24 54 46 
-1.20238 0.648333 7.88167 155 139 124 
-1.30638 3.58376 8.49839 130 107 31 
-1.29077 3.60869 8.41255 36 43 9 
-1.26627 0.31842 8.34389 78 72 60 
-1.34307 3.51419 8.74809 109 84 17 
-1.28218 3.62321 8.35823 110 120 109 
-1.25723 0.142173 8.29788 96 84 72 
-1.23552 3.70351 8.07653 134 140 126 
-1.27209 0.274666 8.39772 86 79 73 
-1.16333 1.01534 7.69312 195 190 171 
-1.28046 3.61091 8.38347 142 153 136 
-1.1467 -2.62791 7.67584 76 93 109 
-1.30107 3.55881 8.53638 133 106 35 
-1.25778 0.200048 8.34759 114 101 95 
-1.23775 3.64123 8.14605 33 58 54 
-1.27021 3.61309 8.35799 44 51 35 
-1.25985 0.323773 8.37667 50 32 18 
-1.24501 0.174967 8.28807 220 210 201 
-1.24911 0.15689 8.31942 94 83 77 
-1.15385 1.00623 7.68701 116 111 92 
-1.17879 0.746889 7.86207 163 138 107 
-1.22304 3.70341 8.07884 71 71 19 
-1.13329 -2.67207 7.66354 134 150 165 
-1.17747 0.816175 7.87643 181 128 74 
-1.24021 0.350006 8.31117 184 168 145 
-1.30163 3.53217 8.64031 185 158 81 
-1.24852 0.318821 8.37735 190 172 148 
-1.29948 3.56318 8.62869 198 172 98 
-1.13147 -2.38778 7.68634 116 129 145 
-1.21618 3.67642 8.09962 119 136 118 
-1.19508 0.571024 8.05001 151 147 146 
-1.2408 0.329902 8.35838 115 94 75 
-1.2491 3.62517 8.3572 163 166 135 
-1.30239 3.54297 8.72568 144 108 32 
-1.12207 -2.34892 7.68411 133 136 141 
-1.28633 3.52633 8.63074 149 121 56 
-1.19577 3.67563 8.04777 183 196 91 
-1.21501 3.63679 8.16867 25 40 33 
-1.13053 1.04307 7.67871 46 40 40 
-1.18104 0.548593 8.04787 65 51 42 
-1.25042 3.57231 8.44755 146 123 45 
-0.988491 -1.76276 6.87998 18 21 30 
-1.26085 3.55064 8.58335 215 186 94 
-1.3589 3.42604 9.25279 105 95 83 
-1.22907 3.60109 8.38619 34 49 46 
-1.23203 3.58185 8.42859 141 126 45 
-1.19841 3.63248 8.21435 141 143 129 
-1.16236 3.72486 7.97524 39 35 32 
-1.21193 3.60527 8.32909 59 61 47 
-1.18284 3.6622 8.14243 202 202 178 
-1.24199 3.55392 8.55095 132 103 23 
-1.08729 -2.57407 7.69686 91 109 123 
-1.18652 0.473605 8.30017 223 197 160 
-1.22571 3.5934 8.48844 216 185 68 
-1.11386 0.644533 7.81035 160 138 99 
-1.19977 3.61589 8.31969 61 63 52 
-1.20579 3.60895 8.36325 32 46 23 
-1.1765 3.70066 8.15054 185 186 155 
-1.19107 3.61018 8.26597 64 69 46 
-1.15955 3.67978 8.06071 195 194 166 
-1.08299 -2.42892 7.70035 83 100 118 
-1.11515 0.768486 7.84247 183 149 124 
-1.20926 3.5885 8.4365 208 184 84 
-1.13981 3.70667 7.96857 138 137 116 
-1.10702 0.814475 7.84186 85 18 10 
-1.06802 -2.83476 7.67944 137 149 163 
-1.11955 3.73599 7.85605 26 37 39 
-1.22792 3.53446 8.63346 156 115 10 
-1.16871 3.6375 8.21581 150 151 135 
-1.27286 3.6348 8.93476 166 123 18 
-1.06569 -2.7153 7.70041 92 109 125 
-1.14562 3.68552 8.08599 198 197 169 
-1.11234 0.582872 7.94049 39 25 0 
-1.12569 3.70067 7.9673 58 57 52 
-1.15951 3.64085 8.20104 37 45 24 
-1.09639 0.802198 7.84998 95 24 32 
-1.1081 0.608094 7.9398 196 166 130 
-1.11593 3.72647 7.91276 128 127 109 
-1.1746 3.59796 8.33494 43 52 25 
-1.19916 3.56995 8.49211 193 157 47 
-0.955542 -1.5942 6.93484 189 144 59 
-1.09178 0.773076 7.84549 176 143 126 
-1.09007 0.628411 7.85225 41 14 0 
-1.14682 3.64783 8.19199 123 128 105 
-1.08443 0.819171 7.8401 81 16 0 
-1.15621 3.61186 8.27656 199 197 172 
-1.13257 3.66271 8.11058 144 146 124 
-1.16326 3.59603 8.34935 136 143 101 
-1.12969 3.67922 8.11572 63 60 43 
-1.07901 0.613563 7.84004 63 32 3 
-1.04541 -2.68894 7.69937 69 84 103 
-1.06137 1.0103 7.72194 183 164 147 
-1.08559 0.562081 7.91725 151 124 105 
-1.07178 0.80968 7.83094 152 102 41 
-1.06854 0.806209 7.81164 158 109 40 
-1.132 3.64178 8.19177 194 200 172 
-1.12619 3.66204 8.18243 141 141 113 
-1.02874 -2.65477 7.69564 71 88 108 
-0.940001 -1.60749 7.04334 134 37 44 
-1.08667 3.69566 7.99117 61 59 44 
-1.06669 3.6942 7.85699 123 133 124 
-1.05715 0.601795 7.92046 138 93 62 
-1.01406 -2.63259 7.70285 85 100 119 
-1.1171 3.60244 8.3013 41 53 39 
-1.06489 0.546773 8.01665 22 22 22 
-1.14134 3.6063 8.52047 183 146 57 
-1.10052 3.67344 8.24348 80 84 61 
-1.05064 0.570935 7.96079 44 31 14 
-1.00293 -2.58338 7.71312 108 124 139 
-1.03629 0.611607 7.89978 127 83 54 
-1.11633 3.60405 8.4007 205 186 83 
-1.00145 -2.54996 7.72583 26 34 45 
-1.04286 0.485792 7.99982 192 157 129 
-1.04627 3.69015 7.94763 135 139 124 
-0.989034 -2.60529 7.70361 77 90 107 
-0.993187 0.90556 7.65025 139 119 94 
-1.08572 3.60342 8.28142 30 39 36 
-0.994788 1.06148 7.70163 27 25 26 
-1.03538 3.71335 7.93777 138 152 101 
-1.08318 3.5987 8.31665 17 30 10 
-1.00645 0.818525 7.84449 91 27 41 
-1.10077 3.57172 8.48904 215 180 88 
-1.03346 3.68198 8.00158 185 178 162 
-0.970869 -2.50366 7.70694 110 128 140 
-1.13353 3.63593 8.79818 206 168 69 
-1.00417 0.466834 7.96259 199 155 128 
-1.08735 3.58261 8.50037 143 109 19 
-1.05166 3.62401 8.23991 24 28 27 
-0.998755 0.55219 7.93514 214 175 136 
-0.968521 1.02837 7.6934 195 176 159 
-1.02159 3.64266 8.03698 184 187 178 
-0.983114 0.803649 7.84503 178 133 128 
-1.04801 3.59925 8.30154 38 48 11 
-0.95967 -2.53534 7.78949 48 60 74 
-0.992428 0.602307 7.9719 24 22 33 
-0.859589 -2.0092 7.02261 229 182 78 
-0.857903 -1.98773 7.01643 57 38 23 
-0.986998 0.492501 7.95975 104 58 32 
-0.973916 0.815047 7.85661 85 36 19 
-1.03061 3.65347 8.22466 192 191 161 
-1.03029 3.61778 8.24825 21 31 32 
-1.03822 3.63083 8.33004 26 33 2 
-1.00761 3.66556 8.0919 20 36 35 
-0.940136 0.995011 7.66781 33 20 12 
-0.959533 0.803579 7.83591 188 154 127 
-1.06503 3.49862 8.58302 174 134 36 
-0.952857 0.823584 7.83989 165 113 65 
-0.940796 0.96061 7.77241 185 130 47 
-0.996487 3.62636 8.14584 35 37 32 
-0.914438 -2.57849 7.72132 15 26 44 
-0.964026 3.79439 7.9338 255 255 216 
-0.923775 1.01418 7.72276 199 183 167 
-0.959166 3.7793 7.93512 121 107 70 
-0.996145 3.63211 8.22517 129 149 96 
-0.926542 -2.84733 7.86841 18 30 44 
-0.947044 0.470874 7.94705 217 178 149 
-0.983155 3.63565 8.15199 140 154 105 
-0.926628 0.987918 7.79563 98 66 27 
-0.989465 3.63232 8.2763 144 156 80 
-0.899709 -2.55037 7.73525 78 85 104 
-0.909093 3.93285 7.65235 93 94 76 
-0.913102 0.827924 7.86562 162 111 64 
-0.970728 3.60407 8.27366 199 191 152 
-0.802642 -1.77461 7.05494 147 72 0 
-0.984777 3.5738 8.42601 126 116 106 
-0.908237 0.519451 7.87639 92 63 55 
-0.905588 0.969274 7.86436 190 146 99 
-0.804199 -1.77262 7.10555 147 70 0 
-0.979055 3.58492 8.38668 122 113 98 
-0.950774 3.70599 8.21895 138 99 40 
-0.957429 3.61889 8.29119 100 93 77 
-0.948472 3.62821 8.25099 136 127 110 
-0.940652 3.67434 8.19564 231 184 116 
-0.889645 0.82654 7.86261 97 25 29 
-0.898112 3.8129 7.90569 81 77 42 
-0.881053 0.838632 7.86842 89 13 0 
-0.909399 0.642965 8.1259 125 106 92 
-0.934049 3.65201 8.23441 216 201 178 
-0.863381 3.94306 7.65409 233 208 178 
-0.915224 0.568902 8.22303 81 51 25 
-1.01543 5.4536 8.93991 101 100 106 
-0.868983 0.835457 7.8741 179 113 61 
-0.905935 0.558541 8.21388 167 137 113 
-0.901738 3.80419 8.08909 197 162 120 
-0.906133 0.586746 8.25366 211 182 152 
-0.864052 0.8507 7.88334 208 141 36 
-0.763267 -1.9662 7.17068 112 103 106 
-0.76407 -2.01079 7.19361 24 22 25 
-0.844573 3.8928 7.71766 32 39 45 
-0.754721 -2.02509 7.16236 134 132 133 
-0.823142 -2.683 7.77543 24 29 33 
-0.843011 0.823069 7.88509 173 115 78 
-0.889439 3.67304 8.20614 179 128 47 
-0.876377 0.505148 8.20712 203 172 144 
-0.816872 -2.66692 7.76393 121 123 135 
-0.883927 0.592431 8.29348 75 51 27 
-0.854649 3.80295 7.90032 246 245 201 
-0.827989 3.81255 7.71443 108 97 69 
-0.79488 1.1198 7.51106 36 34 35 
-0.823645 3.90188 7.6805 31 35 46 
-0.860871 0.671679 8.14325 190 157 126 
-0.802797 -2.81481 7.76394 82 85 94 
-0.796266 -2.64183 7.7588 9 12 19 
-0.839717 0.672733 8.06559 43 11 0 
-0.812685 3.94209 7.70681 158 161 154 
-0.848653 0.662374 8.16374 54 22 23 
-0.862312 3.66625 8.18393 209 154 51 
-0.829095 3.82163 7.89351 82 83 52 
-0.789484 -2.63737 7.76695 149 153 156 
-0.858113 0.644035 8.30815 54 32 9 
-0.849893 0.532318 8.24054 121 86 54 
-0.850739 0.624705 8.25663 171 149 128 
-0.796321 3.88271 7.65002 33 38 32 
-0.777834 -2.64593 7.77404 44 45 50 
-0.775892 -2.83434 7.78046 155 159 160 
-0.774523 -2.65996 7.77751 144 146 141 
-0.820074 0.652655 8.10996 224 188 136 
-0.912189 3.38651 8.88092 124 73 72 
-0.904903 3.2852 8.83152 144 141 134 
-0.748496 -3.73802 7.60852 96 87 80 
-0.863556 3.58432 8.45292 122 113 96 
-0.826434 0.608567 8.22797 212 182 146 
-0.765013 3.94136 7.52342 115 118 97 
-0.790215 0.781599 7.88949 176 161 140 
-0.816367 0.678213 8.15473 191 154 102 
-0.818834 3.78942 8.06854 10 7 24 
-0.75977 -2.82378 7.73596 30 36 32 
-0.760432 -2.81482 7.76251 26 30 31 
-0.795484 3.80104 7.86684 255 244 202 
-0.867958 3.53601 8.57626 188 143 60 
-0.763643 -2.66317 7.80208 24 26 23 
-0.774834 3.88165 7.69599 46 44 45 
-0.851989 3.59074 8.4341 176 164 148 
-0.810021 0.500782 8.19656 224 196 148 
-0.776888 0.857887 7.91512 117 73 26 
-0.752384 -2.427 7.78578 82 91 108 
-0.774458 0.797723 7.90162 179 146 113 
-0.876777 3.54457 8.79377 121 83 44 
-0.749937 -2.65973 7.78676 168 170 169 
-0.740525 1.06689 7.56145 223 208 185 
-0.747925 -2.82102 7.77839 155 155 153 
-0.772372 0.894229 7.90108 136 84 24 
-0.842337 3.58951 8.48279 204 181 139 
-0.747812 -2.40641 7.78187 46 58 74 
-0.802341 0.622462 8.21824 190 155 117 
-0.725991 1.0766 7.47673 158 141 121 
-0.760355 3.89292 7.73259 225 215 180 
-0.877588 3.40864 8.90688 159 141 121 
-0.738834 -2.78855 7.77843 26 28 27 
-0.736732 -2.80333 7.77738 160 157 148 
-0.723955 1.02913 7.52699 53 41 29 
-0.819041 3.6288 8.38415 202 186 163 
-0.78047 0.638573 8.15975 198 167 123 
-0.754613 0.800416 7.91924 88 36 22 
-0.755822 3.84928 7.83612 218 209 176 
-0.742235 3.98497 7.68647 18 11 27 
-0.757344 3.8226 7.8613 99 101 77 
-0.725095 -2.863 7.78777 19 29 21 
-0.793253 3.62343 8.25136 200 176 138 
-0.847616 3.63809 8.78877 160 131 87 
-0.770214 0.676687 8.15662 153 123 71 
-0.794267 3.66323 8.26693 199 176 145 
-0.720402 -2.86917 7.77842 186 196 188 
-0.752076 3.80976 7.86599 246 247 216 
-0.754065 3.80615 7.88488 167 158 127 
-0.788601 3.6835 8.25573 213 171 121 
-0.879087 5.38638 9.10236 96 95 100 
-0.816486 3.60406 8.60984 193 154 79 
-0.711107 -2.81569 7.78658 168 164 153 
-0.71076 -2.74657 7.79117 82 82 90 
-0.743394 0.822471 8.01164 168 112 61 
-0.785911 3.66962 8.3089 115 88 41 
-0.709114 -2.84844 7.78964 25 31 31 
-0.757919 0.661692 8.18953 205 182 140 
-0.853681 3.53108 9.05532 89 65 39 
-0.807292 3.62532 8.59524 87 64 22 
-0.705126 -2.78776 7.78903 29 25 26 
-0.734575 0.838843 8.00226 88 30 0 
-0.860866 3.52345 9.18485 46 54 73 
-0.728239 0.78745 7.94998 187 138 108 
-0.809137 3.59486 8.66674 177 162 143 
-0.76989 3.66809 8.27468 130 95 39 
-0.785471 3.6246 8.45701 76 61 30 
-0.813125 3.60001 8.76253 210 157 79 
-0.807481 3.74586 8.69328 74 57 27 
-0.714106 3.87649 7.74601 144 136 99 
-0.802049 3.60498 8.67374 83 67 52 
-0.700854 3.95097 7.61385 116 94 97 
-0.753416 0.652104 8.30315 72 63 46 
-0.673432 1.11273 7.44328 223 211 187 
-0.689126 -2.81454 7.76475 144 142 143 
-0.777127 3.66658 8.44062 79 57 34 
-0.718068 3.80528 7.83477 238 225 193 
-0.751551 0.642561 8.33557 62 49 30 
-0.720656 0.84901 8.00568 201 132 57 
-0.762602 3.69362 8.32492 199 163 79 
-0.793497 3.60025 8.64582 154 140 114 
-0.739465 3.69781 8.1104 121 88 43 
-0.717103 0.796542 7.99419 98 29 34 
-0.757836 3.68135 8.33892 90 63 16 
-0.67934 -2.88013 7.79485 169 169 171 
-0.702776 3.8425 7.78907 221 215 181 
-0.772522 3.61958 8.5403 214 167 63 
-0.751205 3.70465 8.32384 206 156 71 
-0.672559 1.05937 7.58503 225 214 182 
-0.78001 3.60433 8.63618 169 162 136 
-0.685206 3.7938 7.59565 222 212 177 
-0.782946 3.61015 8.67279 79 68 40 
-0.811005 -2.76221 9.29888 22 36 49 
-0.701706 0.76557 7.99603 181 151 125 
-0.768359 3.61926 8.61015 98 83 54 
-0.671241 3.9252 7.56925 206 185 180 
-0.710975 3.79786 8.01359 217 198 156 
-0.667025 -2.33033 7.78943 141 153 167 
-0.661882 3.93562 7.54306 138 135 120 
-0.769372 3.61756 8.71969 114 83 19 
-0.673162 3.88869 7.678 221 204 174 
-0.737486 3.69215 8.38881 219 166 70 
-0.748509 3.63797 8.52139 183 149 78 
-0.752207 3.62908 8.59398 65 53 39 
-0.657946 -2.44984 7.80808 135 135 137 
-0.751751 3.64946 8.59933 106 89 63 
-0.653149 -2.47834 7.80299 22 26 37 
-0.652839 -2.51699 7.80257 11 15 27 
-0.749861 3.61711 8.61807 99 83 68 
-0.749298 3.6302 8.62622 161 147 134 
-0.707747 0.60685 8.31132 69 58 54 
-0.734454 3.63317 8.47058 167 141 84 
-0.678981 3.814 7.84212 228 229 187 
-0.720205 3.70815 8.31654 59 47 25 
-0.735646 3.63693 8.54261 87 75 53 
-0.64569 3.94411 7.54373 40 39 35 
-0.724804 3.67379 8.43432 173 139 76 
-0.644573 -2.45602 7.79355 10 14 17 
-0.677133 0.784608 8.03955 89 25 23 
-0.621302 -2.05796 7.53216 87 57 46 
-0.737695 3.63356 8.61703 89 75 49 
-0.716111 3.72074 8.3839 60 48 26 
-0.657437 3.88381 7.75137 220 208 170 
-0.764411 3.62288 8.95658 132 101 83 
-0.633847 -2.87825 7.78975 50 52 41 
-0.633054 -2.46017 7.77742 103 107 118 
-0.722279 3.65403 8.53534 94 85 68 
-0.658035 3.84774 7.79238 229 217 179 
-0.661353 0.739342 8.00495 174 146 122 
-0.632924 -2.84539 7.80648 150 149 154 
-0.708557 3.70261 8.4171 66 54 30 
-0.703278 3.70918 8.36268 146 134 120 
-0.630221 -2.51814 7.80619 21 24 31 
-0.708807 3.6914 8.44663 83 70 54 
-0.710819 3.6708 8.49376 94 73 54 
-0.765224 3.59307 9.1158 27 33 47 
-0.708884 3.68566 8.46889 86 68 48 
-0.700916 3.70797 8.38326 139 127 111 
-0.607518 -1.76051 7.56354 1 3 15 
-0.714655 3.64903 8.58583 95 84 66 
-0.662002 0.877868 8.09738 95 24 0 
-0.676609 0.588257 8.28856 32 33 28 
-0.708938 3.65814 8.50813 182 169 152 
-0.663341 0.812181 8.13465 167 114 44 
-0.641613 3.88326 7.74301 135 123 81 
-0.641953 3.85129 7.76695 144 137 108 
-0.653405 3.803 7.91432 212 225 172 
-0.620281 -2.53972 7.80575 144 144 146 
-0.644077 3.81322 7.82038 241 231 195 
-0.694484 3.70086 8.4392 168 163 133 
-0.654125 0.835867 8.12903 175 117 71 
-0.613476 -2.3892 7.79652 89 92 107 
-0.689285 3.70571 8.40208 146 131 108 
-0.684274 3.73068 8.36446 87 66 49 
-0.69039 3.68078 8.49333 173 166 140 
-0.690509 3.66718 8.49898 87 76 56 
-0.584395 -1.67448 7.49359 6 10 21 
-0.729742 3.59892 8.97488 132 134 149 
-0.692511 3.66802 8.54256 85 69 44 
-0.606715 -2.52862 7.80163 20 15 19 
-0.735014 3.6308 9.04133 133 135 150 
-0.606332 -2.83409 7.81061 190 191 196 
-0.634917 0.658101 8.01417 176 159 139 
-0.664502 3.79463 8.23349 143 98 30 
-0.681333 3.67922 8.46169 109 95 66 
-0.676344 3.69811 8.45205 86 66 39 
-0.675108 3.67902 8.44393 103 81 58 
-0.599154 -2.68908 7.83124 109 109 119 
-0.557588 -1.8242 7.31784 88 54 42 
-0.6335 3.7779 7.96218 71 55 39 
-0.639267 0.908015 8.19228 146 93 39 
-0.648101 3.80778 8.15973 186 150 88 
-0.593182 -2.92697 7.82927 192 165 144 
-0.647602 3.82966 8.17627 110 96 83 
-0.615345 3.82448 7.80046 97 111 78 
-0.594552 -2.74927 7.83996 107 101 111 
-0.686117 3.66826 8.68864 104 79 23 
-0.604026 3.95277 7.7409 23 7 20 
-0.631516 0.536017 8.286 96 80 67 
-0.630184 3.81268 8.10626 57 45 45 
-0.691262 3.62159 8.86044 32 33 51 
-0.634324 3.53046 8.1902 201 167 106 
-0.622776 3.83201 8.05618 184 174 138 
-0.577436 3.96195 7.53077 102 47 42 
-0.642119 3.8055 8.33291 148 108 46 
-0.623408 3.75946 8.23173 125 90 22 
-0.573574 3.96354 7.6002 101 11 39 
-0.617456 3.80661 8.193 195 147 65 
-0.639002 3.63224 8.48451 196 162 55 
-0.60932 0.745386 8.29849 57 51 55 
-0.588877 3.81544 7.90276 101 111 59 
-0.646789 3.66714 8.65288 149 111 30 
-0.581579 3.79438 7.8088 84 96 50 
-0.666399 3.63882 8.90508 81 83 96 
-0.578425 3.81736 7.79891 224 210 181 
-0.602509 0.670637 8.30653 54 40 27 
-0.599611 0.687084 8.28873 181 168 160 
-0.632708 5.55045 8.52815 14 16 28 
-0.64158 3.66173 8.75613 126 125 141 
-0.568446 3.76237 7.80186 189 179 117 
-0.624468 3.69417 8.54692 138 105 0 
-0.644282 3.62402 8.81279 28 30 43 
-0.623641 3.66751 8.64558 194 156 81 
-0.666548 3.58785 9.20713 21 29 42 
-0.588202 3.78944 8.19392 199 151 79 
-0.605164 3.74591 8.44815 141 106 14 
-0.660559 3.5533 9.19682 24 25 45 
-0.552124 3.80496 7.78796 36 77 45 
-0.549527 3.7881 7.81496 42 70 47 
-0.589284 3.76826 8.36889 138 100 3 
-0.575425 3.79464 8.19694 123 85 23 
-0.46343 -2.79988 7.05633 106 84 71 
-0.645034 3.58618 9.20766 24 27 42 
-0.578582 3.76922 8.30467 141 105 21 
-0.638502 3.61721 9.17869 98 98 124 
-0.574069 3.77389 8.28408 193 153 68 
-0.599335 3.70067 8.70844 27 31 32 
-0.561981 3.76091 8.20655 163 127 39 
-0.52471 3.8671 7.71251 206 172 12 
-0.53725 3.77379 7.93504 54 25 7 
-0.622437 3.54723 9.30877 122 118 117 
-0.546107 3.79135 8.26411 196 158 61 
-0.504299 3.80104 7.76162 28 92 78 
-0.513262 3.78569 7.96596 125 54 0 
-0.561349 3.68566 8.70277 31 30 46 
-0.508186 3.78138 7.92497 100 43 0 
-0.575863 3.63635 8.9298 115 97 121 
-0.538751 3.74621 8.39363 11 18 24 
-0.550659 3.70051 8.57815 164 164 156 
-0.556241 3.69719 8.66774 107 103 94 
-0.524826 3.76471 8.20513 39 31 20 
-0.54501 3.70897 8.5526 165 157 155 
-0.588551 5.3514 9.133 98 93 100 
-0.545965 3.70436 8.64407 75 65 56 
-0.547278 3.69897 8.69726 166 165 163 
-0.541763 5.58881 8.50902 170 153 145 
-0.53731 3.70382 8.57086 41 30 26 
-0.530156 3.73037 8.45609 155 154 152 
-0.533381 3.70783 8.53889 103 91 91 
-0.470546 3.99017 7.57955 255 201 214 
-0.524996 3.73415 8.41371 173 172 178 
-0.488212 3.77823 7.90494 222 198 27 
-0.573739 3.57952 9.26872 106 107 125 
-0.535923 3.69391 8.67015 20 21 23 
-0.471752 3.79481 7.69841 56 89 58 
-0.487599 3.78902 7.99546 96 49 0 
-0.528268 3.69856 8.63412 30 25 29 
-0.496217 3.73681 8.21399 155 148 142 
-0.532613 3.64861 8.92988 41 29 51 
-0.49819 3.75926 8.37539 142 139 132 
-0.44726 3.99425 7.58704 233 132 164 
-0.491675 3.71695 8.45122 29 29 31 
-0.519094 3.69105 8.96001 103 91 111 
-0.488287 3.72685 8.43453 34 35 39 
-0.486317 3.72955 8.46231 122 125 130 
-0.512896 3.59414 8.98615 108 103 125 
-0.476714 3.73481 8.39561 65 63 68 
-0.501255 5.48602 8.69563 13 16 25 
-0.475677 3.73552 8.36651 27 25 30 
-0.521676 3.56237 9.25177 105 104 120 
-0.486098 3.69296 8.62385 162 158 157 
-0.461565 3.72582 8.23676 117 112 106 
-0.44727 3.76421 8.00322 100 81 22 
-0.480751 3.6742 8.6339 166 159 153 
-0.484161 3.67489 8.68088 47 43 40 
-0.484494 3.63373 8.74117 47 49 64 
-0.470752 3.6939 8.58045 91 86 82 
-0.336578 -2.78257 6.76935 41 25 26 
-0.442082 3.69062 8.20073 31 30 35 
-0.469468 3.67583 8.67523 134 130 131 
-0.470651 3.64422 8.75431 139 136 153 
-0.464533 3.66432 8.67556 25 25 27 
-0.459558 3.66565 8.63523 19 20 22 
-0.448828 3.69001 8.46888 142 138 137 
-0.448784 3.68155 8.51296 84 80 77 
-0.45942 3.67115 8.73576 31 35 36 
-0.448932 3.69191 8.57385 158 156 159 
-0.486979 3.53956 9.27519 101 100 114 
-0.441301 3.70746 8.4674 144 144 146 
-0.440948 3.68885 8.52497 159 156 163 
-0.433394 0.84 8.59893 171 108 116 
-0.441397 3.68857 8.54984 34 33 39 
-0.424281 0.875325 8.48687 60 11 14 
-0.45209 3.63516 8.80387 142 140 161 
-0.468758 3.57485 9.08068 28 30 45 
-0.435276 3.68565 8.48047 157 156 161 
-0.472041 3.55086 9.23226 104 97 115 
-0.463878 3.53487 9.24116 47 42 39 
-0.421448 3.6852 8.45728 101 100 106 
-0.418087 3.62806 8.69725 165 165 165 
-0.288538 -2.63996 6.72907 254 252 231 
-0.411755 3.64788 8.65545 118 117 112 
-0.403453 3.61055 8.75095 121 115 143 
-0.390733 3.66707 8.52213 136 136 134 
-0.399018 3.61808 8.69661 167 168 173 
-0.38821 3.65173 8.49214 130 130 130 
-0.387399 3.62774 8.62868 19 20 24 
-0.388885 3.64111 8.68864 30 31 33 
-0.270676 -2.90281 6.8913 48 35 26 
-0.374848 3.63251 8.57418 34 34 36 
-0.365619 3.63693 8.50569 34 33 38 
-0.28324 -3.69638 7.76705 192 177 158 
-0.359006 3.57098 8.96144 208 161 47 
-0.301852 1.09225 7.89866 161 111 100 
-0.239834 -2.92548 6.82617 46 41 38 
-0.341521 3.59029 8.70645 209 175 88 
-0.22997 -2.17437 6.72439 16 5 0 
-0.308193 3.79644 8.08115 78 70 57 
-0.300142 1.02492 8.23513 33 6 21 
-0.284562 1.08374 7.9431 90 51 54 
-0.315825 0.640472 8.81743 91 74 56 
-0.322892 3.5686 8.7412 131 105 56 
-0.31556 3.58953 8.68352 150 113 43 
-0.298299 3.75096 8.24582 184 171 155 
-0.215724 -2.14872 6.79046 235 219 168 
-0.208649 -2.16089 6.72024 36 21 0 
-0.308397 3.5797 8.7885 121 91 18 
-0.301831 3.6113 8.63044 211 168 55 
-0.25651 1.05387 7.88443 76 51 57 
-0.248636 1.13503 7.68487 150 86 76 
-0.253192 1.04065 7.9141 38 24 37 
-0.237472 1.11536 7.64568 232 202 191 
-0.188244 -2.36773 6.67749 181 170 142 
-0.186738 -2.33705 6.65094 54 39 6 
-0.191768 -2.09652 6.75695 49 29 0 
-0.188106 -2.07006 6.7456 26 12 0 
-0.182195 -3.02824 6.80285 156 129 108 
-0.18067 -2.09628 6.73526 154 140 113 
-0.181028 -2.96432 6.81892 85 50 31 
-0.179051 -3.0868 6.77508 108 87 68 
-0.235357 0.910157 7.99048 126 115 121 
-0.174883 -2.36983 6.68719 49 27 0 
-0.17383 -3.10343 6.68329 103 87 71 
-0.177186 -2.1083 6.7476 22 14 0 
-0.238558 3.83217 7.89892 220 210 175 
-0.178773 -1.79429 6.84275 118 84 75 
-0.273015 3.57123 8.98338 55 65 77 
-0.174174 -2.08191 6.76414 164 145 105 
-0.217714 1.0331 7.86395 20 25 63 
-0.168036 -2.10991 6.73668 204 194 167 
-0.165782 -3.02593 6.79956 137 104 85 
-0.168439 -2.91915 6.81071 200 180 156 
-0.162862 -2.41229 6.67138 161 135 78 
-0.171154 -1.7715 6.87083 27 7 0 
-0.211997 1.00738 7.85969 99 107 146 
-0.16443 -3.28828 6.81606 147 119 107 
-0.163662 -2.99101 6.86723 85 46 17 
-0.163861 -2.06088 6.76378 15 4 0 
-0.222353 3.8223 7.89394 87 76 30 
-0.15694 -2.39278 6.67243 84 46 0 
-0.156204 -2.30126 6.66127 33 22 28 
-0.212328 3.82828 7.71251 87 78 11 
-0.156126 -2.3451 6.68111 186 156 66 
-0.151084 -3.10049 6.63805 223 203 178 
-0.154489 -2.38197 6.66955 207 166 78 
-0.213632 3.8256 7.91837 225 178 152 
-0.151386 -3.01418 6.77787 84 52 31 
-0.202132 0.933055 8.03479 72 67 63 
-0.148786 -2.3895 6.66639 93 56 0 
-0.145332 -2.94048 6.81376 90 66 42 
-0.202841 3.84133 7.89217 178 46 41 
-0.156935 -1.61775 7.10936 62 66 78 
-0.214264 0.735726 8.80956 227 180 154 
-0.136754 -2.88552 6.72018 255 255 230 
-0.139256 -2.12243 6.75669 41 24 0 
-0.180779 0.963441 7.90741 192 191 209 
-0.133127 -2.38013 6.67359 169 135 64 
-0.132859 -2.36657 6.67889 179 156 115 
-0.216721 3.84556 8.87762 43 43 31 
-0.186356 3.83642 7.75323 255 138 140 
-0.129639 -3.22652 6.70967 59 21 0 
-0.129772 -2.42086 6.65708 32 21 0 
-0.129989 -2.37314 6.66291 56 24 0 
-0.126456 -2.98363 6.74226 255 251 207 
-0.179152 3.96917 7.72508 78 15 0 
-0.18137 3.82578 7.87362 231 136 140 
-0.179871 3.81563 7.83057 238 146 149 
-0.128575 -2.06665 6.77134 39 30 0 
-0.127032 -2.32514 6.71814 255 242 171 
-0.11828 -3.22405 6.70152 50 10 0 
-0.179532 3.80772 7.9605 219 203 180 
-0.187203 0.764578 8.7862 130 79 48 
-0.117858 -2.42082 6.66593 255 255 197 
-0.118647 -2.96808 6.71675 122 89 46 
-0.121388 -2.05923 6.78249 194 186 139 
-0.115813 -3.1787 6.71017 104 64 39 
-0.116673 -2.41115 6.66285 66 32 0 
-0.120444 -2.13058 6.77224 189 167 126 
-0.116624 -2.43476 6.66523 22 4 0 
-0.117082 -2.35138 6.68867 159 146 111 
-0.118247 -2.96215 6.77997 56 21 0 
-0.120716 -1.72739 6.87011 83 55 52 
-0.160303 3.95295 7.74047 194 143 26 
-0.173238 0.748601 8.8229 216 169 141 
-0.157876 3.84869 7.74745 175 66 43 
-0.108139 -2.05493 6.74401 14 10 0 
-0.165057 0.758479 8.7932 135 88 62 
-0.154297 3.87607 7.72556 203 164 11 
-0.100605 -3.21956 6.67349 68 30 21 
-0.103102 -2.43067 6.64739 216 199 153 
-0.102389 -3.0187 6.75619 155 117 81 
-0.103905 -2.95652 6.7881 133 91 67 
-0.100063 -2.41205 6.65588 223 198 158 
-0.150651 3.82734 7.87208 243 149 150 
-0.104701 -1.75801 6.87967 98 70 69 
-0.0975004 -2.95937 6.7577 74 33 3 
-0.0978687 -2.60288 6.67831 24 19 23 
-0.137253 0.962889 7.92847 134 133 128 
-0.152501 0.756968 8.78987 212 164 144 
-0.148804 0.137081 8.70397 32 37 56 
-0.141889 3.8376 7.74649 251 147 136 
-0.089879 -3.20999 6.64363 144 106 83 
-0.142823 -0.138935 8.69773 38 38 36 
-0.142913 0.104005 8.70268 37 40 59 
-0.141999 3.83774 7.91112 177 65 61 
-0.0969371 -1.7946 6.89249 129 100 94 
-0.136097 4.00699 7.6909 163 77 90 
-0.09019 -2.445 6.68526 255 254 200 
-0.139588 0.0666946 8.55092 138 140 137 
-0.0865115 -2.36143 6.62195 71 44 0 
-0.0847956 -2.93507 6.83904 47 31 31 
-0.129771 3.83692 7.72429 175 64 19 
-0.0850501 -2.17945 6.75081 130 125 95 
-0.0834735 -2.45026 6.67327 18 11 0 
-0.136385 0.449383 8.83522 192 182 157 
-0.12768 3.90704 7.71734 140 24 25 
-0.127271 -0.259167 8.65007 29 30 32 
-0.0808723 -2.16096 6.74015 49 37 13 
-0.121447 -0.209289 8.64763 130 130 130 
-0.0804434 -1.78369 6.87639 41 18 12 
-0.0749967 -2.28466 6.69821 35 21 0 
-0.0742376 -2.3245 6.69222 211 202 173 
-0.117651 -0.196855 8.65638 15 15 13 
-0.0728106 -2.29585 6.70435 157 142 111 
-0.114909 -0.270093 8.64262 107 108 112 
-0.0755958 -1.75546 6.85503 27 3 0 
-0.11284 -0.28095 8.61762 25 26 28 
-0.0689231 -2.94939 6.77061 72 28 0 
-0.119185 0.775044 8.82378 169 126 109 
-0.068889 -2.31904 6.70864 136 128 92 
-0.108536 -0.19418 8.67722 138 138 140 
-0.109235 3.92961 7.74893 222 139 131 
-0.105516 3.92331 7.72285 191 112 107 
-0.105741 -0.325257 8.61166 75 82 75 
-0.096125 0.975741 7.95313 137 129 126 
-0.0616125 -2.30839 6.70423 166 152 126 
-0.098449 -0.421162 8.56754 103 34 55 
-0.065343 -1.80148 6.934 108 85 79 
-0.0955083 -0.446962 8.53213 91 39 52 
-0.0968437 3.90325 7.72377 129 54 12 
-0.0939766 -0.248155 8.65474 144 144 142 
-0.0966829 3.9449 7.74363 205 114 121 
-0.0558463 -2.29801 6.70295 160 149 119 
-0.0925693 -0.288379 8.63586 131 133 132 
-0.052402 -2.95949 6.77048 63 21 0 
-0.0532903 -2.31759 6.73318 35 20 0 
-0.0564429 -1.79122 6.90813 31 6 1 
-0.08364 -0.527102 8.44982 94 46 62 
-0.0873315 -0.354863 8.60465 132 137 131 
-0.0495847 -2.26255 6.70365 166 153 118 
-0.0923528 0.767425 8.80265 148 101 85 
-0.0477712 -2.25718 6.71831 142 125 82 
-0.0840826 -0.22031 8.64901 139 139 139 
-0.0817537 -0.404685 8.57758 156 113 123 
-0.0471544 -2.2406 6.74582 149 140 97 
-0.0465253 -2.3014 6.72528 41 29 3 
-0.0789939 -0.434598 8.55432 155 115 124 
-0.0442298 -2.28981 6.72309 128 116 92 
-0.0780685 -0.201438 8.67571 144 144 146 
-0.0413874 -3.02143 6.78593 143 98 65 
-0.0805263 0.577151 8.81113 198 166 151 
-0.0946531 3.88721 8.84039 137 100 71 
-0.0410941 -2.23013 6.74213 62 53 20 
-0.0694177 -0.419433 8.56968 75 52 58 
-0.0769453 0.53453 8.79682 123 102 111 
-0.0706375 -0.273358 8.60272 24 25 27 
-0.0753133 3.93832 7.72944 200 114 115 
-0.0364847 -2.28115 6.70588 34 21 0 
-0.0735452 3.91934 7.71091 196 121 115 
-0.0658267 -0.387511 8.59297 77 54 60 
-0.0719798 3.91144 7.73496 128 48 23 
-0.0607894 0.96926 7.93249 95 86 77 
-0.0307753 -3.03446 6.69972 166 126 100 
-0.0599815 -0.450164 8.56659 76 45 50 
-0.0817199 3.86241 8.89816 87 47 21 
-0.0627959 0.38988 8.7752 104 90 115 
-0.0762738 3.86121 8.85391 141 97 72 
-0.0544184 -0.508645 8.5402 77 48 53 
-0.0236307 -2.95991 6.78277 100 55 26 
-0.0522147 -0.200426 8.65974 55 55 57 
-0.049413 -0.496987 8.53273 151 108 118 
-0.0571023 4.00177 7.72862 44 44 34 
-0.0458162 -0.40915 8.57995 137 127 126 
-0.0550774 3.96007 7.74228 122 37 40 
-0.0532277 3.84295 7.79639 158 40 56 
-0.0177279 -2.24588 6.75745 125 110 91 
-0.043016 -0.253857 8.63162 21 19 20 
-0.0615489 3.87573 8.71957 127 97 73 
-0.0132408 -3.17151 6.70976 111 67 40 
-0.0499863 3.94295 7.7654 201 127 116 
-0.010591 -3.2066 6.67177 134 91 74 
-0.0396086 -0.290368 8.62882 135 133 134 
-0.011634 -2.26962 6.74566 118 111 82 
-0.0346126 -0.386537 8.58499 78 49 53 
-0.0348863 0.958302 8.01249 162 153 148 
-0.033929 -0.257787 8.63985 88 86 87 
-0.00716043 -2.92776 6.81193 169 137 112 
-0.0411502 3.93713 7.7352 192 118 117 
-0.0508524 3.88748 8.70307 52 46 24 
-0.0411039 3.9252 7.73373 141 64 56 
-0.0307573 -0.534378 8.55594 82 47 54 
-0.0402986 3.9113 7.72938 125 46 15 
-0.00834863 -2.40108 6.79914 15 9 13 
-0.00205904 -3.20628 6.68506 62 19 0 
-0.0265562 -0.267468 8.63929 40 39 37 
-0.00325068 -2.24845 6.74082 135 128 102 
-0.0226557 1.00072 7.83109 173 182 215 
-0.0172168 -0.514375 8.5396 149 107 117 
0.00594707 -3.18521 6.74116 84 40 13 
0.00504497 -3.00074 6.80195 150 114 90 
-0.0273924 3.94526 7.73155 185 104 103 
0.00368855 -2.2819 6.74057 123 109 96 
-0.0151275 -0.407699 8.60019 104 40 56 
-0.0272083 3.84234 7.82555 164 56 72 
0.00411863 -2.18741 6.77139 47 31 0 
-0.0256924 3.85078 7.81759 243 152 149 
-0.013645 -0.251294 8.66045 15 14 12 
-0.0231573 3.94382 7.7663 135 57 53 
-0.0175249 0.50662 8.77872 97 60 77 
0.0130118 -3.16978 6.71382 153 109 84 
-0.00945338 -0.354766 8.62403 139 136 127 
0.0105617 -2.29273 6.74981 120 107 91 
-0.0213324 3.91981 7.7429 129 53 29 
-0.0203371 3.95681 7.7594 136 58 58 
-0.007376 -0.212675 8.64303 136 136 134 
-0.0071781 -0.229605 8.65283 138 138 136 
-0.00457091 -0.483135 8.57649 85 42 51 
-0.0187328 3.84105 7.94113 62 97 119 
-0.0159663 3.98563 7.74281 57 43 34 
-0.0175959 4.07671 7.71439 121 115 99 
-0.00419283 -0.455897 8.54404 131 130 128 
0.0154868 -2.23044 6.78023 60 46 1 
0.0158621 -2.24167 6.77245 167 153 118 
0.000513542 -0.518427 8.57887 91 34 49 
0.01899 -2.87184 6.76091 107 94 78 
0.000890141 -0.385926 8.60916 90 53 60 
0.00677145 -0.427462 8.59619 81 55 58 
-0.00595724 3.94757 7.72794 195 114 113 
-0.00525885 3.9403 7.74489 126 41 38 
0.0247486 -2.24505 6.79074 27 15 0 
0.0106475 0.990582 7.90704 66 62 85 
0.0153451 -0.405065 8.58596 138 130 128 
0.0155251 -0.367935 8.60913 145 129 130 
0.0278371 -2.06425 6.84722 121 112 95 
0.0195852 -0.243546 8.65151 135 135 135 
0.035029 -2.18198 6.81339 125 115 88 
0.0216771 0.977584 7.95896 190 186 177 
0.0234768 1.12491 7.38758 168 157 137 
0.0380745 -2.05975 6.87414 115 100 79 
0.0302926 -0.464617 8.58236 131 136 132 
0.0399198 -2.28533 6.76405 93 76 58 
0.0402487 -2.29645 6.76773 30 19 0 
0.0312851 -0.335547 8.6341 137 136 131 
0.0405937 -2.14765 6.83475 89 73 50 
0.0312529 -0.255833 8.65454 84 84 82 
0.0410352 -2.12705 6.8512 47 29 0 
0.016248 3.85381 7.98618 137 137 129 
0.0459823 -2.13806 6.83964 103 86 66 
0.0462572 -2.06641 6.87827 27 10 0 
0.0243426 3.83461 7.92381 97 86 66 
0.0406885 -0.419328 8.56627 90 44 54 
0.0400909 0.76887 8.47606 179 126 120 
0.0440283 0.291677 8.78776 109 49 75 
0.0468215 -0.312434 8.6224 92 88 85 
0.0297305 3.99065 7.7657 177 156 89 
0.0546882 -2.05803 6.8548 157 140 112 
0.0600889 -2.08553 6.88557 34 18 0 
0.0619694 -0.21068 9.82368 140 140 142 
0.0372574 5.43596 8.58655 59 44 37 
0.0616447 -0.402811 8.60002 161 141 142 
0.066477 -0.34889 8.62733 134 134 126 
0.0699772 -2.36888 6.77668 66 43 11 
0.0673736 -0.1846 8.68552 18 18 18 
0.0492231 4.02453 7.85783 74 65 34 
0.0734324 -0.222333 9.80599 16 16 16 
0.0667138 -0.226608 7.75184 25 25 23 
0.0714262 -2.08889 6.87441 47 28 0 
0.0755175 -0.229891 9.81732 19 19 17 
0.0702944 0.443246 8.81792 127 70 89 
0.0744269 -1.68023 7.23701 74 37 8 
0.0710777 0.411283 8.79191 59 25 39 
0.076667 -2.30352 6.82354 39 29 0 
0.0804031 -2.38099 6.7742 124 98 49 
0.0817691 -0.312979 8.64462 117 119 116 
0.0818151 -0.227026 8.65412 142 143 138 
0.0834129 -2.36114 6.78238 43 26 0 
0.0845671 -2.4173 6.73645 43 26 0 
0.0877023 -0.285673 8.66336 134 133 129 
0.0854765 -2.34975 6.78086 39 25 0 
0.088604 -0.509873 8.56705 154 117 124 
0.0870088 -2.14426 6.91005 27 14 0 
0.0889647 -2.10588 6.89469 112 92 68 
0.0927798 -3.11243 6.87532 102 92 82 
0.0925252 -0.352833 8.63647 134 136 125 
0.101507 -0.227661 9.80838 35 35 33 
0.0967994 -0.268762 8.63944 32 32 30 
0.0938381 -2.43004 6.76087 22 3 0 
0.0954643 -2.35522 6.76443 255 255 211 
0.0883404 3.66566 9.19291 88 93 89 
0.0969316 -2.32941 6.81074 49 26 0 
0.0978416 -2.34137 6.7921 34 20 0 
0.098305 -2.445 6.78331 119 102 84 
0.099339 -2.40412 6.77541 255 254 201 
0.105729 -0.250895 8.65581 135 135 133 
0.0986072 -0.230201 7.74638 135 135 133 
0.1081 -0.505106 8.60332 81 38 47 
0.106354 0.431418 8.80535 52 38 51 
0.103074 -2.12797 6.94361 117 91 74 
0.107345 0.387113 8.80034 167 85 99 
0.0825903 3.96242 7.3526 26 24 29 
0.0935273 3.81302 8.73983 25 25 15 
0.111729 -0.24208 8.67761 17 17 17 
0.111456 -0.25958 8.65217 46 46 44 
0.11453 -3.27766 7.78786 120 113 105 
0.104886 -2.35445 6.80383 27 12 0 
0.105742 -2.6026 6.8967 34 19 24 
0.112345 0.17112 8.77289 122 38 71 
0.105994 -2.16138 6.8834 25 13 0 
0.108579 -2.17159 6.8924 140 125 106 
0.101988 1.14917 7.52819 60 44 19 
0.109529 -2.32804 6.81788 130 110 77 
0.118476 -0.4906 8.57075 154 127 134 
0.109041 -2.12529 6.88769 134 112 91 
0.121015 -3.27986 7.82384 57 53 44 
0.131955 -0.194738 9.84277 136 136 134 
0.106938 3.79995 8.79434 36 38 25 
0.114149 -0.220295 7.75911 136 136 134 
0.12371 -0.279234 8.64744 136 136 134 
0.123787 -0.49913 8.57838 152 125 130 
0.136897 -0.214348 9.81523 42 41 39 
0.111438 3.6847 9.11241 31 31 31 
0.138706 -0.182882 9.83608 12 13 8 
0.110948 3.76577 8.79222 102 102 92 
0.129246 -0.229424 8.6653 5 5 3 
0.119481 -2.16223 6.93503 34 16 0 
0.116163 3.77488 8.85223 73 73 61 
0.132147 -0.477796 8.53992 82 42 50 
0.133907 -0.193092 8.65924 127 126 124 
0.123942 -2.36899 6.85014 34 13 0 
0.124709 -2.17241 6.88624 115 94 77 
0.138327 0.418942 8.79676 64 32 45 
0.125332 -2.42267 6.81997 120 104 79 
0.126841 3.68691 9.07595 81 80 78 
0.141577 -3.25633 7.83684 131 115 89 
0.128304 -2.40464 6.81431 141 121 97 
0.128327 -2.39346 6.81704 33 18 0 
0.14329 -0.176924 8.68377 137 137 135 
0.143049 -0.193758 8.66998 36 35 33 
0.137669 3.43655 9.64933 109 99 89 
0.131616 -2.35045 6.85181 45 23 0 
0.148876 -0.483137 8.59657 164 123 129 
0.126108 3.88895 8.30098 18 20 6 
0.149865 -0.377015 8.62506 87 47 56 
0.135283 -2.41478 6.83273 63 43 10 
0.136125 -2.36157 6.85999 80 58 44 
0.150984 -0.305237 8.65226 85 85 85 
0.136983 1.08635 8.02157 56 38 34 
0.137205 3.78447 8.77876 31 34 25 
0.152975 -0.49441 8.58932 76 39 47 
0.139669 -2.41716 6.81885 146 120 103 
0.136246 3.95839 8.33545 76 82 70 
0.143365 -2.38719 6.83097 139 107 92 
0.150123 3.76911 8.83284 34 34 26 
0.147443 -2.35866 6.83804 37 8 0 
0.163357 3.18525 9.26948 23 19 18 
0.170358 -0.255572 8.66338 137 138 132 
0.1714 -0.411764 8.61218 154 125 130 
0.173972 -0.441797 8.6102 136 133 128 
0.174328 -0.475075 8.61782 83 36 44 
0.154082 3.88275 8.37265 27 24 19 
0.151287 3.89882 8.21383 14 16 15 
0.156734 -2.34966 6.82305 140 108 85 
0.159403 3.91678 8.26907 28 26 29 
0.155917 4.02277 7.84266 75 81 69 
0.165297 3.86963 8.3801 22 12 11 
0.189373 -0.302581 8.64613 78 79 74 
0.172715 1.15052 7.90985 205 144 113 
0.199001 0.374589 8.78672 153 46 72 
0.184855 3.83226 8.75768 76 87 70 
0.200537 -0.526959 8.57005 147 121 120 
0.207381 -0.180242 8.67601 149 149 147 
0.191765 1.14889 7.94604 196 117 104 
0.212148 -0.170971 8.68534 17 18 13 
0.212489 -0.24132 8.66212 20 20 18 
0.214869 -0.528669 8.59004 78 37 43 
0.215276 -0.515566 8.59404 101 40 58 
0.222855 -0.377259 8.66603 88 58 60 
0.198321 -2.84068 7.07906 78 43 41 
0.224661 -0.392617 8.62734 158 122 124 
0.225686 -0.408533 8.67589 90 55 59 
0.227484 -0.467251 8.60944 78 53 57 
0.227189 -0.524888 8.5881 153 131 133 
0.230526 -0.0260997 8.69801 59 68 73 
0.200351 3.84419 8.15659 24 20 19 
0.233987 -0.513356 8.60537 71 50 55 
0.234612 -0.238654 8.69035 137 138 133 
0.233646 -0.437574 8.64146 142 137 131 
0.235241 -0.418975 8.62309 147 132 127 
0.211227 -3.14739 7.05564 40 36 37 
0.228221 -3.26404 7.81799 75 61 34 
0.238121 0.351686 8.78299 151 47 84 
0.212054 -2.82361 7.07049 164 141 135 
0.240752 -0.37405 8.66104 146 131 128 
0.217913 1.15309 7.88552 182 133 92 
0.20911 -2.62297 6.90842 79 64 59 
0.242524 -0.394876 8.67674 155 125 127 
0.226788 1.12522 8.02127 128 72 75 
0.248763 -0.414627 8.6241 92 47 54 
0.250857 -0.1633 8.69706 146 147 142 
0.226544 3.80353 8.33911 34 26 23 
0.233881 1.13239 7.97176 141 76 80 
0.261406 0.459881 8.82826 83 49 76 
0.26229 -0.193141 8.67731 46 47 42 
0.262889 0.275495 8.76705 34 17 33 
0.2608 -0.171725 8.68886 54 54 52 
0.264039 -0.239893 8.67294 60 61 56 
0.23927 1.15842 7.91879 135 90 48 
0.266781 0.8389 8.85561 197 154 138 
0.217467 3.97541 7.50204 28 26 29 
0.245289 1.1357 7.97048 56 17 20 
0.269673 -0.254254 8.64229 40 43 34 
0.244091 3.80019 8.35832 59 53 55 
0.241642 3.84549 8.13756 110 113 104 
0.244206 3.82763 8.15094 34 30 27 
0.240403 -2.82107 7.04782 204 180 154 
0.251445 3.79147 8.43728 11 9 12 
0.276483 -0.364493 8.63887 74 48 47 
0.278569 -0.424693 8.62245 147 133 132 
0.282283 0.828589 8.87733 58 20 0 
0.253938 3.82614 8.26092 71 61 62 
0.282221 -0.388467 8.63068 142 131 129 
0.251856 3.86724 8.11504 104 109 102 
0.282741 -0.411289 8.61267 77 55 58 
0.286561 0.810466 8.84925 71 34 16 
0.256172 3.80512 8.15735 70 60 50 
0.289183 -0.366071 8.62022 148 130 126 
0.297686 0.40626 8.78894 120 115 138 
0.267035 3.80391 8.25314 14 10 11 
0.297648 0.364996 8.78779 59 25 60 
0.249451 3.94576 7.61049 22 21 17 
0.303654 -0.167284 8.72386 153 153 151 
0.264672 -2.7509 7.0744 88 65 49 
0.302536 -0.371426 8.64008 98 51 57 
0.306604 0.821729 8.87349 60 25 5 
0.305097 0.0137852 8.6917 57 64 72 
0.307766 -0.404546 8.61739 93 52 58 
0.311445 0.324339 8.78489 34 20 33 
0.279521 3.83056 8.17548 8 4 5 
0.272138 -2.74279 7.06962 193 172 153 
0.31686 0.822191 8.88307 185 150 130 
0.27944 3.89894 8.07393 118 122 108 
0.283331 3.84809 8.16358 17 16 21 
0.328623 -0.229981 8.67196 136 138 133 
0.281971 -2.66843 7.01567 80 35 56 
