ply                 
format ascii 1.0    
element vertex 1279
property float x    
property float y    
property float z    
property uchar red  
property uchar green
property uchar blue 
end_header          
2.29383 -2.89016 7.8433 164 154 144 
2.13535 -0.661352 7.27764 1 9 0 
2.31418 -3.00202 7.84322 174 158 143 
2.31895 -2.9149 7.84379 152 141 135 
2.32553 -3.93154 7.85837 9 10 12 
2.32553 -3.93154 7.85837 9 10 12 
2.33235 -2.83916 7.86091 78 73 69 
2.33804 -2.72976 7.87725 103 97 97 
2.3289 -2.92631 7.83896 66 52 41 
2.35055 -2.78905 7.87104 49 47 50 
2.37133 -2.95471 7.87395 155 143 127 
2.36791 -3.05594 7.84959 227 212 189 
2.36937 -4.1391 7.83211 0 1 3 
2.23809 -0.665263 7.404 124 132 117 
2.37122 -4.05549 7.81828 73 73 65 
2.40004 -3.09045 7.8592 61 58 53 
2.40695 -3.02514 7.84958 79 74 70 
2.40695 -3.02514 7.84958 79 74 70 
2.36775 -2.72177 7.67231 28 26 31 
2.41321 -3.5385 7.80195 49 41 38 
2.44631 -3.05852 7.85769 218 199 166 
2.44631 -3.05852 7.85769 218 199 166 
2.42043 -2.92618 7.75011 34 26 24 
2.24782 -1.80605 7.17583 22 26 11 
2.56585 -3.71413 8.13782 152 144 131 
2.51681 0.177895 7.86237 32 40 25 
2.44218 -0.739724 7.61314 32 30 7 
2.47304 -0.380176 7.69251 41 39 18 
2.474 -0.380083 7.69447 41 39 18 
2.49349 -2.9152 7.74856 110 97 81 
2.49975 -2.94035 7.75788 40 31 22 
2.6198 -3.31469 8.10225 111 32 87 
2.52469 -4.15495 7.79774 4 2 5 
2.4821 -0.601317 7.66282 202 187 164 
2.55611 -2.47611 7.84245 214 184 156 
2.56037 -0.0209232 7.76734 34 41 25 
2.63271 -3.56591 7.96622 113 25 86 
2.52054 -0.81731 7.62137 192 183 154 
2.64391 -4.22641 7.97807 125 51 104 
2.62125 -3.81528 7.8895 165 119 129 
2.63151 -3.89898 7.87709 157 114 123 
2.63151 -3.89898 7.87709 157 114 123 
2.63148 -0.0341026 7.84427 207 194 162 
2.56587 -0.938692 7.60821 98 101 82 
2.58689 -0.840814 7.65757 203 179 155 
2.62355 -0.316898 7.76315 191 190 169 
2.62355 -0.316898 7.76315 191 190 169 
2.50189 -1.31477 7.35523 85 81 56 
2.68502 -0.21152 7.88087 38 39 25 
2.68532 -0.191678 7.87199 199 197 174 
2.69176 -0.189939 7.88932 200 196 171 
2.64526 -0.784863 7.73197 199 195 166 
2.66975 -0.773068 7.76524 49 51 30 
2.67249 -0.772928 7.77234 49 51 30 
2.70086 -0.123828 7.84375 206 187 157 
2.68839 -0.785129 7.76163 202 189 172 
2.68839 -0.785129 7.76163 202 189 172 
2.69853 -0.341587 7.77907 34 38 24 
2.70414 -0.718079 7.78852 60 63 42 
2.74527 -0.257638 7.82327 32 40 25 
2.71978 -0.74217 7.74878 209 188 171 
2.72885 -0.848298 7.73787 206 190 164 
2.76126 -0.779612 7.77052 213 192 171 
2.74259 -0.81633 7.71384 213 189 163 
2.60711 -2.03546 7.31341 35 51 22 
2.81876 -0.216687 7.82194 211 189 165 
2.91492 -1.89175 8.06844 77 80 53 
2.94194 -1.73521 8.14087 56 73 31 
2.94194 -1.73521 8.14087 56 73 31 
2.67104 -1.35269 7.37891 213 197 163 
2.8348 -0.368084 7.78815 41 53 39 
2.8348 -0.368084 7.78815 41 53 39 
2.68808 -2.06151 7.31963 216 202 163 
2.67798 -2.05717 7.29124 220 200 165 
-2.07385 1.1611 7.04777 66 81 104 
-2.06302 1.14267 7.06376 55 67 83 
-2.38972 3.49776 8.43314 178 214 246 
-2.65807 3.32441 9.39105 175 182 198 
-2.16716 3.05856 7.7007 98 126 163 
-2.4207 3.44861 8.60087 153 182 216 
-2.6236 3.35806 9.3504 87 108 125 
-2.36783 3.49909 8.47064 29 37 50 
-2.41489 3.38936 8.75502 70 97 118 
-2.1482 -0.20694 7.83131 88 92 103 
-2.59779 3.34543 9.42615 173 181 192 
-2.50439 3.40417 9.11003 4 34 42 
-2.19992 0.647178 8.07079 57 74 84 
-2.43131 3.41352 8.9716 29 44 63 
-1.79558 -1.55852 6.70967 129 130 134 
-2.43633 3.3897 9.06032 43 115 187 
-2.20919 3.75553 8.24114 11 24 43 
-2.21286 3.71969 8.25626 108 195 240 
-2.17878 0.635833 8.19219 111 213 251 
-2.02169 -0.823466 7.66517 59 54 74 
-2.09637 -0.249115 7.94688 64 29 53 
-2.08006 -0.296698 7.90043 107 115 134 
-2.05245 -0.723489 7.79442 55 35 60 
-2.03957 -0.117792 7.79103 186 190 202 
-2.02031 -0.149366 7.80508 140 54 63 
-2.15519 -0.00791014 8.32741 103 120 130 
-1.9914 -0.83535 7.72824 61 29 42 
-1.9946 -0.835754 7.7406 61 29 42 
-2.05194 -0.313486 7.96041 182 191 200 
-1.99005 -0.850564 7.74907 186 173 183 
-2.14092 -0.0110063 8.34185 178 194 207 
-1.9806 -0.92728 7.7403 182 171 177 
-2.14328 -0.0211747 8.35322 74 88 99 
-2.11485 0.0146856 8.2601 80 102 113 
-1.96874 -0.585929 7.72203 172 180 193 
-2.05607 3.96811 8.06115 98 129 134 
-1.99846 -0.156027 7.88575 189 186 205 
-1.96123 -0.747997 7.75005 93 38 59 
-2.2476 3.6691 8.83753 74 86 98 
-2.00247 -0.226364 7.91649 14 56 106 
-2.10377 3.69139 8.28738 88 164 222 
-2.06888 0.74196 8.17858 27 35 58 
-2.17086 0.523714 8.62363 78 80 92 
-1.94061 -1.05189 7.75054 80 42 53 
-1.94192 -1.00281 7.76085 113 42 50 
-1.93227 -0.630369 7.72557 3 43 94 
-2.08947 0.0327963 8.33101 169 187 199 
-2.18165 3.7197 8.68385 48 78 89 
-1.90256 3.92333 7.61219 138 169 174 
-1.91919 -1.05331 7.71777 71 44 51 
-1.91282 -0.699361 7.70119 26 32 68 
-1.94234 -0.644763 7.82249 28 76 122 
-2.09676 3.65241 8.39846 96 128 151 
-1.97514 -0.10692 7.95102 57 98 130 
-2.2006 3.67026 8.81959 77 90 106 
-1.93402 -0.84519 7.79809 186 173 180 
-2.08011 0.0361693 8.37989 72 88 101 
-1.9606 -0.0678031 7.91864 175 188 204 
-2.07781 0.05733 8.3814 202 245 254 
-2.06366 0.0703911 8.32244 186 230 239 
-2.12397 3.73463 8.5491 4 40 74 
-2.08353 0.0248745 8.40643 175 189 200 
-1.91316 -1.04182 7.75162 177 156 171 
-2.33205 5.61496 9.38667 26 29 44 
-1.95686 0.812256 7.93703 95 110 131 
-1.91363 -0.764547 7.78551 27 24 45 
-1.91297 -0.825673 7.79293 75 51 65 
-1.90726 -0.857586 7.77798 170 170 178 
-2.29645 5.60527 9.34756 125 124 132 
-2.02816 3.70248 8.28442 92 123 152 
-1.89014 -0.820114 7.78265 55 80 100 
-1.92163 0.852597 7.90045 154 174 185 
-1.88624 0.883902 7.7752 144 160 194 
-1.96638 3.76636 8.11457 161 219 255 
-1.87339 0.888351 7.76977 79 100 131 
-1.86463 0.8959 7.74124 179 206 225 
-2.27084 5.64687 9.36819 125 124 129 
-1.86604 -0.814654 7.78898 44 64 89 
-1.99717 3.705 8.31599 78 114 146 
-1.98162 0.0888543 8.4187 156 169 177 
-2.02734 3.63344 8.68795 7 18 36 
-1.94991 0.113316 8.39461 196 218 231 
-1.81677 -2.96325 7.86647 119 109 108 
-1.91256 0.325665 8.28927 140 143 150 
-1.74523 0.920998 7.59991 132 132 142 
-1.74526 1.06914 7.60723 62 61 69 
-1.92977 3.67869 8.39079 94 146 193 
-1.72647 1.02808 7.5494 86 78 89 
-1.75823 -2.74721 7.72374 12 16 28 
-1.72916 0.925767 7.56998 79 79 87 
-1.90715 0.326244 8.36807 118 123 127 
-1.71606 1.01924 7.54916 176 168 157 
-1.89048 0.251414 8.31537 103 113 123 
-1.90328 3.69247 8.35675 65 87 108 
-1.89566 0.343467 8.3555 172 172 170 
-1.72344 -2.93866 7.64792 15 16 20 
-1.70125 1.04793 7.52865 129 124 118 
-1.64962 -1.95348 7.33651 45 41 40 
-1.69475 0.979082 7.56197 154 140 131 
-1.69029 -2.67677 7.62517 162 158 159 
-1.67661 1.02515 7.54553 27 23 37 
-1.87374 0.378108 8.42179 171 165 169 
-1.88729 0.343966 8.48402 179 179 171 
-1.61458 -1.94637 7.32014 149 126 92 
-1.60673 -1.906 7.32737 124 118 96 
-1.67245 -2.68197 7.64451 56 59 66 
-1.66478 1.00365 7.57631 143 129 126 
-1.66227 -2.94736 7.62604 33 25 22 
-1.65596 0.594105 7.57912 76 67 58 
-1.82065 0.381863 8.3551 153 154 156 
-1.89885 3.58236 8.699 109 107 110 
-1.63023 0.517131 7.54116 89 84 90 
-1.99054 5.66094 9.14031 21 29 42 
-1.64076 -2.57342 7.63609 101 104 113 
-1.80509 0.385955 8.36666 57 58 62 
-1.63507 -2.5665 7.64037 23 25 37 
-1.78346 0.385991 8.32672 58 58 60 
-1.6296 -2.57307 7.65834 94 96 108 
-1.61713 -2.63305 7.64186 6 5 1 
-1.61527 -2.68008 7.64852 144 147 138 
-1.61405 -2.69066 7.64127 38 39 41 
-1.59622 -2.66066 7.60888 25 25 35 
-1.95138 3.18653 9.2239 162 160 161 
-2.0004 3.28133 9.44685 162 160 163 
-1.59667 -2.87374 7.64144 24 24 32 
-1.59926 -2.44779 7.67475 62 76 87 
-1.5863 1.04698 7.59366 38 37 53 
-1.58427 1.02219 7.60095 29 29 41 
-1.58654 -2.88275 7.64796 134 137 144 
-1.58438 -2.73601 7.63915 124 128 139 
-1.58237 0.76536 7.64289 86 79 71 
-1.57867 -2.54689 7.68855 32 36 47 
-1.57402 -2.61656 7.67007 134 134 142 
-1.56911 0.770381 7.61929 33 26 20 
-1.57446 0.937227 7.64795 179 170 161 
-1.56805 0.754676 7.63349 37 31 33 
-1.56311 -2.52806 7.65026 119 123 132 
-1.55424 1.04126 7.58172 123 119 118 
-1.56187 0.763188 7.62933 97 92 89 
-1.71493 0.338391 8.38198 85 87 84 
-1.56221 -2.52906 7.68375 25 32 42 
-1.55228 0.605592 7.62253 94 91 72 
-1.55403 -2.72808 7.66672 140 144 155 
-1.55105 0.685121 7.61882 69 71 66 
-1.54829 -2.60882 7.67216 87 97 106 
-1.54828 -2.52362 7.67468 114 120 132 
-1.54963 -2.40693 7.6922 149 158 163 
-1.54863 -2.47668 7.70298 32 40 53 
-1.68798 0.331165 8.4229 144 145 140 
-1.84779 5.65287 9.1667 169 158 152 
-1.53279 -2.46171 7.69094 86 99 108 
-1.6715 3.70269 8.35596 152 156 165 
-1.6674 3.73284 8.37826 149 157 170 
-1.85551 5.59355 9.30079 22 26 38 
-1.40358 -3.59213 7.20458 175 137 128 
-1.4852 -2.85676 7.67298 137 145 147 
-1.47884 -2.79749 7.68577 88 91 106 
-1.4773 -2.67247 7.7001 113 121 132 
-1.46521 -2.6535 7.69264 121 131 143 
-1.46199 -2.79165 7.69179 103 107 119 
-1.44866 -2.85103 7.68605 161 170 165 
-1.45798 -2.34332 7.73003 154 166 166 
-1.44904 -2.49705 7.69587 142 155 163 
-1.4537 -2.35304 7.71842 83 89 89 
-1.34631 1.05514 7.14849 73 82 97 
-1.44526 -2.68374 7.70966 84 87 104 
-1.44679 -2.36293 7.72295 161 161 161 
-1.44361 -2.54524 7.72179 85 99 112 
-1.44339 -2.4917 7.72299 44 58 67 
-1.43745 -2.49835 7.71605 115 130 137 
-1.33535 1.05804 7.15608 59 68 83 
-1.43813 -2.50918 7.71936 34 48 57 
-1.44134 -2.33604 7.74718 79 88 95 
-1.42904 -2.39375 7.71093 149 164 171 
-1.42925 -2.50028 7.73449 37 50 58 
-1.31821 1.04303 7.14189 82 92 104 
-1.54764 3.69703 8.324 189 179 178 
-1.41775 -2.91358 7.71793 31 38 54 
-1.41808 -2.80168 7.71616 81 89 102 
-1.58226 3.57637 8.53855 16 26 38 
-1.41509 -2.49072 7.70939 78 92 105 
-1.30655 1.08155 7.15672 103 107 119 
-1.54239 3.67942 8.39254 199 194 191 
-1.30596 0.469467 7.17992 218 214 203 
-1.29895 1.02814 7.1394 66 75 92 
-1.39514 -2.60433 7.70656 42 52 64 
-1.22977 -1.92718 6.82313 166 73 0 
-1.23216 -1.9026 6.83445 215 166 29 
-1.39631 -2.56496 7.72837 141 156 163 
-1.39362 -2.48171 7.7281 162 174 172 
-1.22381 -1.95584 6.82263 231 140 49 
-1.38724 -2.78871 7.71722 101 109 122 
-1.21751 -1.92339 6.80226 245 138 68 
-1.2839 1.03016 7.14994 56 64 77 
-1.38698 -2.5287 7.7351 137 152 159 
-1.63612 5.65668 9.00581 129 127 132 
-1.38594 -2.80782 7.73581 67 76 91 
-1.21327 -1.9549 6.81752 180 97 0 
-1.3783 -2.49793 7.71677 55 65 74 
-1.38315 -2.50068 7.75293 47 53 65 
-1.37382 -2.53971 7.71831 45 60 67 
-1.37894 -2.48277 7.74308 62 66 75 
-1.21297 -1.92785 6.83973 166 86 0 
-1.2725 0.47 7.14172 175 171 160 
-1.2726 1.11678 7.17948 55 61 77 
-1.35958 -2.48733 7.72892 175 173 158 
-1.35418 -2.83772 7.71062 118 128 138 
-1.35603 -2.50959 7.72275 161 171 163 
-1.28563 0.45339 7.31525 196 195 190 
-1.35579 -2.86147 7.73561 43 51 62 
-1.35776 -2.88531 7.76657 94 100 114 
-1.27979 0.441268 7.33753 220 213 203 
-1.34332 -2.49893 7.73382 65 79 90 
-1.35001 -2.59666 7.7831 106 123 133 
-1.33368 -2.51129 7.74609 152 170 184 
-1.18403 -1.69237 6.90806 198 151 11 
-1.23764 1.10938 7.18432 17 24 40 
-1.33154 -2.6728 7.76907 96 110 123 
-1.23045 1.05594 7.16949 15 21 35 
-1.32496 -2.60709 7.74736 104 121 129 
-1.57406 3.62406 9.0993 107 90 83 
-1.22911 1.10285 7.1907 70 80 92 
-1.16552 -1.94326 6.87603 240 131 66 
-1.16359 -1.96155 6.86853 247 162 56 
-1.16867 -1.90898 6.90369 216 164 26 
-1.31381 -2.58675 7.75669 96 114 128 
-1.21648 1.01507 7.17451 88 96 107 
-1.16436 -1.9647 6.90709 179 81 6 
-1.46318 3.67505 8.56497 79 96 78 
-1.15101 -1.93058 6.87943 233 147 44 
-1.19863 0.904982 7.13382 75 78 97 
-1.15121 -1.96375 6.89454 244 165 64 
-1.21855 1.14716 7.25403 9 21 33 
-1.15113 -1.95202 6.89658 241 138 63 
-1.29038 -2.76666 7.72384 52 65 71 
-1.29196 -2.85085 7.74106 50 66 79 
-1.14207 -1.95692 6.8889 169 78 0 
-1.18831 0.879259 7.13713 99 108 123 
-1.19843 1.02126 7.1904 24 32 45 
-1.28949 -2.63628 7.76553 106 124 138 
-1.28101 -2.79336 7.75296 59 77 79 
-1.38967 0.389777 8.38539 64 54 44 
-1.4325 3.65992 8.61685 180 162 100 
-1.26629 -2.82103 7.70004 51 73 84 
-1.1311 -1.96552 6.91284 241 158 52 
-1.12542 -1.9282 6.89459 232 158 51 
-1.4384 5.71819 8.71222 16 22 34 
-1.11967 -1.9659 6.89726 171 90 0 
-1.12237 -1.94971 6.91469 194 75 17 
-1.4661 3.60489 8.90663 193 146 56 
-1.11801 -1.93309 6.90223 175 80 0 
-1.26135 -2.56178 7.76193 99 117 129 
-1.11258 -1.95657 6.90347 244 137 59 
-1.25426 -2.52341 7.75725 127 139 139 
-1.42554 3.65259 8.74437 119 91 28 
-1.41944 3.66726 8.72381 190 165 108 
-1.40718 3.68738 8.65698 183 178 120 
-1.41181 3.66724 8.68499 180 159 102 
-1.10741 -1.95935 6.92065 176 87 0 
-1.3481 3.73767 8.32035 24 33 40 
-1.24675 3.79098 7.71684 25 57 78 
-1.43752 3.61298 8.88244 110 75 7 
-1.3528 0.411303 8.40142 100 91 76 
-1.41569 3.64515 8.75375 182 160 100 
-1.39921 3.66849 8.67453 115 103 43 
-1.10021 -1.90959 6.92458 219 161 35 
-1.37221 3.67939 8.52727 12 39 24 
-1.23156 -2.88774 7.74489 167 173 173 
-1.43663 3.59721 8.9404 182 147 83 
-1.09909 -2.00306 6.96573 225 171 10 
-1.22946 -2.42747 7.77998 160 173 189 
-1.33812 3.72963 8.4101 100 126 78 
-1.39998 3.58216 8.80585 110 86 26 
-1.35176 3.67281 8.51452 169 187 165 
-1.37864 3.62422 8.70682 132 106 29 
-1.21618 -2.60183 7.78073 53 65 79 
-1.22021 -2.30027 7.81893 53 63 65 
-1.37694 3.61356 8.75223 134 104 32 
-1.39122 3.59671 8.84764 179 151 86 
-1.37434 0.370747 8.77605 148 141 122 
-1.40852 3.59356 8.97264 112 72 21 
-1.38863 3.5873 8.85807 125 99 40 
-1.19729 -2.60638 7.76881 43 61 73 
-1.33282 3.6335 8.55002 215 183 82 
-1.19856 -2.58491 7.77761 128 133 129 
-1.37638 3.58502 8.84419 126 100 39 
-1.39849 3.61056 8.99895 180 151 85 
-1.3727 3.59599 8.84138 173 148 84 
-1.23796 1.03409 8.01566 36 27 18 
-1.29468 0.424352 8.38433 99 85 72 
-1.37475 3.57469 8.88528 109 83 24 
-1.31943 3.68286 8.53074 159 163 136 
-1.35016 3.61948 8.7353 216 180 70 
-1.19047 -2.63429 7.78542 128 147 153 
-1.28771 0.382394 8.38937 57 49 38 
-1.32212 3.65705 8.57623 205 184 93 
-1.28216 0.394357 8.36916 102 94 81 
-1.25738 3.73284 8.17698 189 192 173 
-1.18325 -2.4272 7.78414 131 135 136 
-1.28751 0.189771 8.43805 181 167 154 
-1.33613 3.63712 8.69901 155 120 30 
-1.3231 3.65296 8.62787 196 165 83 
-1.26661 3.7132 8.28243 24 54 46 
-1.22009 0.678535 8.00368 155 139 124 
-1.31664 3.65952 8.61411 130 107 31 
-1.30071 3.68407 8.52675 36 43 9 
-1.28595 0.345567 8.47523 78 72 60 
-1.35411 3.59105 8.86838 109 84 17 
-1.29194 3.69831 8.47143 110 120 109 
-1.27724 0.166389 8.42893 96 84 72 
-1.24437 3.77731 8.18493 134 140 126 
-1.29196 0.301318 8.52995 86 79 73 
-1.17947 1.05004 7.81089 195 190 171 
-1.29024 3.68603 8.49713 142 153 136 
-1.17142 -2.64454 7.79881 76 93 109 
-1.31134 3.63456 8.65295 133 106 35 
-1.27764 0.225328 8.47924 114 101 95 
-1.24683 3.71478 8.25585 33 58 54 
-1.27983 3.68802 8.47121 44 51 35 
-1.27939 0.35109 8.50839 50 32 18 
-1.26473 0.199626 8.4188 220 210 201 
-1.26895 0.181387 8.45081 94 83 77 
-1.16987 1.04073 7.80468 116 111 92 
-1.19591 0.778437 7.98359 163 138 107 
-1.23172 3.7772 8.18726 71 71 19 
-1.1579 -2.68924 7.78614 134 150 165 
-1.19437 0.848794 7.99783 181 128 74 
-1.25936 0.377437 8.44156 184 168 145 
-1.31197 3.6083 8.75859 185 158 81 
-1.26791 0.346032 8.50908 190 172 148 
-1.30968 3.63962 8.74654 198 172 98 
-1.15554 -2.4015 7.80992 116 129 145 
-1.22483 3.74996 8.2084 119 136 118 
-1.21294 0.600753 8.1753 151 147 146 
-1.26004 0.357201 8.48977 115 94 75 
-1.25838 3.70019 8.4703 163 166 135 
-1.31272 3.61996 8.84535 144 108 32 
-1.14594 -2.36218 7.80775 133 136 141 
-1.29645 3.60226 8.74883 149 121 56 
-1.20414 3.7487 8.15578 183 196 91 
-1.22375 3.71032 8.27863 25 40 33 
-1.14609 1.07798 7.79594 46 40 40 
-1.19875 0.577937 8.17318 65 51 42 
-1.25987 3.64734 8.56238 146 123 45 
-1.00927 -1.76884 6.99153 18 21 30 
-1.27051 3.62645 8.70045 215 186 94 
-1.37051 3.50559 9.38239 105 95 83 
-1.23811 3.67594 8.49979 34 49 46 
-1.24119 3.65685 8.5431 141 126 45 
-1.20692 3.70632 8.32509 141 143 129 
-1.17009 3.79786 8.08176 39 35 32 
-1.22071 3.67967 8.44172 59 61 47 
-1.19105 3.73581 8.25186 202 202 178 
-1.25136 3.62949 8.66751 132 103 23 
-1.1111 -2.59024 7.82019 91 109 123 
-1.2045 0.502762 8.4298 223 197 160 
-1.23471 3.66893 8.60366 216 185 68 
-1.13031 0.674182 7.9313 160 138 99 
-1.20835 3.69035 8.43213 61 63 52 
-1.21446 3.68365 8.47637 32 46 23 
-1.18445 3.77467 8.25957 185 186 155 
-1.19953 3.68408 8.37753 64 69 46 
-1.16738 3.75288 8.16874 195 194 166 
-1.10651 -2.44339 7.8243 83 100 118 
-1.13125 0.800081 7.96335 183 149 124 
-1.21804 3.66353 8.55094 208 184 84 
-1.14729 3.77933 8.07507 138 137 116 
-1.12289 0.846738 7.96263 85 18 10 
-1.09208 -2.85414 7.80203 137 149 163 
-1.12665 3.80796 7.96056 26 37 39 
-1.23713 3.61035 8.75141 156 115 10 
-1.17675 3.71124 8.3263 150 151 135 
-1.28239 3.71446 9.05693 166 123 18 
-1.08951 -2.73332 7.82367 92 109 125 
-1.15322 3.75882 8.19426 198 197 169 
-1.1289 0.612097 8.06357 39 25 0 
-1.13299 3.77321 8.07382 58 57 52 
-1.16743 3.71456 8.31139 37 45 24 
-1.11213 0.834289 7.97093 95 24 32 
-1.12455 0.637712 8.06301 196 166 130 
-1.12303 3.79885 8.01828 128 127 109 
-1.18287 3.67224 8.4477 43 52 25 
-1.20783 3.64508 8.60738 193 157 47 
-0.975492 -1.59823 7.0469 189 144 59 
-1.10753 0.804701 7.96644 176 143 126 
-1.10619 0.657911 7.97377 41 14 0 
-1.15452 3.72149 8.30207 123 128 105 
-1.09995 0.851442 7.96084 81 16 0 
-1.16415 3.68574 8.38813 199 197 172 
-1.14004 3.73585 8.21928 144 146 124 
-1.17135 3.67032 8.46224 136 143 101 
-1.13705 3.75258 8.22434 63 60 43 
-1.09499 0.642754 7.96131 63 32 3 
-1.06888 -2.70666 7.82253 69 84 103 
-1.07601 1.04474 7.83979 183 164 147 
-1.10182 0.590849 8.04011 151 124 105 
-1.08714 0.841727 7.95146 152 102 41 
-1.08385 0.838109 7.93183 158 109 40 
-1.1395 3.71529 8.30178 194 200 172 
-1.13355 3.73571 8.29217 141 141 113 
-1.05193 -2.67215 7.81889 71 88 108 
-0.959813 -1.61173 7.15726 134 37 44 
-1.09342 3.76817 8.09788 61 59 44 
-1.07319 3.76555 7.96172 123 133 124 
-1.07284 0.631083 8.04311 138 93 62 
-1.03701 -2.64975 7.82623 85 100 119 
-1.12449 3.67628 8.41324 41 53 39 
-1.08085 0.575647 8.14117 22 22 22 
-1.14901 3.68193 8.63575 183 146 57 
-1.10745 3.74764 8.35394 80 84 61 
-1.06629 0.599892 8.08409 44 31 14 
-1.02563 -2.59997 7.83674 108 124 139 
-1.05167 0.640923 8.02218 127 83 54 
-1.12367 3.67864 8.51405 205 186 83 
-1.02404 -2.56613 7.84961 26 34 45 
-1.05867 0.513632 8.12432 192 157 129 
-1.05246 3.76208 8.05355 135 139 124 
-1.01158 -2.62218 7.82701 77 90 107 
-1.00716 0.938013 7.76747 139 119 94 
-1.09264 3.67699 8.39291 30 39 36 
-1.00831 1.09639 7.81885 27 25 26 
-1.04133 3.78541 8.04329 138 152 101 
-1.09007 3.67249 8.4287 17 30 10 
-1.02079 0.85057 7.96498 91 27 41 
-1.10796 3.64652 8.60392 215 180 88 
-1.03947 3.75418 8.10826 185 178 162 
-0.992976 -2.51938 7.83066 110 128 140 
-1.14094 3.71413 8.91776 206 168 69 
-1.01946 0.49415 8.08654 199 155 128 
-1.0943 3.65763 8.61539 143 109 19 
-1.05804 3.69742 8.35055 24 28 27 
-1.01371 0.580646 8.05815 214 175 136 
-0.981768 1.06271 7.81066 195 176 159 
-1.02755 3.71465 8.14448 184 187 178 
-0.99716 0.83542 7.96558 178 133 128 
-1.05439 3.6728 8.41325 38 48 11 
-0.981697 -2.55162 7.91464 48 60 74 
-1.00715 0.631647 8.09537 24 22 33 
-0.87923 -2.01867 7.13595 229 182 78 
-0.877475 -1.99693 7.12967 57 38 23 
-1.00195 0.520137 8.08345 104 58 32 
-0.987791 0.847011 7.97728 85 36 19 
-1.03658 3.72704 8.33476 192 191 161 
-1.03637 3.6911 8.35897 21 31 32 
-1.04434 3.70498 8.44192 26 33 2 
-1.01327 3.73819 8.19992 20 36 35 
-0.953085 1.02869 7.78485 33 20 12 
-0.973238 0.835253 7.95631 188 154 127 
-1.07187 3.57305 8.69974 174 134 36 
-0.966408 0.855554 7.96028 165 113 65 
-0.953789 0.994232 7.89102 185 130 47 
-1.00208 3.69887 8.25486 35 37 32 
-0.935933 -2.59536 7.8452 15 26 44 
-0.968723 3.86719 8.03854 255 255 216 
-0.936399 1.04833 7.84045 199 183 167 
-0.963849 3.85194 8.04002 121 107 70 
-1.00168 3.70528 8.33525 129 149 96 
-0.948744 -2.86772 7.99432 18 30 44 
-0.961445 0.498017 8.07043 217 178 149 
-0.988525 3.70827 8.26097 140 154 105 
-0.939329 1.02201 7.91447 98 66 27 
-0.994888 3.70591 8.38721 144 156 80 
-0.920944 -2.56696 7.85942 78 85 104 
-0.912737 4.00485 7.7522 93 94 76 
-0.926039 0.859959 7.98631 162 111 64 
-0.975962 3.6772 8.38462 199 191 152 
-0.821033 -1.78139 7.16899 147 72 0 
-0.990241 3.64775 8.53951 126 116 106 
-0.921932 0.546929 7.99825 92 63 55 
-0.918011 1.00335 7.98438 190 146 99 
-0.822589 -1.77935 7.22034 147 70 0 
-0.984412 3.65867 8.49944 122 113 98 
-0.955418 3.7799 8.32831 138 99 40 
-0.9624 3.69225 8.40217 100 93 77 
-0.953304 3.70135 8.36129 136 127 110 
-0.945259 3.74763 8.30484 231 184 116 
-0.902233 0.85847 7.98316 97 25 29 
-0.901836 3.88548 8.00971 81 77 42 
-0.893485 0.870752 7.98906 89 13 0 
-0.922696 0.673305 8.25156 125 106 92 
-0.938613 3.72532 8.34433 216 201 178 
-0.86636 4.01501 7.7537 233 208 178 
-0.928756 0.598491 8.35043 81 51 25 
-1.01502 5.55472 9.0469 101 100 106 
-0.881232 0.867509 7.99474 179 113 61 
-0.919367 0.587922 8.34125 167 137 113 
-0.905426 3.87809 8.19567 197 162 120 
-0.919461 0.616703 8.38147 211 182 152 
-0.876171 0.882991 8.00397 208 141 36 
-0.781521 -1.97547 7.28625 112 103 106 
-0.782423 -2.02061 7.30948 24 22 25 
-0.847405 3.96459 7.81834 32 39 45 
-0.773013 -2.03515 7.2779 134 132 133 
-0.843586 -2.70153 7.89997 24 29 33 
-0.854907 0.854921 8.00595 173 115 78 
-0.893301 3.74623 8.31534 179 128 47 
-0.889524 0.533622 8.33468 203 172 144 
-0.837204 -2.68527 7.88835 121 123 135 
-0.896888 0.622581 8.42199 75 51 27 
-0.857763 3.87507 8.00392 246 245 201 
-0.830845 3.88332 7.81557 108 97 69 
-0.805439 1.15413 7.62485 36 34 35 
-0.826185 3.9734 7.78055 31 35 46 
-0.873321 0.702372 8.26882 190 157 126 
-0.823241 -2.835 7.888 82 85 94 
-0.816281 -2.65998 7.88335 9 12 19 
-0.851889 0.703081 8.18992 43 11 0 
-0.814933 4.01425 7.80692 158 161 154 
-0.860943 0.69299 8.28977 54 22 23 
-0.865805 3.73905 8.29268 209 154 51 
-0.83182 3.89394 7.997 82 83 52 
-0.809388 -2.65548 7.89159 149 153 156 
-0.870531 0.674978 8.43672 54 32 9 
-0.862526 0.561251 8.36837 121 86 54 
-0.863119 0.655122 8.38436 171 149 128 
-0.798548 3.95357 7.74955 33 38 32 
-0.797597 -2.6642 7.89883 44 45 50 
-0.796019 -2.85493 7.90489 155 159 160 
-0.794264 -2.67842 7.90228 144 146 141 
-0.831979 0.682825 8.23505 224 188 136 
-0.916924 3.46122 9.00288 124 73 72 
-0.90987 3.35814 8.95337 144 141 134 
-0.770028 -3.76763 7.72631 96 87 80 
-0.867179 3.65827 8.56647 122 113 96 
-0.838486 0.638542 8.35512 212 182 146 
-0.766737 4.01182 7.62092 115 118 97 
-0.801423 0.812695 8.01034 176 161 140 
-0.828125 0.708947 8.28051 191 154 102 
-0.821399 3.86271 8.17468 10 7 24 
-0.779676 -2.84424 7.85973 30 36 32 
-0.780316 -2.83521 7.88672 26 30 31 
-0.797814 3.87275 7.96995 255 244 202 
-0.871716 3.61025 8.69201 188 143 60 
-0.783233 -2.68174 7.92727 24 26 23 
-0.776753 3.95288 7.7962 46 44 45 
-0.855403 3.66446 8.547 176 164 148 
-0.822168 0.528974 8.32387 224 196 148 
-0.787679 0.890196 8.03612 117 73 26 
-0.771316 -2.4426 7.91116 82 91 108 
-0.78539 0.82908 8.02266 179 146 113 
-0.880509 3.6206 8.91294 121 83 44 
-0.769339 -2.67829 7.91172 168 170 169 
-0.750402 1.10052 7.67591 223 208 185 
-0.767648 -2.84156 7.90288 155 155 153 
-0.783002 0.927002 8.02171 136 84 24 
-0.845601 3.66363 8.5966 204 181 139 
-0.766636 -2.42175 7.90721 46 58 74 
-0.814003 0.652561 8.34524 190 155 117 
-0.735712 1.10998 7.59011 158 141 121 
-0.762015 3.96453 7.83317 225 215 180 
-0.8817 3.48373 9.02899 159 141 121 
-0.758362 -2.80872 7.90299 26 28 27 
-0.75627 -2.82371 7.90195 160 157 148 
-0.733742 1.06206 7.64126 53 41 29 
-0.821892 3.70255 8.49601 202 186 163 
-0.791791 0.668633 8.28574 198 167 123 
-0.765235 0.831841 8.04056 88 36 22 
-0.757476 3.92121 7.93839 218 209 176 
-0.743388 4.05715 7.78565 18 11 27 
-0.759078 3.8944 7.96406 99 101 77 
-0.744603 -2.88418 7.91245 19 29 21 
-0.795835 3.69601 8.36122 200 176 138 
-0.850611 3.71523 8.90706 160 131 87 
-0.781274 0.707287 8.28238 153 123 71 
-0.796725 3.73641 8.37669 199 176 145 
-0.739848 -2.89038 7.90278 186 196 188 
-0.753776 3.88144 7.96891 246 247 216 
-0.755788 3.87794 7.98808 167 158 127 
-0.790927 3.75684 8.3652 213 171 121 
-0.876807 5.48784 9.21195 96 95 100 
-0.81923 3.67926 8.7254 193 154 79 
-0.730313 -2.83632 7.91126 168 164 153 
-0.729813 -2.76636 7.9161 82 82 90 
-0.753725 0.854583 8.13431 168 112 61 
-0.788188 3.74313 8.41911 115 88 41 
-0.728351 -2.86943 7.91419 25 31 31 
-0.76881 0.692162 8.31587 205 182 140 
-0.856954 3.60893 9.17901 89 65 39 
-0.809842 3.70064 8.71039 87 64 22 
-0.724183 -2.80804 7.91376 29 25 26 
-0.744728 0.871128 8.12465 88 30 0 
-0.864185 3.60215 9.31073 46 54 73 
-0.73848 0.818737 8.07177 187 138 108 
-0.811759 3.67034 8.78324 177 162 143 
-0.771977 3.74133 8.38449 130 95 39 
-0.787789 3.69875 8.56991 76 61 30 
-0.815725 3.67631 8.88052 210 157 79 
-0.809574 3.82343 8.80891 74 57 27 
-0.715164 3.94784 7.84668 144 136 99 
-0.80453 3.68064 8.79028 83 67 52 
-0.701611 4.02205 7.71223 116 94 97 
-0.764184 0.68286 8.43134 72 63 46 
-0.682311 1.14629 7.55575 223 211 187 
-0.708045 -2.83521 7.88914 144 142 143 
-0.779197 3.74109 8.55288 79 57 34 
-0.719324 3.8765 7.93712 238 225 193 
-0.762303 0.673304 8.46442 62 49 30 
-0.730572 0.881429 8.12809 201 132 57 
-0.764466 3.76754 8.43525 199 163 79 
-0.795875 3.67557 8.76184 154 140 114 
-0.741148 3.77005 8.21753 121 88 43 
-0.727124 0.828125 8.11666 98 29 34 
-0.759656 3.75521 8.44953 90 63 16 
-0.69825 -2.90168 7.91959 169 169 171 
-0.703747 3.91376 7.89053 221 215 181 
-0.774602 3.69426 8.65448 214 167 63 
-0.752867 3.77865 8.43402 206 156 71 
-0.681457 1.09281 7.69969 225 214 182 
-0.782179 3.67958 8.75198 169 162 136 
-0.686221 3.86276 7.69459 222 212 177 
-0.785115 3.68578 8.78915 79 68 40 
-0.83127 -2.78489 9.45573 22 36 49 
-0.711565 0.796634 8.11847 181 151 125 
-0.770327 3.69448 8.72541 98 83 54 
-0.671712 3.99552 7.66713 206 185 180 
-0.712015 3.87043 8.11849 217 198 156 
-0.684534 -2.34494 7.91493 141 153 167 
-0.662217 4.00581 7.6405 138 135 120 
-0.77128 3.6936 8.83669 114 83 19 
-0.673673 3.95947 7.77751 221 204 174 
-0.738934 3.76645 8.49998 219 166 70 
-0.75019 3.71268 8.63508 183 149 78 
-0.753913 3.70423 8.70885 65 53 39 
-0.675596 -2.46607 7.93383 135 135 137 
-0.75338 3.7249 8.7141 106 89 63 
-0.670819 -2.49502 7.92882 22 26 37 
-0.670577 -2.53412 7.92818 11 15 27 
-0.751548 3.69228 8.73337 99 83 68 
-0.75094 3.70565 8.74165 161 147 134 
-0.71793 0.636822 8.43978 69 58 54 
-0.735976 3.70736 8.58344 167 141 84 
-0.679653 3.88521 7.9443 228 229 187 
-0.721407 3.78202 8.42645 59 47 25 
-0.737118 3.71173 8.65655 87 75 53 
-0.64578 4.01435 7.64106 40 39 35 
-0.726086 3.74818 8.54629 173 139 76 
-0.662057 -2.47237 7.91904 10 14 17 
-0.686544 0.816084 8.16264 89 25 23 
-0.637678 -2.06896 7.65343 87 57 46 
-0.73916 3.70895 8.73226 89 75 49 
-0.717165 3.7953 8.49476 60 48 26 
-0.657687 3.95509 7.85187 220 208 170 
-0.766062 3.70086 9.0775 132 101 83 
-0.65215 -2.89999 7.91462 50 52 41 
-0.650403 -2.47661 7.9027 103 107 118 
-0.723505 3.72894 8.649 94 85 68 
-0.658355 3.91887 7.89357 229 217 179 
-0.670689 0.769971 8.12776 174 146 122 
-0.651114 -2.8667 7.93151 150 149 154 
-0.709524 3.77717 8.52853 66 54 30 
-0.704192 3.78337 8.47322 146 134 120 
-0.647644 -2.53537 7.93188 21 24 31 
-0.709786 3.76604 8.55857 83 70 54 
-0.711861 3.74559 8.60666 94 73 54 
-0.766869 3.67191 9.23971 27 33 47 
-0.709867 3.76041 8.58125 86 68 48 
-0.701778 3.78227 8.49406 139 127 111 
-0.622965 -1.76757 7.68531 1 3 15 
-0.715751 3.7243 8.70039 95 84 66 
-0.670873 0.910936 8.22091 95 24 0 
-0.686383 0.617776 8.41671 32 33 28 
-0.709972 3.73284 8.62126 182 169 152 
-0.672397 0.844442 8.2592 167 114 44 
-0.641652 3.95439 7.84332 135 123 81 
-0.642069 3.92223 7.86778 144 137 108 
-0.653701 3.87464 8.0176 212 225 172 
-0.637616 -2.55726 7.93143 144 144 146 
-0.644291 3.88416 7.92221 241 231 195 
-0.69523 3.77552 8.55092 168 163 133 
-0.662977 0.868433 8.25334 175 117 71 
-0.63037 -2.40479 7.92219 89 92 107 
-0.689959 3.78005 8.51306 146 131 108 
-0.684843 3.80509 8.47481 87 66 49 
-0.691097 3.75561 8.60606 173 166 140 
-0.691255 3.74189 8.61191 87 76 56 
-0.599368 -1.68049 7.61432 6 10 21 
-0.730916 3.67661 9.09618 132 134 149 
-0.693249 3.74309 8.65619 85 69 44 
-0.623835 -2.54606 7.92723 20 15 19 
-0.736116 3.70943 9.16347 133 135 150 
-0.62413 -2.85536 7.93577 190 191 196 
-0.644051 0.687449 8.13718 176 159 139 
-0.664692 3.86867 8.34127 143 98 30 
-0.681932 3.75373 8.57387 109 95 66 
-0.676821 3.77277 8.56394 86 66 39 
-0.675634 3.75338 8.55585 103 81 58 
-0.616518 -2.70864 7.95712 109 109 119 
-0.572685 -1.83232 7.4358 88 54 42 
-0.633539 3.84947 8.06609 71 55 39 
-0.647635 0.941894 8.31722 146 93 39 
-0.648086 3.88137 8.26635 186 150 88 
-0.611009 -2.94952 7.95474 192 165 144 
-0.647497 3.90364 8.28296 110 96 83 
-0.615144 3.89529 7.90183 97 111 78 
-0.61198 -2.7696 7.96585 107 101 111 
-0.686631 3.74442 8.80446 104 79 23 
-0.603328 4.02446 7.84041 23 7 20 
-0.640748 0.564613 8.41437 96 80 67 
-0.62995 3.88588 8.21206 57 45 45 
-0.691856 3.69852 8.97944 32 33 51 
-0.634928 3.60086 8.29927 201 167 106 
-0.622419 3.90498 8.16105 184 174 138 
-0.576563 4.03201 7.62753 102 47 42 
-0.641868 3.88041 8.44204 148 108 46 
-0.623122 3.83298 8.33972 125 90 22 
-0.572564 4.03408 7.69767 101 11 39 
-0.616971 3.88033 8.29996 195 147 65 
-0.639102 3.70621 8.59728 196 162 55 
-0.617601 0.777173 8.42596 57 51 55 
-0.588236 3.88685 8.00548 101 111 59 
-0.646748 3.74291 8.76806 149 111 30 
-0.580987 3.86475 7.91031 84 96 50 
-0.666523 3.71626 9.02462 81 83 96 
-0.577734 3.88793 7.90017 224 210 181 
-0.610893 0.701302 8.43455 54 40 27 
-0.607917 0.717918 8.41634 181 168 160 
-0.626801 5.64677 8.62652 14 16 28 
-0.641384 3.73821 8.87297 126 125 141 
-0.567776 3.83227 7.90347 189 179 117 
-0.6241 3.76933 8.66007 138 105 0 
-0.64419 3.70045 8.93084 28 30 43 
-0.623259 3.74314 8.76058 194 156 81 
-0.666573 3.66697 9.33224 21 29 42 
-0.587351 3.86287 8.30095 199 151 79 
-0.604448 3.82088 8.55935 141 106 14 
-0.660605 3.63185 9.32202 24 25 45 
-0.551117 3.8752 7.88905 36 77 45 
-0.548507 3.85835 7.91653 42 70 47 
-0.588345 3.84284 8.4787 138 100 3 
-0.574376 3.86814 8.304 123 85 23 
-0.479743 -2.81958 7.16853 106 84 71 
-0.644728 3.66523 9.33277 24 27 42 
-0.577545 3.84325 8.41344 141 105 21 
-0.638034 3.69649 9.30316 98 98 124 
-0.57297 3.84778 8.39247 193 153 68 
-0.598425 3.77712 8.82407 27 31 32 
-0.56082 3.83397 8.31382 163 127 39 
-0.523212 3.93731 7.81198 206 172 12 
-0.535978 3.84478 8.0383 54 25 7 
-0.62181 3.62651 9.43605 122 118 117 
-0.544573 3.86521 8.37199 196 158 61 
-0.502668 3.87083 7.86217 28 92 78 
-0.511588 3.85699 8.06951 125 54 0 
-0.559918 3.76175 8.81828 31 30 46 
-0.506493 3.85226 8.0279 100 43 0 
-0.574577 3.71363 9.04945 115 97 121 
-0.537113 3.82052 8.50376 11 18 24 
-0.549147 3.77576 8.69152 164 164 156 
-0.554735 3.77314 8.78262 107 103 94 
-0.523125 3.83769 8.31225 39 31 20 
-0.543413 3.7841 8.66547 165 157 155 
-0.582062 5.45163 9.24224 98 93 100 
-0.544303 3.78016 8.75841 75 65 56 
-0.545605 3.77517 8.8126 166 165 163 
-0.534499 5.68492 8.60642 170 153 145 
-0.5356 3.77903 8.68408 41 30 26 
-0.528374 3.80495 8.56725 155 154 152 
-0.531637 3.78285 8.65163 103 91 91 
-0.468099 4.06052 7.67631 255 201 214 
-0.523171 3.80843 8.52419 173 172 178 
-0.486268 3.84882 8.00751 222 198 27 
-0.572282 3.65882 9.39493 106 107 125 
-0.534111 3.76972 8.7849 20 21 23 
-0.469759 3.86388 7.79801 56 89 58 
-0.485523 3.86052 8.09931 96 49 0 
-0.526374 3.77418 8.74837 30 25 29 
-0.494177 3.80942 8.32132 155 148 142 
-0.530632 3.72595 9.04938 41 29 51 
-0.495937 3.83343 8.48496 142 139 132 
-0.444472 4.06456 7.68366 233 132 164 
-0.489368 3.79116 8.56221 29 29 31 
-0.516753 3.76919 9.07973 103 91 111 
-0.485922 3.80106 8.54521 34 35 39 
-0.483891 3.80405 8.57349 122 125 130 
-0.510714 3.67114 9.10696 108 103 125 
-0.474202 3.80879 8.50565 65 63 68 
-0.49354 5.58282 8.79643 13 16 25 
-0.473174 3.80923 8.47601 27 25 30 
-0.519466 3.64115 9.37771 105 104 120 
-0.483597 3.76825 8.73777 162 158 157 
-0.459035 3.79837 8.34442 117 112 106 
-0.444684 3.83528 8.10711 100 81 22 
-0.478216 3.74933 8.74813 166 159 153 
-0.48162 3.75038 8.7958 47 43 40 
-0.482019 3.70921 8.85747 47 49 64 
-0.468067 3.7688 8.69361 91 86 82 
-0.351537 -2.8018 6.8769 41 25 26 
-0.439418 3.76239 8.30807 31 30 35 
-0.466712 3.75125 8.79004 134 130 131 
-0.46792 3.71988 8.87066 139 136 153 
-0.461733 3.73956 8.79038 25 25 27 
-0.456729 3.7406 8.74945 19 20 22 
-0.445956 3.76391 8.58027 142 138 137 
-0.445885 3.75569 8.62508 84 80 77 
-0.456459 3.74696 8.85154 31 35 36 
-0.445938 3.76668 8.68688 158 156 159 
-0.484252 3.61804 9.40147 101 100 114 
-0.438272 3.78157 8.57867 144 144 146 
-0.437899 3.76315 8.6372 159 156 163 
-0.438348 0.874027 8.73072 171 108 116 
-0.438325 3.76305 8.66242 34 33 39 
-0.429121 0.909407 8.61658 60 11 14 
-0.449055 3.71108 8.92114 142 140 161 
-0.465842 3.65215 9.20303 28 30 45 
-0.432203 3.75953 8.59199 157 156 161 
-0.469085 3.62907 9.35753 104 97 115 
-0.46083 3.6129 9.36671 47 42 39 
-0.418199 3.75883 8.56839 101 100 106 
-0.414674 3.70286 8.81258 165 165 165 
-0.302633 -2.65791 6.83657 254 252 231 
-0.408239 3.72259 8.76993 118 117 112 
-0.399809 3.68551 8.86728 121 115 143 
-0.387012 3.74094 8.63437 136 136 134 
-0.395348 3.69268 8.81194 167 168 173 
-0.384529 3.72511 8.60394 130 130 130 
-0.38361 3.70189 8.74281 19 20 24 
-0.385005 3.7159 8.8036 30 31 33 
-0.284999 -2.92377 7.00042 48 35 26 
-0.370923 3.70624 8.68733 34 34 36 
-0.36163 3.71015 8.61771 34 33 38 
-0.298698 -3.72862 7.88939 192 177 158 
-0.35454 3.64691 9.08138 208 161 47 
-0.304913 1.1266 8.01718 161 111 100 
-0.25391 -2.94656 6.93412 46 41 38 
-0.337056 3.66442 8.82196 209 175 88 
-0.242208 -2.18749 6.83264 16 5 0 
-0.303453 3.86795 8.18527 78 70 57 
-0.302937 1.05983 8.35955 33 6 21 
-0.287335 1.11814 8.06239 90 51 54 
-0.319187 0.671927 8.95396 91 74 56 
-0.318163 3.64265 8.85734 131 105 56 
-0.310738 3.6634 8.79861 150 113 43 
-0.293331 3.82322 8.35266 184 171 155 
-0.227635 -2.16164 6.89968 235 219 168 
-0.220596 -2.17395 6.82854 36 21 0 
-0.303357 3.65425 8.90535 121 91 18 
-0.296809 3.68496 8.74441 211 168 55 
-0.259027 1.08749 8.0029 76 51 57 
-0.251069 1.16879 7.79948 150 86 76 
-0.255653 1.07418 8.03302 38 24 37 
-0.239864 1.1487 7.76011 232 202 191 
-0.200514 -2.38309 6.78482 181 170 142 
-0.198949 -2.35207 6.75799 54 39 6 
-0.203294 -2.10893 6.86589 49 29 0 
-0.199536 -2.0822 6.85446 26 12 0 
-0.195863 -3.05044 6.91014 156 129 108 
-0.192086 -2.10873 6.8439 154 140 113 
-0.194504 -2.98597 6.92667 85 50 31 
-0.192857 -3.10941 6.8816 108 87 68 
-0.237805 0.942065 8.11116 126 115 121 
-0.186982 -2.38528 6.79468 49 27 0 
-0.187723 -3.12579 6.78804 103 87 71 
-0.18857 -2.12089 6.85635 22 14 0 
-0.233001 3.90245 8.00012 220 210 175 
-0.189248 -1.8032 6.95322 118 84 75 
-0.267196 3.64704 9.10338 55 65 77 
-0.18543 -2.0942 6.87313 164 145 105 
-0.219737 1.0662 7.98201 20 25 63 
-0.179325 -2.12255 6.84532 204 194 167 
-0.179257 -3.04821 6.90694 137 104 85 
-0.181658 -2.94033 6.91832 200 180 156 
-0.174941 -2.42821 6.77855 161 135 78 
-0.181433 -1.78015 6.98172 27 7 0 
-0.214015 1.04009 7.9779 99 107 146 
-0.178495 -3.31267 6.92208 147 119 107 
-0.176939 -3.0132 6.97589 85 46 17 
-0.174936 -2.07298 6.87288 15 4 0 
-0.216606 3.89236 7.99505 87 76 30 
-0.168895 -2.4085 6.77962 84 46 0 
-0.167932 -2.31597 6.7684 33 22 28 
-0.206688 3.8969 7.81108 87 78 11 
-0.167938 -2.36031 6.7885 186 156 66 
-0.164773 -3.12282 6.74227 223 203 178 
-0.166388 -2.39755 6.77661 207 166 78 
-0.207719 3.89584 8.01974 225 178 152 
-0.16469 -3.03635 6.88498 84 52 31 
-0.203959 0.965431 8.15616 72 67 63 
-0.160641 -2.4052 6.77349 93 56 0 
-0.15833 -2.96207 6.92163 90 66 42 
-0.196773 3.9115 7.99303 178 46 41 
-0.166291 -1.62442 7.22375 62 66 78 
-0.215721 0.768387 8.94517 227 180 154 
-0.149635 -2.90629 6.82659 255 255 230 
-0.150187 -2.13532 6.86562 41 24 0 
-0.182385 0.995634 8.02651 192 191 209 
-0.144756 -2.39578 6.78077 169 135 64 
-0.144443 -2.3821 6.78622 179 156 115 
-0.209416 3.92399 8.99365 43 43 31 
-0.18028 3.90535 7.85216 255 138 140 
-0.1433 -3.25025 6.81453 59 21 0 
-0.141486 -2.43693 6.76393 32 21 0 
-0.141567 -2.38861 6.7696 56 24 0 
-0.139434 -3.00546 6.84883 255 251 207 
-0.172649 4.03935 7.82267 78 15 0 
-0.175079 3.89556 7.97428 231 136 140 
-0.173651 3.88493 7.93069 238 146 149 
-0.139205 -2.07893 6.8805 39 30 0 
-0.138376 -2.3402 6.82585 255 242 171 
-0.131819 -3.24784 6.80644 50 10 0 
-0.173133 3.87793 8.06238 219 203 180 
-0.188181 0.797556 8.92139 130 79 48 
-0.129417 -2.43697 6.773 255 255 197 
-0.131524 -2.98964 6.82276 122 89 46 
-0.131894 -2.07147 6.89191 194 186 139 
-0.129198 -3.20214 6.8154 104 64 39 
-0.128197 -2.4272 6.76989 66 32 0 
-0.131136 -2.14364 6.88137 189 167 126 
-0.128202 -2.45104 6.77218 22 4 0 
-0.12842 -2.36681 6.7962 159 146 111 
-0.131016 -2.98385 6.887 56 21 0 
-0.130221 -1.73563 6.98088 83 55 52 
-0.153567 4.02299 7.8383 194 143 26 
-0.17398 0.781444 8.95886 216 169 141 
-0.151387 3.91759 7.84608 175 66 43 
-0.118521 -2.06713 6.85279 14 10 0 
-0.165684 0.791341 8.9286 135 88 62 
-0.147716 3.94505 7.82363 203 164 11 
-0.113968 -3.24323 6.77788 68 30 21 
-0.11453 -2.44691 6.75407 216 199 153 
-0.115152 -3.041 6.86291 155 117 81 
-0.116478 -2.97827 6.89534 133 91 67 
-0.111393 -2.42813 6.76272 223 198 158 
-0.143933 3.89698 7.97251 243 149 150 
-0.114064 -1.76669 6.99065 98 70 69 
-0.11005 -2.9811 6.86453 74 33 3 
-0.109625 -2.6209 6.78484 24 19 23 
-0.138176 0.995016 8.04763 134 133 128 
-0.152935 0.789765 8.92524 212 164 144 
-0.151004 0.159591 8.84083 32 37 56 
-0.135216 3.90631 7.84514 251 147 136 
-0.103136 -3.23346 6.74751 144 106 83 
-0.145691 -0.120926 8.83579 38 38 36 
-0.145112 0.125965 8.83974 37 40 59 
-0.135074 3.9078 8.01201 177 65 61 
-0.106275 -1.80375 7.00366 129 100 94 
-0.128961 4.07712 7.78758 163 77 90 
-0.101438 -2.46145 6.7923 255 254 200 
-0.142055 0.0875366 8.68493 138 140 137 
-0.0975988 -2.37701 6.72852 71 44 0 
-0.0970168 -2.95697 6.94754 47 31 31 
-0.122971 3.90541 7.8226 175 64 19 
-0.095453 -2.19316 6.85954 130 125 95 
-0.094672 -2.46679 6.78018 18 11 0 
-0.137331 0.477373 8.973 192 182 157 
-0.120667 3.97626 7.81507 140 24 25 
-0.130287 -0.243282 8.78783 29 30 32 
-0.0911905 -2.17446 6.84874 49 37 13 
-0.124235 -0.192621 8.785 130 130 130 
-0.0895605 -1.79276 6.98728 41 18 12 
-0.0856271 -2.29952 6.806 35 21 0 
-0.0849704 -2.33978 6.79979 211 202 173 
-0.120331 -0.179971 8.79392 15 15 13 
-0.0834337 -2.31085 6.81222 157 142 111 
-0.117765 -0.25444 8.78019 107 108 112 
-0.0846076 -1.76418 6.96557 27 3 0 
-0.11573 -0.265546 8.75472 25 26 28 
-0.0810864 -2.97116 6.87767 72 28 0 
-0.118975 0.808172 8.95955 169 126 109 
-0.079517 -2.33431 6.81652 136 128 92 
-0.11103 -0.177217 8.8152 138 138 140 
-0.101862 3.99927 7.84685 222 139 131 
-0.0981524 3.99269 7.82049 191 112 107 
-0.108642 -0.310604 8.74863 75 82 75 
-0.0963638 1.00808 8.07267 137 129 126 
-0.0721287 -2.32356 6.81204 166 152 126 
-0.101565 -0.408188 8.70425 103 34 55 
-0.0742205 -1.81083 7.04581 108 85 79 
-0.0987015 -0.434498 8.66824 91 39 52 
-0.0894156 3.97235 7.82146 129 54 12 
-0.0964147 -0.23217 8.79242 144 144 142 
-0.0891065 4.01463 7.84132 205 114 121 
-0.0662652 -2.31307 6.81073 160 149 119 
-0.0951237 -0.273101 8.77337 131 133 132 
-0.0643945 -2.98143 6.87754 63 21 0 
-0.0636814 -2.33291 6.84137 35 20 0 
-0.0652159 -1.80046 7.01949 31 6 1 
-0.0869881 -0.516144 8.58456 94 46 62 
-0.0900261 -0.340756 8.74152 132 137 131 
-0.0598325 -2.27726 6.81154 166 153 118 
-0.0917601 0.800269 8.93801 148 101 85 
-0.0579597 -2.27186 6.82647 142 125 82 
-0.086292 -0.203919 8.78634 139 139 139 
-0.0845399 -0.391467 8.71438 156 113 123 
-0.0572489 -2.25514 6.85447 149 140 97 
-0.0568027 -2.31657 6.83344 41 29 3 
-0.0818528 -0.421925 8.69074 155 115 124 
-0.0544513 -2.30485 6.83121 128 116 92 
-0.080088 -0.184681 8.81355 144 144 146 
-0.0533858 -3.04407 6.89311 143 98 65 
-0.0802493 0.606966 8.94777 198 166 151 
-0.0854507 3.96539 8.95497 137 100 71 
-0.0510898 -2.24455 6.85067 62 53 20 
-0.0720597 -0.406507 8.70652 75 52 58 
-0.0767486 0.563591 8.93338 123 102 111 
-0.0728482 -0.257986 8.73945 24 25 27 
-0.06749 4.00779 7.82689 200 114 115 
-0.0466144 -2.29611 6.81378 34 21 0 
-0.0657802 3.98842 7.80823 196 121 115 
-0.0682844 -0.37402 8.72993 77 54 60 
-0.0641753 3.9806 7.8326 128 48 23 
-0.0605511 1.00131 8.05165 95 86 77 
-0.0428156 -3.05691 6.80533 166 126 100 
-0.0625584 -0.437765 8.70339 76 45 50 
-0.0722973 3.94068 9.01377 87 47 21 
-0.0627981 0.416493 8.9121 104 90 115 
-0.066845 3.93909 8.9688 141 97 72 
-0.0571051 -0.497263 8.67656 77 48 53 
-0.0352598 -2.982 6.89003 100 55 26 
-0.0538373 -0.183767 8.79724 55 55 57 
-0.052001 -0.48545 8.66899 151 108 118 
-0.0488619 4.07187 7.82555 44 44 34 
-0.0480329 -0.396097 8.71693 137 127 126 
-0.0469009 4.02979 7.83963 122 37 40 
-0.0452578 3.91183 7.89539 158 40 56 
-0.0274455 -2.26054 6.86613 125 110 91 
-0.0446804 -0.238166 8.76879 21 19 20 
-0.0520805 3.9526 8.83204 127 97 73 
-0.0254183 -3.19526 6.81501 111 67 40 
-0.0417503 4.01268 7.86323 201 127 116 
-0.0228899 -3.23043 6.77608 134 91 74 
-0.041319 -0.275287 8.76583 135 133 134 
-0.0213569 -2.28455 6.85408 118 111 82 
-0.0365775 -0.373135 8.7218 78 49 53 
-0.0341566 0.990456 8.13278 162 153 148 
-0.0354431 -0.242162 8.77717 88 86 87 
-0.0184601 -2.94975 6.91994 169 137 112 
-0.0328616 4.00652 7.83264 192 118 117 
-0.0412208 3.96433 8.81513 52 46 24 
-0.0328493 3.99443 7.83121 141 64 56 
-0.0331086 -0.52344 8.69278 82 47 54 
-0.0320783 3.98033 7.82689 125 46 15 
-0.0182902 -2.41753 6.90811 15 9 13 
-0.0142378 -3.23023 6.78967 62 19 0 
-0.0279778 -0.252021 8.7766 40 39 37 
-0.01282 -2.26316 6.84919 135 128 102 
-0.0219338 1.03268 7.94844 173 182 215 
-0.0193238 -0.503192 8.67611 149 107 117 
-0.00599131 -3.20927 6.84688 84 40 13 
-0.00631554 -3.02338 6.90942 150 114 90 
-0.0189025 4.01464 7.82879 185 104 103 
-0.00588314 -2.29701 6.84891 123 109 96 
-0.0168102 -0.394655 8.73743 104 40 56 
-0.018837 3.91133 7.92481 164 56 72 
-0.00514467 -2.20151 6.88038 47 31 0 
-0.0172909 3.91979 7.91666 243 152 149 
-0.0147788 -0.235562 8.79824 15 14 12 
-0.0145555 4.01345 7.86401 135 57 53 
-0.0164648 0.534981 8.91476 97 60 77 
0.00115061 -3.1937 6.81929 153 109 84 
-0.0108599 -0.340819 8.76136 139 136 127 
0.00106273 -2.30802 6.85833 120 107 91 
-0.0128101 3.98891 7.84034 129 53 29 
-0.0116733 4.02649 7.85686 136 58 58 
-0.0083326 -0.196382 8.78024 136 136 134 
-0.00816042 -0.21356 8.79025 138 138 136 
-0.00632731 -0.471397 8.71357 85 42 51 
-0.0100527 3.91093 8.04195 62 97 119 
-0.00719404 4.0555 7.83986 57 43 34 
-0.00864564 4.14728 7.81028 121 115 99 
-0.00592287 -0.443793 8.68005 131 130 128 
0.0062678 -2.24508 6.8893 60 46 1 
0.00660469 -2.25642 6.88137 167 153 118 
-0.00125184 -0.507265 8.71606 91 34 49 
0.00807062 -2.89326 6.86831 107 94 78 
-0.000459087 -0.37255 8.74643 90 53 60 
0.00538257 -0.414807 8.73343 81 55 58 
0.00282063 4.01684 7.825 195 114 113 
0.00353786 4.00964 7.84223 126 41 38 
0.0156261 -2.25988 6.89992 27 15 0 
0.0119654 1.02264 8.02557 66 62 85 
0.0141377 -0.392096 8.72288 138 130 128 
0.0144614 -0.354307 8.74627 145 129 130 
0.0193358 -2.07705 6.95749 121 112 95 
0.0189973 -0.227804 8.78892 135 135 135 
0.0262455 -2.19619 6.92314 125 115 88 
0.0232149 1.00963 8.07821 190 186 177 
0.0244406 1.15644 7.49754 168 157 137 
0.0297645 -2.07257 6.98491 115 100 79 
0.0291594 -0.452661 8.71953 131 136 132 
0.030835 -2.30064 6.87276 93 76 58 
0.0311445 -2.3119 6.87651 30 19 0 
0.0306078 -0.321373 8.77165 137 136 131 
0.0320112 -2.16147 6.94477 89 73 50 
0.0308264 -0.240313 8.79211 84 84 82 
0.0325425 -2.14062 6.96145 47 29 0 
0.0255224 3.92406 8.08737 137 137 129 
0.0375035 -2.15178 6.94973 103 86 66 
0.0380428 -2.07932 6.98903 27 10 0 
0.033567 3.90414 8.0243 97 86 66 
0.0398173 -0.406707 8.70278 90 44 54 
0.0422582 0.800009 8.60527 179 126 120 
0.0455251 0.31647 8.92534 109 49 75 
0.0464379 -0.297959 8.75962 92 88 85 
0.0391692 4.06058 7.86282 177 156 89 
0.0465642 -2.07084 6.96516 157 140 112 
0.0520157 -2.09871 6.99644 34 18 0 
0.0642799 -0.191235 9.98562 140 140 142 
0.0521414 5.52875 8.68372 59 44 37 
0.0612171 -0.389897 8.73714 161 141 142 
0.0663225 -0.335046 8.76473 134 134 126 
0.0610688 -2.38527 6.88556 66 43 11 
0.0677824 -0.167935 8.82333 18 18 18 
0.0591796 4.09557 7.95593 74 65 34 
0.0758861 -0.203178 9.96758 16 16 16 
0.065308 -0.21321 7.87314 25 25 23 
0.0634709 -2.10213 6.98503 47 28 0 
0.0780093 -0.210846 9.97921 19 19 17 
0.0726836 0.470521 8.95512 127 70 89 
0.0682754 -1.68839 7.35343 74 37 8 
0.073346 0.437935 8.92869 59 25 39 
0.0681054 -2.31925 6.93321 39 29 0 
0.0715892 -2.39756 6.88308 124 98 49 
0.0819917 -0.298549 8.78227 117 119 116 
0.0822867 -0.211178 8.7914 142 143 138 
0.0747049 -2.37746 6.89126 43 26 0 
0.0756366 -2.43417 6.8445 43 26 0 
0.0881294 -0.270766 8.80122 134 133 129 
0.076823 -2.36597 6.88977 39 25 0 
0.0882628 -0.498842 8.70388 154 117 124 
0.079171 -2.15825 7.02122 27 14 0 
0.0812287 -2.11941 7.00568 112 92 68 
0.0823104 -3.13678 6.98385 102 92 82 
0.0927986 -0.339101 8.77388 134 136 125 
0.104458 -0.208671 9.97007 35 35 33 
0.0973752 -0.25367 8.77668 32 32 30 
0.0850349 -2.44716 6.8694 22 3 0 
0.0868906 -2.37147 6.87295 255 255 211 
0.100342 3.74322 9.31462 88 93 89 
0.0885338 -2.34546 6.92013 49 26 0 
0.0893873 -2.35751 6.9011 34 20 0 
0.0895568 -2.46226 6.89194 119 102 84 
0.0907013 -2.42095 6.88405 255 254 201 
0.106529 -0.235493 8.79327 135 135 133 
0.097655 -0.216958 7.86755 135 135 133 
0.108155 -0.493968 8.74091 81 38 47 
0.109279 0.458363 8.94237 52 38 51 
0.095553 -2.14186 7.05538 117 91 74 
0.110157 0.413317 8.93745 167 85 99 
0.0919033 4.02839 7.44438 26 24 29 
0.105158 3.88873 8.85254 25 25 15 
0.112692 -0.22649 8.81556 17 17 17 
0.112318 -0.244344 8.78962 46 46 44 
0.105606 -3.30702 7.91251 120 113 105 
0.096507 -2.37078 6.913 27 12 0 
0.0968672 -2.62179 7.00676 34 19 24 
0.114607 0.193713 8.91056 122 38 71 
0.0983065 -2.1756 6.99412 25 13 0 
0.100916 -2.18598 7.00338 140 125 106 
0.104384 1.18146 7.63978 60 44 19 
0.101308 -2.34414 6.92738 130 110 77 
0.118677 -0.479332 8.70764 154 127 134 
0.101499 -2.13908 6.99844 134 112 91 
0.112246 -3.30945 7.94933 57 53 44 
0.13561 -0.17514 10.005 136 136 134 
0.118835 3.87591 8.90804 36 38 25 
0.113479 -0.206912 7.88043 136 136 134 
0.12471 -0.264363 8.78493 136 136 134 
0.124066 -0.487997 8.71545 152 125 130 
0.140537 -0.195194 9.97704 42 41 39 
0.123696 3.76173 9.23235 31 31 31 
0.142502 -0.163108 9.99811 12 13 8 
0.122809 3.84121 8.90601 102 102 92 
0.130504 -0.21371 8.80284 5 5 3 
0.112065 -2.17657 7.0466 34 16 0 
0.128241 3.85098 8.96709 73 73 61 
0.132545 -0.466433 8.67621 82 42 50 
0.135326 -0.176819 8.79646 127 126 124 
0.115853 -2.38562 6.96004 34 13 0 
0.11724 -2.18684 6.99707 115 94 77 
0.141725 0.445571 8.93367 64 32 45 
0.117056 -2.43984 6.92924 120 104 79 
0.139271 3.76361 9.19517 81 80 78 
0.13319 -3.28579 7.96274 131 115 89 
0.120105 -2.42166 6.92368 141 121 97 
0.120165 -2.41035 6.92644 33 18 0 
0.144954 -0.160343 8.82149 137 137 135 
0.144636 -0.17749 8.80741 36 35 33 
0.150709 3.51442 9.78116 109 99 89 
0.123679 -2.36686 6.96165 45 23 0 
0.149639 -0.471771 8.73393 164 123 129 
0.137585 3.9618 8.40605 18 20 6 
0.150984 -0.36386 8.76248 87 47 56 
0.127181 -2.43196 6.94235 63 43 10 
0.128231 -2.37817 6.97003 80 58 44 
0.152365 -0.29085 8.78968 85 85 85 
0.140652 1.11993 8.14086 56 38 34 
0.149482 3.85999 8.8922 31 34 25 
0.153759 -0.483254 8.72653 76 39 47 
0.131589 -2.43436 6.92825 146 120 103 
0.148115 4.03226 8.44038 76 82 70 
0.135438 -2.40408 6.9406 139 107 92 
0.162656 3.84488 8.94733 34 34 26 
0.13966 -2.37523 6.94775 37 8 0 
0.17541 3.25659 9.39618 23 19 18 
0.172211 -0.2404 8.80096 137 138 132 
0.17275 -0.399264 8.74944 154 125 130 
0.175281 -0.429796 8.74766 136 133 128 
0.175566 -0.463595 8.75543 83 36 44 
0.166078 3.95606 8.47882 27 24 19 
0.162978 3.97098 8.31744 14 16 15 
0.149066 -2.36615 6.93259 140 108 85 
0.171364 3.98962 8.37343 28 26 29 
0.167279 4.09324 7.94012 75 81 69 
0.177433 3.94278 8.4864 22 12 11 
0.191374 -0.288271 8.78351 78 79 74 
