ply                 
format ascii 1.0    
element vertex 1286
property float x    
property float y    
property float z    
property uchar red  
property uchar green
property uchar blue 
end_header          
-0.754421 -2.6476 7.72532 24 26 23 
-0.765731 3.83133 7.62704 46 44 45 
-0.842185 3.54729 8.36155 176 164 148 
-0.800043 0.482011 8.1175 224 196 148 
-0.767139 0.834721 7.83683 117 73 26 
-0.743192 -2.41392 7.70838 82 91 108 
-0.764723 0.775131 7.82325 179 146 113 
-0.866856 3.5039 8.7207 121 83 44 
-0.740862 -2.64415 7.71 168 170 169 
-0.731062 1.04039 7.48446 223 208 185 
-0.738938 -2.8037 7.70219 155 155 153 
-0.76267 0.87065 7.82289 136 84 24 
-0.832635 3.54644 8.41023 204 181 139 
-0.738662 -2.39355 7.70442 46 58 74 
-0.792448 0.602528 8.1392 190 155 117 
-0.716683 1.04973 7.40022 158 141 121 
-0.75139 3.84277 7.66347 225 215 180 
-0.867667 3.36957 8.83339 159 141 121 
-0.729936 -2.77158 7.70212 26 28 27 
-0.727869 -2.78622 7.70117 160 157 148 
-0.714674 1.00293 7.45015 53 41 29 
-0.809521 3.58477 8.31183 202 186 163 
-0.770777 0.618324 8.0808 198 167 123 
-0.745101 0.777849 7.84085 88 36 22 
-0.746884 3.80011 7.76635 218 209 176 
-0.733462 3.93386 7.61783 18 11 27 
-0.748381 3.77376 7.79129 99 101 77 
-0.716405 -2.84535 7.71186 19 29 21 
-0.783936 3.57854 8.17933 200 176 138 
-0.837945 3.5968 8.71592 160 131 87 
-0.760627 0.65605 8.07771 153 123 71 
-0.784951 3.61817 8.19496 199 176 145 
-0.711752 -2.85138 7.70241 186 196 188 
-0.743159 3.76104 7.79592 246 247 216 
-0.745128 3.75758 7.81471 167 158 127 
-0.779341 3.63824 8.18388 213 171 121 
-0.869752 5.33961 9.03576 96 95 100 
-0.807019 3.56173 8.53701 193 154 79 
-0.702548 -2.79852 7.71043 168 164 153 
-0.702179 -2.73014 7.7148 82 82 90 
-0.734034 0.799952 7.93309 168 112 61 
-0.776666 3.62476 8.23675 115 88 41 
-0.700587 -2.83091 7.71355 25 31 31 
-0.748469 0.64129 8.11055 205 182 140 
-0.844013 3.49229 8.98216 89 65 39 
-0.797903 3.58275 8.52249 87 64 22 
-0.696621 -2.77087 7.71276 29 25 26 
-0.725302 0.816124 7.92371 88 30 0 
-0.851171 3.48556 9.11167 46 54 73 
-0.719014 0.765097 7.87145 187 138 108 
-0.799735 3.55296 8.59377 177 162 143 
-0.760788 3.62304 8.20267 130 95 39 
-0.776241 3.58107 8.38443 76 61 30 
-0.803708 3.55873 8.68947 210 157 79 
-0.798121 3.70319 8.62066 74 57 27 
-0.705559 3.82648 7.67662 144 136 99 
-0.79271 3.56307 8.6008 83 67 52 
-0.692464 3.89957 7.54538 116 94 97 
-0.744051 0.632095 8.22402 72 63 46 
-0.664709 1.08533 7.36682 223 211 187 
-0.680809 -2.7973 7.68866 144 142 143 
-0.767971 3.62265 8.36816 79 57 34 
-0.709456 3.75632 7.76469 238 225 193 
-0.742221 0.622737 8.25645 62 49 30 
-0.711533 0.8262 7.92715 201 132 57 
-0.753571 3.64874 8.25283 199 163 79 
-0.784217 3.55815 8.57283 154 140 114 
-0.730632 3.65146 8.03896 121 88 43 
-0.708012 0.774228 7.9156 98 29 34 
-0.748842 3.63664 8.26674 90 63 16 
-0.671182 -2.86238 7.71905 169 169 171 
-0.69432 3.793 7.71932 221 215 181 
-0.763406 3.57663 8.46751 214 167 63 
-0.742272 3.65968 8.25175 206 156 71 
-0.663857 1.03301 7.50782 225 214 182 
-0.770838 3.56213 8.56319 169 162 136 
-0.676907 3.74325 7.52651 222 212 177 
-0.773756 3.56817 8.59978 79 68 40 
-0.802793 -2.75344 9.23076 22 36 49 
-0.692765 0.743556 7.91727 181 151 125 
-0.759283 3.57679 8.53723 98 83 54 
-0.663127 3.87365 7.50085 206 185 180 
-0.702418 3.75017 7.94275 217 198 156 
-0.65878 -2.31839 7.71181 141 153 167 
-0.653864 3.88381 7.47482 138 135 120 
-0.760298 3.57584 8.64661 114 83 19 
-0.665002 3.8381 7.60887 221 204 174 
-0.728667 3.64768 8.31647 219 166 70 
-0.739595 3.59477 8.44864 183 149 78 
-0.743262 3.58642 8.52107 65 53 39 
-0.649862 -2.43669 7.73086 135 135 137 
-0.742813 3.6067 8.52645 106 89 63 
-0.645141 -2.46491 7.726 22 26 37 
-0.644838 -2.50312 7.72558 11 15 27 
-0.740933 3.57468 8.54506 99 83 68 
-0.740384 3.58777 8.5533 161 147 134 
-0.69884 0.587294 8.23209 69 58 54 
-0.72565 3.58963 8.39787 167 141 84 
-0.670723 3.76498 7.77189 228 229 187 
-0.711535 3.66308 8.24439 59 47 25 
-0.726835 3.59386 8.46977 87 75 53 
-0.637827 3.89224 7.47548 40 39 35 
-0.716088 3.62975 8.36179 173 139 76 
-0.636636 -2.44276 7.71634 10 14 17 
-0.668466 0.762531 7.96076 89 25 23 
-0.613377 -2.0482 7.45387 87 57 46 
-0.728875 3.59105 8.54412 89 75 49 
-0.70748 3.67605 8.31163 60 48 26 
-0.649412 3.83374 7.68184 220 208 170 
-0.755406 3.58279 8.8834 132 101 83 
-0.626216 -2.86059 7.71414 50 52 41 
-0.625247 -2.44682 7.70028 103 107 118 
-0.713581 3.61079 8.46253 94 85 68 
-0.649983 3.79815 7.72245 229 217 179 
-0.652849 0.717629 7.9262 174 146 122 
-0.625284 -2.82811 7.73062 150 149 154 
-0.699982 3.65825 8.34466 66 54 30 
-0.69475 3.6644 8.29037 146 134 120 
-0.622481 -2.50429 7.72925 21 24 31 
-0.700226 3.6473 8.37407 83 70 54 
-0.702222 3.62718 8.42109 94 73 54 
-0.75623 3.55427 9.0426 27 33 47 
-0.700303 3.64176 8.39629 86 68 48 
-0.692405 3.66332 8.31086 139 127 111 
-0.599698 -1.75437 7.48475 1 3 15 
-0.706024 3.60619 8.51296 95 84 66 
-0.653504 0.855027 8.01859 95 24 0 
-0.66801 0.568821 8.20932 32 33 28 
-0.700349 3.61467 8.43534 182 169 152 
-0.654841 0.790113 8.05579 167 114 44 
-0.633735 3.83311 7.67346 135 123 81 
-0.634058 3.8015 7.69715 144 137 108 
-0.645374 3.75456 7.84375 212 225 172 
-0.612664 -2.52565 7.7289 144 144 146 
-0.636145 3.76405 7.7502 241 231 195 
-0.686025 3.65665 8.36666 168 163 133 
-0.645717 0.813545 8.05018 175 117 71 
-0.605874 -2.3767 7.71919 89 92 107 
-0.680865 3.66116 8.32955 146 131 108 
-0.675911 3.68576 8.29218 87 66 49 
-0.681962 3.63707 8.42063 173 166 140 
-0.682078 3.6236 8.42623 87 76 56 
-0.576818 -1.66922 7.41486 6 10 21 
-0.720998 3.55907 8.90155 132 134 149 
-0.684063 3.62473 8.46975 85 69 44 
-0.599245 -2.51467 7.72474 20 15 19 
-0.726237 3.59122 8.96807 133 135 150 
-0.598992 -2.81698 7.73477 190 191 196 
-0.626676 0.637213 7.9351 176 159 139 
-0.656326 3.74837 8.16168 143 98 30 
-0.672979 3.63528 8.389 109 95 66 
-0.668036 3.65399 8.37944 86 66 39 
-0.666809 3.63497 8.37128 103 81 58 
-0.591846 -2.67359 7.75494 109 109 119 
-0.550319 -1.81668 7.23953 88 54 42 
-0.62563 3.72987 7.89118 71 55 39 
-0.63102 0.885176 8.11341 146 93 39 
-0.640082 3.76094 8.0882 186 150 88 
-0.58605 -2.90908 7.75398 192 165 144 
-0.639588 3.78279 8.10475 110 96 83 
-0.607683 3.77508 7.73033 97 111 78 
-0.587323 -2.7332 7.76388 107 101 111 
-0.677712 3.62595 8.61554 104 79 23 
-0.596502 3.90206 7.67143 23 7 20 
-0.623375 0.517083 8.20673 96 80 67 
-0.622332 3.76545 8.03491 57 45 45 
-0.682808 3.58076 8.78707 32 33 51 
-0.626374 3.48565 8.11764 201 167 106 
-0.614998 3.78428 7.98503 184 174 138 
-0.570225 3.90979 7.46245 102 47 42 
-0.634126 3.75984 8.26082 148 108 46 
-0.615585 3.71341 8.15978 125 90 22 
-0.566372 3.91177 7.5314 101 11 39 
-0.609695 3.75996 8.12125 195 147 65 
-0.630993 3.58874 8.41154 196 162 55 
-0.601391 0.724438 8.21932 57 51 55 
-0.581431 3.76674 7.83207 101 111 59 
-0.638704 3.62458 8.57976 149 111 30 
-0.574217 3.74518 7.7384 84 96 50 
-0.658139 3.59819 8.83169 81 83 96 
-0.571101 3.76795 7.72866 224 210 181 
-0.594654 0.650438 8.22732 54 40 27 
-0.591781 0.666674 8.20952 181 168 160 
-0.625111 5.49788 8.46229 14 16 28 
-0.633526 3.6199 8.68285 126 125 141 
-0.561202 3.71333 7.73135 189 179 117 
-0.616576 3.65067 8.47394 138 105 0 
-0.636196 3.58281 8.73935 28 30 43 
-0.615744 3.62487 8.57242 194 156 81 
-0.658272 3.54962 9.13368 21 29 42 
-0.580693 3.74289 8.12206 199 151 79 
-0.597456 3.70139 8.3755 141 106 14 
-0.652325 3.51519 9.12326 24 25 45 
-0.545043 3.75553 7.71764 36 77 45 
-0.54246 3.73897 7.74445 42 70 47 
-0.581727 3.72305 8.29648 138 100 3 
-0.568029 3.74808 8.12509 123 85 23 
-0.457549 -2.7791 6.98008 106 84 71 
-0.636917 3.54796 9.13419 24 27 42 
-0.571128 3.72355 8.23239 141 105 21 
-0.630443 3.57865 9.10534 98 98 124 
-0.566658 3.72804 8.21184 193 153 68 
-0.591626 3.65824 8.63522 27 31 32 
-0.554689 3.71459 8.13445 163 127 39 
-0.517914 3.8167 7.64266 206 172 12 
-0.530256 3.72554 7.86392 54 25 7 
-0.614478 3.50996 9.23533 122 118 117 
-0.538944 3.74523 8.19193 196 158 61 
-0.497668 3.75141 7.69127 28 92 78 
-0.506478 3.73755 7.89471 125 54 0 
-0.553943 3.64325 8.62941 31 30 46 
-0.501459 3.73298 7.85382 100 43 0 
-0.568294 3.59583 8.85616 115 97 121 
-0.531611 3.70126 8.32094 11 18 24 
-0.543368 3.65714 8.50498 164 164 156 
-0.548886 3.65447 8.59447 107 103 94 
-0.51786 3.71834 8.13297 39 31 20 
-0.537772 3.66536 8.47948 165 157 155 
-0.581057 5.30465 9.0654 98 93 100 
-0.538696 3.66141 8.57078 75 65 56 
-0.539989 3.65645 8.62396 166 165 163 
-0.534825 5.53581 8.4431 170 153 145 
-0.530133 3.66038 8.4977 41 30 26 
-0.523069 3.68594 8.38318 155 154 152 
-0.526247 3.66416 8.46582 103 91 91 
-0.464331 3.93802 7.51076 255 201 214 
-0.517964 3.68941 8.3409 173 172 178 
-0.481673 3.72969 7.8338 222 198 27 
-0.566137 3.54178 9.19524 106 107 125 
-0.528725 3.65118 8.59674 20 21 23 
-0.465448 3.74475 7.62823 56 89 58 
-0.481037 3.74104 7.92405 96 49 0 
-0.521147 3.65558 8.56083 30 25 29 
-0.489494 3.69065 8.14163 155 148 142 
-0.52538 3.60801 8.85624 41 29 51 
-0.491397 3.71406 8.30266 142 139 132 
-0.441258 3.94206 7.5181 233 132 164 
-0.484907 3.67253 8.37814 29 29 31 
-0.511963 3.65043 8.88651 103 91 111 
-0.481555 3.68226 8.36154 34 35 39 
-0.479596 3.68515 8.38932 122 125 130 
-0.505797 3.55424 8.9123 108 103 125 
-0.470096 3.6899 8.32273 65 63 68 
-0.494511 5.43489 8.62872 13 16 25 
-0.469075 3.69038 8.29365 27 25 30 
-0.514453 3.52458 9.17814 105 104 120 
-0.479319 3.6499 8.55043 162 158 157 
-0.455135 3.67987 8.16422 117 112 106 
-0.441062 3.71638 7.93153 100 81 22 
-0.474012 3.63133 8.5604 166 159 153 
-0.477377 3.63232 8.6073 47 43 40 
-0.477688 3.59186 8.66745 47 49 64 
-0.464114 3.65051 8.50705 91 86 82 
-0.332381 -2.76046 6.69349 41 25 26 
-0.435834 3.64464 8.12815 31 30 35 
-0.462806 3.63322 8.60165 134 130 131 
-0.463951 3.60236 8.68056 139 136 153 
-0.457908 3.62176 8.60189 25 25 27 
-0.452991 3.62282 8.56164 19 20 22 
-0.442414 3.64587 8.39562 142 138 137 
-0.442351 3.63776 8.43958 84 80 77 
-0.452816 3.62898 8.66207 31 35 36 
-0.442476 3.64848 8.50042 158 156 159 
-0.479993 3.50201 9.20137 101 100 114 
-0.434953 3.6632 8.39422 144 144 146 
-0.434577 3.64509 8.45158 159 156 163 
-0.427134 0.819014 8.51962 171 108 116 
-0.435011 3.64498 8.47638 34 33 39 
-0.418133 0.853675 8.40757 60 11 14 
-0.445523 3.59372 8.73007 142 140 161 
-0.461961 3.53568 9.00665 28 30 45 
-0.428969 3.6416 8.40713 157 156 161 
-0.465173 3.51291 9.15832 104 97 115 
-0.457066 3.49707 9.16719 47 42 39 
-0.415267 3.64097 8.38394 101 100 106 
-0.411829 3.58586 8.62336 165 165 165 
-0.284983 -2.61963 6.65314 254 252 231 
-0.405567 3.60526 8.58165 118 117 112 
-0.39729 3.56882 8.67695 121 115 143 
-0.384781 3.62341 8.44859 136 136 134 
-0.392914 3.57592 8.62264 167 168 173 
-0.382291 3.60794 8.41856 130 130 130 
-0.381422 3.58503 8.5548 19 20 24 
-0.382867 3.59873 8.61471 30 31 33 
-0.26739 -2.87994 6.81563 48 35 26 
-0.369 3.58939 8.50035 34 34 36 
-0.359882 3.5933 8.43197 34 33 38 
-0.279883 -3.67163 7.69665 192 177 158 
-0.353092 3.53091 8.8871 208 161 47 
-0.297132 1.06653 7.82006 161 111 100 
-0.236991 -2.90194 6.75065 46 41 38 
-0.335878 3.54833 8.63227 209 175 88 
-0.227125 -2.16045 6.64776 16 5 0 
-0.30319 3.74877 8.00885 78 70 57 
-0.295284 1.00102 8.15595 33 6 21 
-0.280004 1.05827 7.86441 90 51 54 
-0.310594 0.62188 8.73814 91 74 56 
-0.31738 3.52699 8.66685 131 105 56 
-0.310142 3.54741 8.60931 150 113 43 
-0.293282 3.70472 8.17283 184 171 155 
-0.213041 -2.13541 6.71359 235 219 168 
-0.206102 -2.14717 6.64368 36 21 0 
-0.302975 3.53836 8.71416 121 91 18 
-0.296554 3.56865 8.5563 211 168 55 
-0.252284 1.02849 7.80579 76 51 57 
-0.244596 1.10808 7.6067 150 86 76 
-0.248983 1.01549 7.83532 38 24 37 
-0.233587 1.08852 7.56778 232 202 191 
-0.186047 -2.35098 6.60131 181 170 142 
-0.184571 -2.32062 6.57484 54 39 6 
-0.189424 -2.08384 6.68024 49 29 0 
-0.185815 -2.05773 6.66893 26 12 0 
-0.180175 -3.00332 6.72777 156 129 108 
-0.178492 -2.08355 6.65863 154 140 113 
-0.178998 -2.94031 6.74362 85 50 31 
-0.177102 -3.06093 6.70017 108 87 68 
-0.231304 0.886559 7.9113 126 115 121 
-0.172868 -2.3531 6.61101 49 27 0 
-0.172 -3.07665 6.60842 103 87 71 
-0.17505 -2.09544 6.67091 22 14 0 
-0.234312 3.783 7.82736 220 210 175 
-0.176502 -1.78606 6.76557 118 84 75 
-0.26775 3.53126 8.90884 55 65 77 
-0.172065 -2.06946 6.68735 164 145 105 
-0.213913 1.00784 7.78521 20 25 63 
-0.166035 -2.097 6.66006 204 194 167 
-0.163989 -3.00107 6.72459 137 104 85 
-0.166569 -2.89564 6.7352 200 180 156 
-0.161033 -2.39491 6.59531 161 135 78 
-0.168965 -1.76366 6.79356 27 7 0 
-0.208265 0.982383 7.78097 99 107 146 
-0.16271 -3.26012 6.74165 147 119 107 
-0.161852 -2.96705 6.7921 85 46 17 
-0.161892 -2.04874 6.68704 15 4 0 
-0.21826 3.77315 7.82231 87 76 30 
-0.155189 -2.37567 6.59631 84 46 0 
-0.154449 -2.28537 6.58503 33 22 28 
-0.208466 3.77785 7.64171 87 78 11 
-0.15437 -2.32869 6.60489 186 156 66 
-0.149599 -3.07351 6.56338 223 203 178 
-0.15277 -2.36499 6.59336 207 166 78 
-0.2096 3.77657 7.84662 225 178 152 
-0.149799 -2.98935 6.70292 84 52 31 
-0.198397 0.909375 7.95561 72 67 63 
-0.147152 -2.37242 6.59029 93 56 0 
-0.143785 -2.91682 6.7385 90 66 42 
-0.198928 3.792 7.82055 178 46 41 
-0.154754 -1.61253 7.03128 62 66 78 
-0.209932 0.716249 8.73013 227 180 154 
-0.135365 -2.86196 6.64483 255 255 230 
-0.137642 -2.10944 6.68004 41 24 0 
-0.177352 0.939036 7.82847 192 191 209 
-0.131705 -2.36322 6.59743 169 135 64 
-0.131435 -2.34988 6.60273 179 156 115 
-0.211944 3.80322 8.80384 43 43 31 
-0.182706 3.78618 7.68217 255 138 140 
-0.128444 -3.19847 6.63536 59 21 0 
-0.128416 -2.40331 6.58103 32 21 0 
-0.128611 -2.35622 6.58657 56 24 0 
-0.125222 -2.95897 6.66724 255 251 207 
-0.175584 3.91783 7.65463 78 15 0 
-0.177671 3.77642 7.80199 231 136 140 
-0.176222 3.76604 7.75908 238 146 149 
-0.127086 -2.05448 6.69457 39 30 0 
-0.12565 -2.30915 6.64165 255 242 171 
-0.117248 -3.19603 6.62733 50 10 0 
-0.175779 3.75904 7.88838 219 203 180 
-0.183128 0.744789 8.70683 130 79 48 
-0.116665 -2.40333 6.58992 255 255 197 
-0.11753 -2.94342 6.64161 122 89 46 
-0.119989 -2.04722 6.70574 194 186 139 
-0.114797 -3.15131 6.6358 104 64 39 
-0.115497 -2.39379 6.58683 66 32 0 
-0.119079 -2.11755 6.69555 189 167 126 
-0.11545 -2.41707 6.58919 22 4 0 
-0.115869 -2.33496 6.61248 159 146 111 
-0.117092 -2.93797 6.70471 56 21 0 
-0.119197 -1.72017 6.79277 83 55 52 
-0.1569 3.9018 7.66983 194 143 26 
-0.169265 0.72906 8.7436 216 169 141 
-0.154498 3.79828 7.67637 175 66 43 
-0.106949 -2.04284 6.66733 14 10 0 
-0.161178 0.738766 8.71387 135 88 62 
-0.150969 3.82531 7.65465 203 164 11 
-0.0998336 -3.19138 6.59929 68 30 21 
-0.10213 -2.41295 6.5714 216 199 153 
-0.101485 -2.99372 6.68131 155 117 81 
-0.102939 -2.9325 6.71287 133 91 67 
-0.099123 -2.39464 6.57983 223 198 158 
-0.147236 3.77792 7.80034 243 149 150 
-0.103397 -1.75041 6.80236 98 70 69 
-0.0966455 -2.93514 6.68257 74 33 3 
-0.096982 -2.5829 6.6024 24 19 23 
-0.134269 0.938531 7.84933 134 133 128 
-0.148738 0.737261 8.71055 212 164 144 
-0.145252 0.122749 8.62449 32 37 56 
-0.138664 3.78725 7.67535 251 147 136 
-0.0892745 -3.18171 6.5694 144 106 83 
-0.139386 -0.150729 8.61844 38 38 36 
-0.139424 0.0899765 8.62325 37 40 59 
-0.13863 3.78851 7.83925 177 65 61 
-0.0957344 -1.78654 6.81517 129 100 94 
-0.132959 3.95511 7.62063 163 77 90 
-0.0893711 -2.42725 6.60909 255 254 200 
-0.136248 0.0527507 8.47102 138 140 137 
-0.0857787 -2.34461 6.54603 71 44 0 
-0.0840491 -2.91175 6.76391 47 31 31 
-0.12668 3.78642 7.65322 175 64 19 
-0.0841979 -2.16569 6.67425 130 125 95 
-0.0827596 -2.4324 6.59718 18 11 0 
-0.132787 0.432505 8.75592 192 182 157 
-0.124608 3.85601 7.64656 140 24 25 
-0.124041 -0.269896 8.57082 29 30 32 
-0.0800823 -2.14741 6.6636 49 37 13 
-0.118263 -0.220489 8.56826 130 130 130 
-0.0794721 -1.77574 6.7991 41 18 12 
-0.0743477 -2.26923 6.62193 35 21 0 
-0.0736118 -2.30849 6.61598 211 202 173 
-0.114493 -0.208163 8.57705 15 15 13 
-0.0721893 -2.28031 6.62807 157 142 111 
-0.111802 -0.28073 8.56331 107 108 112 
-0.0747014 -1.74783 6.77776 27 3 0 
-0.109775 -0.291508 8.53825 25 26 28 
-0.0684458 -2.9254 6.69546 72 28 0 
-0.115689 0.755267 8.74445 169 126 109 
-0.0683234 -2.30319 6.63238 136 128 92 
-0.105446 -0.205491 8.59797 138 138 140 
-0.106306 3.87863 7.67803 222 139 131 
-0.102647 3.8722 7.65207 191 112 107 
-0.102755 -0.335404 8.53221 75 82 75 
-0.0935536 0.951337 7.87398 137 129 126 
-0.0611489 -2.29267 6.62796 166 152 126 
-0.0955904 -0.430432 8.48819 103 34 55 
-0.064529 -1.79347 6.85659 108 85 79 
-0.0927127 -0.456008 8.45271 91 39 52 
-0.0940572 3.85226 7.65285 129 54 12 
-0.0910516 -0.258989 8.57543 144 144 142 
-0.0938744 3.89376 7.67278 205 114 121 
-0.0554614 -2.28243 6.62666 160 149 119 
-0.0896819 -0.298855 8.55655 131 133 132 
-0.0521526 -2.9354 6.69539 63 21 0 
-0.0529187 -2.30187 6.65682 35 20 0 
-0.0557672 -1.78328 6.83076 31 6 1 
-0.0810452 -0.535411 8.37027 94 46 62 
-0.0845313 -0.36474 8.52517 132 137 131 
-0.0492789 -2.24748 6.62734 166 153 118 
-0.0891155 0.747647 8.72325 148 101 85 
-0.0474768 -2.24225 6.64197 142 125 82 
-0.0812485 -0.231414 8.5696 139 139 139 
-0.0790421 -0.41411 8.49822 156 113 123 
-0.046841 -2.22602 6.66941 149 140 97 
-0.0462509 -2.28588 6.64897 41 29 3 
-0.0763347 -0.443752 8.47491 155 115 124 
-0.0439865 -2.27444 6.64675 128 116 92 
-0.075264 -0.21269 8.59639 144 144 146 
-0.0412891 -2.99668 6.71107 143 98 65 
-0.0774245 0.559077 8.73177 198 166 151 
-0.0908502 3.84424 8.76642 137 100 71 
-0.0408647 -2.21567 6.66568 62 53 20 
-0.0668348 -0.428726 8.49039 75 52 58 
-0.0738963 0.516795 8.71741 123 102 111 
-0.0679822 -0.284011 8.52328 24 25 27 
-0.0727202 3.88711 7.65857 200 114 115 
-0.0363623 -2.26584 6.62959 34 21 0 
-0.0709891 3.86813 7.64005 196 121 115 
-0.063249 -0.397092 8.5136 77 54 60 
-0.069416 3.86043 7.66393 128 48 23 
-0.0586102 0.944847 7.85332 95 86 77 
-0.0309015 -3.00894 6.62496 166 126 100 
-0.057497 -0.459167 8.48727 76 45 50 
-0.0779667 3.81998 8.82402 87 47 21 
-0.0599228 0.373383 8.69576 104 90 115 
-0.0726052 3.81847 8.77979 141 97 72 
-0.0520226 -0.517102 8.4608 77 48 53 
-0.023761 -2.93592 6.7077 100 55 26 
-0.0496653 -0.21171 8.58037 55 55 57 
-0.0470704 -0.505561 8.45335 151 108 118 
-0.0546724 3.95012 7.65795 44 44 34 
-0.0434461 -0.41854 8.50067 137 127 126 
-0.0526589 3.90877 7.67136 122 37 40 
-0.0507905 3.79284 7.72484 158 40 56 
-0.0178078 -2.23127 6.68096 125 110 91 
-0.0405903 -0.264672 8.55222 21 19 20 
-0.0581238 3.8319 8.64553 127 97 73 
-0.0136299 -3.14434 6.63547 111 67 40 
-0.0475953 3.89194 7.69433 201 127 116 
-0.0110603 -3.17866 6.59756 134 91 74 
-0.0372239 -0.300844 8.54931 135 133 134 
-0.0118138 -2.25464 6.66921 118 111 82 
-0.0323385 -0.39614 8.50561 78 49 53 
-0.0329033 0.934242 7.93305 162 153 148 
-0.0315814 -0.268559 8.56046 88 86 87 
-0.00747866 -2.90442 6.73683 169 137 112 
-0.0388737 3.88595 7.66423 192 118 117 
-0.0475274 3.84345 8.62905 52 46 24 
-0.038831 3.87408 7.66271 141 64 56 
-0.0285792 -0.542588 8.47666 82 47 54 
-0.0380399 3.86024 7.65833 125 46 15 
-0.00854831 -2.38455 6.72273 15 9 13 
-0.00263307 -3.17847 6.61088 62 19 0 
-0.0242801 -0.278151 8.55989 40 39 37 
-0.00354605 -2.23374 6.66436 135 128 102 
-0.0209757 0.975651 7.75216 173 182 215 
-0.0151805 -0.522788 8.46029 149 107 117 
0.00532435 -3.15812 6.66692 84 40 13 
0.00453682 -2.97639 6.72704 150 114 90 
-0.0252479 3.89397 7.66057 185 104 103 
0.00329048 -2.26674 6.66417 123 109 96 
-0.0130277 -0.417095 8.5209 104 40 56 
-0.0249856 3.7924 7.75377 164 56 72 
0.0037657 -2.17368 6.69481 47 31 0 
-0.0234906 3.80072 7.74587 243 152 149 
-0.0114656 -0.26211 8.58116 15 14 12 
-0.0210168 3.89278 7.69514 135 57 53 
-0.0150333 0.489066 8.69911 97 60 77 
0.0122679 -3.14273 6.63963 153 109 84 
-0.00737138 -0.364645 8.54465 139 136 127 
0.0100764 -2.27748 6.67344 120 107 91 
-0.0192372 3.86873 7.6717 129 53 29 
-0.0182279 3.90562 7.68829 136 58 58 
-0.00526478 -0.223872 8.56362 136 136 134 
-0.00506202 -0.240633 8.57343 138 138 136 
-0.0026112 -0.491832 8.49723 85 42 51 
-0.0164689 3.79189 7.86883 62 97 119 
-0.0139107 3.93414 7.67189 57 43 34 
-0.0155389 4.02438 7.64388 121 115 99 
-0.00226355 -0.464868 8.46449 131 130 128 
0.014979 -2.21617 6.70369 60 46 1 
0.0153386 -2.22721 6.69594 167 153 118 
0.0024202 -0.526787 8.49962 91 34 49 
0.0182783 -2.84894 6.68576 107 94 78 
0.00285253 -0.395526 8.52984 90 53 60 
0.00865587 -0.436679 8.51691 81 55 58 
-0.00401832 3.89621 7.65692 195 114 113 
-0.00330979 3.88911 7.67376 126 41 38 
0.0241229 -2.23062 6.71419 27 15 0 
0.0120492 0.965856 7.82788 66 62 85 
0.0171421 -0.414502 8.50661 138 130 128 
0.0173533 -0.377707 8.52976 145 129 130 
0.0272682 -2.05249 6.7703 121 112 95 
0.0214471 -0.254451 8.57211 135 135 135 
0.0343015 -2.16853 6.73677 125 115 88 
0.0230159 0.953147 7.87959 190 186 177 
0.0242016 1.09699 7.31031 168 157 137 
0.0373987 -2.04817 6.79719 115 100 79 
0.0319315 -0.473496 8.50312 131 136 132 
0.0390497 -2.27026 6.68763 93 76 58 
0.0393759 -2.28125 6.69133 30 19 0 
0.0329991 -0.345608 8.55479 137 136 131 
0.0398219 -2.13473 6.75798 89 73 50 
0.0330065 -0.266623 8.57518 84 84 82 
0.0402801 -2.11446 6.77434 47 29 0 
0.0182416 3.80484 7.91364 137 137 129 
0.0451455 -2.12529 6.76284 103 86 66 
0.0454752 -2.05475 6.80129 27 10 0 
0.0261895 3.78535 7.85147 97 86 66 
0.0422203 -0.428648 8.48685 90 44 54 
0.0417752 0.748091 8.39619 179 126 120 
0.0459291 0.276074 8.70835 109 49 75 
0.0483814 -0.322725 8.54304 92 88 85 
0.0313829 3.93923 7.69456 177 156 89 
0.0537682 -2.04639 6.77785 157 140 112 
0.0591266 -2.07364 6.80861 34 18 0 
0.0648223 -0.220638 9.75 140 140 142 
0.0400644 5.3833 8.51799 59 44 37 
0.0630203 -0.412271 8.52069 161 141 142 
0.0678505 -0.358839 8.54799 134 134 126 
0.0686949 -2.35277 6.70043 66 43 11 
0.0688422 -0.196027 8.60615 18 18 18 
0.0508053 3.97352 7.78637 74 65 34 
0.076183 -0.232232 9.73221 16 16 16 
0.0670765 -0.238617 7.67198 25 25 23 
0.0702986 -2.07692 6.79745 47 28 0 
0.0782659 -0.239726 9.74364 19 19 17 
0.0720261 0.426348 8.73845 127 70 89 
0.0737799 -1.67463 7.15883 74 37 8 
0.0727646 0.394604 8.71234 59 25 39 
0.0753638 -2.2885 6.74706 39 29 0 
0.0789738 -2.36473 6.69802 124 98 49 
0.0830279 -0.323254 8.56532 117 119 116 
0.0831028 -0.238096 8.57466 142 143 138 
0.0819563 -2.34516 6.70606 43 26 0 
0.0830268 -2.40035 6.66033 43 26 0 
0.0889345 -0.296187 8.58406 134 133 129 
0.0839924 -2.33393 6.70455 39 25 0 
0.0896621 -0.518342 8.48773 154 117 124 
0.0857058 -2.13171 6.83312 27 14 0 
0.0876248 -2.09378 6.81775 112 92 68 
0.0911652 -3.08736 6.80095 102 92 82 
0.0936645 -0.362744 8.55707 134 136 125 
0.104067 -0.237527 9.73464 35 35 33 
0.0979206 -0.279459 8.56002 32 32 30 
0.0921994 -2.41306 6.68478 22 3 0 
0.0938223 -2.33924 6.6881 255 255 211 
0.0910857 3.62641 9.11796 88 93 89 
0.0953338 -2.31399 6.73433 49 26 0 
0.0962052 -2.3257 6.71571 34 20 0 
0.0966299 -2.42789 6.70709 119 102 84 
0.0976484 -2.38754 6.69916 255 254 201 
0.106792 -0.261744 8.5764 135 135 133 
0.0986047 -0.242182 7.66651 135 135 133 
0.10902 -0.513609 8.52413 81 38 47 
0.107745 0.414591 8.72585 52 38 51 
0.101604 -2.11577 6.86662 117 91 74 
0.108711 0.370668 8.72082 167 85 99 
0.0832494 3.90833 7.28348 26 24 29 
0.0957169 3.7696 8.66521 25 25 15 
0.112766 -0.252991 8.59831 17 17 17 
0.112458 -0.270353 8.57278 46 46 44 
0.113805 -3.25721 7.71561 120 113 105 
0.103166 -2.33866 6.72744 27 12 0 
0.10408 -2.58399 6.8206 34 19 24 
0.113585 0.156557 8.6934 122 38 71 
0.104401 -2.1485 6.80656 25 13 0 
0.106962 -2.15863 6.81562 140 125 106 
0.101988 1.12146 7.45022 60 44 19 
0.10777 -2.31269 6.74145 130 110 77 
0.119259 -0.499258 8.49145 154 127 134 
0.10742 -2.11291 6.81075 134 112 91 
0.120269 -3.25967 7.75181 57 53 44 
0.134357 -0.204799 9.7692 136 136 134 
0.109084 3.757 8.71963 36 38 25 
0.113991 -0.232377 7.67921 136 136 134 
0.124588 -0.289831 8.56808 136 136 134 
0.124529 -0.507704 8.49911 152 125 130 
0.139226 -0.224305 9.74153 42 41 39 
0.113916 3.64472 9.03733 31 31 31 
0.141055 -0.193033 9.76242 12 13 8 
0.113051 3.72297 8.71734 102 102 92 
0.130107 -0.240468 8.5859 5 5 3 
0.117777 -2.14956 6.8581 34 16 0 
0.118302 3.7325 8.77741 73 73 61 
0.132763 -0.486595 8.46056 82 42 50 
0.134723 -0.204483 8.57976 127 126 124 
0.122024 -2.35324 6.77371 34 13 0 
0.122869 -2.15942 6.80945 115 94 77 
0.139418 0.402202 8.71723 64 32 45 
0.123345 -2.40606 6.74367 120 104 79 
0.129157 3.64663 9.00082 81 80 78 
0.140638 -3.23647 7.76478 131 115 89 
0.126273 -2.38827 6.73807 141 121 97 
0.126302 -2.37724 6.74075 33 18 0 
0.144056 -0.188438 8.60439 137 137 135 
0.143795 -0.205132 8.59054 36 35 33 
0.140583 3.40183 9.57463 109 99 89 
0.129601 -2.33494 6.77529 45 23 0 
0.149408 -0.49186 8.51733 164 123 129 
0.1275 3.84186 8.22726 18 20 6 
0.150448 -0.38672 8.54573 87 47 56 
0.133182 -2.39837 6.75646 63 43 10 
0.134059 -2.34597 6.78352 80 58 44 
0.151608 -0.315593 8.57281 85 85 85 
0.137217 1.06099 7.94202 56 38 34 
0.139086 3.74147 8.70393 31 34 25 
0.153456 -0.50303 8.51005 76 39 47 
0.137489 -2.40065 6.74262 146 120 103 
0.137612 3.91108 8.2618 76 82 70 
0.141157 -2.37113 6.75466 139 107 92 
0.151967 3.72661 8.75795 34 34 26 
0.145196 -2.34301 6.76162 37 8 0 
0.165525 3.14936 9.19334 23 19 18 
0.170828 -0.266384 8.58399 137 138 132 
0.171756 -0.421156 8.53284 154 125 130 
0.174296 -0.450908 8.53095 136 133 128 
0.174652 -0.483868 8.53857 83 36 44 
0.155323 3.83621 8.2987 27 24 19 
0.15235 3.85104 8.14033 14 16 15 
0.154344 -2.33407 6.74668 140 108 85 
0.160473 3.86928 8.1955 28 26 29 
0.156492 3.97156 7.77097 75 81 69 
0.166448 3.82321 8.30605 22 12 11 
0.189632 -0.312975 8.56672 78 79 74 
0.172442 1.12414 7.83065 205 144 113 
0.199523 0.358211 8.70712 153 46 72 
0.186338 3.78878 8.68288 76 87 70 
0.200534 -0.535291 8.49076 147 121 120 
0.207543 -0.191747 8.59656 149 149 147 
0.191342 1.12266 7.86676 196 117 104 
0.212282 -0.182553 8.60591 17 18 13 
0.21257 -0.252274 8.58272 20 20 18 
0.214761 -0.53698 8.51081 78 37 43 
0.215172 -0.523999 8.51478 101 40 58 
0.222818 -0.386948 8.58681 88 58 60 
0.195679 -2.82026 7.00369 78 43 41 
0.224545 -0.402191 8.54803 158 122 124 
0.22563 -0.417926 8.59667 90 55 59 
0.2273 -0.476136 8.5302 78 53 57 
0.226962 -0.533239 8.50885 153 131 133 
0.230541 -0.0390061 8.61845 59 68 73 
0.200885 3.79629 8.08291 24 20 19 
0.233727 -0.521811 8.52621 71 50 55 
0.234531 -0.249609 8.61099 137 138 133 
0.233457 -0.446719 8.56217 142 137 131 
0.235015 -0.428307 8.54382 147 132 127 
0.208346 -3.12337 6.9817 40 36 37 
0.226353 -3.24414 7.74616 75 61 34 
0.238279 0.335495 8.70333 151 47 84 
0.209229 -2.80337 6.9951 164 141 135 
0.240542 -0.383776 8.58177 146 131 128 
0.217128 1.12659 7.80631 182 133 92 
0.206101 -2.60429 6.83255 79 64 59 
0.242317 -0.404399 8.59756 155 125 127 
0.226103 1.09948 7.94176 128 72 75 
0.248412 -0.424001 8.54475 92 47 54 
0.250655 -0.174947 8.61765 146 147 142 
0.227091 3.75722 8.26484 34 26 23 
0.23305 1.1064 7.89231 141 76 80 
0.261452 0.442832 8.74871 83 49 76 
0.261944 -0.204537 8.59784 46 47 42 
0.262781 0.259952 8.68738 34 17 33 
0.260488 -0.183308 8.60928 54 54 52 
0.263661 -0.25086 8.59354 60 61 56 
0.238311 1.13198 7.83949 135 90 48 
0.266911 0.818605 8.77603 197 154 138 
0.216983 3.92207 7.43168 28 26 29 
0.244338 1.10967 7.89105 56 17 20 
0.269189 -0.265119 8.56281 40 43 34 
0.244509 3.75397 8.28385 59 53 55 
0.241781 3.79745 8.06391 110 113 104 
0.244337 3.77981 8.07722 34 30 27 
0.237184 -2.80077 6.97251 204 180 154 
0.251912 3.74588 8.36263 11 9 12 
0.275909 -0.374333 8.55956 74 48 47 
0.277935 -0.433982 8.54315 147 133 132 
0.282309 0.808444 8.79776 58 20 0 
0.254138 3.77908 8.1868 71 61 62 
0.281574 -0.39809 8.55134 142 131 129 
0.251878 3.8189 8.04152 104 109 102 
0.282054 -0.420711 8.5333 77 55 58 
0.286498 0.790385 8.76957 71 34 16 
0.256195 3.75747 8.08346 70 60 50 
0.288458 -0.375913 8.54082 148 130 126 
0.297332 0.389589 8.70929 120 115 138 
0.267101 3.75693 8.17895 14 10 11 
0.297281 0.348688 8.70812 59 25 60 
0.248798 3.89335 7.53936 22 21 17 
0.30301 -0.178873 8.64446 153 153 151 
0.261204 -2.73165 6.99896 88 65 49 
0.301719 -0.381206 8.56073 98 51 57 
0.306408 0.801624 8.79386 60 25 5 
0.304425 0.000487809 8.61205 57 64 72 
0.306855 -0.414033 8.53802 93 52 58 
0.310942 0.308389 8.70525 34 20 33 
0.279371 3.78285 8.10156 8 4 5 
0.268566 -2.72359 6.99408 193 172 153 
0.31659 0.802111 8.80345 185 150 130 
0.279163 3.85005 8.00057 118 122 108 
0.283135 3.80017 8.08974 17 16 21 
0.327648 -0.241055 8.59249 136 138 133 
0.278189 -2.64983 6.9399 80 35 56 
0.33068 0.355724 8.71318 190 161 155 
0.329197 -0.218981 8.59227 134 137 130 
0.297472 3.82188 8.078 97 103 91 
0.33646 0.282624 8.68961 50 22 36 
0.339388 -0.392524 8.56896 94 30 46 
0.334685 0.800943 8.55088 170 123 117 
0.288502 -2.68318 6.92636 204 181 150 
0.342828 0.236 8.69952 38 29 46 
0.289246 -2.66524 6.9076 200 173 156 
0.346584 0.772975 8.79408 189 149 123 
0.342284 -0.225325 8.61438 138 139 134 
0.342315 -0.414318 8.57109 82 39 46 
0.343733 -0.373557 8.56336 90 36 49 
0.291226 3.87113 7.5439 127 131 116 
0.311833 3.8032 8.06979 12 15 20 
0.350671 0.323904 8.73168 173 155 143 
0.350168 0.200913 8.68072 163 163 151 
0.319789 1.08015 7.90793 162 147 128 
0.350762 -0.246061 8.57947 125 125 123 
0.35845 0.828303 8.82631 167 124 117 
0.356081 -0.414786 8.51693 151 124 129 
0.32835 1.11085 7.93429 26 17 12 
0.361095 -0.176109 8.61695 136 137 132 
0.304535 -2.65954 6.92064 76 41 35 
0.368091 0.794232 8.79946 67 24 15 
0.36692 -0.185413 8.58948 36 37 32 
0.371044 0.354272 8.72178 53 42 56 
0.369164 -0.237156 8.58848 69 69 67 
0.312104 -2.80423 6.89093 240 180 169 
0.341523 1.05801 7.89753 219 188 168 
0.375602 0.0976737 8.67053 133 136 141 
0.375326 0.123919 8.64969 36 43 69 
0.344045 0.991118 7.92488 170 149 120 
0.373463 0.175207 8.63629 41 46 76 
0.314305 -2.62474 6.86384 205 179 162 
0.377213 -0.245637 8.57874 28 27 23 
0.381175 0.440157 8.70716 87 46 64 
0.385028 0.491199 8.74917 115 64 71 
0.384266 -0.42705 8.55104 84 41 51 
0.385815 -0.237676 8.58381 138 138 136 
0.392706 0.432403 8.7687 89 50 79 
0.3264 -2.58231 6.88169 225 202 170 
0.39386 -0.229414 8.60289 22 22 20 
0.361225 1.11984 7.93647 35 17 13 
0.395131 -0.21937 8.59079 134 136 131 
0.399648 -0.173713 8.61289 47 48 43 
0.398328 -0.423221 8.56993 164 134 142 
0.373813 5.4 8.50885 41 58 26 
0.337345 -2.8901 6.90482 248 181 155 
0.402513 -0.387258 8.5728 145 127 127 
0.404259 -0.233164 8.58509 60 62 57 
0.369693 1.05712 7.87264 146 119 98 
0.342151 -2.85014 6.90862 178 16 29 
0.374012 3.96196 8.18823 25 25 37 
0.367663 1.15702 7.74351 173 135 116 
0.347622 -3.14555 6.97147 52 35 41 
0.414213 -0.253134 8.60131 143 145 142 
0.381804 0.99716 7.91219 239 215 181 
0.359013 -3.20253 7.04237 190 173 147 
0.384007 1.03209 7.87368 255 217 181 
0.423856 -0.36483 8.57458 90 61 66 
0.392904 0.996392 7.94407 244 213 193 
0.427354 -0.404336 8.55955 104 58 71 
0.394296 1.12455 7.91883 37 24 18 
0.429211 -0.430174 8.55062 73 59 58 
0.396803 1.00337 7.93069 247 209 190 
0.393634 1.02785 7.87217 131 47 21 
0.441203 0.658297 8.83442 195 163 150 
0.397731 1.01523 7.88526 122 43 28 
0.4021 1.00469 7.90154 110 51 35 
0.405543 1.06807 7.88035 201 98 83 
0.40673 1.00988 7.88576 223 145 125 
0.448437 -0.23562 8.59774 116 117 119 
0.414223 1.00655 7.90031 110 35 16 
0.412095 1.05097 7.84969 103 1 0 
0.456958 -0.227541 8.62234 48 50 49 
0.416059 1.11382 7.91466 131 108 100 
0.419598 1.05941 7.84563 180 115 87 
0.387705 -2.0888 6.98542 164 145 112 
0.468345 0.0665375 8.69433 28 38 63 
0.424709 1.04265 7.86271 191 123 102 
0.390627 -2.35679 6.94961 189 166 122 
0.468175 -0.233702 8.6288 57 59 56 
0.391929 -2.56532 6.92822 126 69 86 
0.478335 0.661511 8.82855 95 72 78 
0.390325 -2.843 6.86878 232 211 168 
0.431261 1.03932 7.8884 56 10 0 
0.395162 -2.85332 6.90737 228 205 171 
0.433984 1.01489 7.89155 203 139 129 
0.400746 -2.13449 6.98667 140 128 86 
0.400531 -2.33293 6.92717 246 229 185 
0.438249 1.06633 7.86622 189 185 114 
0.440899 1.1346 7.92155 20 14 18 
0.440928 1.04747 7.86413 201 198 127 
0.412521 -3.32881 7.02359 189 173 157 
0.404975 -2.29706 6.90351 60 40 29 
0.408149 -2.33434 6.95219 53 36 6 
0.449332 1.00804 7.91909 56 27 0 
0.44818 1.02326 7.88536 220 207 139 
0.412188 -2.09094 6.97452 29 12 0 
0.449176 1.05969 7.87427 32 41 0 
0.415522 -2.12063 6.94276 28 18 0 
0.422191 -1.78031 7.0523 63 26 0 
0.459544 1.06084 7.86283 41 44 0 
0.459906 1.04466 7.86081 92 87 6 
0.421467 -2.4196 6.92778 199 172 127 
0.506756 -0.385893 8.59639 135 97 108 
0.462236 1.07407 7.85718 142 147 53 
0.422033 -2.32257 6.92794 53 40 8 
0.443619 -3.33411 7.27608 229 206 175 
0.426045 -2.11209 6.95833 22 7 0 
0.426239 -2.41326 6.90841 207 180 137 
0.466738 1.08663 7.84218 51 52 0 
0.429095 -2.12453 6.95987 252 243 202 
0.428648 -3.07631 6.87255 228 208 173 
0.472766 1.02975 7.87477 199 202 99 
0.430547 -2.15839 6.93083 172 151 122 
0.441422 -3.35377 7.03159 61 94 101 
0.519772 -0.362501 8.59563 79 44 51 
0.435732 -2.06348 7.00474 154 138 102 
0.434018 -2.09645 6.92862 32 12 1 
0.436591 -2.11563 6.97113 96 79 59 
0.434244 -2.3966 6.90639 248 219 153 
0.43577 -2.16895 6.9468 196 177 145 
0.479595 1.05403 7.85726 119 115 51 
0.441049 -2.04477 6.97816 169 145 109 
0.438248 -2.40854 6.89416 185 161 125 
0.482824 1.06348 7.85353 189 184 154 
0.438324 -2.41885 6.8543 77 58 51 
0.440227 -2.3957 6.88107 92 63 3 
0.446204 -2.05793 6.98986 41 24 0 
0.444317 -2.16182 6.94332 23 7 0 
0.486986 1.09941 7.86077 15 0 0 
0.452 -1.7848 7.06423 214 180 134 
0.447899 -2.03751 6.98623 46 16 5 
0.448505 -2.1446 6.93819 38 22 0 
0.451756 -2.13734 6.96415 33 12 0 
0.495337 1.02354 7.86824 235 228 158 
0.494589 1.07094 7.84969 30 12 0 
0.454772 -1.74481 7.01826 52 13 0 
0.495275 1.04599 7.85425 244 228 179 
0.456265 -2.0621 6.98822 18 0 0 
0.45483 -2.40592 6.90124 73 44 0 
0.457386 -2.3559 6.90417 56 41 0 
0.452643 -2.55497 6.81422 234 215 175 
0.459687 -2.41848 6.88261 81 70 38 
0.464406 -2.09969 6.96983 34 15 0 
0.510604 1.12537 7.88217 92 63 57 
0.465264 -2.07352 6.93955 199 185 138 
0.463339 -2.36416 6.88119 192 167 113 
0.509146 1.071 7.81904 225 123 119 
0.468897 -2.12818 6.97553 54 39 10 
0.473355 -1.71604 7.06167 134 92 78 
0.564109 -0.363427 8.60567 89 53 57 
0.468057 -2.41728 6.89274 191 177 132 
0.477979 -1.73534 7.07433 74 32 18 
0.468647 -2.3515 6.90331 63 53 0 
0.478718 -3.39109 7.00366 229 221 200 
0.469034 -2.42379 6.8763 93 82 37 
0.476632 -2.0669 7.00871 37 11 0 
0.474456 -2.07371 6.94604 41 18 2 
0.484087 -1.72982 7.10785 66 24 8 
0.590819 0.872949 8.92788 53 19 33 
0.484735 -1.75202 7.07495 60 23 0 
0.480199 -2.04022 6.97216 45 19 18 
0.579642 -0.362102 8.62648 146 117 119 
0.478337 -2.40382 6.90516 55 38 0 
0.477476 -2.41386 6.88959 51 35 0 
0.641865 3.22164 9.76608 117 110 100 
0.478397 -2.35817 6.89033 73 53 2 
0.480433 -2.35314 6.90705 179 165 118 
0.584201 -0.378811 8.64391 146 113 120 
0.529143 1.07781 7.85028 157 48 27 
0.490596 -1.78305 7.08683 73 39 0 
0.490611 -1.72941 7.08485 163 121 99 
0.4801 -2.37601 6.88663 176 148 74 
0.482738 -2.34828 6.92348 54 41 0 
0.491893 -1.73676 7.07371 67 25 0 
0.533357 1.0562 7.85099 110 48 1 
0.597616 0.854894 8.82055 116 82 96 
0.602786 0.846487 8.8587 35 2 13 
0.537665 1.07105 7.85627 203 117 94 
0.489502 -2.14531 6.93544 36 28 0 
0.489965 -2.28159 6.94879 32 16 0 
0.48781 -2.31232 6.8989 210 188 141 
0.497752 -1.77696 7.05145 213 178 124 
0.499281 -1.73038 7.07186 160 118 93 
0.492534 -2.13283 6.94372 80 69 24 
0.545195 1.04773 7.8512 219 194 137 
0.497375 -2.16823 6.94388 202 188 143 
0.500349 -2.32282 6.91739 73 49 3 
0.50067 -2.15067 6.94167 59 44 5 
0.503226 -2.29577 6.99371 255 255 192 
0.566242 1.00472 8.06441 37 17 19 
0.610872 -0.380944 8.63858 99 59 67 
0.502204 -3.30949 6.88026 230 211 171 
0.556231 1.04026 7.84012 69 54 0 
0.510041 -2.12783 6.94912 56 30 7 
0.565593 1.02549 7.89684 188 179 110 
0.59573 5.40264 8.48879 58 43 36 
0.517772 -2.11425 6.91963 31 4 0 
0.635741 -0.399822 8.6646 76 47 51 
0.531448 -1.73662 7.08336 47 9 0 
0.532594 -1.77555 7.07354 126 97 55 
0.526937 -2.19245 6.94292 94 78 53 
0.651426 0.816968 8.83659 150 87 95 
0.643175 -0.385207 8.64418 129 120 113 
0.539447 -1.7863 7.07266 47 15 0 
0.583258 1.07138 7.83697 221 209 123 
0.529229 -2.23665 6.91162 198 177 114 
0.534099 -3.44133 6.92877 57 103 56 
0.588561 1.03496 7.87342 208 211 96 
0.53227 -2.22071 6.91688 191 173 127 
0.534356 -2.21245 6.92641 52 34 0 
0.592706 1.03971 7.85283 125 137 3 
0.548392 -1.74216 7.07671 176 143 112 
0.544059 -3.47381 6.92529 105 126 85 
0.540114 -2.27476 6.91441 149 135 98 
0.596614 1.04317 7.82565 202 223 86 
0.673605 0.684788 8.85081 157 100 106 
0.541806 -3.18588 6.87224 206 66 75 
0.544369 -2.26247 6.91292 209 192 104 
0.613292 1.02632 8.00016 158 129 29 
0.546784 -2.25611 6.94157 215 181 58 
0.682346 0.792561 8.89313 140 92 106 
0.672408 -0.136245 8.67585 92 90 78 
0.550505 -2.20631 6.94325 156 137 95 
0.625198 1.01441 8.06533 131 104 17 
0.552029 -2.27677 6.93241 62 46 0 
0.55483 -2.21641 6.93614 245 228 174 
0.566044 -1.71382 7.10223 110 70 70 
0.690283 0.857173 8.86194 137 86 95 
0.690164 0.014047 8.75698 106 68 83 
0.563034 -2.20522 6.95009 51 36 0 
0.557545 -2.99105 6.83425 156 43 73 
0.563414 -2.26558 6.93898 68 48 0 
0.619833 1.10822 7.82219 135 42 25 
0.5628 -2.24586 6.92135 160 135 68 
0.639353 1.00835 8.0627 217 200 130 
0.5661 -2.18109 6.9414 49 27 0 
0.704789 0.880394 8.89121 95 67 81 
0.575819 -1.75815 7.06674 46 12 0 
0.567761 -2.238 6.93243 64 43 0 
0.712583 0.242674 8.93488 36 26 37 
0.760033 3.19412 9.69598 6 8 20 
0.643791 1.01224 8.03987 70 51 0 
0.573074 -2.26441 6.92692 237 223 174 
0.714898 0.877578 8.88055 26 5 12 
0.575932 -2.18858 6.93005 91 68 1 
0.720989 0.806389 8.94346 81 66 73 
0.715667 0.872013 8.84154 40 20 29 
0.637208 1.0866 7.82479 248 218 180 
0.654587 1.00553 8.03617 140 129 99 
0.654259 1.01094 8.02005 53 41 0 
0.578427 -3.02022 6.83534 92 45 53 
0.645113 1.05864 7.83435 32 23 0 
0.645595 1.07167 7.81112 109 76 43 
0.661754 1.03069 7.97118 218 205 101 
0.594158 -3.26112 6.93169 238 214 178 
0.593108 -2.1291 6.92805 34 7 0 
0.59208 -2.2197 6.91133 44 23 0 
0.592972 -2.94031 6.84836 174 53 84 
0.597255 -3.22933 6.88969 245 212 181 
0.659217 1.11267 7.81407 211 162 157 
0.600795 -2.12028 6.94055 54 21 2 
0.660951 1.14167 7.82388 104 77 68 
0.659632 1.12305 7.79927 34 1 0 
0.66911 1.06212 7.83657 206 179 150 
0.600685 -2.61696 6.81654 236 210 185 
0.675251 1.18987 7.84484 188 107 80 
0.67561 1.05179 7.83893 45 35 0 
0.609653 -2.2605 6.9083 117 100 80 
0.613882 -2.12068 6.924 44 29 0 
0.76742 0.665249 8.87148 127 75 79 
0.619725 -2.17817 6.98083 138 119 89 
0.618765 -2.1362 6.94671 178 163 132 
0.609952 -2.98356 6.80113 129 43 92 
0.612619 -2.94263 6.8139 246 208 195 
0.610339 -2.67085 6.77664 242 220 197 
0.612713 -2.67962 6.80356 242 221 200 
0.686495 1.11081 7.80866 19 0 0 
0.631724 -2.03427 7.03001 55 19 7 
0.695113 1.06857 7.85637 39 23 7 
0.69386 1.11372 7.78723 233 205 181 
0.623775 -2.6319 6.82578 254 214 202 
0.642223 -2.06734 7.03221 52 34 10 
0.79128 0.818155 8.86802 132 68 84 
0.643902 -3.6443 6.9723 227 212 183 
0.647712 -2.05874 7.02709 165 148 128 
0.803507 0.565895 8.88813 56 51 55 
0.668928 -1.63794 7.26492 138 103 83 
0.728816 1.01721 8.02483 100 96 95 
0.712674 3.90874 7.96873 67 67 79 
0.652455 -2.04682 7.00752 29 12 0 
0.804256 0.0405832 8.77762 58 35 45 
0.650505 -2.26408 6.94379 161 142 109 
0.800993 0.443119 8.76887 150 72 88 
0.660379 -2.03233 7.02892 70 23 15 
0.741803 1.01547 8.07652 140 128 132 
0.654473 -2.15083 6.94954 32 17 0 
0.739199 1.01804 8.02841 112 97 76 
0.72438 1.17226 7.85377 186 162 128 
0.68638 -1.60319 7.31606 17 7 8 
0.667237 -1.96655 7.04371 199 149 150 
0.674794 -3.81579 7.06036 177 100 92 
0.649764 -2.67592 6.81248 128 81 91 
0.671749 -3.84822 6.99914 233 210 179 
0.66634 -3.60579 6.93532 230 222 199 
0.666051 -2.33682 6.94695 90 84 52 
0.82935 0.733091 8.87171 196 159 141 
0.677626 -2.05389 7.06337 64 22 8 
0.830401 0.536501 8.86762 72 72 72 
0.737311 1.17672 7.83136 48 33 14 
0.670579 -2.28864 6.95832 29 11 0 
0.677034 -3.71936 6.99134 91 74 46 
0.666526 -2.17263 6.91836 33 5 0 
0.664756 -2.16771 6.89807 26 0 0 
0.834792 0.67142 8.87809 132 99 68 
0.674245 -2.0936 6.99291 101 86 65 
0.764694 1.02141 8.09842 223 193 63 
0.676042 -2.26288 6.98042 39 6 1 
0.707895 -1.66688 7.32026 183 137 113 
0.682919 -3.66057 6.96587 57 98 58 
0.682964 -2.29612 6.97574 169 148 121 
0.683865 -2.09168 6.9991 21 8 0 
0.689344 -3.7813 7.00849 206 28 40 
0.686207 -2.15089 7.02645 40 24 1 
0.757236 1.18648 7.87566 161 135 102 
0.695767 -2.02502 7.09754 79 17 20 
0.68232 -2.31984 6.93182 43 33 0 
0.693624 -2.08009 7.04632 158 137 110 
0.757874 4.03314 7.97125 28 29 33 
0.692265 -2.08515 7.02542 44 22 1 
0.838112 -0.522553 8.65022 116 115 110 
0.685857 -2.34173 6.9314 43 30 0 
0.761779 1.08335 7.85393 67 47 22 
0.706402 -3.84386 7.03256 234 203 172 
0.778821 1.16008 7.9455 165 135 49 
0.694454 -2.26995 6.93303 56 32 0 
0.693197 -2.31109 6.91189 213 196 140 
0.698219 -2.0761 6.96597 37 13 0 
0.694867 -2.37603 6.918 138 129 98 
0.697637 -2.33765 6.9269 36 23 0 
0.710855 -2.07953 7.08097 168 143 113 
0.7361 -1.68622 7.34416 42 19 5 
0.799769 1.00464 8.11947 126 98 15 
0.73722 -1.66189 7.34485 217 173 112 
0.700902 -2.32268 6.93471 209 193 141 
0.70475 -2.30692 6.97623 255 255 177 
0.788647 1.10033 7.92808 212 174 13 
0.709252 -2.31695 6.95793 175 164 102 
0.808814 1.01939 8.09723 238 185 81 
0.717587 -2.12919 7.03645 183 172 144 
0.715207 -2.27868 6.98927 47 17 0 
0.851183 0.257084 8.49492 135 123 107 
0.902295 0.707499 8.98079 164 147 121 
0.719334 -2.29828 6.97993 80 61 18 
0.728437 -3.61073 7.02058 232 209 177 
0.722846 -2.12614 6.99772 32 12 0 
0.804351 1.1839 7.8974 84 66 46 
0.823886 4.03657 8.1373 69 65 64 
0.738367 -3.63564 6.99413 226 217 184 
0.839211 1.00932 8.14133 93 33 22 
0.72751 -2.42173 6.86545 70 56 43 
0.729809 -2.59733 6.85962 246 220 185 
0.834274 1.05624 8.00674 224 199 145 
0.812575 1.19065 7.81409 203 168 100 
0.733384 -2.54972 6.86616 241 189 178 
0.745967 -2.31721 6.97876 44 35 4 
0.751818 -2.30737 6.9791 179 163 127 
0.753442 -3.63185 6.94741 51 34 26 
0.742405 -2.5559 6.86838 173 139 114 
0.826979 1.20709 7.80598 206 166 81 
0.747811 -2.50202 6.88562 64 40 30 
0.746983 -2.54242 6.87019 245 208 182 
0.764954 -2.33099 7.01919 143 124 84 
0.749193 -2.59562 6.86456 244 219 188 
0.933669 -0.510304 8.68605 27 23 12 
0.755048 -2.97517 6.84665 156 132 96 
0.773325 -2.33563 7.00007 90 76 41 
0.841196 1.20724 7.7601 211 178 111 
0.873189 1.03046 8.04244 183 68 61 
0.766303 -2.55294 6.90512 236 216 183 
0.929477 0.241771 8.52809 38 24 11 
0.767661 -2.56226 6.90258 164 143 116 
0.867715 1.1648 7.9439 220 183 7 
0.770662 -2.52564 6.90001 235 209 182 
0.798477 -2.3136 7.12204 49 11 0 
0.900368 1.01548 8.16231 91 28 21 
0.820605 -1.71907 7.30036 98 74 46 
0.951411 0.234176 8.56849 42 26 10 
0.911639 1.02409 8.20335 89 30 24 
0.78665 -2.55342 6.92808 236 210 183 
0.895774 1.03733 8.03609 87 71 0 
0.82508 -1.73441 7.27842 64 39 8 
0.90477 1.02214 8.10515 226 174 153 
0.88113 1.20012 7.87142 209 178 123 
0.791798 -2.56361 6.92527 159 133 108 
0.822199 -2.05359 7.17367 200 163 145 
0.833841 -1.64886 7.23466 130 106 58 
0.807054 -2.59559 6.95285 234 211 177 
0.928229 1.01683 8.16815 62 45 35 
0.799991 -2.56428 6.89567 243 214 184 
0.851523 -2.00507 7.3243 25 5 7 
1.02862 5.87471 9.18775 124 94 68 
1.01538 0.555514 8.86757 184 159 128 
0.817417 -2.50922 6.95936 66 48 26 
0.81968 -2.51387 6.9752 66 48 26 
0.854391 -1.6285 7.27119 152 130 72 
0.847688 -2.31916 7.16769 67 32 0 
0.855529 -1.76964 7.21224 34 23 17 
0.921929 1.20061 7.86833 103 86 68 
0.862254 -1.8306 7.22828 48 30 20 
0.846885 -2.50871 7.02128 76 60 47 
0.876228 -1.71836 7.25303 200 157 26 
0.849573 -2.98619 6.98413 223 201 162 
0.842798 -2.90051 6.90334 69 45 67 
0.848921 -2.91827 6.95344 70 46 70 
0.860642 -2.6753 7.02265 235 204 176 
0.85891 -3.04012 7.01475 52 37 40 
0.853346 -2.72582 6.92013 147 123 99 
0.888357 -1.76449 7.2439 201 174 57 
0.88553 -1.86259 7.17265 199 163 15 
1.00169 1.00987 8.21512 171 144 133 
1.00132 1.00754 8.20365 165 137 126 
0.875487 -2.80991 6.95636 205 202 193 
0.884944 -2.63969 7.00064 147 50 93 
0.892262 -2.8168 6.98885 98 97 105 
0.892332 -2.75353 6.98831 112 65 73 
0.898122 -2.57212 7.04152 83 50 31 
0.903963 -2.53651 7.06048 225 201 175 
1.20193 3.21092 9.66332 3 7 16 
0.910382 -2.69467 7.0479 121 64 73 
0.910911 -2.67895 7.04359 230 179 175 
0.952581 -2.12643 7.3917 142 116 55 
1.05165 1.02522 8.21715 67 26 20 
0.933774 -2.70523 7.11926 98 69 51 
1.00245 1.2063 7.71703 128 105 53 
1.25304 3.17939 9.62603 11 10 18 
0.959741 -1.97557 7.12424 93 76 0 
1.0578 1.08526 7.88714 173 133 0 
1.08632 1.06543 8.05284 61 47 20 
1.12428 1.04007 8.20825 66 39 18 
1.08259 1.16439 7.86198 174 122 0 
1.10176 1.07797 7.96146 223 192 13 
1.03188 -2.28998 7.31378 174 157 113 
1.14885 1.02031 8.21335 70 46 22 
1.00503 -1.97017 7.05618 102 81 14 
1.00954 -1.5565 7.08135 159 145 82 
1.0221 -1.95654 7.02535 117 94 14 
1.07534 -2.23031 7.3814 179 147 12 
1.0331 -1.91698 7.04786 117 98 6 
1.15333 1.08193 7.9224 120 74 0 
1.0316 -1.59489 7.01029 77 63 16 
1.16813 1.06713 8.03504 206 196 160 
1.03954 -1.92559 7.03436 118 107 41 
1.0416 -1.93566 7.00397 124 107 25 
1.0382 -1.62865 6.97433 202 177 50 
1.04791 -1.91401 6.98948 164 143 62 
1.53473 6.76927 10.5388 140 136 125 
1.05745 -1.91441 7.01187 110 83 0 
1.05784 -1.95764 6.97727 139 102 0 
1.09923 -2.18151 7.21192 241 212 59 
1.06688 -1.59789 7.00568 86 69 15 
1.06158 -1.89356 6.9577 200 171 51 
1.0714 -1.61387 7.00465 155 140 75 
1.21551 1.06411 8.03451 59 63 38 
1.07824 -1.94234 7.04023 203 171 26 
1.10502 -2.1427 7.20939 160 118 6 
1.20424 1.16091 7.94945 234 194 11 
1.58291 6.92685 10.6022 153 145 132 
1.0763 -1.83393 6.99066 127 105 0 
1.08077 -1.59509 7.0005 156 137 42 
1.11372 -2.188 7.18635 131 90 11 
1.10137 -2.00493 7.07799 243 208 44 
1.25982 0.97925 8.191 116 100 77 
1.08523 -1.64244 6.96429 168 145 67 
1.25078 1.05424 8.11907 221 198 84 
1.12211 -2.1551 7.17858 232 202 18 
1.25982 1.06616 8.15964 214 188 29 
1.09197 -1.84285 6.97203 210 183 80 
1.09014 -1.75222 6.93747 154 135 33 
1.09535 -1.82518 6.96499 153 129 29 
1.26232 1.06979 8.11934 220 187 22 
1.2638 1.08215 8.05656 208 188 29 
1.10334 -1.75377 6.94735 149 126 24 
1.10429 -1.73851 6.95527 197 173 77 
1.10416 -1.70819 6.94646 108 91 11 
1.52083 2.83451 9.71417 166 156 144 
1.26345 1.09178 7.99441 126 104 3 
1.13643 -1.97031 7.04696 152 108 0 
1.12583 -1.84478 6.96632 177 153 21 
1.29475 1.03477 8.07572 86 55 53 
1.30627 0.99777 8.11223 197 173 147 
1.14583 -1.95523 7.03143 245 213 34 
1.31472 1.00709 8.15858 198 174 148 
1.15165 -1.56468 7.06104 220 191 55 
1.15726 -1.94011 7.02544 116 70 0 
1.15834 -1.92864 7.01146 255 222 82 
1.29274 1.2504 7.902 116 89 68 
1.35904 0.942934 8.19057 161 135 118 
1.31365 1.24491 7.89012 59 35 9 
1.31628 1.24793 7.90275 57 32 2 
1.1803 -1.77223 7.00507 158 123 21 
1.18958 -1.63559 7.03898 213 184 44 
1.20915 -2.1833 7.12917 188 157 14 
1.21233 -2.22236 7.12712 158 128 16 
1.22772 -2.2167 7.13226 211 179 66 
1.2366 -2.21348 7.12435 156 125 17 
1.38654 1.01084 8.06813 253 232 205 
1.23073 -2.18413 7.08293 216 187 57 
1.23809 -1.55721 7.09202 194 166 43 
1.24308 -2.20643 7.10109 155 125 13 
1.25733 -0.722813 7.19615 215 167 65 
1.24604 -2.21748 7.08096 137 109 0 
1.38751 1.25351 7.90447 115 62 22 
1.25912 -2.18305 7.07864 225 194 67 
1.42748 1.01846 8.09205 202 177 157 
1.44366 0.991058 8.17399 133 111 97 
1.26733 -2.21199 7.07543 144 117 2 
1.42423 1.26741 7.91048 180 104 70 
1.28717 -1.65025 7.07548 230 200 8 
1.28782 -2.194 7.05251 229 199 49 
1.43465 1.25847 7.90556 77 21 0 
1.67748 2.54023 9.24575 161 151 141 
1.30044 -0.476054 7.07258 241 191 78 
1.47737 1.23249 8.08291 142 92 85 
1.30293 -0.423751 7.07977 223 189 117 
1.47128 -3.59585 7.94926 56 47 40 
1.50457 1.22677 8.17634 120 91 77 
1.5007 1.23495 8.15377 69 29 21 
1.30285 -0.938562 7.01344 143 101 0 
1.32141 -0.514521 7.06529 132 107 67 
1.32267 -0.595294 7.06421 237 201 104 
1.32525 -0.663297 7.05715 251 205 107 
1.54047 1.22154 8.23918 140 86 74 
