ply                 
format ascii 1.0    
element vertex 1287
property float x    
property float y    
property float z    
property uchar red  
property uchar green
property uchar blue 
end_header          
-0.567094 3.85262 7.76082 116 115 59 
-0.566951 3.38967 8.72974 121 114 147 
-0.566913 3.75077 8.23535 141 100 12 
-0.554204 3.36832 8.92083 114 118 143 
-0.55401 3.78566 7.69796 168 177 130 
-0.552066 3.92396 7.53936 104 14 40 
-0.550864 3.81651 7.98828 218 194 130 
-0.548963 3.82159 7.71661 208 197 89 
-0.546248 3.64451 8.52059 180 177 170 
-0.545644 3.50419 8.67826 111 98 118 
-0.544492 3.7396 8.00859 66 60 46 
-0.5437 3.9132 7.46929 251 163 177 
-0.544375 3.87734 7.9264 31 83 60 
-0.538964 3.72827 8.18005 209 175 68 
-0.538326 3.64339 8.54004 168 163 157 
-0.538837 3.73903 7.63674 46 96 59 
-0.534213 3.56991 8.67051 28 26 48 
-0.534043 3.78396 7.95748 54 28 3 
-0.531642 3.57653 8.52427 25 27 26 
-0.526247 3.50657 8.73131 40 28 52 
-0.522968 3.61107 8.61302 17 19 32 
-0.522955 3.85657 7.69474 217 179 8 
-0.518971 3.7513 7.97415 225 204 17 
-0.519897 3.87856 7.53848 170 41 80 
-0.511342 3.46346 8.79978 121 100 139 
-0.506278 3.31138 8.98108 25 28 37 
-0.515378 3.78017 7.16737 194 177 185 
-0.506754 3.67483 8.38172 171 159 161 
-0.50969 3.76739 7.94454 155 74 11 
-0.505295 3.75833 7.90431 97 41 0 
-0.494085 3.39233 8.67484 135 126 157 
-0.488316 3.37186 9.1315 137 138 143 
-0.502812 5.25988 6.86871 5 12 22 
-0.492627 3.72125 8.34159 139 135 136 
-0.490915 3.47296 8.68059 99 94 116 
-0.494717 3.81227 7.19309 182 167 170 
-0.47999 0.90748 8.65641 33 30 37 
-0.482667 3.82461 8.04421 104 45 0 
-0.480375 3.62576 8.37587 26 34 36 
-0.478942 3.68855 8.56962 10 17 25 
-0.469113 3.35935 8.94729 108 113 133 
-0.475234 3.69123 8.24204 166 162 161 
-0.471545 3.65527 8.51109 164 165 169 
-0.472029 0.886311 8.00967 42 40 41 
-0.466494 3.52816 8.6092 140 143 162 
-0.46223 3.25399 8.81153 42 32 43 
-0.453067 3.26105 8.88976 113 96 80 
-0.459088 3.69101 8.20667 139 140 142 
-0.453824 3.57945 8.62286 17 21 24 
-0.470685 5.25151 6.83963 127 126 131 
-0.459639 3.9309 7.54969 124 21 50 
-0.448514 3.46956 8.56733 143 144 175 
-0.446849 3.67362 8.42676 146 148 147 
-0.446465 0.459288 8.43411 216 191 151 
-0.434371 3.68004 8.22441 25 28 33 
-0.429717 3.3597 8.71807 114 111 132 
-0.418465 3.5517 8.64424 29 28 44 
-0.416073 3.51879 8.56507 175 176 180 
-0.406633 3.59565 8.59962 151 149 152 
-0.403539 3.51535 8.63346 135 139 166 
-0.397635 3.32579 9.02825 120 96 70 
-0.403779 3.52763 8.57206 52 56 59 
-0.405643 3.65017 8.1331 163 153 141 
-0.395393 3.60602 8.44983 169 174 170 
-0.40721 3.91829 7.58406 200 76 104 
-0.408765 5.3511 6.90328 177 182 178 
-0.37859 3.24112 8.88275 18 19 24 
-0.40071 3.96488 7.52003 123 21 43 
-0.38401 3.59225 8.43046 129 133 132 
-0.387071 3.7989 8.09384 66 62 50 
-0.394572 3.92354 7.54629 137 18 46 
-0.374417 3.48553 8.5635 14 28 29 
-0.380774 3.60018 8.24629 22 26 35 
-0.362251 3.58852 8.4608 18 19 23 
-0.356119 3.43735 8.60272 212 173 78 
-0.344043 3.41553 8.61838 150 113 32 
-0.339529 3.49933 8.63802 155 121 34 
-0.339847 3.49041 8.5874 210 176 78 
-0.366239 0.960698 7.78239 193 164 108 
-0.321196 3.31875 9.01475 14 12 25 
-0.330106 3.4877 8.60275 212 179 102 
-0.355127 0.838952 8.02935 24 11 21 
-0.322944 3.46935 8.62059 140 111 45 
-0.350164 0.75972 8.01609 210 169 147 
-0.312076 3.5063 8.58463 163 125 42 
-0.348269 1.02492 7.70901 215 181 133 
-0.344085 1.01888 7.75521 192 158 112 
-0.328199 0.525016 8.42716 80 68 56 
-0.289119 3.27441 9.04797 40 49 66 
-0.338975 5.25925 6.9138 27 16 24 
-0.328606 4.86938 7.27384 217 199 177 
-0.331707 0.715433 7.96249 122 73 56 
-0.343668 0.783772 7.43366 54 35 37 
-0.29713 3.77941 8.27306 74 72 60 
-0.286559 3.43571 8.51074 206 166 78 
-0.29217 3.78005 8.15901 85 79 67 
-0.319265 0.817796 7.8085 215 195 184 
-0.304804 5.34139 6.95081 110 46 63 
-0.277237 3.59039 8.14883 17 6 2 
-0.300105 1.07498 7.88658 180 126 102 
-0.300211 0.976229 7.91656 67 36 42 
-0.289061 0.560561 8.30779 222 187 147 
-0.292122 5.35585 7.03263 46 10 20 
-0.265023 3.66818 8.20674 46 22 0 
-0.257768 3.86138 8.31343 184 182 167 
-0.293666 1.01 7.76212 92 42 33 
-0.284646 1.06613 7.82058 92 72 65 
-0.246279 3.7965 8.29882 93 71 57 
-0.266193 4.88198 7.43716 218 197 176 
-0.264009 0.695681 8.36918 188 127 106 
-0.279344 0.907913 7.84623 50 36 62 
-0.216564 3.61437 8.91591 56 41 34 
-0.274982 0.980846 7.80056 171 132 133 
-0.236439 3.6812 8.21046 134 110 76 
-0.267463 1.07645 7.65993 148 124 120 
-0.222559 3.69033 8.25445 187 147 95 
-0.231536 3.87879 7.9369 226 212 185 
-0.214377 3.80108 8.44098 195 142 76 
-0.21039 3.77623 8.51771 72 41 21 
-0.219912 0.198192 8.59377 176 169 153 
-0.254169 1.11522 7.48822 182 85 50 
-0.240965 0.858591 7.83535 30 34 69 
-0.207722 3.82593 7.92728 228 192 156 
-0.243151 1.08933 7.63165 220 194 181 
-0.213158 3.74842 7.61855 100 86 23 
-0.165935 3.6747 8.73575 109 102 92 
-0.195039 3.8298 7.88709 184 47 37 
-0.169456 3.91144 8.31291 129 128 108 
-0.218252 0.877973 7.82907 196 190 190 
-0.181075 3.80667 7.9751 226 208 196 
-0.219116 1.03298 7.76923 21 29 78 
-0.194068 0.668618 8.37824 215 166 134 
-0.142051 3.6583 8.75145 46 40 28 
-0.179273 3.86905 7.79733 250 134 135 
-0.18664 0.621182 8.34585 134 88 64 
-0.175028 3.91666 7.73718 186 144 0 
-0.136743 3.493 8.66342 121 101 90 
-0.128001 3.81854 8.61203 124 92 79 
-0.155292 3.90507 7.96638 240 167 160 
-0.115091 3.81852 8.8396 74 42 27 
-0.167452 3.95204 7.58498 129 13 34 
-0.118145 3.79444 8.7069 117 84 69 
-0.165913 3.98836 7.57882 136 27 50 
-0.110649 3.7558 8.74954 126 93 76 
-0.156341 3.89551 7.66557 198 145 41 
-0.156793 3.80914 7.69642 193 63 49 
-0.194573 1.14292 7.49127 209 175 103 
-0.148543 3.88076 7.72719 214 167 17 
-0.186571 1.12858 7.57036 219 180 115 
-0.136815 3.8394 7.91745 184 62 59 
-0.148413 0.372282 8.50964 192 181 159 
-0.10215 3.78844 8.60116 90 52 29 
-0.0888112 3.69255 8.66162 97 53 24 
-0.141144 -0.162363 8.51941 139 141 140 
-0.126275 3.83456 7.72681 185 69 30 
-0.159759 1.17291 7.70253 223 184 127 
-0.122591 3.90239 7.7131 153 45 35 
-0.14537 0.883937 7.87357 77 68 61 
-0.0708229 3.7293 8.61342 154 108 85 
-0.144055 0.873618 7.86734 78 68 59 
-0.0650332 3.72182 8.66618 95 51 24 
-0.0633642 3.16454 8.79047 5 8 23 
-0.124835 -0.0228841 8.39759 135 138 143 
-0.121269 0.612659 8.30137 148 101 85 
-0.151093 0.925809 7.62145 21 30 85 
-0.119706 -0.323431 8.4812 137 138 140 
-0.112425 0.427335 8.36366 132 114 112 
-0.142898 1.16388 7.58711 215 173 113 
-0.114618 -0.291546 8.45852 48 49 53 
-0.0597961 3.71268 8.47434 64 57 31 
-0.108569 0.440659 8.31509 189 163 146 
-0.0902466 3.95147 7.74433 214 129 122 
-0.0930804 3.90355 7.72345 150 81 24 
-0.0961885 3.99344 7.58877 102 43 45 
-0.105331 -0.407452 8.50967 95 41 57 
-0.109936 -0.343866 8.41743 68 70 67 
-0.105954 -0.241132 8.45128 62 63 65 
-0.109766 -0.310091 8.40012 127 128 130 
-0.0994912 -0.0899345 8.34687 136 138 137 
-0.127924 1.1514 7.45037 135 96 67 
-0.0897113 0.273148 8.31485 118 103 126 
-0.0733037 3.8978 7.68049 214 131 125 
-0.0554238 3.81322 7.93708 85 112 133 
-0.0589853 3.8202 7.85158 173 107 109 
-0.0733006 0.261295 8.38882 77 24 50 
-0.0716296 -0.430798 8.5164 93 77 80 
-0.0727303 -0.24834 8.45101 131 132 136 
-0.0697012 -0.402648 8.50576 88 65 71 
-0.0468821 3.83016 7.77935 187 57 69 
-0.0697883 -0.292526 8.42724 71 72 76 
-0.0625631 -0.234357 8.4668 90 91 96 
-0.0461189 3.89078 7.69154 217 137 110 
-0.0829371 1.02286 7.77565 32 45 98 
-0.0812129 0.879222 7.83174 143 134 125 
-0.0861601 0.900742 7.75138 109 100 85 
-0.0325544 3.77022 7.87002 64 107 126 
-0.0868909 1.18258 7.54261 171 131 70 
-0.0502098 -0.515394 8.54458 101 72 77 
0.00406414 4.98392 8.0645 67 49 45 
-0.0480938 -0.419545 8.54041 140 134 136 
-0.0812956 1.06201 7.6652 190 88 63 
-0.0515933 -0.530547 8.52597 146 127 131 
-0.0503542 0.229007 8.35268 142 53 81 
-0.0842412 1.19514 7.5151 230 196 125 
-0.0263521 3.91914 7.72366 207 126 122 
-0.0430415 -0.28989 8.45746 51 52 54 
-0.0435004 -0.413297 8.44033 80 53 60 
-0.038077 -0.133316 8.4518 133 137 136 
-0.00200532 3.83756 7.89384 150 145 168 
-0.0291413 -0.435482 8.54538 78 42 52 
-0.0132092 4.03346 7.6548 138 134 105 
-0.0294918 -0.290976 8.46761 108 109 111 
-0.056164 4.80468 6.72479 31 40 47 
-0.0457657 0.891747 7.85955 186 172 169 
-0.0244875 -0.340595 8.48058 83 85 84 
0.0521656 3.602 8.55323 40 44 30 
0.0504972 3.6607 8.53204 30 33 14 
-0.0228382 -0.531459 8.45546 154 121 128 
-0.0157309 -0.375662 8.49428 134 136 133 
-0.0418855 1.05076 7.70905 19 15 66 
0.0589427 3.61199 8.59094 41 44 35 
-0.040018 0.948407 7.75668 50 55 85 
-0.043751 1.12527 7.57363 120 47 56 
-0.00655574 -0.407917 8.47404 84 47 55 
-0.0564644 1.15441 7.3441 152 129 87 
-0.0422961 1.17584 7.5193 163 80 48 
-0.0222871 0.910749 7.83142 180 163 156 
-0.0307205 0.912565 7.7173 211 202 187 
-0.0336883 1.0609 7.61812 80 40 48 
-0.032334 0.963584 7.66753 23 43 114 
0.00304478 -0.439663 8.52127 76 51 55 
0.0483367 3.85694 8.09225 44 47 30 
0.0290492 3.86701 7.74837 234 208 10 
0.05064 3.86154 8.05644 61 45 0 
0.0909283 3.63891 8.70395 48 51 40 
0.0641785 3.92894 8.21004 93 105 85 
0.00912468 -0.422626 8.49226 141 133 131 
0.0879774 3.69976 8.6028 30 32 27 
0.0346175 3.85022 7.78442 88 61 16 
0.0319461 3.94149 7.70091 193 164 98 
0.095097 3.65161 8.67446 56 55 51 
0.0149054 -0.317868 8.45757 131 133 132 
0.0135575 0.662353 8.151 177 103 116 
-0.0114043 1.05693 7.69031 216 136 147 
-0.0232178 1.13335 7.49314 255 224 156 
0.104692 3.64538 8.65386 123 117 117 
-0.0153067 1.06912 7.59279 115 67 67 
0.0701569 3.88472 8.06929 90 92 81 
0.01945 -0.368815 8.42737 137 137 139 
0.0262614 4.89567 7.15731 154 111 69 
-0.000915631 0.905548 7.77613 211 198 182 
0.114739 3.62079 8.67678 120 122 111 
0.0391439 0.68953 8.30763 147 117 125 
0.02715 0.660697 8.14487 39 9 17 
0.0402473 -0.424313 8.5741 98 39 57 
0.0328621 -0.345924 8.43565 84 86 85 
0.127748 3.63775 8.64688 124 120 119 
0.132667 3.38186 8.73462 81 82 84 
0.00432983 1.09638 7.56338 196 179 161 
0.129466 3.64089 8.62869 36 32 31 
0.00370319 1.17591 7.54688 175 108 82 
-0.00586595 1.13583 7.36689 225 196 178 
0.0146271 1.05827 7.66423 236 125 141 
0.139342 3.63465 8.63531 26 22 19 
0.055133 -0.369965 8.50513 135 135 133 
0.055275 -0.419799 8.50614 144 132 134 
0.118937 3.8 8.20663 28 29 15 
0.036963 0.916041 7.84555 193 195 208 
0.00332339 1.17065 7.33254 98 67 62 
0.0601722 0.325107 8.29387 125 76 95 
0.0270687 1.06343 7.59579 126 84 62 
0.0728582 0.282788 8.3689 159 82 100 
0.075833 -0.313967 8.47841 133 135 132 
0.140938 3.74129 8.21318 88 89 73 
0.0495214 0.889754 7.79284 132 141 184 
0.0925814 -0.274281 8.58004 35 36 38 
0.086293 -0.375395 8.49362 134 136 133 
0.0621281 0.881805 7.83886 32 38 88 
0.154508 3.76125 8.25996 31 29 16 
0.0970592 -0.0472317 8.49044 30 29 37 
0.161253 3.88703 8.27867 64 53 57 
0.162391 3.79179 8.27832 28 21 13 
0.103659 0.316852 8.38993 61 31 41 
0.0953885 -0.260807 8.43503 132 134 133 
0.150651 4.07172 7.96968 66 77 60 
0.175856 3.78264 8.32888 22 18 15 
0.108529 -0.509058 8.56485 89 51 62 
0.15028 3.69257 8.00593 36 24 28 
0.11031 -0.302056 8.52221 133 135 132 
0.0728777 1.07197 7.57302 187 132 137 
0.0636775 1.14375 7.46898 103 76 55 
0.123906 0.729142 8.28538 211 110 124 
0.191952 3.69378 8.33334 85 94 77 
0.127449 -0.496882 8.61086 148 115 124 
0.200692 3.82095 8.38057 75 65 63 
0.197091 3.74162 8.30483 28 30 17 
0.0761178 1.14043 7.50128 85 64 37 
0.18581 4.89012 7.7811 188 172 156 
0.160395 3.9576 7.71006 89 101 87 
0.209933 3.76861 8.32719 90 85 79 
0.17453 4.03025 7.8212 80 92 78 
0.0838826 1.14964 7.4951 169 127 113 
0.13739 -0.331361 8.49409 90 90 90 
0.0927314 1.12719 7.55943 107 85 74 
0.21576 3.88717 8.2685 67 56 60 
0.220111 3.73771 8.26814 28 17 15 
0.0963912 1.06969 7.54333 72 53 47 
0.149548 -0.220222 8.46546 42 44 43 
0.162686 3.90115 7.54367 86 88 83 
0.152743 -0.373638 8.4792 135 136 131 
0.134023 1.06146 7.79851 205 102 105 
0.171641 -0.275444 8.56748 29 31 30 
0.16675 -0.455216 8.52861 133 134 128 
0.12011 1.16515 7.56251 87 43 40 
0.161338 -0.50044 8.4402 97 40 57 
0.122184 1.10702 7.59738 79 61 51 
0.244888 3.69057 8.25811 8 8 8 
0.177564 -0.323781 8.52171 91 93 90 
0.134505 1.10935 7.67793 103 84 77 
0.24259 3.81799 8.1127 125 129 128 
0.251946 3.7703 8.20499 76 65 59 
0.187272 -0.531712 8.55529 144 135 136 
0.257684 3.7203 8.22114 10 8 11 
0.131093 1.20671 7.46865 217 177 118 
0.190664 -0.218268 8.46578 120 122 121 
0.171464 1.00225 7.95132 97 64 73 
0.2514 3.74496 8.10053 90 76 67 
0.154442 1.07238 7.7344 201 156 99 
0.139148 1.11316 7.52673 230 187 180 
0.197057 -0.411998 8.51846 150 128 131 
0.208665 0.709467 8.36345 118 64 64 
0.197909 -0.272287 8.49093 56 58 53 
0.152278 1.11189 7.61653 107 30 38 
0.220518 0.694039 8.385 182 146 124 
0.215724 -0.389396 8.55692 73 46 53 
0.181785 1.05037 7.83269 194 102 113 
0.161259 1.11023 7.60456 199 111 110 
0.215353 -0.427534 8.51019 81 50 58 
0.282136 3.795 8.10257 18 17 13 
0.274279 3.8085 7.94168 134 141 125 
0.244944 0.688577 8.44864 80 50 26 
0.229776 -0.445482 8.56956 136 132 129 
0.302558 4.86207 7.90148 43 60 28 
0.285449 3.72111 8.01575 127 126 124 
0.234921 -0.516429 8.58293 79 61 61 
0.231987 -0.409839 8.5241 146 127 131 
0.302537 3.84239 8.1175 108 111 102 
0.208163 1.04949 7.85679 136 66 76 
0.235948 -0.0960555 8.34743 138 140 137 
0.209453 1.02615 7.78934 79 22 31 
0.251277 -0.267946 8.50596 33 36 41 
0.220951 0.969946 7.88098 31 30 35 
0.251848 0.296962 8.35178 109 103 131 
0.254514 -0.0245545 8.43849 36 38 53 
0.260821 -0.421556 8.58732 105 42 59 
0.272812 0.718133 8.40383 115 78 69 
0.272694 0.69575 8.39491 188 155 138 
0.220787 1.08535 7.75772 157 111 59 
0.218108 1.03131 7.74142 63 26 33 
0.26655 -0.383728 8.52814 89 67 70 
0.281219 0.680028 8.41256 89 52 43 
0.269967 -0.4381 8.54252 146 119 124 
0.275806 0.236603 8.41261 44 18 29 
0.293834 3.90946 7.60095 138 144 130 
0.00408424 -2.26549 6.37368 85 76 61 
0.243213 4.80343 6.85017 234 218 205 
0.270917 0.263364 8.32526 75 42 61 
0.27479 -0.0449045 8.41584 62 75 84 
0.289963 0.0364544 8.50695 44 33 47 
0.287678 0.313229 8.405 77 73 87 
0.299522 0.720135 8.41032 128 87 85 
0.28944 -0.423399 8.55244 155 135 137 
0.248772 1.11894 7.75425 204 166 95 
0.309135 0.400026 8.51552 186 173 154 
0.290343 -0.393901 8.50563 98 50 62 
0.289399 -0.269041 8.45829 67 66 71 
0.292392 0.19945 8.34882 51 19 32 
0.375781 3.94006 8.16922 27 30 39 
0.239077 1.11256 7.59798 209 179 127 
0.319979 0.685587 8.45539 86 47 40 
0.269788 4.77243 6.84256 39 50 54 
0.246664 1.15834 7.56507 116 69 39 
0.308334 0.237157 8.3832 172 169 164 
0.31404 0.139407 8.41315 165 164 159 
0.252381 1.16933 7.55712 229 158 116 
0.31514 0.330056 8.32975 194 156 155 
0.317678 0.0308977 8.37072 135 135 135 
0.0812945 -2.16084 6.72285 46 22 0 
0.341203 0.402679 8.42885 119 56 73 
0.331761 0.150124 8.38611 27 29 54 
0.329693 -0.388762 8.48864 93 39 53 
0.341399 0.333158 8.37777 80 34 63 
0.335426 -0.27142 8.4412 84 86 83 
0.342309 0.494923 8.29609 195 163 150 
0.296328 1.0839 7.74373 74 71 82 
0.344688 -0.0722814 8.48303 135 137 134 
0.341972 0.070857 8.42326 35 45 70 
0.0339609 -2.34904 6.25119 142 120 47 
0.0282424 -2.35743 6.15915 121 101 74 
0.345305 -0.267268 8.43744 82 84 83 
0.27498 -1.70841 8.19143 122 92 68 
0.358274 -0.229961 8.47906 139 140 142 
0.315354 1.10182 7.73824 71 60 54 
0.359723 -0.422386 8.52873 84 47 55 
0.437474 4.90569 7.80658 195 177 157 
0.0606465 -2.28411 6.35544 144 118 83 
0.326196 1.06924 7.79965 152 137 130 
0.325507 1.09046 7.79041 164 158 142 
0.048904 -2.34392 6.20787 109 85 59 
0.336943 1.05771 7.80655 41 26 19 
0.308482 1.14404 7.52397 139 120 80 
0.0518167 -2.35251 6.19448 31 11 10 
0.305075 1.16926 7.43469 93 70 29 
0.382076 -0.259141 8.45874 82 83 87 
0.0756484 -2.29788 6.36645 67 44 13 
0.389183 -0.368857 8.54993 80 58 61 
0.347328 1.02821 7.78325 200 181 149 
0.393436 -0.395297 8.53263 144 133 131 
0.399326 -0.411549 8.57068 87 62 66 
0.0718378 -2.33938 6.27876 114 88 51 
0.396056 -0.439197 8.50554 138 133 130 
0.351332 0.98076 7.76832 194 169 138 
0.323263 1.19906 7.46795 106 84 63 
0.362347 0.89971 7.84136 38 32 34 
0.0860913 -2.29247 6.32155 109 86 54 
0.0880173 -2.31173 6.32868 123 99 61 
0.345696 1.19295 7.56457 210 178 127 
0.407745 -0.38208 8.47972 94 51 61 
0.411683 -0.273816 8.48763 126 131 127 
0.374549 0.863305 7.85838 209 197 173 
0.417347 -0.0289398 8.4235 40 35 42 
0.338531 1.17353 7.44037 100 68 30 
0.436624 0.719975 8.37039 119 93 92 
0.508578 4.83381 7.86253 69 50 43 
0.389352 0.872321 7.85348 253 238 219 
0.438928 -0.417265 8.55399 140 119 124 
0.383779 0.931367 7.72237 203 96 80 
0.153459 -2.2177 6.65615 77 38 43 
0.453584 -0.249658 8.54402 55 56 58 
0.398161 1.0108 7.76529 199 125 116 
0.419185 1.03414 7.8398 73 44 0 
0.41844 1.0592 7.79881 119 119 85 
0.423841 1.11237 7.80062 63 68 90 
0.405185 1.15302 7.63221 53 44 29 
0.419555 1.02252 7.74093 73 79 7 
0.479157 -0.414635 8.54803 80 42 53 
0.507585 0.731305 8.38077 71 26 33 
0.419458 1.12883 7.55881 165 152 135 
0.444397 0.995888 7.74642 235 237 127 
0.496361 -0.387831 8.47425 68 41 48 
0.434491 1.16387 7.58767 196 177 147 
0.572144 0.752316 8.71196 113 96 102 
0.525822 -0.40061 8.63345 91 44 62 
0.540451 0.675681 8.47503 106 90 93 
0.458336 1.13124 7.72208 213 167 118 
0.541471 0.621451 8.45408 149 107 117 
0.474132 1.14014 7.78413 202 171 117 
0.485015 0.794891 7.94092 202 188 161 
0.463905 1.14318 7.6827 176 121 91 
0.470887 1.01805 7.74917 66 36 25 
0.546024 -0.381437 8.65263 135 125 126 
0.543861 -0.384205 8.63676 132 118 118 
0.481403 0.988419 7.80966 207 199 127 
0.476571 1.123 7.71266 205 164 112 
0.483591 0.960283 7.79326 242 230 170 
0.567375 0.742812 8.41509 111 52 56 
0.492222 1.06526 7.77905 60 6 6 
0.491613 1.00798 7.78216 246 213 159 
0.566323 -0.397304 8.67721 88 41 59 
0.501906 1.04475 7.74432 202 108 98 
0.57378 -0.388511 8.59658 145 107 118 
0.519467 0.923829 7.83825 108 50 36 
0.510819 1.00591 7.75392 143 75 38 
0.218834 -2.24601 6.48158 34 3 11 
0.529625 1.16247 7.7909 82 57 50 
0.487241 1.21183 7.4566 202 166 144 
0.595892 -0.394134 8.58592 99 63 75 
0.535292 0.995792 7.78742 200 200 104 
0.542746 0.947967 7.77961 105 69 47 
0.546278 1.00051 7.79497 74 74 0 
0.627356 0.735405 8.43022 103 72 80 
0.638052 -0.363572 8.70811 82 51 57 
0.586627 0.984356 7.99101 100 58 16 
0.559172 1.05479 7.7622 142 73 18 
0.563897 1.03361 7.76926 217 213 103 
0.332579 -2.12635 6.95594 63 8 13 
0.639755 -0.169553 8.52202 89 90 84 
0.578931 1.14676 7.75138 224 181 113 
0.607835 0.936953 7.85983 111 93 29 
0.765477 4.85423 7.82115 128 90 69 
0.330831 -2.14585 6.80222 137 109 85 
0.319393 -2.1541 6.71394 173 143 119 
0.607853 1.00445 7.74906 221 227 105 
0.765991 3.9881 7.9751 32 35 40 
0.909653 5.27505 8.51452 138 107 76 
0.637479 0.94692 7.81916 229 211 49 
0.714113 0.48597 8.44381 178 122 107 
0.634844 1.02084 7.78134 42 29 10 
0.755988 4.84511 7.52083 156 110 76 
0.640478 1.07572 7.75318 205 148 137 
0.642813 1.03525 7.77767 108 60 38 
0.643553 1.01035 7.78486 208 191 148 
0.73055 0.45684 8.48167 56 51 55 
0.375084 -2.0836 6.87389 65 41 17 
0.637385 1.08225 7.69372 51 9 0 
0.890055 3.53059 8.62859 3 7 18 
0.724518 0.557832 8.33291 202 149 131 
0.658136 1.03802 7.78578 211 180 151 
0.371633 -2.09601 6.78403 48 34 0 
0.657121 1.08903 7.74384 30 11 15 
0.652203 1.03975 7.71942 187 111 98 
0.661307 1.11618 7.75574 155 108 100 
0.469805 -1.80957 7.3096 92 57 19 
0.673124 0.932153 7.85315 147 168 169 
0.809179 3.93045 7.88879 40 40 42 
0.629207 1.10953 7.4988 193 124 109 
0.644658 1.18821 7.57502 63 49 38 
0.751622 0.424401 8.45078 70 71 73 
0.658574 1.01444 7.68844 57 39 29 
0.762834 0.457457 8.48525 158 144 131 
0.674972 1.02949 7.77833 45 33 17 
0.749804 -0.0199891 8.49824 58 37 52 
0.700042 0.96789 7.92523 120 132 130 
0.816112 5.17738 7.51524 162 116 80 
0.775858 0.26348 8.48069 116 74 86 
0.694023 1.07477 7.7467 239 217 180 
0.531091 -1.7745 7.45618 67 33 21 
0.770842 -0.0452451 8.45356 128 130 129 
0.728476 0.955692 7.93779 232 207 53 
0.691727 1.1759 7.60117 207 188 158 
0.668085 -1.53092 8.17655 181 153 113 
0.725368 1.14824 7.80932 74 48 21 
0.722494 0.952788 7.84626 237 202 14 
0.935004 5.2956 7.96022 31 24 31 
0.41765 -2.1045 6.80802 194 164 102 
0.776895 0.241136 8.3491 148 138 129 
0.547116 -1.76671 7.47367 140 108 83 
0.73281 1.03839 7.817 252 211 191 
0.742413 1.1575 7.82778 186 163 111 
0.735726 1.07913 7.79825 72 63 24 
0.578357 -1.68899 7.58522 54 34 33 
0.848978 0.0842609 8.73598 81 34 52 
0.456115 -2.09132 6.95997 163 139 101 
0.547359 -1.81592 7.40795 183 160 116 
1.22757 5.8305 9.42201 75 74 72 
0.748913 1.09829 7.81829 153 139 76 
0.860386 0.0900492 8.73847 72 29 38 
0.855779 0.0832409 8.70969 66 25 33 
0.756447 1.12196 7.79719 92 85 77 
0.800874 0.974302 8.07371 179 140 21 
0.55008 -1.80849 7.32593 65 35 37 
0.774215 1.0793 7.87298 168 137 0 
0.775016 1.10163 7.83592 198 173 18 
0.453096 -2.13881 6.80887 52 28 4 
0.566481 -1.78101 7.34311 207 195 153 
0.924935 3.84996 7.92153 24 24 32 
0.794668 0.981397 7.83121 235 208 165 
0.584502 -1.77975 7.3427 250 250 200 
0.891664 -0.0289763 8.5796 159 146 127 
0.77446 1.2389 7.56393 43 32 14 
1.15614 5.60841 8.53694 18 13 19 
0.601463 -1.79869 7.38295 124 135 93 
0.61637 -1.78952 7.45789 101 102 71 
0.549174 -1.94229 7.11273 30 13 23 
0.595877 -1.80667 7.33264 92 99 68 
1.30438 5.82864 9.27239 133 124 127 
0.829938 1.13671 7.83146 150 112 13 
0.895365 0.832604 8.23214 121 65 48 
0.882875 0.186364 8.32146 40 29 23 
0.594969 -1.7967 7.24457 60 70 36 
0.671234 -1.76165 7.57327 24 26 38 
0.832923 1.16918 7.66131 86 87 91 
0.62076 -1.78748 7.25922 29 30 48 
0.854612 1.16741 7.75234 80 79 84 
0.821626 1.25339 7.53837 210 177 132 
0.653332 -1.82625 7.37233 4 6 19 
0.641792 -1.80956 7.27904 93 94 96 
0.90898 0.96436 7.95199 232 210 169 
0.858423 1.18705 7.61886 76 73 64 
0.854939 1.19876 7.58987 209 197 171 
0.75627 -1.51261 7.78675 38 21 13 
0.895921 1.1587 7.79977 99 94 91 
0.924572 0.921467 8.00183 119 97 84 
0.949924 0.913852 7.97019 177 151 138 
1.18144 3.90051 8.27205 1 6 12 
0.786335 -1.65107 7.67725 39 19 18 
1.00335 0.949991 8.032 85 38 28 
0.852949 -1.52636 7.89539 32 19 13 
0.78465 -1.69155 7.59736 188 144 117 
0.820245 -1.59076 7.74877 98 60 23 
0.935009 1.24879 7.56586 145 95 58 
1.18682 3.90387 8.09633 75 74 72 
0.72485 -1.8698 7.28617 20 3 9 
1.11479 0.734342 8.49927 61 52 53 
1.20364 3.83422 8.04598 7 7 19 
0.678041 -2.06852 6.99735 50 22 11 
0.712646 -1.97824 7.13288 31 14 7 
1.04983 1.00622 7.92816 60 68 45 
1.01597 1.01493 7.73803 199 166 0 
1.03931 1.0186 7.85272 171 138 43 
1.06907 0.948858 8.00751 102 66 34 
1.03734 1.18036 7.76763 235 192 90 
1.01569 1.28129 7.60762 212 180 139 
1.02023 1.20771 7.62179 210 178 95 
1.04998 1.21717 7.76219 233 187 101 
1.07862 1.01602 7.95215 196 185 155 
1.01977 1.24387 7.6036 217 192 128 
1.05426 1.22649 7.72652 126 97 41 
1.10665 0.978037 8.00114 237 210 180 
1.08283 1.19434 7.79577 232 119 23 
1.0408 1.24293 7.57464 248 225 183 
1.25925 3.5542 7.97404 52 51 49 
1.05156 1.26354 7.58597 153 124 82 
0.842107 -1.76543 7.40674 74 52 15 
1.05103 1.21378 7.57732 136 119 76 
1.14097 0.981236 8.01452 62 87 58 
0.87799 -1.68551 7.50059 142 121 64 
1.34596 4.0075 8.13111 91 84 74 
1.11634 0.868829 7.92216 201 184 156 
0.86759 -1.70483 7.44325 102 79 29 
1.12781 1.00678 7.90603 225 209 184 
1.16401 0.993253 8.07213 65 77 57 
1.35977 3.86217 8.18292 80 72 61 
1.08451 1.2574 7.60685 207 175 118 
1.11867 1.02898 7.82238 153 85 12 
1.09942 1.25674 7.65681 220 185 103 
1.12442 1.26935 7.74819 226 184 98 
1.51725 2.96855 9.08213 193 179 166 
0.901659 -1.67577 7.50726 94 67 22 
1.15061 1.01908 7.88441 233 214 174 
1.14272 1.02508 7.84651 236 205 174 
1.1808 0.964393 8.02563 160 140 113 
1.15073 1.04117 7.83046 64 31 0 
1.13214 1.22784 7.68448 172 85 6 
0.953156 -1.65198 7.64355 101 77 15 
0.92104 -1.74886 7.48679 199 169 13 
1.22263 0.980718 8.05998 40 9 4 
1.21996 0.925186 8.04643 148 130 106 
1.52423 3.46552 8.6982 6 9 18 
1.22639 1.01375 8.01513 236 203 10 
1.58856 3.54427 8.91394 20 18 21 
1.19146 1.16356 7.77053 244 199 10 
1.13757 1.17985 7.50849 216 108 43 
1.24377 1.05578 7.97188 160 138 3 
1.26088 0.992702 8.05736 79 26 10 
1.26805 1.00092 8.06942 114 58 35 
1.05061 -1.51095 7.77643 166 137 33 
1.23781 1.19718 7.82658 92 69 51 
1.25187 1.02245 7.88772 232 208 14 
1.3792 0.828248 8.46664 157 84 101 
1.25007 1.17579 7.79735 48 29 25 
1.29873 1.01553 8.03054 152 115 27 
1.27797 1.13165 7.90811 100 69 41 
1.32206 1.08125 8.08201 85 28 1 
1.29559 1.25759 7.88535 221 181 112 
1.32006 0.874261 8.05499 177 155 132 
1.29457 1.2121 7.84505 57 33 5 
1.6067 3.17458 8.635 23 22 28 
1.29471 1.16998 7.77804 163 123 97 
1.37588 1.14643 8.04165 44 34 24 
1.60778 3.652 8.31762 31 30 35 
1.6222 3.68784 8.36567 31 30 35 
1.49197 0.61715 8.62032 181 165 142 
1.36739 1.13947 7.91893 112 90 67 
1.50767 0.781105 8.56004 46 45 41 
1.65441 3.23746 8.43819 11 14 21 
1.35465 1.27977 7.74701 221 181 111 
1.08927 -1.58419 7.43562 171 149 76 
1.40297 1.2076 7.83065 86 33 0 
1.46784 1.16662 8.05834 132 100 89 
1.09786 -1.60082 7.34291 157 140 71 
1.46866 1.02287 8.07147 113 59 59 
1.4526 1.23942 7.91726 200 102 63 
1.49223 1.15335 8.09029 158 99 83 
1.1286 -1.60396 7.38633 99 79 16 
1.56851 3.73436 7.6462 168 164 152 
1.47603 0.853363 8.05888 155 130 123 
1.50014 0.883738 8.14148 156 133 127 
1.49681 1.1735 8.03601 110 58 44 
1.11633 -1.61923 7.30845 155 142 87 
1.49012 1.17439 7.99621 103 43 33 
1.11907 -1.6415 7.31398 103 87 35 
1.52413 1.18913 8.09003 160 100 92 
1.52838 1.16412 8.07571 95 32 27 
1.66944 3.8252 7.81682 118 109 102 
1.5034 1.20326 7.86791 218 158 121 
1.50447 1.22419 7.85396 143 101 51 
1.47681 1.25246 7.73337 78 20 16 
2.12616 5.64551 8.99591 125 111 110 
1.54861 1.15347 8.01158 208 96 108 
1.52848 1.21169 7.86316 215 161 117 
1.68671 2.65538 8.06209 48 50 47 
1.74326 0.74052 8.70298 186 174 148 
1.54977 1.22446 7.84439 142 100 52 
1.72158 2.60274 8.08249 90 91 95 
1.57215 1.27911 7.88425 127 88 57 
1.56535 1.25005 7.85488 176 139 95 
2.19075 5.69398 8.92423 16 9 16 
2.33441 5.57342 9.40759 198 170 166 
1.31281 -1.40458 7.56585 53 37 3 
1.55582 1.29899 7.69114 194 113 110 
1.57886 1.27762 7.7746 129 81 67 
1.63015 0.970836 8.04122 163 142 125 
2.35408 5.54905 9.41344 179 123 126 
2.3757 5.98417 9.36414 175 162 146 
1.65764 1.00167 8.04427 138 125 119 
1.60097 1.32565 7.72514 186 119 110 
1.6143 1.2355 7.77634 210 167 112 
2.35878 5.44561 9.23914 128 114 111 
1.63917 1.32609 7.77435 115 72 56 
1.66809 1.12721 7.90127 205 105 115 
1.6245 1.32212 7.67986 138 91 73 
1.31574 -1.5883 7.37767 204 174 44 
1.76697 1.2554 8.09327 214 169 114 
1.69207 1.26706 7.77733 165 69 44 
1.88621 2.39048 8.14688 210 193 183 
1.90448 2.33691 8.199 203 199 190 
1.87307 2.16056 8.03987 201 200 180 
1.90308 2.2824 8.10647 211 201 189 
1.69855 1.3006 7.61095 36 31 27 
1.69622 1.2671 7.58872 177 137 125 
1.88627 2.13615 7.90569 206 194 178 
1.46217 -1.2551 7.4083 58 52 38 
1.81156 1.80016 7.65571 36 41 34 
1.55916 -1.56619 7.68629 100 87 32 
1.48456 -1.27888 7.32754 176 99 17 
1.53833 -1.31093 7.45651 174 97 9 
2.01045 1.87273 8.05154 208 190 178 
1.52062 -1.35212 7.31714 236 196 75 
2.073 1.97769 8.13489 189 185 173 
2.09456 1.96644 8.16641 50 51 43 
2.09521 1.90382 8.15768 38 44 40 
1.89044 1.04509 7.74335 79 73 57 
1.56443 -1.32415 7.36033 176 145 80 
2.0783 2.01695 8.04734 210 197 180 
2.14542 1.91553 8.21538 40 43 24 
2.14416 1.95051 8.19706 204 191 175 
1.58028 -1.33749 7.32252 55 50 47 
1.93166 1.52014 7.58304 64 64 54 
1.91668 1.17396 7.60283 194 179 156 
1.93035 1.28134 7.59971 115 113 116 
1.96312 1.10795 7.67803 18 24 14 
2.02949 1.48022 7.70346 8 12 0 
2.14252 1.39437 7.94397 73 67 53 
2.11126 1.34278 7.82275 213 201 179 
2.17826 1.6165 7.91778 212 192 183 
2.37174 1.75635 8.2714 36 38 33 
2.28417 0.780272 7.83952 37 40 33 
2.24223 0.666412 7.74967 207 195 179 
2.91733 6.72501 7.7682 6 7 9 
2.24569 -0.157698 7.76047 54 55 37 
2.44928 0.737056 8.02417 54 53 32 
3.67367 6.92048 8.37608 31 19 19 
-2.05378 1.09821 6.94055 87 109 132 
-1.96637 -1.07095 7.57919 46 48 61 
-1.90315 -0.894443 7.57716 124 44 53 
-1.96134 -0.123782 7.59027 189 199 211 
-1.86497 -1.05285 7.58049 176 165 169 
-1.86265 -0.86793 7.61139 180 181 186 
-1.86051 -0.834672 7.62824 144 149 168 
-2.14574 0.530987 8.38221 153 175 196 
-1.828 -0.906159 7.62049 174 175 180 
-2.01474 0.0131306 8.20048 106 139 158 
-1.78262 -0.720706 7.60321 175 176 181 
-1.85451 0.848022 7.68852 121 146 186 
-1.87263 0.218647 8.23998 127 142 147 
-1.71392 0.989524 7.49061 99 88 94 
-1.69481 1.01297 7.4955 149 137 137 
-1.68712 0.944943 7.53106 165 152 136 
-1.25824 -1.80475 6.78471 42 42 44 
-1.59416 1.00071 7.58009 44 50 74 
-1.55424 0.878904 7.62417 141 133 130 
-1.55853 1.01613 7.61293 133 124 127 
-1.28558 0.586416 7.21873 218 205 188 
-1.24967 0.932482 6.9862 20 29 46 
-1.2708 0.136504 8.38646 140 128 116 
-1.31323 3.5778 7.81431 24 32 43 
-1.36877 3.50273 8.33615 128 114 51 
-1.12809 0.610232 8.08085 198 170 130 
-0.839465 -1.79561 7.10403 84 22 25 
-1.1149 0.807118 7.98925 94 24 34 
-1.10736 0.776258 7.97243 170 141 127 
-1.30077 3.53315 8.23036 67 78 48 
-1.28904 3.46949 8.25774 217 188 71 
-1.30052 3.44348 8.40828 226 191 65 
-1.07784 1.02007 7.87187 187 167 142 
-1.22705 3.59471 7.95991 201 202 186 
-1.28633 3.4555 8.49079 151 117 17 
-1.05854 0.507946 8.13078 103 72 51 
-1.0361 0.975365 7.7928 130 113 103 
-1.25899 3.42647 8.4727 164 127 23 
-1.01232 0.914094 7.80548 170 146 118 
-1.22455 3.50184 8.22265 159 159 85 
-1.21844 3.53458 8.18198 178 173 153 
-1.33023 3.35569 9.09266 116 107 90 
-1.18261 3.59187 7.92531 79 83 46 
-1.02451 0.825274 7.99699 95 24 22 
-1.22816 3.46172 8.40141 217 193 85 
-1.2168 3.48277 8.41228 141 110 19 
-1.00225 0.811125 8.00678 186 138 124 
-0.988461 0.514064 8.08478 171 132 93 
-1.19269 3.4986 8.29794 222 194 85 
-1.17815 3.52206 8.19532 64 73 52 
-0.983155 1.03529 7.82188 207 191 168 
-0.960331 1.00712 7.83811 34 16 2 
-1.14765 3.51214 8.17006 70 76 40 
-1.12891 3.54832 8.02689 87 86 56 
-1.10433 3.55469 8.02968 202 199 168 
-0.948306 1.03355 7.94239 186 177 160 
-1.09829 3.5731 8.01752 158 157 126 
-0.951307 0.538137 8.25601 100 74 57 
-0.936339 1.04099 7.94047 49 41 28 
-0.952053 0.653674 8.25297 38 34 33 
-1.08928 3.51255 8.12817 34 44 10 
-1.09562 3.4661 8.22421 195 156 37 
-0.919141 1.03066 7.95109 127 106 75 
-1.06389 3.5522 8.00611 105 100 70 
-1.08441 3.50866 8.21203 207 185 73 
-0.904722 1.0649 7.93121 55 51 42 
-1.0558 3.50964 8.10013 37 44 26 
-0.895952 0.518726 8.35119 197 167 133 
-0.882073 0.861604 8.06732 218 152 39 
-1.05654 3.48222 8.29596 165 128 22 
-1.01015 3.59838 7.85409 181 179 156 
-1.01455 3.59075 7.9247 88 87 69 
-1.02073 3.51691 8.03119 36 33 24 
-1.00533 3.58087 7.93446 212 212 200 
-1.02076 3.5052 8.11881 86 85 39 
-1.0464 3.49659 8.35245 224 189 85 
-1.00472 3.52425 8.06918 78 83 63 
-0.998751 3.59064 7.99085 21 24 13 
-0.870489 0.566392 8.38026 110 79 51 
-0.980154 3.56427 7.94957 197 202 170 
-0.805114 1.12564 7.62479 40 30 31 
-0.973656 3.54458 7.99623 38 38 26 
-0.971847 3.55155 8.07634 150 161 105 
-0.821653 0.498968 8.30237 234 201 158 
-0.95667 3.53703 8.17148 216 203 148 
-0.789881 0.905864 8.08438 150 94 37 
-0.943742 3.52253 8.19026 132 125 109 
-0.797923 0.644859 8.34272 206 167 124 
-0.909509 3.55602 8.05203 230 214 180 
-0.750211 0.821743 8.09774 178 123 66 
-0.879079 3.71742 7.93769 221 184 139 
-0.699093 1.13264 7.57954 99 84 65 
-0.734394 0.806341 8.1799 94 21 30 
-0.736238 0.858385 8.17804 206 133 54 
-0.865582 3.57837 8.02869 200 148 47 
-0.812731 3.7419 7.7623 108 107 79 
-0.69651 0.852578 8.22633 193 123 61 
-0.691529 0.793177 8.21572 114 29 32 
-0.847409 3.43768 8.56153 139 100 45 
-0.797868 3.69257 7.89603 13 13 23 
-0.823514 3.51616 8.34215 211 181 147 
-0.659488 0.760828 8.27579 97 40 11 
-0.654955 0.570177 8.40051 46 32 21 
-0.876745 3.24132 9.32343 183 170 153 
-0.786246 3.55235 8.15149 204 180 152 
-0.792947 3.50602 8.40847 203 171 94 
-0.758396 3.52024 8.05516 137 107 47 
-0.644528 0.896158 8.34614 89 36 5 
-0.628013 0.526408 8.41707 136 110 87 
-0.787368 3.54641 8.44018 100 67 22 
-0.81949 3.45111 9.04091 55 62 91 
-0.808585 3.46099 8.90434 140 113 70 
-0.752341 3.5312 8.36435 216 181 81 
-0.757739 3.5136 8.46367 147 126 95 
-0.721794 3.58477 8.24341 181 131 34 
-0.87934 5.41643 9.17039 130 126 125 
-0.730332 3.51802 8.539 201 161 66 
-0.689808 3.512 8.09859 186 150 88 
-0.741995 3.49721 8.90306 34 34 46 
-0.710241 3.53439 8.83181 142 143 148 
-0.626879 3.7578 7.66722 168 174 126 
-0.719274 3.43241 9.15255 53 60 88 
-0.644439 3.69178 8.04328 167 111 24 
-0.640823 3.73281 8.00072 92 66 29 
-0.631281 3.67099 8.0385 228 175 69 
-0.673308 3.54792 8.71064 41 43 55 
-0.606011 3.76062 7.70341 134 155 99 
-0.616223 3.725 7.9528 52 49 34 
-0.653835 3.53163 8.81484 35 35 47 
-0.643794 3.54079 8.6964 92 90 101 
-0.622093 3.52005 8.59197 46 43 62 
-0.568817 3.71895 7.68734 131 134 87 
-0.565922 3.73463 7.66381 235 228 176 
-0.606579 3.58127 8.47405 196 171 87 
-0.615223 3.49811 8.90761 116 113 134 
-0.574202 3.6862 8.21871 167 128 9 
-0.579372 3.60076 8.5051 48 33 26 
-0.43841 0.92076 8.49068 179 121 119 
-0.524098 3.68753 7.78754 98 68 0 
-0.51285 3.79252 7.59732 219 181 8 
-0.55899 3.55476 8.75975 129 109 134 
-0.524071 3.659 8.23044 36 39 30 
-0.55673 3.47706 9.03363 132 130 143 
-0.514109 3.61383 8.33447 156 145 125 
-0.521639 3.56948 8.58654 47 43 58 
-0.475957 3.69051 7.75527 236 208 72 
-0.5124 3.53515 8.68405 56 39 58 
-0.458657 3.71692 7.57483 77 102 47 
-0.502876 3.55717 8.57115 51 47 61 
-0.481377 3.65332 8.17225 153 149 138 
-0.507173 3.46355 9.02556 133 131 145 
-0.500055 3.52683 8.84777 130 120 145 
-0.467458 3.59808 8.48642 175 172 165 
-0.433939 3.58356 8.25767 155 150 146 
-0.451137 3.47572 8.85985 37 38 43 
-0.43908 3.53612 8.59579 158 157 175 
-0.446839 3.43117 9.00084 67 53 52 
-0.29331 0.98116 8.21433 57 24 31 
-0.409918 3.61705 8.0699 47 43 32 
-0.424364 3.53239 8.55859 153 151 165 
-0.274343 1.0519 8.09258 182 151 148 
-0.401529 3.52654 8.48645 159 161 160 
-0.396516 3.54507 8.44403 159 157 145 
-0.0783321 -1.77815 6.83785 42 11 19 
-0.0492015 -2.30651 6.86387 132 110 50 
-0.246842 1.02176 8.04463 35 29 73 
-0.667795 7.25113 11.4786 29 29 29 
-0.351781 3.53475 8.30002 38 38 36 
-0.0380801 -2.17441 6.93525 22 12 21 
-0.344451 3.46722 8.73281 217 172 43 
-0.330694 3.51037 8.54445 221 184 80 
-0.00577732 -2.4315 6.88379 20 8 20 
-0.190305 0.148011 9.20163 146 140 140 
-0.311494 3.47875 8.55326 159 125 53 
-0.294845 3.69778 7.90465 96 93 74 
-0.299076 3.49758 8.61842 153 119 32 
-0.144765 0.0647893 8.90872 145 147 144 
-0.27176 3.55736 8.04028 41 30 12 
-0.116206 -0.278924 8.72456 96 96 96 
-0.167839 0.767205 8.97709 148 101 75 
-0.129845 0.044849 8.83623 150 151 143 
-0.0994898 -0.430539 8.63322 111 31 60 
-0.0984602 -0.285851 8.73961 152 152 150 
-0.0966739 -0.212795 8.75298 37 37 35 
-0.24469 3.63114 8.0838 139 123 97 
-0.0851118 -0.364041 8.67715 147 148 142 
-0.0657108 -0.397268 8.67408 90 70 72 
-0.059287 -0.460159 8.63916 91 66 69 
-0.056857 -0.491853 8.62734 104 67 74 
-0.053831 -0.51841 8.60338 98 74 74 
-0.205892 3.74108 7.57113 119 95 9 
-0.0471047 -0.419814 8.6774 150 145 141 
0.0815629 -2.43096 6.91615 153 129 57 
-0.0301822 -0.543304 8.60031 86 43 53 
-0.0388225 -0.299912 8.73635 146 147 139 
-0.208459 3.72826 8.63734 40 41 36 
-0.0333828 -0.396185 8.66023 96 59 66 
-0.0646126 0.390983 8.94894 104 98 124 
-0.0134309 -0.538484 8.56767 150 139 137 
-0.0174377 -0.39375 8.67734 172 135 142 
-0.0150047 -0.417493 8.67692 111 42 60 
-0.0189153 -0.326001 8.73697 89 89 87 
-0.173455 3.73766 7.84678 231 212 182 
-0.0509353 0.357436 8.97644 72 17 49 
-0.00410803 -0.491206 8.60593 88 42 53 
-0.00613342 -0.238649 8.75763 148 147 143 
0.00601025 -0.437574 8.67845 90 53 61 
-0.156035 3.87097 7.6129 212 154 18 
0.0179978 -0.515601 8.63645 152 132 134 
-0.146819 3.79743 7.60245 214 177 8 
0.0283776 -0.475364 8.6726 149 146 139 
0.0214565 -0.32305 8.71242 97 97 95 
-0.0167053 0.51076 8.96536 120 63 82 
0.0364206 -0.530322 8.6563 90 42 56 
-0.124321 3.74995 7.58336 186 85 7 
0.0414231 -0.431706 8.70329 106 48 63 
0.0406198 -0.233389 8.77441 149 149 147 
0.0467613 -0.322811 8.74447 100 100 98 
0.0467333 -0.293402 8.74424 143 143 141 
0.0624135 -0.413067 8.68897 157 137 138 
-0.102054 3.85552 7.62242 190 108 94 
-0.103372 3.75048 8.54941 95 55 30 
0.0436166 0.192782 8.81846 123 22 62 
0.0757104 -0.510631 8.63271 109 50 70 
0.0443733 0.289238 8.92078 111 49 74 
-0.0878113 3.75034 8.56029 163 114 84 
0.0841495 -0.236498 8.78355 146 146 144 
0.0887059 -0.295053 8.75856 148 148 146 
0.0939058 -0.362009 8.71039 141 143 140 
-0.067427 3.82867 7.6046 154 77 25 
0.0706286 0.266314 8.92923 34 15 34 
0.108471 -0.511715 8.60365 91 45 56 
0.109464 -0.456049 8.6712 144 146 135 
0.0738899 0.413421 8.97874 60 22 37 
0.0727094 0.444875 8.9859 139 75 89 
-0.0547557 3.75582 7.82523 102 118 117 
-0.0556101 3.75009 8.62846 113 59 25 
-0.0554292 3.76249 8.49566 140 113 83 
0.122747 -0.525225 8.62497 161 135 138 
-0.0540075 3.94764 7.6561 45 45 35 
0.128361 -0.408294 8.69021 130 74 87 
0.115841 0.167515 8.92508 131 37 74 
0.108902 0.387286 8.95748 169 86 102 
0.137349 -0.248673 8.7848 24 23 21 
0.153467 -0.314684 8.74703 97 96 91 
0.163026 -0.357163 8.73421 144 147 136 
0.156446 -0.196541 8.79661 151 150 148 
-0.00418772 3.88727 7.64228 207 124 106 
0.162623 -0.258269 8.79578 150 150 142 
0.238247 -2.23453 7.15784 85 45 46 
0.139221 0.420697 8.97293 58 26 39 
0.176834 -0.451807 8.6813 148 143 139 
0.192282 -0.312463 8.75342 103 103 91 
0.217806 -0.526092 8.66883 111 47 63 
0.19001 0.291889 8.93268 88 50 71 
0.0639711 3.55253 9.00496 58 56 44 
0.215361 -0.250854 8.78213 61 60 55 
0.22434 -0.385839 8.71413 85 51 52 
0.0658546 3.71834 8.52415 27 31 4 
0.201683 0.374116 8.93618 165 45 80 
0.236251 -0.522985 8.66068 104 78 79 
0.236983 -0.446525 8.69265 149 144 140 
0.0887487 3.56927 8.98055 119 116 111 
0.237362 -0.247657 8.78875 153 152 147 
0.244528 -0.403794 8.73262 169 145 143 
0.0923517 3.68301 8.58506 108 110 96 
0.0371608 5.4772 8.67059 70 54 41 
0.241744 0.352784 8.97063 165 50 89 
0.26699 -0.249007 8.77233 93 92 90 
0.128232 3.6504 8.60583 121 119 106 
0.265887 0.274174 8.93071 34 5 25 
0.286275 -0.398901 8.72431 151 147 136 
0.165283 3.14908 9.19428 41 31 32 
0.264138 0.45719 8.92024 79 42 73 
0.152774 3.5579 8.93635 93 91 79 
0.29422 -0.266974 8.76888 146 144 132 
0.129284 3.82944 8.13878 88 93 73 
0.137102 3.80571 8.04706 83 87 72 
0.305193 -0.380159 8.69021 83 39 52 
0.314171 -0.240922 8.76913 80 79 77 
0.162999 3.77549 8.20751 17 15 3 
0.302304 0.364388 8.93825 61 18 64 
0.15963 3.78819 8.07229 49 46 41 
0.163354 3.7618 8.17849 26 24 12 
0.302408 0.407384 8.96028 118 111 142 
0.198231 3.6257 8.61767 82 84 81 
0.348255 -0.372921 8.70684 97 37 49 
0.325514 0.446491 8.97762 191 177 166 
0.346852 -0.248193 8.77484 10 10 10 
0.367888 -0.173182 8.8292 155 151 148 
0.35754 0.213263 8.92033 179 175 166 
0.356897 0.339145 8.96537 183 166 159 
0.374821 -0.235072 8.76481 81 81 79 
0.389045 -0.41476 8.71665 104 40 54 
0.380037 -0.0345096 8.86966 147 147 139 
0.385803 -0.202991 8.78718 143 144 138 
0.281967 3.40165 9.56281 116 107 98 
0.32792 1.11611 8.13423 186 161 139 
0.385656 0.188462 8.93021 44 50 74 
0.23725 3.75725 7.98304 123 126 119 
0.23721 3.76181 7.93182 43 55 45 
0.408622 -0.386903 8.71846 156 138 134 
0.411605 -0.42714 8.68076 154 135 131 
0.231396 5.23067 9.34548 102 98 95 
0.407572 -0.170687 8.80459 37 36 32 
0.391562 0.459848 8.96933 100 59 77 
0.399967 0.449424 8.98792 103 59 84 
0.366549 1.07151 8.22889 227 201 168 
0.42988 -0.36392 8.71352 99 56 63 
0.434126 -0.204242 8.75903 148 149 144 
0.374727 1.12495 8.13637 192 168 134 
0.276134 3.82047 7.94331 134 141 125 
0.379349 1.09949 8.14574 164 138 101 
0.278133 3.80128 7.63288 131 137 123 
0.393013 1.12503 8.11592 117 66 49 
0.448301 0.682093 9.07284 210 175 156 
0.479076 0.0753437 8.932 30 33 52 
0.517028 -0.387077 8.78568 171 121 132 
0.528742 -0.361962 8.74472 89 47 57 
0.535619 -0.402699 8.77842 92 45 55 
0.539125 -1.78392 7.13885 126 95 66 
0.489294 1.15416 8.1042 159 142 126 
0.575758 -0.364229 8.79645 85 45 54 
0.376434 5.47304 8.62865 44 62 20 
0.5076 1.08405 8.09927 245 223 173 
0.506521 1.10774 8.08111 75 44 23 
0.593186 -0.378463 8.7943 155 116 121 
0.516553 1.05159 8.14198 231 220 154 
0.594272 -0.408146 8.79441 155 134 131 
0.52088 1.1456 8.088 58 8 7 
0.523622 1.10865 8.05628 235 136 115 
0.620436 -0.381063 8.80571 120 77 86 
0.539035 1.13487 8.0856 203 108 90 
0.58572 1.13158 8.06681 151 61 37 
0.68987 -0.13276 8.91919 104 105 91 
0.688862 0.712012 9.12126 165 109 112 
0.651678 1.12028 8.03203 254 216 177 
0.699671 -2.20778 7.20438 169 147 123 
0.675762 1.17722 8.03391 119 80 65 
0.69076 1.10301 8.05733 190 143 123 
0.786893 0.691967 9.14554 141 85 84 
0.747362 3.14826 9.56247 8 12 15 
0.733127 1.01871 8.27408 64 43 40 
0.819333 0.584468 9.09075 60 55 51 
0.831868 0.469507 9.14067 170 78 91 
0.73303 1.14251 8.04011 248 226 185 
0.811774 3.12438 9.61747 129 120 115 
0.853789 -0.524973 8.80791 83 84 76 
0.84967 0.55752 9.11253 80 80 72 
0.851038 0.558337 9.12471 80 80 72 
0.855644 0.584124 9.10009 171 160 138 
0.778767 1.05881 8.24148 225 189 43 
0.882383 0.113378 8.93823 99 48 55 
0.925684 0.733758 9.24118 181 158 127 
0.936336 0.431219 8.79545 183 159 133 
0.863328 -1.77356 7.2596 55 26 28 
0.953048 0.255337 8.77037 42 27 20 
0.894601 -1.76428 7.27367 207 182 56 
0.956449 1.02399 8.3453 164 146 126 
0.966853 -1.9797 7.22129 120 93 2 
1.18787 3.12336 9.5741 106 108 105 
1.01804 -1.55483 7.1032 157 137 76 
1.05212 -1.61382 7.12814 109 88 21 
1.1828 1.0112 8.32555 144 123 96 
1.11479 -1.68703 7.06279 99 87 37 
1.22099 1.18479 8.08474 245 209 13 
1.28084 1.00228 8.34634 148 127 98 
1.38375 3.25383 9.44831 163 153 143 
1.28846 1.09771 8.29838 214 191 51 
1.20537 -1.64663 7.11891 218 186 41 
1.44415 -0.20442 8.96633 197 171 138 
1.49237 2.78821 9.56048 180 170 158 
1.42376 1.15651 8.39064 172 140 27 
1.30075 -1.65609 7.131 239 210 10 
1.46242 1.01037 8.29936 156 130 115 
1.46075 1.00901 8.28906 156 130 115 
1.37045 -1.43604 7.20943 187 153 29 
1.66321 3.49623 9.31759 46 41 38 
1.40354 -1.39002 7.21635 47 42 12 
1.47213 -1.27571 7.08464 60 60 50 
1.67539 3.29501 8.47104 12 13 17 
1.67131 3.32745 8.41994 13 17 20 
1.71152 1.06237 8.36485 166 140 123 
1.69967 1.17789 8.27143 182 84 97 
1.53979 -1.36656 7.13788 8 6 11 
1.84988 -0.586666 8.77844 31 16 39 
1.79748 2.63485 8.02906 23 36 27 
1.9344 2.48167 8.28707 207 192 171 
1.94108 2.48928 8.31216 207 192 171 
1.93071 2.3777 8.20933 52 49 42 
1.94067 2.42813 8.26034 34 40 26 
1.9201 2.26063 8.15678 192 192 180 
1.93937 2.2639 8.17742 27 23 14 
1.94547 2.18016 8.15673 197 199 185 
1.82701 1.39877 7.53009 61 60 55 
1.99343 2.31985 8.23231 205 190 169 
2.0404 2.19608 8.20847 17 33 22 
2.08231 2.44729 8.26799 205 190 167 
2.09788 1.92821 8.23354 27 27 15 
2.08392 0.799666 8.04302 63 57 43 
2.32268 1.43568 8.40412 32 26 12 
2.36003 1.29089 8.36143 44 56 32 
2.49688 0.892446 8.42601 203 190 171 
2.55282 -0.236318 7.66888 212 188 162 
2.5741 -0.330833 7.60412 186 179 160 
-5.51314 4.3982 17.2609 144 157 174 
-1.96028 -1.06209 7.54427 46 48 61 
-1.8575 -0.775763 7.56499 28 25 52 
-1.86494 -0.868296 7.6143 180 181 186 
-2.05172 0.0496847 8.20523 214 254 255 
-1.8322 -0.483881 7.65763 178 180 193 
-1.19755 0.431843 8.40132 128 113 92 
-1.2818 3.44433 8.53859 231 197 89 
-1.21101 3.61717 7.98944 48 52 37 
-1.2698 3.4489 8.55018 164 127 23 
-1.2112 3.56571 8.09378 38 68 70 
-1.00188 0.913747 7.7278 170 146 118 
-1.22529 3.55007 8.2315 178 173 153 
-1.33701 3.36717 9.13613 116 107 90 
-1.23615 3.47707 8.45333 217 193 85 
-0.992104 0.811762 7.92685 186 138 124 
-1.13615 3.60894 7.99285 210 205 175 
-1.15261 3.52606 8.21489 70 76 40 
-1.10945 3.63832 7.87516 83 79 54 
-1.11124 3.56927 8.07517 202 199 168 
-1.05477 3.64373 7.78786 137 142 122 
-1.09529 3.52766 8.17666 34 44 10 
-1.07409 3.57594 8.08001 105 100 70 
-1.06381 3.50035 8.35596 165 128 22 
-1.01779 3.60243 7.96022 88 87 69 
-1.01075 3.54054 8.12064 78 83 63 
-0.993163 3.60365 7.99745 35 44 39 
-0.973348 3.60775 7.94714 157 168 89 
-0.978288 3.55734 8.03606 38 38 26 
-0.780208 0.905529 7.99511 150 94 37 
-0.915167 3.5728 8.10443 230 214 180 
-0.724843 0.807076 8.08963 94 21 30 
-0.870531 3.59448 8.07863 200 148 47 
-0.70535 0.819154 8.09854 184 126 52 
-0.855411 3.45792 8.63188 139 100 45 
-0.826749 3.52686 8.37743 211 181 147 
-0.669222 0.88914 8.19282 121 50 0 
-0.665869 0.904812 8.22574 188 117 65 
-0.641902 0.50635 8.35775 227 201 166 
-0.634668 0.729666 8.20694 179 132 114 
-0.799051 3.52387 8.46769 203 171 94 
-0.791644 3.5589 8.48132 100 67 22 
-0.757552 3.54648 8.41427 216 181 81 
-0.650241 3.71071 8.0995 167 111 24 
-0.553208 3.80644 7.20278 185 166 168 
-0.628443 3.53968 8.65826 46 43 62 
-0.621438 3.52203 8.99184 116 113 134 
-0.577205 3.69918 8.25828 167 128 9 
-0.510342 3.71791 7.75955 229 221 185 
-0.144045 -2.1053 6.70843 76 57 24 
-0.517584 3.55716 8.75877 56 39 58 
-0.485953 3.67298 8.23242 153 149 138 
-0.489585 3.60629 8.55928 169 167 168 
-0.502725 3.53674 8.88212 130 120 145 
-0.470197 3.60978 8.52441 175 172 165 
-0.690106 6.32318 10.5898 115 115 117 
-0.457574 3.55815 8.59834 141 143 155 
-0.437706 3.60336 8.32043 155 150 146 
-0.456432 3.49437 8.92576 37 38 43 
-0.451742 3.45117 9.07375 67 53 52 
-0.285296 0.979536 8.09124 57 24 31 
-0.400678 3.56408 8.50654 159 157 145 
-0.34793 3.50307 8.64934 217 178 83 
-0.333301 3.52331 8.58804 221 184 80 
-0.15894 0.259887 8.80447 32 29 48 
-0.143671 0.0781466 8.75676 145 147 144 
-0.165008 0.768184 8.8874 148 101 75 
-0.0978439 -0.424145 8.58904 111 31 60 
-0.0965597 -0.449063 8.61561 99 35 52 
-0.0962416 -0.275189 8.65562 152 152 150 
-0.0747545 -0.239431 8.69313 148 149 144 
-0.206761 3.75455 7.60832 119 95 9 
-0.0445585 -0.411722 8.62029 150 145 141 
-0.0394923 -0.292388 8.67858 146 147 139 
-0.0323206 -0.389452 8.6119 96 59 66 
0.0926963 -2.24612 6.84332 30 12 12 
-0.015323 -0.517468 8.56574 171 135 145 
-0.00817694 -0.432669 8.60933 162 126 136 
-0.00269566 -0.486449 8.57423 88 42 53 
-0.00779925 -0.357645 8.64972 145 146 140 
-0.0169504 -0.0875366 8.75874 147 147 139 
0.00176228 -0.388919 8.62868 98 58 66 
0.007618 -0.430258 8.62775 90 53 61 
-0.156827 3.88328 7.64544 212 154 18 
0.0304573 -0.467379 8.61889 149 146 139 
-0.125294 3.76339 7.62041 186 85 7 
0.0420983 -0.421578 8.63273 106 48 63 
0.0521256 -0.505094 8.586 171 135 145 
0.0548598 -0.516598 8.58128 171 138 145 
0.0430357 -0.225679 8.70997 149 149 147 
0.0481761 -0.314236 8.67877 100 100 98 
-0.110276 3.87045 7.638 218 114 115 
-0.105127 3.85153 7.63928 236 145 126 
-0.102758 3.87325 7.64439 164 71 64 
-0.101505 3.86333 7.64338 190 108 94 
0.0778202 -0.502998 8.58241 109 50 70 
-0.0931046 3.87469 7.64744 229 134 132 
0.0463465 0.293614 8.84964 111 49 74 
-0.0903746 3.84195 8.44244 54 31 13 
-0.0891416 3.77864 8.64792 163 114 84 
-0.0835841 3.88055 7.65222 130 35 29 
-0.0835012 3.87146 7.65573 140 57 43 
0.0842186 -0.22828 8.71545 146 146 144 
0.089966 -0.287935 8.7023 148 148 146 
0.0933914 -0.355671 8.66407 141 143 140 
0.0731959 0.271838 8.84297 34 15 34 
0.111276 -0.449677 8.62701 144 146 135 
0.0737381 0.417823 8.8886 60 22 37 
0.0734125 0.448636 8.90199 139 75 89 
-0.0571206 3.78445 8.56279 140 113 83 
0.128094 -0.281135 8.69926 143 144 138 
0.131084 -0.258674 8.70203 64 64 64 
0.116028 0.17333 8.84733 131 37 74 
0.109379 0.391378 8.87831 169 86 102 
0.15236 -0.307608 8.69301 97 96 91 
0.164942 -0.349544 8.67697 144 147 136 
-0.00440009 3.89339 7.65839 207 124 106 
0.140213 0.424851 8.88622 58 26 39 
0.28643 -2.79335 7.19313 181 154 127 
0.191843 -0.304724 8.69361 103 103 91 
0.28374 -2.71202 7.16338 76 35 51 
0.217608 -0.518726 8.6209 111 47 63 
0.225149 -0.380531 8.67508 85 51 52 
0.227502 -0.412259 8.66343 83 53 55 
0.20181 0.378169 8.85953 165 45 80 
0.236095 -0.440885 8.65367 149 144 140 
0.0881557 3.58751 9.04327 119 116 111 
0.237312 -0.240735 8.73162 153 152 147 
0.244936 -0.398039 8.69094 169 145 143 
