ply                 
format ascii 1.0    
element vertex 1285
property float x    
property float y    
property float z    
property uchar red  
property uchar green
property uchar blue 
end_header          
-0.201204 3.80132 7.84321 175 37 35 
-0.198751 3.81731 7.86281 175 35 38 
-0.173463 3.80841 7.73494 235 146 142 
-0.15704 3.9023 7.66783 187 140 24 
-0.162233 3.84273 7.87681 198 138 128 
-0.15619 3.80801 7.68926 176 64 44 
-0.316963 0.641499 8.8558 86 73 57 
-0.161372 3.9637 8.46995 23 19 7 
-0.139905 3.80715 7.86868 169 59 58 
-0.125537 3.86939 7.66546 135 22 28 
-0.128367 3.80973 7.68909 172 63 30 
-0.229586 0.935172 8.06037 21 23 46 
-0.210346 1.09252 7.92895 14 26 68 
-0.0885688 4.00667 7.56602 125 100 95 
-0.0948977 3.88742 7.65854 217 136 133 
-0.0955113 3.86109 7.66402 122 36 23 
-0.24793 0.824177 8.80381 190 125 107 
-0.209253 0.948439 8.03203 204 205 210 
-0.0845384 3.89584 7.66794 117 33 33 
-0.0845203 3.88586 7.67032 125 45 44 
-0.200513 0.934312 8.0684 58 57 52 
-0.0733837 3.90088 7.67825 218 132 135 
-0.0674555 3.81209 7.95459 136 140 115 
-0.0606426 3.82432 7.85005 157 74 92 
-0.0471123 3.88009 7.67188 206 126 117 
-0.0504528 3.80029 7.73455 173 53 65 
-0.0388457 3.88501 7.67797 137 53 42 
-0.0301224 3.88256 7.67126 210 126 116 
-0.138571 1.02879 7.86497 123 132 173 
-0.177097 0.795932 8.81187 218 169 136 
-0.0209779 3.86377 7.66077 137 62 20 
-0.164544 0.760549 8.83189 126 79 61 
-0.160681 0.778901 8.81989 212 166 140 
-0.0169518 3.82058 7.91606 45 79 104 
-0.00498302 3.91413 7.68335 199 124 118 
-0.184237 -1.78942 6.98009 185 162 131 
-0.182646 -2.12968 6.86346 126 115 93 
-0.172221 -1.79434 6.97692 48 22 7 
-0.147336 0.136139 8.74955 32 34 59 
-0.123529 0.814204 8.84327 192 149 133 
-0.0908475 1.02019 7.89468 18 35 91 
-0.145145 0.0755732 8.71767 148 149 151 
-0.142595 0.115728 8.73627 25 31 53 
0.0232319 3.83223 7.69651 230 206 8 
-0.118661 0.771657 8.82504 166 124 110 
-0.111188 0.840886 8.8348 110 55 50 
-0.141146 -0.144121 8.66228 19 19 17 
0.0318617 3.82836 7.74965 57 40 0 
-0.090809 0.769482 8.84499 136 93 76 
-0.124549 -0.263363 8.64338 31 30 28 
-0.11357 -0.273893 8.6334 104 104 102 
-0.0792135 0.576011 8.83006 201 168 153 
-0.100928 -0.3964 8.59743 97 40 55 
-0.0967066 -0.276303 8.61943 141 141 141 
-0.128724 -2.11627 6.89367 43 28 5 
-0.0341114 0.961367 8.05754 166 158 155 
-0.133519 -2.40863 6.77988 151 117 45 
-0.0840216 -0.223663 8.65048 142 144 141 
-0.120319 -2.15686 6.86837 173 161 119 
-0.0609261 0.387396 8.78949 111 96 119 
-0.0831431 -0.470372 8.58031 155 124 130 
-0.014894 0.988124 7.92761 209 194 191 
-0.106678 -2.20209 6.84946 24 13 0 
-0.0677875 -0.422663 8.58498 73 57 58 
-0.022854 0.325071 8.76589 141 53 78 
-0.0448488 -0.411794 8.60788 141 133 131 
0.131422 3.9047 8.30164 76 79 58 
0.140139 3.77687 8.77301 25 24 19 
-0.0160254 -0.318822 8.63129 73 75 74 
0.155962 3.97147 7.76774 76 86 75 
-0.0160949 -0.388306 8.59872 166 131 138 
0.152854 3.89136 8.21035 20 22 17 
-0.00870788 -0.358864 8.61475 134 139 132 
0.163024 3.97609 7.72753 78 85 77 
-0.00595643 -0.458631 8.61766 136 139 130 
0.167341 3.84468 8.34459 19 10 1 
0.00787664 -0.430887 8.59582 80 51 56 
-0.0483766 -2.29589 6.8573 147 136 82 
0.0705817 0.97358 8.03168 127 130 165 
0.0165424 -0.408387 8.6018 139 127 127 
0.0461097 0.285844 8.76657 114 54 79 
0.028666 -0.197892 8.66983 83 84 79 
0.0183852 -0.508112 8.5577 153 132 137 
0.0818631 0.963263 8.07272 31 30 64 
0.0334958 -0.339967 8.62313 138 139 134 
0.0717374 0.43667 8.79552 131 74 91 
0.0719172 0.406938 8.78925 63 27 41 
0.0411962 -0.422294 8.60021 96 40 53 
0.206187 3.81556 8.35089 33 30 23 
0.0481431 -0.315448 8.64119 85 84 80 
0.0750611 0.262258 8.74687 40 24 35 
0.0521122 -0.369851 8.61716 147 131 132 
0.0734449 -0.267388 8.65492 30 30 30 
-0.00748769 -2.41574 6.84167 14 7 14 
0.10347 0.4557 8.82263 119 71 83 
0.107794 0.382078 8.78555 159 86 103 
0.243184 3.83677 8.13176 121 129 118 
0.252997 3.8381 8.07343 103 108 102 
0.0177377 -2.27172 6.87591 177 163 134 
0.102283 -0.481661 8.59054 76 43 50 
0.139339 0.416256 8.80106 56 24 35 
0.110264 -0.449887 8.60668 135 132 127 
0.277298 3.8314 7.966 122 128 114 
0.130165 -0.172341 8.68489 25 26 21 
0.285316 3.83066 8.14342 15 16 11 
0.124322 -0.502181 8.58717 147 122 126 
0.290356 3.8887 7.56941 129 136 128 
0.146515 -0.181299 8.68802 146 148 145 
0.0502528 -2.33411 6.86954 99 88 68 
0.204765 1.138 8.06603 177 92 99 
0.169225 -0.203003 8.66671 8 9 4 
0.166205 -0.351401 8.63367 134 135 129 
0.175409 -0.479163 8.60767 99 41 56 
0.187934 -0.254756 8.65505 150 150 148 
0.189263 -0.305753 8.64869 86 85 81 
0.0839053 -2.41569 6.88723 150 120 66 
0.240453 1.13232 8.07442 47 12 16 
0.242341 1.16 7.95162 133 89 44 
0.190334 -0.414159 8.62396 99 47 59 
0.087315 -2.45652 6.86204 41 21 0 
0.250702 1.14611 8.04569 55 15 13 
0.208397 -0.18386 8.67373 159 159 157 
0.260228 0.862875 8.87642 98 42 41 
0.207243 -0.39777 8.62732 153 131 133 
0.214678 -0.24556 8.66023 42 42 40 
0.265574 -0.0786761 10.6871 134 135 127 
0.240322 -0.180932 8.67511 147 147 145 
0.262377 0.269539 8.74093 36 18 30 
0.287867 0.807677 8.85703 70 39 18 
0.233121 -0.441902 8.60651 136 136 128 
0.23546 -0.516943 8.5933 73 49 47 
0.302917 0.867251 8.8884 108 60 58 
0.257975 -0.161202 8.68242 23 24 19 
0.273448 -0.0283916 8.71041 138 137 132 
0.265994 -0.245039 8.65112 50 50 52 
0.26941 -0.190679 8.66268 145 144 142 
0.299478 0.40287 8.79085 108 109 130 
0.264 -0.417428 8.62739 102 41 56 
0.301223 0.359848 8.78802 62 22 57 
0.286295 0.0328254 8.73563 28 28 36 
0.327771 0.86822 8.90755 105 60 55 
0.326704 0.842493 8.89215 178 144 134 
0.321311 1.16508 7.95385 62 54 67 
0.278046 -0.367622 8.64848 80 49 54 
0.31336 0.317882 8.76299 38 20 34 
0.306657 0.0114975 8.71043 47 54 62 
0.311616 0.0745927 8.69991 30 23 39 
0.338641 0.294075 8.76355 47 11 25 
0.311413 -0.409297 8.63491 85 46 49 
0.37012 0.811465 8.88768 57 18 11 
0.353902 0.332909 8.79112 186 173 157 
0.378691 0.870027 8.90967 132 86 86 
0.351398 0.210049 8.73794 165 162 147 
0.328909 -0.399736 8.63542 168 115 125 
0.358763 0.105682 8.7338 140 136 135 
0.344644 -0.176092 8.65572 111 112 107 
0.376601 1.08672 7.99813 140 111 79 
0.373546 0.365773 8.79606 55 38 57 
0.403676 0.866792 8.91294 73 54 47 
0.387992 0.504487 8.82931 107 51 64 
0.34639 -0.367478 8.6417 87 31 40 
0.377396 0.187492 8.74226 36 42 66 
0.393153 1.16324 7.99383 151 136 117 
0.394034 0.441911 8.8197 81 41 67 
0.376875 -0.0239362 8.74621 136 137 129 
0.591856 5.3629 8.43683 62 43 36 
0.39968 1.05527 7.98795 104 31 16 
0.37243 -0.229535 8.67329 78 80 77 
0.371272 -0.408629 8.63437 80 38 42 
0.419146 1.08152 7.98066 109 8 0 
0.385365 -0.364448 8.64992 87 35 47 
0.385589 -0.408461 8.6245 103 28 48 
0.423901 1.10443 7.98073 97 30 21 
0.399233 -0.212607 8.67033 144 144 146 
0.402784 -0.166741 8.67909 52 54 49 
0.42766 1.09132 7.98124 178 119 105 
0.406804 -0.225692 8.6676 54 53 58 
0.404518 -0.381725 8.6348 141 126 121 
0.426589 -0.359194 8.64101 94 59 65 
0.429409 -0.398712 8.6287 105 61 76 
0.432299 -0.42517 8.6261 92 67 70 
0.466832 1.20215 7.88043 171 110 105 
0.449251 -0.404489 8.64973 142 117 120 
0.489993 1.17038 8.01101 25 18 10 
0.486465 1.08023 7.96552 84 75 18 
0.47067 -0.227887 8.68153 64 66 65 
0.502729 1.09785 7.96198 46 24 10 
0.505311 1.19536 7.89826 202 159 104 
0.507519 1.05552 7.99259 192 185 117 
0.517033 1.07179 7.95351 255 227 172 
0.520319 1.135 7.96274 41 2 5 
0.494027 -0.397727 8.67397 81 43 54 
0.577127 0.884761 8.94479 38 2 12 
0.539068 1.19541 7.9613 70 46 22 
0.535616 1.12709 7.96342 202 110 97 
0.334583 -2.62794 7.04171 225 202 168 
0.525089 -0.356415 8.69184 83 50 57 
0.557859 1.04966 7.97895 98 92 8 
0.605876 0.877972 8.94355 120 91 96 
0.609917 0.865601 8.96035 24 0 0 
0.571051 1.07511 7.95631 212 205 124 
0.571126 -0.357296 8.71416 75 48 55 
0.587914 -0.37339 8.70803 146 113 120 
0.659397 0.836223 8.94203 139 84 89 
0.628742 1.05174 8.06199 228 202 66 
0.641367 1.07849 7.94804 208 222 111 
0.638706 -0.362199 8.72527 88 50 61 
0.710287 0.895064 8.96336 90 62 74 
0.638976 -0.394666 8.72499 80 55 59 
0.653871 1.17325 7.94403 86 38 18 
0.663997 1.03058 8.1478 153 135 115 
0.652307 1.12979 7.92312 98 43 23 
0.641159 1.23274 7.66074 164 152 136 
0.714705 0.849091 8.92471 26 0 12 
0.662108 1.08018 7.93963 34 16 0 
0.668671 1.09036 7.92502 39 9 0 
0.672164 1.07208 7.95092 231 217 182 
0.68268 1.2083 7.91356 195 107 83 
0.68395 1.11194 7.9082 169 104 86 
0.686146 1.07994 7.95625 45 27 3 
0.687879 1.15704 7.91949 26 17 12 
0.701359 1.10548 7.92996 53 34 19 
0.727483 0.0135479 8.82071 70 39 47 
0.738797 1.04377 8.13907 93 119 84 
0.515158 -2.36492 7.08418 57 34 0 
0.798227 0.619596 8.94783 168 115 99 
0.807168 0.575789 8.93982 55 45 53 
0.543357 -2.23643 7.13052 110 90 66 
0.963382 3.79421 9.02772 2 4 16 
0.773823 1.04979 8.11946 223 194 15 
0.834978 0.747693 8.9465 191 154 145 
0.835512 0.548674 8.93649 63 63 63 
0.811079 0.0504454 8.86107 59 40 44 
0.56726 -2.31816 7.10255 51 28 0 
0.831904 1.05077 8.18206 186 83 52 
0.911729 0.724296 9.07444 149 133 110 
0.842499 1.21934 8.01334 164 136 89 
0.843846 1.07622 8.09112 233 202 156 
0.851728 -0.518308 8.80061 114 119 113 
0.870152 1.21496 8.03329 125 89 11 
0.888567 1.06145 8.18158 190 60 44 
0.903527 1.11597 8.09898 229 196 39 
0.937883 0.252906 8.61196 36 23 14 
0.677221 -2.37003 7.11461 101 88 53 
0.935593 1.23099 7.98508 96 90 76 
1.50751 6.6628 10.3961 146 135 129 
1.10001 1.19393 7.98253 184 130 0 
1.13258 1.04626 8.28596 69 45 19 
1.21352 1.06576 8.27799 48 54 40 
1.26553 0.99054 8.23551 122 104 80 
1.24241 1.24551 7.97662 238 185 9 
1.27795 1.10698 8.1104 144 119 0 
1.33302 1.08815 8.31846 111 68 59 
1.46155 1.29388 8.04563 68 19 0 
1.63828 0.92552 9.04478 41 37 36 
1.5859 1.14822 8.32224 97 30 47 
1.58829 1.26996 8.30498 163 94 99 
1.24599 -2.26349 7.30437 203 176 69 
1.80504 0.843704 9.22155 85 76 67 
1.6091 1.3034 8.04148 133 88 49 
1.31196 -2.23588 7.20736 164 132 21 
1.73046 1.20669 8.10682 178 92 101 
2.47844 0.0375506 7.62279 208 187 158 
-2.12244 -0.00424886 8.27384 123 140 156 
-2.07991 0.0472171 8.26589 88 124 140 
-1.97654 -1.07498 7.75211 180 182 194 
-1.95509 -0.126143 7.87004 65 93 114 
-1.90609 -0.657516 7.68656 31 79 127 
-1.97696 0.0758911 8.35662 109 128 142 
-1.90828 0.334607 8.32389 70 70 70 
-1.70858 0.295953 8.42307 114 106 104 
-1.53983 0.291403 8.47616 174 161 152 
-1.16485 0.838895 7.17993 15 22 41 
-1.26267 0.617869 8.14178 193 162 134 
-1.25761 0.603702 8.15406 59 40 25 
-1.25439 0.357517 8.40234 191 178 162 
-1.25463 0.189416 8.43271 72 58 45 
-1.20604 0.493107 8.37118 130 103 74 
-1.11608 0.659326 7.97649 106 75 47 
-1.13826 0.523171 8.10168 59 35 23 
-1.09744 0.78139 7.919 171 142 128 
-1.11643 0.614798 7.99997 203 179 135 
-1.08997 0.591547 7.98327 128 93 65 
-1.02781 0.983216 7.74654 119 108 104 
-1.14219 0.466777 8.39515 224 198 147 
-1.0591 0.593643 8.0148 235 202 167 
-1.00486 0.920848 7.73814 139 123 107 
-1.05078 0.568141 8.03795 23 18 15 
-0.990544 0.710411 7.92004 220 196 170 
-0.988914 0.704587 8.08283 18 16 21 
-0.932805 1.02441 7.80691 200 191 186 
-0.988461 0.488988 8.04857 206 162 127 
-1.01982 0.402174 8.53308 136 118 106 
-0.957183 0.639918 8.143 18 22 31 
-0.944472 0.704347 8.1354 204 160 123 
-0.939002 0.494237 8.04607 160 121 88 
-0.898619 0.839031 7.94942 94 26 23 
-0.887296 0.804854 7.92526 181 149 138 
-0.928084 -2.03408 7.17552 23 23 25 
-0.896583 0.610856 8.19808 224 188 154 
-0.868156 0.677052 8.2029 194 165 131 
-0.828214 0.837589 7.97789 95 28 22 
-0.818789 0.860973 7.95846 208 141 50 
-0.848341 0.681988 8.14841 34 20 11 
-0.854266 0.673347 8.24571 42 26 10 
-0.865366 0.584752 8.33941 154 129 99 
-0.765981 0.824166 7.98449 175 130 111 
-0.761368 0.813913 8.01007 94 41 35 
-0.704566 1.12252 7.63723 50 46 45 
-0.735969 0.842507 8.05684 93 27 3 
-0.678598 1.07095 7.65692 228 215 198 
-0.70435 0.818604 8.07808 171 111 57 
-0.700041 0.866072 8.09526 117 43 16 
-0.68066 0.790184 8.10138 93 27 29 
-0.685385 0.640219 8.26804 131 136 96 
-0.67533 0.558201 8.3357 168 152 127 
-0.657212 0.561322 8.31674 186 180 164 
-0.598337 0.564163 8.28334 72 63 48 
-0.319912 0.856439 7.97328 25 6 0 
-0.31233 0.887825 8.01536 212 190 179 
-0.300602 0.885952 8.02196 194 171 155 
-0.268408 1.04451 7.97587 165 131 121 
-0.260917 1.08001 7.91572 123 110 94 
-0.317363 0.639777 8.84863 82 68 65 
-0.210796 1.1522 7.70327 129 63 29 
-0.230838 0.935919 8.06063 22 23 53 
-0.272293 0.706572 8.82653 221 187 139 
-0.216039 1.05746 7.90096 29 35 69 
-0.189204 1.17274 7.56669 207 169 104 
-0.208414 0.952199 8.04381 199 197 200 
-0.201464 0.931901 8.05994 60 54 56 
-0.187391 1.01047 7.85922 102 106 144 
-0.189065 1.00495 7.96649 23 33 92 
-0.140625 1.17209 7.60746 215 173 113 
-0.213525 0.227006 8.72973 181 173 154 
-0.13884 1.02734 7.86081 115 121 157 
-0.177442 0.793451 8.80296 212 166 143 
-0.177159 0.616747 8.78041 220 189 145 
-0.0904194 1.02606 7.91049 17 35 97 
-0.118935 0.770246 8.82069 151 114 98 
-0.110734 0.83407 8.81208 135 79 78 
-0.13331 0.442971 8.79633 187 180 152 
-0.0336991 1.17174 7.69179 108 56 58 
-0.0857268 0.542613 8.81276 118 106 108 
-0.120026 -0.326444 8.63517 77 79 76 
-0.104133 -0.264226 8.63802 42 42 44 
-0.0145603 0.988736 7.92971 201 189 177 
-0.0961331 -0.210888 8.6375 65 65 67 
-0.0614792 0.38279 8.7721 98 90 111 
-0.10159 -0.399758 8.57806 97 34 53 
-0.0506989 0.343014 8.73796 72 18 44 
-0.071327 -0.192499 8.68089 135 135 135 
-0.0822991 -0.407168 8.59663 159 117 127 
-0.0574994 -0.452519 8.58615 92 69 75 
0.00567463 0.510077 8.78419 119 55 72 
-0.0536018 -0.514277 8.53766 107 82 85 
-0.0198039 -0.0890282 8.70328 139 139 137 
0.0597982 0.99029 8.03302 43 47 85 
-0.0233618 -0.462643 8.5494 137 136 134 
-0.0216566 -0.461006 8.56502 138 137 135 
0.082868 1.1715 7.5766 69 50 36 
0.084098 0.97008 8.09339 31 33 74 
-0.0024967 -0.488454 8.58378 83 41 51 
0.0174786 -0.406281 8.61641 136 132 131 
0.287838 3.87815 7.55579 130 136 126 
0.382664 5.35805 8.14038 110 80 52 
0.277764 3.46358 9.74081 105 96 89 
0.033908 -0.365227 8.62356 94 57 65 
0.134896 1.22386 7.50991 157 127 103 
0.0376397 -0.517545 8.5853 90 42 54 
-0.133413 -3.13918 6.85374 98 69 53 
0.0664716 -0.350559 8.64968 135 137 134 
0.109202 0.162419 8.74971 126 39 74 
0.122976 -0.505014 8.56904 148 117 125 
0.153856 -0.191896 8.65919 142 141 137 
0.503801 5.33486 8.26587 185 166 151 
0.236372 1.13858 8.02758 166 85 91 
0.16763 -0.187386 8.66609 30 29 24 
0.238093 1.02641 8.03674 25 26 31 
0.169754 -0.252177 8.66253 137 139 136 
0.178107 -0.196093 8.66915 112 111 107 
0.180042 -0.261408 8.66302 27 28 30 
0.259104 0.85786 8.86042 118 64 64 
0.264947 1.17385 7.89366 194 154 92 
0.175467 -0.48118 8.59836 88 40 54 
0.177399 -0.443917 8.63155 137 133 130 
0.189283 -0.305579 8.65055 92 95 88 
0.238006 0.349782 8.78544 151 46 86 
0.213916 -0.247804 8.64834 40 42 39 
0.299612 0.831368 8.85128 174 139 120 
0.262049 0.269303 8.74018 40 20 32 
0.584862 5.28844 8.3585 62 43 37 
0.223008 -0.417435 8.59274 90 57 64 
0.325638 0.841018 8.88606 175 137 126 
0.329048 0.871781 8.91942 118 70 66 
0.230077 -0.493491 8.61443 150 130 132 
0.323575 1.16895 7.96538 70 62 77 
0.324898 1.10668 8.02348 163 144 130 
0.235276 -0.517606 8.59013 91 69 71 
0.269157 -0.038009 8.66387 140 143 134 
0.340544 1.14622 8.00592 110 100 101 
0.318374 0.362623 8.74583 70 39 57 
0.347911 1.18988 7.8677 178 141 88 
0.357183 0.792999 8.87768 188 153 133 
0.328432 0.400391 8.76692 71 71 79 
0.0912615 -2.28904 7.02439 23 8 13 
0.333373 0.345271 8.78313 133 63 74 
0.340724 0.469968 8.79598 181 168 151 
0.31223 0.0756411 8.7058 36 24 36 
0.354632 1.00516 8.02454 233 218 179 
0.365375 1.14337 8.03364 42 28 17 
0.0368225 -3.1555 6.85811 83 65 51 
0.297251 -0.412714 8.63431 147 131 132 
0.377044 1.11549 8.01591 176 157 125 
0.373629 1.05865 7.99436 226 203 171 
0.377291 1.08936 8.00466 154 127 100 
0.395511 1.16973 8.01089 157 142 139 
0.334327 -0.206618 8.70473 136 142 132 
0.358907 0.105238 8.73245 134 134 132 
0.402785 1.13471 8.0213 129 92 83 
0.394013 0.442787 8.82239 87 39 65 
0.375969 0.229418 8.75039 37 34 65 
0.42871 0.870033 8.91939 94 69 62 
0.408074 0.950068 8.10991 206 194 172 
0.370575 -0.0339676 8.69419 136 137 132 
0.419798 1.065 7.98765 226 103 105 
0.421987 1.03849 8.01822 182 89 84 
0.371358 -0.231907 8.66137 98 98 98 
0.434465 1.05925 8.03639 174 79 73 
0.381571 -0.19916 8.67065 131 133 130 
0.440918 1.06837 7.99832 88 33 13 
0.371488 -0.423678 8.61842 142 116 115 
0.441958 1.03814 7.99998 209 121 109 
0.380963 -0.370771 8.60995 92 36 49 
0.404334 -0.167223 8.6821 66 68 65 
0.456187 1.05203 7.99846 204 202 119 
0.459633 1.0966 7.9668 173 177 92 
0.405401 -0.227399 8.65724 90 92 89 
0.40019 -0.35744 8.63792 90 65 68 
0.473254 1.09771 7.95789 175 186 94 
0.406315 -0.403834 8.63607 89 63 62 
0.410091 -0.423476 8.62792 141 136 130 
0.491019 1.17325 8.01882 33 24 19 
0.487451 1.0529 7.98829 215 214 122 
0.490535 1.09334 7.96846 168 148 123 
0.496123 1.12905 7.96845 32 15 7 
0.503245 1.1162 7.95919 156 127 123 
0.433687 -0.424864 8.6318 92 73 75 
0.505181 1.19459 7.89672 199 160 101 
0.503954 1.09877 7.96557 54 25 27 
0.441762 -0.380438 8.63349 146 115 121 
0.508146 1.05589 7.99433 214 206 133 
0.448622 -0.404888 8.64564 141 116 122 
0.522782 1.13976 7.97628 49 7 9 
0.517701 1.07273 7.95633 232 205 152 
0.533686 1.22274 7.84693 187 158 124 
0.534975 1.12576 7.95991 173 88 83 
0.542755 1.20371 7.98331 80 61 31 
0.55034 1.18476 8.02263 84 39 20 
0.567633 1.19799 7.97051 200 159 105 
0.602016 0.884443 8.89606 50 3 13 
0.580036 1.18945 8.00666 112 71 39 
0.572151 1.04098 7.97116 194 186 105 
0.573339 1.06284 7.96373 67 62 0 
0.523447 -0.360191 8.67207 77 44 51 
0.595011 1.10416 7.9537 199 193 99 
0.641876 0.892626 8.91597 113 51 64 
0.657459 0.832099 8.92759 137 83 96 
0.829245 4.02602 8.00472 37 36 41 
0.566493 -0.365094 8.67002 92 47 67 
0.631909 1.13139 7.94294 130 48 26 
0.616021 0.00781104 8.78087 40 40 52 
0.58343 -0.379517 8.67121 145 112 121 
0.646053 1.02687 8.14895 214 190 116 
0.639992 1.07341 7.93556 200 213 97 
0.652915 1.03201 8.12823 117 81 31 
0.647592 1.11429 7.93383 248 224 180 
0.653101 1.13289 7.93029 113 49 40 
0.641516 1.23089 7.65758 169 160 145 
0.614329 -0.375922 8.72093 107 71 81 
0.666705 1.13827 7.91359 175 127 113 
0.687459 1.05399 8.11891 227 198 36 
0.940947 3.72478 8.91824 2 6 15 
0.636651 -0.364562 8.7103 84 53 61 
0.682517 1.09012 7.92355 196 172 146 
0.688698 1.15738 7.92114 30 16 13 
0.676747 -0.128475 8.76061 93 93 83 
0.701278 1.07312 7.9779 193 157 123 
0.729514 1.21326 7.96029 129 100 60 
0.720886 1.12645 7.88429 237 213 185 
0.737929 1.04047 8.13112 117 123 121 
0.794088 0.612587 8.92172 165 114 95 
0.757099 1.08987 7.95164 244 214 186 
0.772286 1.03829 8.17243 232 200 65 
0.803281 0.569171 8.91511 56 51 55 
0.774142 1.05047 8.12164 236 197 16 
0.84006 0.750817 9.02186 190 146 135 
0.777328 1.08879 8.04218 164 119 51 
0.791971 1.08372 8.03847 118 89 0 
0.832969 0.543686 8.91882 65 61 62 
0.842521 0.574738 8.93995 146 133 116 
0.821179 1.04483 8.21096 242 192 57 
0.831658 1.04845 8.17673 184 70 46 
0.897907 0.707408 9.00704 145 133 109 
0.847886 1.02743 8.23807 99 43 26 
0.844128 1.07502 8.08883 234 202 163 
0.869645 1.04575 8.21169 222 154 131 
0.869796 1.21307 8.02907 130 92 0 
0.887034 1.05648 8.16904 194 61 56 
0.874748 1.24833 7.86063 74 71 62 
0.854449 -0.516465 8.81497 88 91 84 
0.894374 1.09948 8.05376 222 196 86 
0.465007 -3.41944 7.09164 81 116 109 
0.926336 1.2623 7.93938 218 176 90 
0.935815 1.23158 7.98665 94 79 72 
1.32126 3.21884 9.82971 146 136 134 
0.983285 1.00994 8.23616 90 74 61 
1.01594 1.01899 8.27686 164 142 119 
1.06648 1.24965 7.94951 234 185 83 
1.06669 1.24534 7.83039 226 175 86 
1.13142 1.04338 8.27837 66 42 18 
1.11904 1.08078 8.12834 184 173 143 
1.07507 1.25673 7.67917 141 116 75 
1.10946 1.24341 7.91513 218 115 20 
0.724555 -2.60911 7.09067 200 106 120 
1.15017 1.08998 8.01818 227 193 60 
1.15935 1.27166 7.96043 222 109 29 
1.1847 1.09305 8.14274 209 194 161 
1.17212 1.11149 8.04478 140 85 2 
1.17659 1.30194 7.86515 176 87 19 
1.19752 1.09248 8.08201 226 200 175 
1.1976 1.11329 8.02284 79 56 2 
1.23128 1.03938 8.2362 145 126 112 
1.22852 1.22452 7.92167 237 191 10 
1.24185 1.24487 7.9743 239 190 10 
1.2671 0.993458 8.24314 121 103 89 
1.28248 1.09663 8.24347 228 199 9 
1.29209 1.06706 8.295 119 100 86 
1.27753 1.25364 7.99714 40 19 2 
1.28608 1.09133 8.12344 165 144 0 
1.29918 1.09584 8.15646 180 156 6 
0.84549 -2.61841 7.11213 192 84 81 
1.33236 1.08889 8.31902 89 46 27 
1.29623 1.25028 7.98217 47 31 16 
1.31132 1.23303 8.02041 104 77 56 
1.34978 1.25556 7.99204 146 119 90 
1.40754 0.990682 8.39718 161 134 123 
1.38786 1.00629 8.11311 194 173 144 
1.39253 1.26261 7.99876 174 125 84 
1.50319 1.25224 8.25676 51 24 17 
1.47777 1.27996 8.01407 177 91 58 
1.624 0.915942 9.00399 39 34 38 
1.52047 1.24409 8.25629 110 77 68 
1.55203 1.23695 8.30883 146 93 77 
1.50815 1.33169 7.91995 209 129 130 
1.57088 1.25291 8.25362 149 88 87 
1.51121 1.30563 7.85795 82 34 30 
1.58918 1.24648 8.2903 94 33 28 
1.55959 1.28338 8.06678 207 143 107 
1.55401 1.29474 8.02665 141 95 43 
2.38358 6.69883 9.96164 126 123 106 
2.43278 6.91115 10.1 158 146 132 
1.59475 1.30326 8.09138 200 154 104 
2.40912 6.66537 9.93368 120 102 92 
2.42336 6.76435 9.93778 96 82 73 
1.60373 1.32411 7.99071 116 83 52 
1.79647 0.836676 9.19422 79 73 61 
1.60992 1.31162 8.00447 161 125 91 
2.4211 6.73016 9.84101 116 99 89 
2.46567 6.5725 10.0387 112 108 105 
2.44682 6.76491 9.82007 112 99 82 
1.68978 1.04595 8.2493 145 125 116 
1.68932 1.09515 8.19069 15 13 16 
1.66911 1.31218 7.96055 202 160 100 
1.68207 1.26283 7.93029 160 57 40 
1.87495 0.219476 9.05805 175 161 135 
1.9782 2.54358 8.42353 199 183 168 
1.99827 2.57792 8.48618 198 182 167 
2.98743 6.62473 10.4561 160 143 136 
2.99282 6.57607 10.444 79 68 62 
1.53426 -2.1895 7.21708 229 204 15 
3.18326 6.65797 10.4995 169 155 144 
3.20227 6.63626 10.5165 99 89 80 
2.05809 -2.63039 7.71702 215 198 170 
2.09977 -2.65063 7.72297 52 56 57 
2.09752 -2.77599 7.71301 44 39 45 
2.08983 -2.82924 7.70467 54 46 44 
2.10286 -2.8297 7.69803 135 129 129 
2.09725 -2.87342 7.68731 38 33 30 
2.13134 -2.76914 7.73328 114 111 102 
2.15142 -2.65243 7.73013 19 19 19 
2.1635 -2.72519 7.72876 113 108 105 
2.46903 0.149529 7.7064 24 36 24 
2.16075 -2.94337 7.71386 52 38 29 
2.20953 -2.81443 7.73633 150 140 141 
2.22168 -2.72848 7.74129 75 66 71 
2.24287 -2.82893 7.74163 24 22 25 
2.29552 -2.63533 7.77655 205 191 164 
2.33894 -2.68351 7.77052 40 38 39 
2.47496 -2.44972 7.74767 204 179 157 
-2.16098 3.59494 7.88955 50 59 74 
-1.99295 -0.867 7.76361 61 29 42 
-1.94522 -0.914034 7.75343 112 42 50 
-1.92866 -1.07663 7.72172 80 42 53 
-1.93518 -1.03107 7.75451 113 42 50 
-1.90174 -0.885975 7.78013 170 170 178 
-1.90839 0.819194 7.85836 154 174 185 
-1.87478 -0.826737 7.7616 28 71 105 
-1.8648 -0.923936 7.7797 168 171 178 
-1.90731 0.322421 8.27108 179 179 181 
-1.70293 1.02117 7.53515 129 124 118 
-1.67854 0.875754 7.56077 53 54 56 
-1.65445 0.971271 7.54145 143 129 126 
-1.58151 1.01631 7.57343 38 37 53 
-1.5685 0.731581 7.58344 86 79 71 
-1.36417 0.991566 7.1318 53 60 76 
-1.36279 0.977 7.12793 83 92 107 
-1.34232 1.02729 7.13545 73 82 97 
-1.33197 1.03922 7.13774 5 15 27 
-1.31853 1.04321 7.1349 10 16 30 
-1.31299 1.01453 7.12574 82 92 104 
-1.3058 1.00016 7.12097 12 21 38 
-1.29451 0.999938 7.12266 66 75 92 
-1.29217 1.07382 7.14505 70 72 87 
-1.28292 1.08348 7.14872 18 25 41 
-1.26506 1.00058 7.12686 74 82 95 
-1.26666 1.04175 7.13911 13 19 33 
-1.25118 0.852691 7.07532 91 100 115 
-1.25998 1.05316 7.14435 109 106 123 
-1.24156 0.850991 7.08204 2 10 23 
-1.22763 0.877023 7.09317 63 66 81 
-1.23784 1.01207 7.14118 27 30 45 
-1.23352 0.99101 7.13084 25 31 45 
-1.22396 0.452525 7.09354 234 222 210 
-1.23593 1.05307 7.15817 97 98 116 
-1.44123 3.58169 8.25051 23 33 43 
-1.23411 1.08099 7.16823 17 24 40 
-1.20695 0.85013 7.09557 105 114 129 
-1.21803 1.03125 7.15889 48 56 69 
-1.20954 1.05181 7.17727 90 96 110 
-1.18896 0.850801 7.10229 5 14 29 
-1.19876 1.06078 7.19381 17 25 38 
-1.42632 3.50802 8.7846 120 81 22 
-1.39128 3.51209 8.71989 110 86 26 
-1.36498 3.53379 8.64435 134 104 32 
-1.39035 3.49658 8.82111 112 72 21 
-1.374 3.49698 8.808 180 151 85 
-1.31167 3.57681 8.46858 205 184 93 
-1.31702 3.55634 8.53796 217 185 84 
-1.32201 3.55099 8.57659 155 120 30 
-1.30427 3.57451 8.49574 130 107 31 
-1.33943 3.50646 8.74808 109 84 17 
-1.21819 0.566284 8.07763 224 217 188 
-1.32332 3.51352 8.6923 212 166 55 
-1.21158 0.577957 8.07648 218 213 193 
-1.31508 3.53067 8.66138 137 100 12 
-1.23575 3.62992 8.1412 33 58 54 
-1.2687 3.6043 8.35712 44 51 35 
-1.30621 3.54641 8.6057 144 114 42 
-1.30909 3.51336 8.66194 223 182 90 
-1.27606 3.58562 8.45313 121 108 40 
-1.29965 3.52672 8.64611 185 158 81 
-1.28994 3.53711 8.58521 198 172 98 
-1.19682 0.564769 8.0752 151 147 146 
-1.26353 3.58677 8.4556 186 173 95 
-1.27764 3.53706 8.57964 145 118 47 
-1.28462 3.51755 8.62775 149 121 56 
-1.26751 3.53364 8.6015 155 128 39 
-1.09308 -2.37005 7.64082 91 107 122 
-1.24283 3.576 8.47097 207 187 88 
-1.25786 3.54181 8.58133 215 186 94 
-1.2236 3.58737 8.38679 77 89 77 
-1.08227 -2.39694 7.63316 89 105 120 
-1.19407 3.61857 8.20405 141 143 129 
-1.21043 3.59784 8.33179 59 61 47 
-1.24289 3.55508 8.57313 132 103 23 
-1.06671 -2.54939 7.60694 91 109 123 
-1.2007 3.59188 8.34403 32 46 23 
-1.17701 3.60736 8.25912 169 169 143 
-1.22433 3.52225 8.62313 156 115 10 
-1.22834 3.51142 8.65312 166 123 18 
-1.04784 -2.38842 7.64024 89 105 121 
-1.17299 3.58592 8.32743 43 52 25 
-1.198 3.56302 8.49434 193 157 47 
-1.09274 0.815704 7.89225 81 16 0 
-1.14015 3.62349 8.15819 123 128 105 
-1.15431 3.60181 8.27333 199 197 172 
-1.07924 0.807916 7.89024 152 102 41 
-1.12758 3.6252 8.17481 194 200 172 
-1.01047 -2.63082 7.61102 71 88 108 
-1.11301 3.58747 8.28762 41 53 39 
-1.0788 3.63903 8.04729 129 125 98 
-0.98411 -2.56245 7.63364 108 124 139 
-1.10754 3.57997 8.36549 205 186 83 
-0.971811 -2.58647 7.63196 77 90 107 
-1.0802 3.59289 8.32425 17 30 10 
-1.04533 3.6531 8.05499 50 52 41 
-1.11963 3.50558 8.64528 152 116 22 
-0.956525 -2.49158 7.65281 110 128 140 
-0.999399 0.828159 7.88321 75 3 0 
-0.977525 0.915275 7.73193 224 204 180 
-1.08204 3.56335 8.47485 143 109 19 
-1.04943 3.61148 8.23188 24 28 27 
-0.972202 1.025 7.73267 195 176 159 
-1.02341 3.64028 8.05254 184 187 178 
-1.07828 3.56088 8.50292 218 182 86 
-1.04492 3.58638 8.29244 38 48 11 
-0.980236 0.831991 7.88772 89 22 3 
-1.01581 3.64789 8.10497 21 27 23 
-1.02399 3.62958 8.19192 192 191 161 
-1.02617 3.60182 8.23279 21 31 32 
-1.03049 3.60369 8.2888 26 33 2 
-1.00301 3.64464 8.06691 20 36 35 
-1.03169 3.58761 8.30142 144 152 79 
-0.969041 0.8286 7.88584 89 24 6 
-1.01061 3.61256 8.24823 119 127 116 
-0.894472 -2.57375 7.65676 111 122 140 
-0.825146 -1.90784 7.10268 26 24 25 
-0.987598 3.54714 8.24259 210 168 60 
-0.970763 3.58426 8.26829 207 188 129 
-0.971628 3.60575 8.29763 199 191 152 
-0.971728 3.59484 8.36396 133 122 104 
-0.937873 0.611087 8.18175 155 135 111 
-0.934374 3.67725 8.11237 145 96 38 
-0.941105 3.67155 8.16411 138 99 40 
-0.95339 3.60922 8.28954 100 93 77 
-0.930432 3.63329 8.21262 216 201 178 
-0.804082 -2.64819 7.65908 24 29 33 
-0.800512 -2.63806 7.66506 121 123 135 
-0.897407 3.60385 8.32299 143 139 128 
-0.79717 -2.5943 7.67382 128 131 140 
-0.775218 -2.61134 7.67554 149 153 156 
-0.760528 -2.61428 7.67731 37 37 45 
-0.761616 -2.46871 7.70021 49 58 75 
-0.759281 -2.63225 7.68128 144 146 141 
-0.812959 3.76379 8.03535 10 7 24 
-0.746695 -2.79756 7.65112 30 36 32 
-0.844367 3.59418 8.51274 204 181 139 
-0.736665 -2.39414 7.72402 46 58 74 
-0.724379 -2.6329 7.68686 25 26 28 
-0.720296 -2.76457 7.65574 160 157 148 
-0.719814 -2.7809 7.65747 31 29 30 
-0.816377 3.62076 8.38557 202 186 163 
-0.792339 3.65373 8.26532 199 176 145 
-0.812589 3.59491 8.60765 193 154 79 
-0.80441 3.61875 8.59903 87 64 22 
-0.806558 3.58921 8.67198 177 162 143 
-0.786622 3.63231 8.49396 76 61 30 
-0.803685 3.56922 8.70722 210 157 79 
-0.79829 3.59447 8.66772 83 67 52 
-0.760077 3.68371 8.32265 199 163 79 
-0.790979 3.59772 8.65855 154 140 114 
-0.754778 3.66736 8.32719 90 63 16 
-0.770454 3.61552 8.54995 214 167 63 
-0.747099 3.6901 8.31144 206 156 71 
-0.777728 3.60004 8.64451 169 162 136 
-0.777933 3.59812 8.66312 79 68 40 
-0.779647 3.60606 8.67087 115 103 77 
-0.765959 3.61551 8.62023 98 83 54 
-0.704532 3.76324 7.96219 217 198 156 
-0.654708 -2.4461 7.73521 17 20 29 
-0.73863 3.66021 8.40328 160 116 43 
-0.765019 3.6064 8.71141 114 83 19 
-0.734447 3.68123 8.38362 219 166 70 
-0.744951 3.62829 8.51855 183 149 78 
-0.64985 -2.41979 7.74207 118 118 130 
-0.749779 3.62379 8.60034 65 53 39 
-0.647078 -2.43516 7.74357 135 135 137 
-0.646302 -2.38645 7.75239 139 148 165 
-0.747504 3.61476 8.63124 99 83 68 
-0.636604 -2.49029 7.73289 94 101 109 
-0.749528 3.60044 8.72476 185 149 71 
-0.721594 3.66179 8.42633 173 139 76 
-0.635626 -2.44612 7.7453 10 14 17 
-0.735251 3.62361 8.61254 89 75 49 
-0.629819 -2.5175 7.7354 8 8 20 
-0.76258 3.62439 8.97757 132 101 83 
-0.625839 -2.45478 7.74375 103 107 118 
-0.719015 3.64723 8.53893 94 85 68 
-0.726662 3.62192 8.64942 174 150 104 
-0.619515 -2.50194 7.73875 21 24 31 
-0.707808 3.66166 8.49239 94 73 54 
-0.612902 -2.45023 7.73344 20 22 37 
-0.69037 3.68755 8.42854 168 163 133 
-0.730685 3.61 9.01901 132 134 149 
-0.689337 3.65213 8.5248 85 69 44 
-0.609309 3.82533 7.69849 224 212 170 
-0.644982 3.78792 8.13706 186 150 88 
-0.690957 3.63113 8.9008 32 33 51 
-0.616445 3.79392 7.99707 184 174 138 
-0.663922 3.65243 8.66702 194 163 96 
-0.622402 3.7544 8.24062 125 90 22 
-0.573785 3.78653 7.75788 224 210 181 
-0.632417 3.66633 8.60664 138 102 6 
-0.565753 3.75867 7.81639 189 179 117 
-0.642821 3.6244 8.83111 28 30 43 
-0.512197 3.81139 7.17557 60 47 56 
-0.623305 3.67509 8.68188 194 156 81 
-0.584844 3.77011 8.17226 199 151 79 
-0.611317 3.6789 8.53776 157 114 1 
-0.60129 3.72922 8.42974 141 106 14 
-0.659488 3.55348 9.21247 24 25 45 
-0.54533 3.757 7.77279 42 70 47 
-0.58594 3.75387 8.3566 138 100 3 
-0.570744 3.7631 8.28029 193 153 68 
-0.595252 3.69029 8.70254 27 31 32 
-0.584046 3.68667 8.63987 29 32 37 
-0.617413 3.54488 9.24833 57 56 62 
-0.539768 3.75616 8.20805 196 158 61 
-0.509957 3.75433 7.92114 125 54 0 
-0.547617 3.69236 8.57816 164 164 156 
-0.534885 3.69615 8.57209 41 30 26 
-0.532304 3.68553 8.66853 20 21 23 
-0.483363 3.75937 7.95463 96 49 0 
-0.507569 3.71908 8.43293 147 143 144 
-0.494153 3.72811 8.21485 155 148 142 
-0.49404 3.74625 8.36622 142 139 132 
-0.496068 3.68584 8.64029 25 24 29 
-0.510535 3.57738 8.96118 108 103 125 
-0.500895 3.60403 8.91292 111 99 121 
-0.47069 0.328986 8.67041 219 194 154 
-0.479158 3.6756 8.65573 166 159 153 
-0.47222 3.69148 8.55248 136 135 130 
-0.493596 3.58111 8.94593 117 114 135 
-0.475874 3.66145 8.69866 145 141 142 
-0.426739 0.872756 8.53212 60 11 14 
-0.448123 3.60899 8.75945 142 140 161 
-0.463564 3.55047 9.03604 28 30 45 
-0.463932 3.5096 9.2423 40 33 27 
-0.432218 3.63137 8.70682 150 149 145 
-0.415403 3.62434 8.70687 165 165 165 
-0.427461 3.5544 9.00133 100 102 115 
-0.408091 3.63781 8.6506 118 117 112 
-0.401767 3.6038 8.75265 121 115 143 
-0.396536 3.61552 8.70908 167 168 173 
-0.385123 3.64328 8.49238 130 130 130 
-0.36742 3.58005 8.77407 68 48 47 
-0.338531 3.57838 8.74382 127 100 21 
-0.32009 3.56475 8.75041 131 105 56 
-0.271971 3.53277 9.451 39 40 60 
-0.209601 3.79332 7.66444 87 78 11 
-0.16539 -1.6362 7.23767 8 6 20 
-0.159424 -1.65087 7.23292 62 66 78 
-0.187355 3.79736 7.67341 178 74 39 
-0.183563 3.8069 7.7156 255 138 140 
-0.128446 -2.09419 6.84549 39 30 0 
-0.172184 3.80564 7.71831 188 94 94 
-0.156014 3.90436 7.66774 194 143 26 
-0.155711 3.80922 7.68964 175 66 43 
-0.167476 0.75851 8.74202 215 164 135 
-0.150187 3.83484 7.66551 203 164 11 
-0.14161 1.00176 7.80993 16 24 70 
-0.098097 -2.21911 6.78876 185 179 155 
-0.139116 3.80375 7.70033 251 147 136 
-0.139119 3.80806 7.87143 177 65 61 
-0.127607 3.80783 7.68768 175 64 19 
-0.130972 -0.22701 8.6088 12 12 12 
-0.124839 3.87119 7.66871 140 24 25 
-0.12853 -0.264498 8.60001 29 30 32 
-0.128789 0.0433335 8.67447 135 137 132 
-0.122901 -0.33555 8.57544 61 63 58 
-0.11793 -0.408183 8.54967 143 133 131 
-0.11375 -0.286737 8.59242 25 26 28 
-0.112854 -0.304484 8.59462 138 139 134 
-0.104608 3.88866 7.67625 191 112 107 
-0.0990111 -0.272429 8.60819 112 113 117 
-0.0968325 -0.453776 8.54166 91 39 52 
-0.0572216 -2.23781 6.79167 34 22 0 
-0.0957709 -0.20993 8.61919 86 85 90 
-0.0823886 -0.410524 8.56077 156 113 123 
-0.0841501 3.89554 7.67357 136 45 50 
-0.0945045 3.89635 8.53638 55 37 23 
-0.0816065 -0.26913 8.60218 139 139 139 
-0.0802929 -0.440592 8.55032 155 115 124 
-0.0825243 0.565625 8.73951 198 166 151 
-0.070325 -0.425781 8.55666 75 52 58 
-0.0726215 -0.215499 8.61778 39 39 41 
-0.0730558 3.899 7.67419 200 114 115 
-0.0685527 3.8708 7.67663 128 48 23 
-0.0783971 3.83444 8.8509 87 47 21 
-0.0554962 -0.281113 8.44523 143 145 144 
-0.0533328 -0.532389 8.52683 150 125 129 
-0.0546072 -0.514552 8.53241 77 48 53 
-0.0508007 -0.503313 8.53424 151 108 118 
-0.0464166 -0.41586 8.57193 137 127 126 
-0.0524425 0.346533 8.7113 63 23 47 
-0.050424 3.80334 7.73899 158 40 56 
-0.0425596 -0.249915 8.6099 150 149 145 
-0.0361923 -0.493826 8.53517 93 43 54 
-0.0369694 -0.279422 8.605 129 127 128 
-0.035415 -0.392497 8.57113 78 49 53 
-0.0314828 -0.48518 8.54844 70 45 48 
-0.0479355 3.86696 8.67482 52 46 24 
-0.0294761 -0.43554 8.5563 82 45 52 
-0.0438118 3.76322 9.19517 100 92 89 
-0.0281339 0.316118 8.6856 131 52 73 
-0.0296206 3.88779 7.67912 203 128 123 
-0.0180148 -0.520849 8.53553 149 107 117 
-0.0273782 3.82184 7.75367 153 61 48 
-0.024994 3.81481 7.79154 164 56 72 
0.00487777 -0.155905 5.84617 40 41 36 
-0.0102272 -0.333163 8.59097 140 145 138 
-0.00879211 -0.218774 8.61775 136 136 134 
-0.0029593 3.89749 7.68286 126 41 38 
0.0133969 -0.537636 8.5433 137 118 120 
0.0118026 -0.263319 8.60964 136 136 134 
0.0142432 -0.373442 8.58578 145 129 130 
0.0209537 -0.319577 8.60451 78 79 74 
0.0340881 -0.524543 8.54813 84 34 46 
0.0199319 3.8209 7.95867 52 40 0 
0.0369777 -0.511833 8.54149 78 38 47 
0.0257065 3.84047 7.709 222 203 15 
0.0392317 -0.230207 8.62042 125 126 121 
0.0402869 -0.426318 8.57395 90 44 54 
0.027809 3.82847 7.73474 223 195 95 
0.0450523 -0.318206 8.59701 92 88 85 
0.0326602 3.82756 7.75008 74 54 3 
0.0524426 -0.44135 8.56833 146 127 123 
0.0497606 0.970751 7.96194 54 55 83 
0.0580333 -0.199626 8.62568 123 122 127 
0.0602079 -0.259704 8.61914 140 142 139 
0.0695444 -0.215089 8.62468 19 19 17 
0.0681484 0.258289 8.69057 34 20 35 
0.066556 0.432531 8.73509 127 70 89 
0.0753281 -0.507006 8.55158 87 33 46 
0.0927339 -0.213506 8.629 35 35 33 
0.0997848 -0.197021 8.63372 130 130 130 
0.0882468 3.659 9.19066 88 93 89 
0.10337 0.377 8.71994 167 85 99 
0.105331 0.45988 8.72874 88 27 45 
0.109076 -0.247448 8.62184 17 17 17 
0.116449 -0.479574 8.57309 136 121 118 
0.117643 -0.496882 8.56133 154 127 134 
0.116868 -0.269865 8.62584 132 132 130 
0.118795 -0.184037 8.6365 136 136 134 
0.119701 -0.284601 8.62772 136 136 134 
0.123642 -0.505616 8.56765 152 125 130 
0.124549 -0.312685 8.61678 52 52 52 
0.126313 -0.404216 8.59396 100 46 60 
0.134206 -0.245315 8.63254 18 18 16 
0.132413 0.437854 8.72628 130 67 86 
0.134316 0.408747 8.72664 64 32 45 
0.128351 3.88058 8.30206 18 20 6 
0.147771 -0.476053 8.58087 79 47 52 
0.135759 3.74525 8.79526 110 111 97 
0.15673 -0.22857 8.62843 141 142 137 
0.1655 -0.186938 8.64019 29 29 27 
0.166299 -0.397259 8.58558 151 112 117 
0.167815 -0.205883 8.63373 36 37 31 
0.170721 -0.417831 8.5943 154 125 130 
0.172435 -0.1969 8.63672 132 133 128 
0.173842 -0.480008 8.57744 83 36 44 
0.174003 -0.288451 8.6178 136 137 131 
0.174836 -0.244597 8.62189 17 17 15 
0.182354 0.284499 8.70972 92 53 74 
0.187433 -0.531564 8.56862 138 123 116 
0.186201 -0.184077 8.6285 138 139 134 
0.196726 0.364212 8.71824 153 46 72 
0.223974 0.839836 8.79355 100 50 53 
0.232741 -0.244383 8.63408 137 138 133 
0.24076 -0.238056 8.62977 17 18 13 
0.242219 -0.0331757 8.66857 131 139 142 
0.247596 -0.42028 8.60136 92 47 54 
0.248055 -0.169486 8.63687 146 147 142 
0.250506 -0.195648 8.63087 142 142 140 
0.262562 -0.434111 8.59931 83 42 50 
0.2686 -0.260918 8.62887 40 43 34 
0.247408 3.78853 8.3519 59 53 55 
0.276669 -0.430438 8.59984 147 133 132 
0.286456 -0.171073 8.63332 16 17 11 
0.291923 0.396095 8.71661 120 115 138 
0.293272 0.354725 8.71105 59 25 60 
0.29668 -0.233471 8.62271 39 40 35 
0.306584 -0.222717 8.62711 139 144 138 
0.307799 0.313827 8.70761 34 20 33 
0.308087 -0.237899 8.6277 54 59 53 
0.278457 3.83862 7.97091 118 122 108 
0.326103 0.80782 8.80736 81 44 26 
0.332314 0.288629 8.69405 50 22 36 
0.334134 -0.16773 8.63732 27 27 25 
0.339134 0.241864 8.70203 38 29 46 
0.292395 3.88852 7.56962 127 131 116 
0.347744 0.32948 8.73384 173 155 143 
0.346391 0.207223 8.68886 163 163 151 
0.350977 0.792682 8.81124 200 159 139 
0.353489 0.833492 8.81855 167 124 117 
0.357775 0.310591 8.71649 57 64 72 
0.360666 -0.226602 8.62435 17 17 15 
0.363921 0.446457 8.74791 190 171 156 
0.366154 0.361014 8.72937 53 42 56 
0.367067 -0.0339407 8.66601 136 137 129 
0.368986 -0.410542 8.60863 78 41 49 
0.341118 1.07214 7.95634 219 188 168 
0.373795 0.103633 8.68854 133 136 141 
0.371102 0.183294 8.68652 41 46 76 
0.374263 -0.156192 8.63608 137 138 133 
0.377156 -0.200143 8.63813 136 137 132 
0.378392 0.44841 8.74578 87 46 64 
0.379086 -0.223624 8.62392 26 25 23 
0.384206 -0.410857 8.61035 102 33 52 
0.387592 0.437813 8.75686 89 50 79 
0.392198 -0.22428 8.62645 22 22 20 
0.402817 -0.181927 8.64133 112 114 111 
0.374484 1.04864 7.93878 163 138 108 
0.416553 -0.230444 8.63227 128 130 127 
0.383217 1.18785 7.82792 174 112 101 
0.39167 1.02492 7.9552 247 199 177 
0.413635 1.06953 7.93737 103 1 0 
0.410595 -2.13305 7.11278 208 190 168 
0.438244 1.08127 7.92965 189 185 114 
0.44882 1.03704 7.94519 220 207 139 
0.450282 1.11054 7.93364 142 139 108 
0.493906 -0.398578 8.65221 74 32 44 
0.461054 1.07455 7.92114 41 44 0 
0.467746 1.08377 7.92345 184 191 96 
0.469858 1.06688 7.92212 221 221 123 
0.480202 1.13217 7.9442 137 127 117 
0.480289 1.03912 7.94033 207 205 118 
0.451035 -2.08108 7.12578 169 145 109 
0.456112 -2.09113 7.12403 41 24 0 
0.460758 -2.07114 7.12005 46 16 5 
0.495892 1.10532 7.91952 196 167 159 
0.509831 5.3641 8.25867 178 160 140 
0.50893 1.09089 7.91607 209 124 119 
0.573827 0.883553 8.83726 43 0 0 
0.485207 -2.09013 7.10912 37 11 0 
0.526291 1.10968 7.90135 183 105 92 
0.535219 1.07063 7.91349 110 48 1 
0.59458 0.864816 8.85873 116 82 96 
0.597749 0.852535 8.86097 35 2 13 
0.539148 1.08428 7.91033 203 117 94 
0.597307 0.794582 8.84772 129 107 110 
0.54703 1.06247 7.91451 219 194 137 
0.612961 -0.377264 8.69368 99 59 67 
0.615367 -0.364998 8.69358 153 116 123 
0.559514 1.07317 7.90736 70 45 0 
0.585496 5.30555 8.33659 58 43 36 
0.634791 0.889206 8.8542 96 36 44 
0.584575 1.08571 7.89709 221 209 123 
0.589937 1.11046 7.89186 195 116 83 
0.665592 0.891853 8.8717 48 3 8 
0.671912 -0.130371 8.72157 92 90 78 
0.62237 1.12325 7.88613 135 42 25 
0.709637 0.883053 8.87793 26 5 12 
0.721033 0.881481 8.87642 82 62 71 
0.64846 1.07365 7.90092 32 23 0 
0.650058 1.06113 7.91315 37 41 0 
0.652596 1.07988 7.89404 216 195 166 
0.666079 1.06195 7.91253 224 222 181 
0.672891 1.06831 7.90315 44 28 3 
0.676921 1.08124 7.89183 207 181 148 
0.761864 0.670291 8.86608 127 75 79 
0.679461 1.10033 7.86642 166 112 102 
0.697425 1.08072 7.90397 39 23 7 
0.654184 -2.09665 7.15459 52 34 10 
0.798404 0.570274 8.87237 56 51 55 
0.714583 1.1167 7.84893 232 214 178 
0.830133 0.744039 8.93067 196 159 141 
0.824855 0.542139 8.86187 72 72 72 
0.832044 0.569793 8.87319 158 150 137 
0.761875 1.03586 8.05785 225 188 22 
0.839151 0.0358839 8.82359 133 133 121 
0.906324 -1.89621 7.32808 199 163 15 
1.19577 3.21185 9.65718 3 7 16 
1.02038 -2.00327 7.20787 108 88 19 
1.09886 -1.97119 7.17116 203 171 26 
1.10085 -1.86656 7.14032 127 105 0 
1.20671 1.26173 7.93788 156 64 0 
1.45037 -1.67911 7.09374 198 141 0 
1.45287 -1.70162 7.08813 243 193 80 
1.46326 -1.62472 7.0817 255 189 72 
1.46812 -1.71251 7.08869 120 61 21 
1.50879 -1.73479 7.12283 120 66 38 
-1.91041 0.190868 8.43166 202 218 231 
-1.88988 0.173643 8.38652 159 172 181 
-1.87847 0.163298 8.38455 214 217 226 
-1.17858 3.77208 7.49172 42 51 58 
-1.16551 3.62791 8.20893 128 136 115 
-1.2656 0.143119 8.34996 93 81 69 
-1.12302 0.7779 7.91149 182 149 116 
-1.12071 0.83219 7.91946 207 145 86 
-1.10825 3.58026 8.36522 212 183 81 
-1.19087 0.448037 8.35104 232 209 168 
-1.08209 3.60483 8.33962 14 29 10 
-1.10415 0.572302 7.99301 124 91 58 
-1.04151 1.06002 7.79663 48 46 49 
-1.08614 0.571885 8.02576 35 23 11 
-1.00326 0.914885 7.7205 143 121 100 
-1.03163 0.836039 7.9146 82 18 0 
-1.02669 0.809798 7.90199 81 30 29 
-1.0511 0.568741 8.03379 33 23 13 
-1.0149 0.825406 7.90868 89 24 32 
-1.02746 0.59429 8.00136 156 129 108 
-0.940641 3.66883 8.16053 138 103 39 
-0.932731 3.67884 8.11518 149 98 35 
-0.955537 3.61715 8.29911 93 83 82 
-0.939446 3.67917 8.2157 245 206 137 
-0.978708 0.818243 7.90117 94 38 25 
-0.999609 0.467584 8.0451 122 78 51 
-0.993264 0.496007 8.01845 111 68 33 
-0.967543 0.810407 7.89833 196 158 135 
-0.988343 0.504056 8.00121 200 158 120 
-0.97419 0.488824 8.02204 165 127 88 
-0.935351 3.45566 8.81812 203 176 147 
-0.873876 3.59724 8.42032 187 178 169 
-0.896709 0.833231 7.92421 102 26 38 
-0.894996 3.557 8.63248 151 96 14 
-0.81275 3.76788 8.04061 12 10 24 
-0.973784 3.39584 9.26945 44 41 68 
-0.904693 0.675098 8.11523 104 75 41 
-0.875654 0.842397 7.93793 181 113 76 
-0.854492 3.60268 8.4679 175 160 153 
-0.835932 3.63934 8.33936 98 88 78 
-0.87003 0.855417 7.93427 222 149 55 
-0.840224 3.6094 8.47161 141 125 110 
-0.893773 0.606517 8.16235 220 184 150 
-0.730575 3.83527 7.67096 174 161 127 
-0.885807 3.49337 8.86211 122 116 120 
-0.818013 3.63114 8.39896 210 194 171 
-0.805976 3.64904 8.34853 204 184 157 
-0.79394 3.66421 8.27878 205 186 144 
-0.7865 3.68024 8.25976 226 183 132 
-0.818206 3.62201 8.58328 145 122 68 
-0.810252 3.63168 8.53859 154 131 89 
-0.827139 0.831613 7.94991 95 25 23 
-0.711965 3.7797 7.80226 239 223 187 
-0.814049 3.60361 8.61901 198 162 84 
-0.840859 0.686078 8.08066 222 199 168 
-0.845969 0.676343 8.11183 39 18 13 
-0.805982 3.62935 8.61304 84 57 14 
-0.769769 3.67028 8.33025 153 121 74 
-0.861215 0.576668 8.28835 159 136 104 
-0.808464 3.59953 8.68571 193 177 151 
-0.775507 3.66412 8.44609 76 55 34 
-0.761125 3.69458 8.33672 211 167 92 
-0.802514 3.58971 8.69104 95 80 41 
-0.804367 3.56397 8.6989 206 154 70 
-0.7996 3.60272 8.6787 72 58 32 
-0.755711 3.6759 8.33832 75 53 12 
-0.70374 3.76325 7.96265 219 196 154 
-0.737728 3.71597 8.28226 84 61 45 
-0.772352 3.62727 8.56539 213 170 68 
-0.752441 3.68325 8.41497 199 166 87 
-0.780029 3.61038 8.65798 183 173 148 
-0.779731 3.60346 8.66948 64 52 26 
-0.673577 3.77871 7.79222 220 224 187 
-0.726429 3.71684 8.27653 148 130 118 
-0.767962 3.62677 8.63497 80 64 38 
-0.735844 3.69017 8.39499 215 169 57 
-0.724406 3.7085 8.30652 58 41 23 
-0.765274 3.61849 8.65988 89 71 51 
-0.74617 3.63753 8.53057 204 165 90 
-0.715954 3.7205 8.28152 180 166 155 
-0.759819 3.62311 8.64789 177 160 140 
-0.76697 3.6122 8.71852 128 86 38 
-0.751742 3.63431 8.61406 69 58 38 
-0.793243 0.683694 8.14736 170 133 89 
-0.749864 3.62589 8.6456 84 68 43 
-0.770978 0.793206 7.99389 182 153 135 
-0.722849 3.67016 8.43712 183 149 86 
-0.710005 3.69907 8.34059 86 72 59 
-0.799129 3.56711 9.11167 95 85 76 
-0.707835 3.71296 8.33592 184 176 155 
-0.779549 3.6043 8.96154 111 76 36 
-0.761109 0.806602 7.97546 86 37 22 
-0.702475 3.72271 8.33346 84 70 61 
-0.736147 3.63399 8.62678 96 81 58 
-0.695441 3.7273 8.29796 72 57 38 
-0.74286 3.62541 8.70805 100 67 14 
-0.792326 3.58571 9.1552 15 16 21 
-0.705185 3.6921 8.40707 60 51 34 
-0.720656 3.65714 8.55161 86 72 61 
-0.778432 3.57562 9.06574 23 20 29 
-0.764989 3.63706 8.99482 129 99 71 
-0.692463 3.72142 8.34924 192 177 154 
-0.693262 3.69982 8.37271 138 130 127 
-0.708729 3.67221 8.5063 107 91 68 
-0.727971 3.63357 8.66531 200 173 118 
-0.695316 3.70798 8.40502 79 72 64 
-0.772398 0.665512 8.22899 161 125 77 
-0.685248 3.72869 8.34692 78 59 29 
-0.700924 3.67921 8.49304 194 182 158 
-0.681913 3.72438 8.36236 69 54 25 
-0.71527 3.64391 8.67512 131 100 46 
-0.688072 3.68687 8.44601 102 92 67 
-0.699035 3.66243 8.55058 216 201 180 
-0.637138 3.79982 8.01134 67 51 28 
-0.670266 3.72514 8.38712 165 142 100 
-0.719808 3.61576 8.89454 134 130 153 
-0.733545 3.62857 9.04512 129 128 146 
-0.718358 0.794787 8.00671 93 28 26 
-0.616136 3.79091 7.99362 190 177 133 
-0.681658 3.65005 8.66214 66 41 0 
-0.68338 1.063 7.91053 129 117 101 
-0.573478 3.78856 7.76059 208 204 167 
-0.694063 3.64758 8.92296 28 34 50 
-0.617663 3.78181 8.20018 132 87 2 
-0.641859 3.7617 8.49947 60 23 0 
-0.628145 3.72385 8.50013 214 167 37 
-0.573212 3.76411 7.99332 168 142 31 
-0.664545 3.63356 8.90293 80 84 96 
-0.597185 3.75711 8.29392 213 167 45 
-0.61598 3.71247 8.48493 218 171 63 
-0.585284 3.77657 8.18043 197 165 82 
-0.544882 3.75922 7.77587 31 74 47 
-0.669448 3.62642 9.02221 25 29 41 
-0.623224 3.6716 8.56457 140 99 9 
-0.640178 3.66045 8.76241 108 114 138 
-0.669002 0.84477 8.10591 110 43 0 
-0.654078 3.6459 8.9324 31 33 48 
-0.602351 3.73484 8.43673 132 100 1 
-0.645201 3.6368 8.84772 24 23 39 
-0.550508 3.75468 7.90433 219 190 148 
-0.574985 3.77354 8.1809 191 153 72 
-0.653348 3.639 8.94472 73 72 88 
-0.665159 0.879931 8.13208 106 34 0 
-0.625088 3.69369 8.70683 205 166 75 
-0.58664 3.76194 8.36684 142 111 20 
-0.660675 0.892366 8.14781 185 113 73 
-0.571912 3.77219 8.29138 201 165 79 
-0.660982 3.55864 9.1525 21 24 41 
-0.568118 3.76842 8.25003 132 90 16 
-0.534099 3.75758 7.91716 52 24 0 
-0.673511 0.595109 8.2669 61 67 63 
-0.662385 3.56396 9.22713 20 23 38 
-0.52799 3.76272 7.89279 237 211 184 
-0.596813 3.69729 8.71126 27 34 42 
-0.51647 3.75537 7.93752 239 190 71 
-0.631156 3.58291 9.11295 99 99 123 
-0.518791 3.75463 7.97083 226 199 24 
-0.539775 3.7532 8.2042 203 162 70 
-0.63954 3.56274 9.22424 87 85 107 
-0.505792 3.7631 7.90323 92 42 0 
-0.486424 3.76397 7.89063 227 202 37 
-0.548954 3.70182 8.59029 185 176 179 
-0.540716 3.70971 8.54202 176 173 166 
-0.541398 3.7019 8.61116 148 139 134 
-0.48257 3.76237 7.95875 90 49 0 
-0.535714 3.70727 8.5868 32 20 20 
-0.531584 3.71709 8.56618 65 57 46 
-0.535529 3.70094 8.66631 185 185 177 
-0.495145 3.73925 8.22876 171 165 167 
-0.534633 3.69222 8.67644 24 27 18 
-0.5693 3.5904 9.01986 114 108 134 
-0.524459 3.70889 8.61879 15 18 23 
-0.503425 3.73132 8.41761 168 164 163 
-0.531678 3.67711 8.76338 117 118 138 
-0.526393 3.69851 8.72681 25 26 30 
-0.491601 3.72808 8.42711 175 175 175 
-0.528544 3.63299 8.90617 40 26 51 
-0.474543 3.73659 8.37871 32 30 31 
-0.481186 3.70155 8.47005 22 25 30 
-0.499337 3.68784 8.71297 187 187 187 
-0.460176 3.72247 8.24019 136 132 133 
-0.483618 3.68174 8.70379 27 30 23 
-0.480443 3.69065 8.67573 155 156 150 
-0.476912 3.67142 8.71184 164 167 174 
-0.463691 3.6895 8.61762 59 57 58 
-0.468805 3.64725 8.76967 142 140 154 
-0.44918 3.69931 8.55687 53 49 46 
-0.44493 3.69931 8.51493 43 46 37 
-0.456483 3.66666 8.73647 22 25 30 
-0.407722 3.70481 8.19619 171 165 151 
-0.447813 3.61096 8.76253 147 143 166 
-0.465114 3.54825 9.03191 22 27 33 
-0.468205 3.5378 9.21208 96 97 115 
-0.404244 3.65884 8.49232 17 18 22 
-0.41691 3.63521 8.72112 181 179 182 
-0.435632 3.57495 8.9384 116 113 140 
-0.40937 3.64534 8.66013 111 110 108 
-0.43089 3.58945 9.0509 98 99 117 
-0.402754 3.61453 8.76741 126 126 150 
-0.397899 3.62733 8.72473 179 177 180 
-0.363497 3.64083 8.52366 26 27 31 
-0.354481 3.58138 8.80231 218 173 80 
-0.426964 0.884777 8.56603 58 15 9 
-0.339592 3.59823 8.73235 211 176 84 
-0.340338 3.59508 8.76621 126 96 6 
-0.333765 3.56924 8.84415 144 107 18 
-0.342113 3.54719 9.05148 152 128 84 
-0.321561 3.57512 8.76411 131 102 46 
-0.312192 3.58976 8.69409 151 116 58 
-0.297933 3.59676 8.6116 217 169 58 
-0.29613 3.58503 8.69069 146 109 31 
-0.209227 3.79332 7.66473 74 69 3 
