ply                 
format ascii 1.0    
element vertex 955
property float x    
property float y    
property float z    
property uchar red  
property uchar green
property uchar blue 
end_header          
-2.25805 -2.51175 7.12409 188 59 98 
-2.23993 -2.46676 7.18214 182 55 98 
-2.23418 -2.47754 7.27795 123 10 40 
-4.11797 2.39097 13.3741 121 173 187 
-4.11797 2.39097 13.3741 121 173 187 
-4.20725 1.89024 13.7684 252 254 251 
-4.22423 1.78521 13.845 252 253 255 
-4.16241 1.94331 13.7915 76 86 95 
-2.38109 3.57497 8.06593 53 62 69 
-2.54214 3.55822 8.6402 116 205 247 
-2.08486 1.17753 7.10425 173 210 239 
-2.35691 3.58553 8.04184 155 141 130 
-2.7777 3.39257 9.48771 62 78 93 
-2.07747 1.17822 7.13667 55 67 83 
-2.33677 3.58761 8.03097 43 52 69 
-2.31843 3.62893 8.01152 81 94 100 
-2.32268 3.61228 8.1119 22 30 51 
-2.44493 3.49924 8.53508 83 172 204 
-2.30111 3.64965 8.11945 10 22 38 
-2.38538 3.5237 8.44969 152 211 245 
-2.23712 3.6996 7.96231 35 48 57 
-2.28688 3.68342 8.1403 21 31 43 
-2.28482 3.66368 8.15502 130 142 158 
-2.18717 3.80135 7.81287 17 30 38 
-2.28056 3.66109 8.14412 135 147 163 
-2.27393 3.7144 8.13707 69 79 91 
-2.4238 3.47651 8.66639 153 182 216 
-2.19675 3.80937 7.86735 89 104 109 
-2.37804 3.51497 8.54379 134 146 160 
-2.50124 3.42149 9.15425 4 34 42 
-2.2724 3.71931 8.38982 5 19 30 
-2.19745 3.74769 8.12227 84 92 105 
-2.1739 3.80335 8.04737 40 56 71 
-2.45228 3.42341 9.06426 96 150 196 
-2.26385 3.72398 8.39817 65 87 101 
-2.44174 3.42557 9.05683 106 143 185 
-2.4931 3.40037 9.29037 37 54 70 
-2.4931 3.40037 9.29037 37 54 70 
-2.19002 3.77146 8.16811 23 35 49 
-2.17268 3.78596 8.16029 87 98 104 
-2.20343 3.77015 8.27427 11 24 43 
-2.24788 3.71163 8.47036 79 91 105 
-2.20051 3.7348 8.3647 103 199 249 
-2.22613 3.72124 8.4569 3 32 48 
-2.14891 3.77632 8.19086 74 110 142 
-2.23845 3.69253 8.55192 101 100 96 
-2.23845 3.69253 8.55192 101 100 96 
-2.10615 3.85353 8.0929 16 38 49 
-2.21272 3.72924 8.51042 40 55 60 
-1.99124 3.92101 7.80535 38 67 75 
-2.02763 3.88475 8.00703 40 59 74 
-2.25157 3.69858 8.91027 74 86 98 
-2.23127 3.69127 8.91524 25 38 54 
-2.21484 3.71627 8.93143 77 90 106 
-1.98706 3.82699 8.05031 43 71 110 
-1.92363 3.89777 7.79684 52 68 67 
-1.85976 3.93996 7.63671 105 129 139 
-2.13917 3.74091 8.7697 89 120 140 
-1.9178 3.84079 7.96363 45 77 116 
-1.8645 3.85708 7.74963 79 158 215 
-2.26183 5.65281 9.41083 125 124 129 
-2.03573 3.73306 8.65103 25 28 43 
-2.1624 5.69499 9.18655 131 129 134 
-2.02211 3.72526 8.60028 13 30 58 
-1.97991 3.71444 8.42617 81 126 168 
-1.81243 0.936614 7.76893 129 132 139 
-2.03237 3.66576 8.7655 7 18 36 
-1.95839 3.70809 8.48986 68 137 196 
-1.93142 3.70454 8.4496 94 146 193 
-1.70567 1.01113 7.62934 154 140 131 
-1.70567 1.01113 7.62934 154 140 131 
-1.88533 3.70183 8.49726 83 124 156 
-1.60758 1.06617 7.67266 40 41 62 
-1.61142 -2.87304 7.79821 30 34 46 
-1.73688 3.64508 8.41976 26 38 50 
-1.5852 0.804444 7.71226 33 26 20 
-1.57293 1.07965 7.69265 123 119 118 
-1.56612 0.989498 7.69185 147 144 135 
-1.78988 3.60787 8.81457 128 118 117 
-1.78988 3.60787 8.81457 128 118 117 
-1.78563 5.73921 8.89269 178 165 157 
-1.84251 5.6635 9.21547 169 158 152 
-1.41302 1.15137 7.27871 12 23 41 
-1.29735 -1.77964 6.94642 35 35 43 
-1.33478 1.09897 7.22394 10 19 34 
-1.59208 3.62195 8.64522 16 26 38 
-1.59208 3.62195 8.64522 16 26 38 
-1.30192 0.51252 7.20536 217 210 192 
-1.67048 5.63341 9.2257 17 30 39 
-1.24095 -1.91175 6.90985 245 138 68 
-1.30391 0.495784 7.26116 131 128 119 
-1.2663 0.997138 7.0734 18 30 44 
-1.23438 -1.93942 6.9105 180 97 0 
-1.2511 -1.55885 7.0261 9 18 25 
-1.29101 0.497092 7.26438 118 115 108 
-1.26071 0.516861 7.19146 156 149 133 
-1.21162 -1.92306 6.94585 239 138 58 
-1.20378 -1.67411 6.99909 198 151 11 
-1.18446 -1.88843 6.97954 216 164 26 
-1.18446 -1.88843 6.97954 216 164 26 
-1.22735 1.18045 7.32147 9 21 33 
-1.20255 0.910941 7.17979 5 14 29 
-1.19809 0.911669 7.19902 99 108 123 
-1.5074 3.66951 9.06975 89 62 32 
-1.41421 3.70388 8.54031 98 131 88 
-1.43621 3.69134 8.69142 180 162 100 
-1.28554 3.83267 7.79721 177 212 234 
-1.1396 -1.95145 6.99328 171 90 0 
-1.1396 -1.95145 6.99328 171 90 0 
-1.13991 -1.93209 6.99975 194 75 17 
-1.13991 -1.93209 6.99975 194 75 17 
-1.18467 1.09847 7.3115 20 26 40 
-1.12491 -1.92151 7.01822 178 102 0 
-1.24045 3.82498 7.74415 200 232 255 
-1.23573 3.82839 7.82147 197 224 245 
-1.37295 3.68909 8.67632 121 120 63 
-1.36453 3.69551 8.63473 139 158 102 
-1.35407 3.70404 8.58691 169 187 165 
-1.21915 3.81462 7.74995 83 113 137 
-1.22391 -2.61125 7.90915 43 61 73 
-1.34345 3.68386 8.66754 215 183 82 
-1.35548 3.65327 8.81684 216 180 70 
-1.26487 3.77735 8.27407 189 192 173 
-1.26406 3.77494 8.27004 189 192 173 
-1.33718 3.66291 8.76074 155 120 30 
-1.35691 3.62039 8.94088 109 84 17 
-1.34382 3.63867 8.91122 212 166 55 
-1.32961 3.63865 8.83785 137 100 12 
-1.25682 3.76672 8.37069 33 58 54 
-1.32514 3.66857 8.81485 144 114 42 
-1.31138 3.66668 8.81195 198 172 98 
-1.22142 3.81329 8.24107 140 135 44 
-1.25881 3.72455 8.52673 163 166 135 
-1.20773 3.78013 8.22423 183 196 91 
-1.02999 -1.75877 7.11257 18 21 30 
-1.20861 3.75814 8.33516 203 200 167 
-1.27529 3.66241 8.78652 215 186 94 
-1.27529 3.66241 8.78652 215 186 94 
-1.35928 3.50834 9.39154 105 95 83 
-1.24167 3.70968 8.57783 34 49 46 
-1.18519 -4.1184 8.22782 164 147 139 
-1.11349 3.98975 7.71306 79 79 69 
-1.18543 -4.11943 8.23029 164 147 139 
-1.17298 3.80936 8.13957 170 158 120 
-1.21806 3.75726 8.43908 141 143 129 
-1.25199 3.65178 8.72091 132 103 23 
-1.15823 3.80277 8.12061 56 52 14 
-1.23618 3.69362 8.66209 216 185 68 
-1.15003 3.79702 8.08112 134 135 121 
-1.20168 3.73335 8.43113 136 141 111 
-1.16208 0.606687 8.20094 29 25 26 
-1.22405 3.69969 8.63535 208 184 84 
-1.16927 3.77756 8.27223 195 195 167 
-1.15566 3.78746 8.25707 198 197 169 
-1.13868 3.81008 8.15301 58 57 52 
-1.13868 3.81008 8.15301 58 57 52 
-1.16986 3.7456 8.38103 37 45 24 
-1.12148 0.865178 8.04816 95 24 32 
-1.1341 0.667471 8.13821 196 166 130 
-1.12121 3.81441 8.05207 128 127 109 
-1.18999 3.71087 8.53645 43 52 25 
-1.18999 3.71087 8.53645 43 52 25 
-1.11668 0.836265 8.05049 176 143 126 
-1.0873 1.07976 7.9372 183 164 147 
-1.09982 0.875375 8.0524 152 102 41 
-1.09792 0.872858 8.04169 158 109 40 
-1.13145 3.74995 8.32437 141 141 113 
-1.11308 3.7764 8.23761 97 84 68 
-1.09728 3.80001 8.16666 61 59 44 
-1.05592 1.0737 7.90549 108 95 87 
-1.08102 0.660697 8.11416 138 93 62 
-1.04227 1.03439 7.85464 115 106 97 
-1.13155 3.71793 8.50812 41 53 39 
-1.10523 3.76175 8.38647 80 84 61 
-1.05959 3.80145 8.05849 27 38 30 
-1.12551 3.70725 8.58041 205 186 83 
-1.11214 3.70713 8.5066 138 160 121 
-1.07075 3.78133 8.21071 189 189 165 
-1.07075 3.78133 8.21071 189 189 165 
-1.06114 3.81556 8.16751 135 139 124 
-1.0598 3.80903 8.15364 135 139 124 
-1.01683 0.970219 7.84637 139 119 94 
-1.07279 3.77255 8.28219 62 64 50 
-1.064 3.79921 8.21826 135 133 112 
-1.0962 3.71175 8.47185 30 39 36 
-1.08999 3.72827 8.44337 192 191 171 
-1.09312 3.69992 8.49142 17 30 10 
-1.0595 3.77749 8.25512 50 52 41 
-1.0314 0.882562 8.05074 91 27 41 
-1.0314 0.882562 8.05074 91 27 41 
-1.14566 5.64576 8.94759 108 108 118 
-1.1231 3.6407 8.79157 196 162 65 
-1.04347 3.78843 8.1821 185 178 162 
-1.09882 3.6912 8.69474 143 109 19 
-1.02534 0.611815 8.15291 214 175 136 
-1.03572 3.76247 8.24859 184 187 178 
-1.0607 3.71229 8.50321 38 48 11 
-1.01484 0.661291 8.17195 24 22 33 
-1.07625 3.66733 8.66291 214 178 82 
-1.03942 3.7233 8.43176 21 31 32 
-1.01488 3.76159 8.2515 20 36 35 
-1.01488 3.76159 8.2515 20 36 35 
-0.961292 1.06016 7.85776 33 20 12 
-0.961292 1.06016 7.85776 33 20 12 
-1.01187 3.75144 8.27772 157 166 161 
-1.00077 3.72704 8.3843 129 149 96 
-0.857422 -1.87965 7.25282 26 24 25 
-0.993477 3.64569 8.39183 210 168 60 
-0.853587 -1.8621 7.2595 138 70 83 
-0.941187 1.10036 8.00759 46 35 29 
-0.974715 3.67555 8.40025 207 188 129 
-0.980191 3.71196 8.46347 199 191 152 
-0.835512 -1.76256 7.25293 147 72 0 
-0.905514 -3.3419 7.88703 202 178 152 
-0.948249 3.80925 8.32865 145 96 38 
-0.948249 3.80925 8.32865 145 96 38 
-0.954089 3.79547 8.3643 138 99 40 
-0.972513 3.70841 8.52835 126 118 107 
-0.966191 3.73105 8.49012 100 93 77 
-0.911999 0.890132 8.06782 97 25 29 
-0.911999 0.890132 8.06782 97 25 29 
-0.941649 3.7747 8.33129 144 98 36 
-0.94076 3.75357 8.40814 216 201 178 
-0.866908 4.03818 7.80203 233 208 178 
-0.907654 3.90599 8.25722 197 162 120 
-0.792096 -1.99174 7.35064 24 22 25 
-0.879722 0.95488 8.16339 209 142 27 
-0.787178 -2.01757 7.3595 134 132 133 
-0.89417 0.560165 8.38419 203 172 144 
-0.885411 3.95125 8.33806 21 11 20 
-0.812207 1.18507 7.68813 36 34 35 
-0.879373 0.704815 8.36751 213 183 147 
-0.879624 0.705934 8.3731 213 183 147 
-0.862445 0.734554 8.28834 43 11 0 
-0.871564 0.618203 8.3835 119 89 61 
-0.867932 0.721427 8.35912 54 22 23 
-0.867932 0.721427 8.35912 54 22 23 
-0.872537 3.78385 8.39205 209 154 51 
-0.870511 0.589742 8.44485 121 86 54 
-0.810498 3.93709 7.89594 225 209 193 
-0.801439 4.07919 7.8322 16 21 17 
-0.84393 0.714885 8.34313 224 188 136 
-0.808717 0.842997 8.08482 176 161 140 
-0.837529 0.739714 8.3756 191 154 102 
-0.822602 3.88823 8.23117 10 7 24 
-0.858148 3.73009 8.57259 113 110 101 
-0.800298 3.90408 8.03605 255 244 202 
-0.883382 3.67323 8.84262 188 143 60 
-0.779508 3.98359 7.85922 46 44 45 
-0.828803 0.556205 8.38374 224 196 148 
-0.757323 1.13354 7.7543 223 208 185 
-0.787511 0.902353 8.11711 82 54 30 
-0.761398 3.98155 7.86996 225 215 180 
-0.742062 1.09433 7.71557 53 41 29 
-0.854959 3.69284 8.88446 136 106 56 
-0.826836 3.74154 8.58582 202 186 163 
-0.815706 3.75756 8.52969 194 179 140 
-0.773658 0.863064 8.12604 88 36 22 
-0.854208 3.65893 8.93961 198 145 67 
-0.759465 3.94895 7.99718 218 209 176 
-0.742751 4.07472 7.82363 18 11 27 
-0.845162 3.71208 8.90285 160 131 87 
-0.795524 0.702162 8.42201 152 119 76 
-0.808587 3.73659 8.57466 107 81 30 
-0.794231 3.78719 8.43388 213 171 121 
-0.856439 5.57253 9.15708 16 18 31 
-0.759974 0.883141 8.19803 168 112 61 
-0.85867 3.63874 9.25713 89 65 39 
-0.809692 3.71854 8.7543 87 64 22 
-0.808264 5.65481 8.84125 15 19 28 
-0.808264 5.65481 8.84125 15 19 28 
-0.814996 3.69813 8.93521 210 157 79 
-0.689519 1.1779 7.62136 223 211 187 
-0.722194 3.9143 8.01604 238 225 193 
-0.719602 3.94229 7.99079 134 136 99 
-0.745384 3.81339 8.31284 121 88 43 
-0.777267 3.72495 8.72743 214 167 63 
-0.754971 3.80688 8.49883 206 156 71 
-0.689656 1.1255 7.77637 225 214 182 
-0.802029 3.71452 9.07655 190 134 51 
-0.767841 3.7904 8.66026 180 144 86 
-0.787575 3.73173 8.88999 115 103 77 
-0.713061 3.89373 8.16983 217 198 156 
-0.742443 3.80173 8.58127 219 166 70 
-0.685784 -2.48769 8.03448 22 26 37 
-0.680032 3.95242 7.95791 234 214 187 
-0.680029 3.88898 7.99438 157 160 117 
-0.753754 3.70283 8.88914 185 149 71 
-0.648582 4.0456 7.70355 40 39 35 
-0.727856 3.77339 8.60551 173 139 76 
-0.649648 -2.05576 7.75072 87 57 46 
-0.674272 -2.54154 8.04477 20 22 34 
-0.743014 3.68478 8.90661 116 81 27 
-0.724648 3.75045 8.70073 94 85 68 
-0.660013 3.95119 7.9607 229 217 179 
-0.682586 0.837603 8.28988 159 92 76 
-0.631961 -1.74215 7.73984 1 3 15 
-0.677374 0.870853 8.30741 167 114 44 
-0.643514 3.98123 7.89932 135 123 81 
-0.647237 3.91838 7.9937 241 231 195 
-0.644681 3.94749 7.97734 128 134 100 
-0.696532 3.80484 8.61959 168 163 133 
-0.614075 -1.67209 7.74804 6 10 21 
-0.664971 3.89312 8.39697 143 98 30 
-0.698227 3.75385 8.86318 162 147 104 
-0.644272 3.93536 8.24649 71 55 39 
-0.6438 3.93197 8.24103 68 52 39 
-0.650165 3.90854 8.32718 186 150 88 
-0.618282 3.92679 7.96753 97 111 78 
-0.700719 5.55332 9.17462 94 93 101 
-0.621976 3.91751 8.1905 184 174 138 
-0.67012 3.76783 8.85927 194 163 96 
-0.6061 3.91902 8.08687 81 101 74 
-0.626232 0.758059 8.47354 65 44 39 
-0.645975 3.76025 8.72334 196 162 55 
-0.649293 3.77153 8.83771 149 111 30 
-0.626171 5.67386 8.69567 14 16 28 
-0.6446 3.77459 8.96213 126 125 141 
-0.647876 3.7429 9.03554 28 30 43 
-0.647876 3.7429 9.03554 28 30 43 
-0.615601 3.82545 8.69945 135 89 0 
-0.606055 3.84588 8.61846 141 106 14 
-0.589869 3.91717 8.43776 208 158 69 
-0.551575 3.89089 7.98448 42 70 47 
-0.524726 3.96594 7.87089 206 172 12 
-0.538551 3.87749 8.10809 54 25 7 
-0.526787 3.87728 8.0621 227 203 167 
-0.562788 3.80159 8.91473 31 30 46 
-0.562788 3.80159 8.91473 31 30 46 
-0.540574 3.85863 8.59121 11 18 24 
-0.557095 3.80763 8.86614 107 103 94 
-0.557095 3.80763 8.86614 107 103 94 
-0.530912 3.82145 8.72166 157 145 145 
-0.530912 3.82145 8.72166 157 145 145 
-0.489741 3.88955 8.09329 222 198 27 
-0.473831 3.9084 7.88833 56 89 58 
-0.487866 3.88571 8.15429 96 49 0 
-0.487866 3.88571 8.15429 96 49 0 
-0.535829 5.56873 9.0169 100 99 104 
-0.535829 5.56873 9.0169 100 99 104 
-0.535829 5.56873 9.0169 100 99 104 
-0.512225 3.842 8.63612 147 143 144 
-0.496982 3.86012 8.54708 142 139 132 
-0.483683 3.85172 8.39817 19 13 0 
-0.483683 3.85172 8.39817 19 13 0 
-0.51329 3.70853 9.20266 108 103 125 
-0.493612 5.61403 8.87344 13 16 25 
-0.464293 3.8259 8.45597 38 36 39 
-0.481756 3.79303 8.85252 166 159 153 
-0.481756 3.79303 8.85252 166 159 153 
-0.42987 3.8903 8.11582 223 200 8 
-0.443782 3.82189 8.44013 31 30 35 
-0.47113 3.76649 8.98425 139 136 153 
-0.457851 3.7794 8.93128 31 35 36 
-0.438572 0.947564 8.78496 60 11 14 
-0.450611 3.73879 8.99088 142 140 161 
-0.446067 3.68563 9.26119 24 26 41 
-0.409322 3.75009 8.83702 118 117 112 
-0.387923 3.78221 8.73701 130 130 130 
-0.362209 0.741779 9.05597 80 71 64 
-0.253343 -2.17674 6.92951 16 5 0 
-0.321176 3.68758 8.96735 131 105 56 
-0.313338 3.70958 8.91067 150 113 43 
-0.313338 3.70958 8.91067 150 113 43 
-0.297799 3.71437 8.81575 211 168 55 
-0.261005 1.10418 8.10418 38 24 37 
-0.251128 1.07955 8.11616 32 32 84 
-0.257359 3.79236 8.39689 55 33 10 
-0.241473 3.92049 8.17461 225 201 177 
-0.238713 0.992981 8.21045 33 31 55 
-0.185858 -2.41185 6.85167 161 135 78 
-0.186478 -2.36855 6.86743 204 173 83 
-0.190371 -3.01235 7.07663 85 46 17 
-0.177195 -2.37998 6.84726 207 166 78 
-0.210516 0.9952 8.23179 72 67 63 
-0.210516 0.9952 8.23179 72 67 63 
-0.198541 3.93642 8.04639 178 46 41 
-0.176454 -1.60445 7.30419 62 66 78 
-0.176454 -1.60445 7.30419 62 66 78 
-0.217406 0.795047 9.02277 227 180 154 
-0.158425 -2.34492 6.87011 200 170 116 
-0.149774 -2.06648 6.97485 39 30 0 
-0.192383 0.269085 8.96071 157 158 153 
-0.141678 -2.11705 6.92774 189 167 126 
-0.141678 -2.11705 6.92774 189 167 126 
-0.142413 -2.99089 7.00622 56 21 0 
-0.15284 3.94844 7.90975 175 66 43 
-0.149644 3.97579 7.88666 203 164 11 
-0.127151 -3.26688 6.9228 68 30 21 
-0.127151 -3.26688 6.9228 68 30 21 
-0.124827 3.95282 7.91894 175 64 19 
-0.140687 0.500687 9.00994 192 182 157 
-0.122702 4.01189 7.88783 140 24 25 
-0.122702 4.01189 7.88783 140 24 25 
-0.136035 0.0967688 8.94161 135 137 132 
-0.125772 -0.1664 8.87373 65 65 67 
-0.122697 -0.230496 8.85846 107 108 112 
-0.108053 4.04315 7.90066 196 96 98 
-0.119634 -0.260135 8.84326 138 139 134 
-0.0927329 -2.98164 7.005 72 28 0 
-0.123383 0.835122 9.04121 169 126 109 
-0.1005 4.02637 7.88961 191 112 107 
-0.101265 1.03521 8.09533 140 138 141 
-0.107835 3.98893 8.85314 66 38 17 
-0.0922952 4.00343 7.88522 129 54 12 
-0.0908826 4.04896 7.91188 205 114 121 
-0.103836 -0.163447 8.88057 86 85 90 
-0.100393 -0.24919 8.85106 131 133 132 
-0.100393 -0.24919 8.85106 131 133 132 
-0.0734694 -2.31543 6.91301 35 20 0 
-0.0682104 -2.2588 6.91256 142 125 82 
-0.0804612 4.04551 7.91014 136 45 50 
-0.0886113 4.01314 8.72339 55 37 23 
-0.0652186 -3.05488 7.01861 143 98 65 
-0.0850536 0.631346 9.00245 198 166 151 
-0.0800837 -0.22594 8.84316 53 55 54 
-0.0733468 -0.35042 8.81154 77 54 60 
-0.0733468 -0.35042 8.81154 77 54 60 
-0.0668878 -0.414493 8.78454 76 45 50 
-0.0642695 -0.446069 8.76165 69 39 41 
-0.0674809 0.44326 9.0129 104 90 115 
-0.0624278 -0.474685 8.77196 77 48 53 
-0.059158 -0.159395 8.86364 55 55 57 
-0.059158 -0.159395 8.86364 55 55 57 
-0.0518519 4.11589 7.91426 44 44 34 
-0.0531094 3.93294 8.11758 81 104 110 
-0.0552383 0.408737 9.02146 63 23 47 
-0.0462297 -0.251216 8.84755 135 133 134 
-0.0426878 -0.45377 8.78108 93 43 54 
-0.0310212 -2.19409 6.94317 192 177 138 
-0.0409916 -0.350236 8.81907 78 49 53 
-0.036828 1.02855 8.18853 90 79 75 
-0.0401585 -0.218069 8.85119 88 86 87 
-0.0417288 3.9985 8.89795 52 46 24 
-0.0385505 -0.499364 8.75652 82 47 54 
-0.0275293 -2.29332 6.95617 30 15 12 
-0.0289381 -2.40961 7.00643 15 9 13 
-0.0254581 -3.26221 6.95279 62 19 0 
-0.0254829 4.02964 7.90025 203 128 123 
-0.02404 -0.481824 8.7885 149 107 117 
-0.0226438 -0.468724 8.76515 151 105 116 
-0.0237151 -0.347297 8.82035 162 130 135 
-0.0237151 -0.347297 8.82035 162 130 135 
-0.0177024 -3.00426 6.9669 150 114 90 
-0.0220396 -0.371136 8.81575 104 40 56 
-0.0147195 4.01025 7.88524 129 53 29 
-0.012939 -0.189649 8.87436 138 138 136 
-0.00820163 -3.2085 6.98175 84 42 20 
-0.0113984 -0.448914 8.80754 85 42 51 
-0.0120275 3.94816 8.12091 62 97 119 
-0.00579514 -0.349101 8.82887 90 53 60 
-0.000630115 -0.390472 8.79249 81 55 58 
0.000293773 4.07109 7.93363 195 114 113 
0.0090392 -0.368149 8.79115 138 130 128 
0.0107252 -0.330892 8.82857 145 129 130 
0.0153131 -0.275772 8.85563 78 79 74 
0.0196537 1.04027 8.15816 190 186 177 
0.0196792 4.00812 7.8569 138 17 36 
0.020062 3.99091 7.83105 138 24 32 
0.0259519 -0.21643 8.87016 84 84 82 
0.0259519 -0.21643 8.87016 84 84 82 
0.0288543 -0.482437 8.73855 84 34 46 
0.0288543 -0.482437 8.73855 84 34 46 
0.0288805 3.98429 7.93654 222 203 15 
0.0353946 -0.184253 8.8735 125 126 121 
0.0353946 -0.184253 8.8735 125 126 121 
0.039685 -0.244868 8.85319 136 136 134 
0.0394187 -0.453714 8.76955 147 124 130 
0.0391509 3.96453 7.96658 74 54 3 
0.051448 5.55739 8.75515 59 44 37 
0.05581 -0.27541 8.85315 135 137 134 
0.056405 -0.366616 8.82005 161 141 142 
0.0611706 -0.31147 8.84478 134 134 126 
0.0664703 0.317817 8.99233 34 20 35 
0.0767818 -0.382634 8.81196 95 45 56 
0.0789811 -0.187289 8.87051 142 143 138 
0.0789811 -0.187289 8.87051 142 143 138 
0.0826318 -0.246104 8.84375 134 133 129 
0.0786762 -2.36871 6.98681 255 255 211 
0.081047 -2.14115 7.10779 87 74 58 
0.101914 -0.211874 8.88245 135 135 133 
0.0844432 -2.38451 6.98933 41 28 0 
0.105601 0.438302 9.00586 167 85 99 
0.0883386 -2.62875 7.13991 34 19 24 
0.109254 0.219341 9.01203 122 38 71 
0.091811 -2.37398 6.99155 37 21 0 
0.0904172 -2.32579 6.9964 130 110 77 
0.120009 -0.240522 8.85738 136 136 134 
0.119013 -0.465994 8.81584 152 125 130 
0.154137 3.55221 9.89069 109 99 89 
0.147961 -0.266795 8.85857 85 85 85 
0.151683 -0.14738 8.88952 147 146 144 
0.157437 -0.20924 8.87369 139 140 134 
0.159788 0.323258 8.99376 32 18 31 
0.159788 0.323258 8.99376 32 18 31 
0.165099 -0.140606 8.90948 29 29 27 
0.172202 -0.407014 8.83031 136 133 128 
0.172202 -0.407014 8.83031 136 133 128 
0.171962 -0.441222 8.84755 83 36 44 
0.170837 4.03182 8.46728 28 26 29 
0.146203 -2.3554 7.05171 38 7 2 
0.174911 4.00925 8.4643 38 32 32 
0.186034 0.343065 8.99388 92 53 74 
0.176329 3.98227 8.57611 22 12 11 
0.180037 4.10029 8.05984 15 23 12 
0.204124 -0.235349 8.88106 136 137 129 
0.192428 1.21293 8.13689 196 117 104 
0.21108 -0.202523 8.88682 20 20 18 
0.211801 -0.481266 8.79824 101 40 58 
0.218393 0.0749322 8.97565 112 38 63 
0.220104 -0.33996 8.85504 88 58 60 
0.223389 -0.372676 8.891 90 55 59 
0.231539 -0.479676 8.81701 71 50 55 
0.232666 -0.401366 8.83138 142 137 131 
0.232666 -0.401366 8.83138 142 137 131 
0.23777 0.401342 8.97665 151 47 84 
0.19856 -2.85861 7.32295 164 141 135 
0.238928 -0.356466 8.8298 155 125 127 
0.247845 -0.379566 8.85046 92 47 54 
0.263829 0.324012 8.96939 34 17 33 
0.262329 -0.131376 8.90088 54 54 52 
0.264059 -0.201053 8.88469 60 61 56 
0.264059 -0.201053 8.88469 60 61 56 
0.251739 3.95529 8.32565 110 113 104 
0.280983 -0.352421 8.84268 142 131 129 
0.282342 -0.376165 8.83495 77 55 58 
0.290118 -0.196705 8.87103 127 128 123 
0.299902 0.457425 9.00169 120 115 138 
0.301291 0.415893 9.01216 59 25 60 
0.307578 -0.36916 8.83468 93 52 58 
0.310282 0.371603 8.94088 34 20 33 
0.295968 3.95082 8.51115 77 77 79 
0.290801 3.98479 8.211 118 122 108 
0.268587 -2.68131 7.21836 80 35 56 
0.332083 -0.16823 8.87223 134 137 130 
0.338903 0.346993 8.97104 50 22 36 
0.336131 0.569972 8.90653 191 177 148 
0.33873 0.883963 8.87051 170 123 117 
0.279137 -2.71174 7.19306 204 181 150 
0.345214 0.298997 8.97816 38 29 46 
0.345806 0.298817 8.97732 38 29 46 
0.284128 -2.83893 7.20901 182 151 123 
0.301991 4.02404 7.77713 127 131 116 
0.301991 4.02404 7.77713 127 131 116 
0.352182 0.324709 8.96096 86 73 90 
0.354356 0.38899 9.00832 173 155 143 
0.354356 0.38899 9.00832 173 155 143 
0.354128 0.263117 8.96642 163 163 151 
0.3252 1.17158 8.19836 162 147 128 
0.293217 -2.86339 7.20985 179 137 113 
0.360021 -0.380192 8.85172 146 130 131 
0.358691 -0.370971 8.83566 151 124 129 
0.378597 0.421896 9.03799 53 42 56 
0.372671 -0.187627 8.89768 69 69 67 
0.372671 -0.187627 8.89768 69 69 67 
0.374253 0.0151549 8.93745 136 137 129 
0.374253 0.0151549 8.93745 136 137 129 
0.3781 0.183309 8.90573 36 43 69 
0.382818 -0.154855 8.8985 136 137 132 
0.388392 0.510882 9.02877 87 46 64 
0.391555 0.561939 9.04807 115 64 71 
0.313976 -2.83104 7.18776 217 197 162 
0.397704 0.500048 9.04326 89 50 79 
0.31853 -2.61061 7.15503 225 202 170 
0.405485 -0.122386 8.91258 47 48 43 
0.405485 -0.122386 8.91258 47 48 43 
0.401164 -0.31706 8.85778 65 45 47 
0.401164 -0.31706 8.85778 65 45 47 
0.394978 5.59175 8.77364 41 58 26 
0.406042 -0.341797 8.86595 145 127 127 
0.406042 -0.341797 8.86595 145 127 127 
0.406042 -0.341797 8.86595 145 127 127 
0.405932 -0.365362 8.84028 75 53 55 
0.405932 -0.365362 8.84028 75 53 55 
0.408042 -0.183298 8.88688 60 62 57 
0.37542 1.14515 8.14375 146 119 98 
0.410597 -0.383791 8.85596 138 128 126 
0.334159 -2.89193 7.19345 178 16 29 
0.390993 1.17798 8.16437 100 57 41 
0.428589 -0.319148 8.87732 90 61 66 
0.428589 -0.319148 8.87732 90 61 66 
0.43518 -0.157364 8.93562 129 131 126 
0.429462 -0.358024 8.81897 104 58 71 
0.473734 0.124657 8.97518 28 38 63 
0.475303 -0.184198 8.92396 57 59 56 
0.475303 -0.184198 8.92396 57 59 56 
0.381277 -2.56251 7.11818 126 69 86 
0.47986 -0.339638 8.87241 148 121 128 
0.455758 1.10812 8.14316 220 207 139 
0.41017 -2.11072 7.27822 29 12 0 
0.512956 -0.340471 8.88198 135 97 108 
0.470366 1.16177 8.12408 142 147 53 
0.470366 1.16177 8.12408 142 147 53 
0.422427 -3.12656 7.15619 228 208 173 
0.43542 -3.41253 7.31657 61 94 101 
0.529519 -0.318114 8.92762 79 44 51 
0.432912 -2.12226 7.22648 96 79 59 
0.488419 1.20726 8.15545 137 127 117 
0.488419 1.20726 8.15545 137 127 117 
0.438135 -2.05336 7.24863 169 145 109 
0.495404 1.18438 8.10549 15 0 0 
0.447288 -2.13682 7.19294 33 12 0 
0.504248 1.17777 8.11886 196 167 159 
0.505308 1.15989 8.12672 30 12 0 
0.504888 1.13309 8.12327 244 228 179 
0.552514 -0.338419 8.90037 136 125 123 
0.477514 -1.73158 7.33781 74 32 18 
0.481592 -1.71826 7.33986 66 24 8 
0.584523 -0.487743 8.89857 30 32 19 
0.584523 -0.487743 8.89857 30 32 19 
0.595363 -0.335135 8.97538 146 113 120 
0.488932 -1.77674 7.3338 73 39 0 
0.61924 0.967623 9.20178 53 3 14 
0.62663 0.886469 9.13942 170 119 124 
0.498027 -2.33978 7.18236 73 49 3 
0.500213 -2.16402 7.21426 59 44 5 
0.623607 0.0545979 9.00559 44 41 52 
0.57588 1.08661 8.3123 37 17 19 
0.621139 -0.336499 8.94735 99 59 67 
0.621139 -0.336499 8.94735 99 59 67 
0.565678 1.16262 8.11903 255 191 163 
0.516587 -1.77008 7.36311 62 17 0 
0.577944 1.11304 8.17631 188 179 110 
0.630961 5.64074 8.82586 58 43 36 
0.657194 0.968334 9.18931 96 36 44 
0.511289 -2.99601 7.10096 150 44 64 
0.533988 -1.77415 7.34082 126 97 55 
0.522985 -2.24693 7.19933 49 30 0 
0.52711 -2.20777 7.21711 94 78 53 
0.667547 0.897644 9.15227 150 87 95 
0.540509 -1.73019 7.36538 62 21 3 
0.528818 -2.26008 7.20635 198 177 114 
0.53082 -3.50896 7.22177 57 103 56 
0.691103 0.761856 9.17456 157 100 106 
0.540684 -3.24619 7.16775 206 66 75 
0.540684 -3.24619 7.16775 206 66 75 
0.684549 -0.0844828 8.97771 92 90 78 
0.624236 1.25428 8.14153 81 52 12 
0.651891 1.09079 8.3802 108 88 35 
0.562574 -2.16659 7.22266 44 15 9 
0.697449 0.867673 8.9482 134 91 100 
0.654637 1.09568 8.35312 217 200 130 
0.651351 1.12397 8.24049 79 72 0 
0.650732 1.17381 8.08852 248 218 180 
0.601859 -1.75252 7.39302 53 15 2 
0.602306 -1.75223 7.38986 53 15 2 
0.665774 1.1406 8.09426 29 22 0 
0.589821 -3.29219 7.1593 238 214 178 
0.677592 1.13518 8.12401 224 222 181 
0.603755 -3.2939 7.21661 249 203 179 
0.687968 1.1535 8.09398 207 181 148 
0.687968 1.1535 8.09398 207 181 148 
0.687224 1.27545 8.08169 188 107 80 
0.783939 0.739602 9.17233 127 75 79 
0.611386 -3.03827 7.09882 129 43 92 
0.631177 -3.83965 7.30675 229 208 177 
0.615082 -2.99306 7.10502 246 208 195 
0.615082 -2.99306 7.10502 246 208 195 
0.615098 -2.71804 7.08456 242 220 197 
0.732058 1.07003 8.32113 53 34 36 
0.711377 1.20485 8.07171 233 205 181 
0.711737 1.20425 8.06977 233 205 181 
0.813585 0.899906 9.20041 132 68 84 
0.632902 -2.64947 7.10004 122 67 70 
0.822865 0.637799 9.19754 56 51 55 
0.656947 -3.77022 7.26323 81 103 64 
0.729176 1.19012 8.0584 232 214 178 
0.729176 1.19012 8.0584 232 214 178 
0.645928 -3.07504 7.12944 144 84 94 
0.838432 0.762667 9.24789 197 143 109 
0.737033 1.27701 8.12809 86 64 25 
0.66231 -2.34575 7.20718 91 80 48 
0.671102 -3.84595 7.30297 174 102 90 
0.671658 -3.92723 7.28616 233 210 179 
0.857169 0.818094 9.27052 196 159 141 
0.851444 0.607837 9.18263 72 72 72 
0.758994 1.27365 8.14294 48 33 14 
0.758994 1.27365 8.14294 48 33 14 
0.676729 -2.12979 7.23964 37 25 0 
0.858122 0.635196 9.17892 158 150 137 
0.869891 0.79983 9.23259 76 65 45 
0.684692 -3.73703 7.25985 57 98 58 
0.684692 -3.73703 7.25985 57 98 58 
0.690737 -3.85545 7.29092 206 28 40 
0.690737 -3.85545 7.29092 206 28 40 
0.776495 1.27853 8.15678 161 135 102 
0.703176 -2.03284 7.36656 79 17 20 
0.68638 -2.33677 7.19518 43 33 0 
0.856624 -0.48381 8.96817 116 115 110 
0.701596 -4.0072 7.33581 228 210 190 
0.70746 -2.06671 7.32452 63 27 13 
0.706994 -3.91855 7.31261 234 203 172 
0.701179 -2.40353 7.20721 138 129 98 
0.703457 -2.33481 7.18279 209 193 141 
0.708673 -2.32201 7.23614 255 255 177 
0.810065 1.19209 8.22697 212 174 13 
0.828235 1.10522 8.3786 238 185 81 
0.731828 -2.14528 7.29105 32 12 0 
0.754235 -3.72621 7.325 223 198 168 
0.85487 1.14271 8.28261 224 199 145 
0.76162 -3.72408 7.27257 51 34 26 
0.880074 1.10903 8.39427 219 149 137 
0.898474 1.12099 8.35538 183 68 61 
0.949425 0.303898 8.81722 38 24 11 
0.949425 0.303898 8.81722 38 24 11 
0.774689 -2.58784 7.16573 164 143 116 
0.919586 1.12527 8.32895 87 71 0 
0.798121 -2.58457 7.17569 159 133 108 
0.798121 -2.58457 7.17569 159 133 108 
0.805998 -2.59977 7.15577 234 211 177 
1.04479 0.628036 9.19795 184 159 128 
0.820889 -2.51422 7.16948 66 48 26 
0.822491 -2.51651 7.17872 66 48 26 
0.874411 -1.78335 7.54262 34 23 17 
0.944952 1.29193 8.14469 103 86 68 
0.842736 -2.60158 7.22253 178 89 85 
0.891134 -1.7205 7.54309 200 157 26 
0.863531 -2.73351 7.20564 238 212 175 
0.898384 -1.86636 7.44674 199 163 15 
0.898384 -1.86636 7.44674 199 163 15 
0.886996 -2.78022 7.23995 231 195 183 
0.896647 -2.67404 7.28224 147 50 93 
0.904011 -2.77731 7.26859 91 31 57 
0.904996 -2.86211 7.28203 98 97 105 
0.926354 -2.63967 7.34118 226 201 161 
1.0785 1.10964 8.49763 67 26 20 
0.942438 -2.72757 7.36559 98 69 51 
0.951084 -2.75538 7.39704 214 189 169 
1.024 1.29346 7.96199 128 105 53 
1.11306 1.15219 8.33434 61 47 20 
1.02822 -1.55167 7.35752 159 145 82 
1.06903 -2.32671 7.60604 105 82 12 
1.056 -1.59771 7.3125 77 63 16 
1.19815 1.15232 8.30744 206 196 160 
1.05873 -1.93582 7.31864 118 107 41 
1.06185 -1.94694 7.28963 124 107 25 
1.21582 1.16126 8.2797 217 192 170 
1.07619 -1.58717 7.31414 169 153 102 
1.21456 1.17747 8.20284 72 43 0 
1.21456 1.17747 8.20284 72 43 0 
1.08063 -1.97434 7.2786 139 102 0 
1.08063 -1.97434 7.2786 139 102 0 
1.08589 -1.86507 7.27378 140 118 0 
1.09107 -1.60041 7.30608 86 69 15 
1.09377 -1.61304 7.28633 155 140 75 
1.09622 -1.94666 7.29923 203 171 26 
1.12666 -2.16015 7.49605 160 118 6 
1.10748 -1.60803 7.30357 104 88 0 
1.13624 -2.20861 7.47773 131 90 11 
1.28741 1.05787 8.43924 116 100 77 
1.28741 1.05787 8.43924 116 100 77 
1.10836 -1.64439 7.25289 168 145 67 
1.11369 -1.76028 7.23441 154 135 33 
1.11485 -1.82833 7.23187 153 129 29 
1.29779 1.15767 8.41564 220 187 22 
1.12504 -1.75686 7.22305 149 126 24 
1.29642 1.17796 8.26924 126 104 3 
1.33564 1.1268 8.40843 86 55 53 
1.16987 -1.96699 7.31558 245 213 34 
1.17615 -1.5615 7.34028 220 191 55 
1.20533 -1.77634 7.28245 158 123 21 
1.20878 -1.62827 7.28836 213 184 44 
1.23001 -2.19444 7.38611 188 157 14 
1.37143 1.3261 8.18459 151 125 92 
1.40212 -3.64168 8.32739 160 151 134 
1.71289 3.51237 10.1294 187 174 155 
1.46194 4.19585 8.6528 68 64 55 
1.46194 4.19585 8.6528 68 64 55 
1.2615 -2.22956 7.36979 215 189 78 
1.28042 -1.98887 7.46953 243 215 10 
1.27124 -2.23701 7.36029 137 109 0 
1.29102 -0.758465 7.41782 194 154 84 
1.27806 -2.23539 7.34394 222 194 58 
1.4229 1.34377 8.17401 115 62 22 
1.4693 1.06505 8.38747 133 111 97 
1.3147 -1.64902 7.34836 230 200 8 
1.78065 2.74172 9.83108 161 151 141 
1.52474 1.33067 8.41301 142 92 85 
1.54535 1.31627 8.45885 120 91 77 
1.35602 -0.644947 7.30693 245 209 113 
1.58101 1.31057 8.52196 140 86 74 
1.35669 -1.07281 7.29764 214 163 72 
1.36311 -0.652218 7.30861 121 100 53 
1.62015 1.32072 8.50562 87 21 23 
1.54334 1.38779 8.08303 83 40 23 
1.89965 2.67346 9.88124 184 170 157 
1.70076 3.92726 8.75431 30 25 29 
1.42481 -1.80949 7.30773 115 85 12 
1.64678 1.31371 8.44824 188 87 95 
1.61154 1.36064 8.23984 197 141 108 
1.43292 -1.08549 7.26762 83 58 17 
1.43931 -1.87128 7.25353 118 71 0 
1.43931 -1.87128 7.25353 118 71 0 
1.74563 3.51614 8.80449 12 13 17 
1.45035 -2.12075 7.29472 217 192 110 
1.43316 -1.37911 7.20344 167 102 0 
1.4408 -1.84959 7.24312 226 181 54 
1.43979 -1.41273 7.20015 170 103 0 
1.45792 -1.90518 7.28829 223 185 26 
1.46152 -2.09487 7.30504 143 122 15 
1.44686 -1.36925 7.2157 207 166 52 
1.47457 -2.13588 7.36001 53 32 0 
1.45075 -1.21249 7.23402 159 137 96 
1.47649 -2.09055 7.35373 130 109 18 
1.44827 -1.44866 7.20608 172 101 11 
1.44683 -1.64626 7.19753 198 141 0 
1.47275 -2.10449 7.31926 180 157 81 
1.46439 -1.85652 7.25815 111 56 17 
1.47622 -2.13168 7.30744 195 174 67 
1.48661 -2.07037 7.3511 220 191 51 
1.47804 -2.09421 7.31477 126 105 12 
1.47895 -2.16017 7.31496 231 206 77 
1.46064 -1.52176 7.21014 182 104 0 
1.46258 -1.55575 7.21489 188 113 0 
1.45251 -1.44662 7.16388 229 174 58 
1.47472 -1.253 7.24941 56 47 30 
1.48088 -2.08768 7.28509 179 162 108 
1.49308 -2.20215 7.33799 151 104 0 
1.49308 -2.20215 7.33799 151 104 0 
1.72611 1.12073 8.48326 145 128 112 
1.4936 -2.11737 7.33354 158 145 100 
1.4709 -1.68532 7.20865 120 61 21 
1.49379 -2.16115 7.31635 109 74 0 
1.72597 1.24882 8.46039 169 72 89 
1.51227 -2.08412 7.38175 65 49 13 
1.49636 -2.12466 7.30463 35 18 2 
1.66448 4.08952 8.13311 53 49 50 
1.9114 0.269898 9.29342 185 168 140 
1.50511 -2.14117 7.30906 228 202 65 
1.51242 -2.10793 7.32272 206 182 74 
1.88523 -0.341573 9.07508 111 99 87 
1.6909 4.08693 8.13563 148 141 131 
1.71427 1.33969 8.14387 144 55 23 
1.932 -0.435273 9.16182 112 99 82 
1.53377 -1.81404 7.24971 9 5 2 
1.53056 -1.48101 7.21528 15 0 0 
1.53135 -1.48116 7.21541 17 6 10 
1.73995 4.06087 8.17333 106 98 95 
1.51378 -1.58158 7.06819 8 8 8 
1.76412 4.13848 8.16297 111 103 100 
2.09275 -0.840485 9.04581 164 141 100 
1.67911 -1.713 7.15548 57 58 42 
1.67911 -1.713 7.15548 57 58 42 
2.02031 2.56985 8.61012 31 37 25 
2.02031 2.56985 8.61012 31 37 25 
1.96774 -3.6662 8.33783 90 73 57 
1.90231 1.16367 8.06892 132 115 95 
1.67242 -1.55173 7.07111 90 96 70 
2.0066 2.38924 8.48666 53 47 35 
2.02147 2.26123 8.42439 183 180 175 
2.01651 -3.59714 8.3557 191 172 132 
2.02628 2.18138 8.39601 192 179 163 
2.02505 -3.60819 8.38802 195 176 134 
2.05808 2.4398 8.51944 196 180 164 
1.75758 -1.82 7.20721 15 17 3 
2.0897 -2.74245 7.91155 224 201 167 
2.11231 -2.84276 7.88465 47 41 27 
2.12217 -2.79004 7.90099 42 43 37 
2.13086 -2.66698 7.93198 51 60 57 
2.13123 -2.86725 7.8907 138 131 125 
2.13123 -2.86725 7.8907 138 131 125 
2.13478 -2.99307 7.905 54 45 40 
2.1341 -2.85078 7.90171 132 128 117 
2.14494 -2.77326 7.88131 126 121 115 
2.16214 -2.97128 7.90273 74 65 60 
2.17078 -2.69999 7.89281 32 28 27 
2.17074 -2.77386 7.88156 114 111 106 
2.1775 -2.74918 7.89315 131 126 120 
2.18809 -2.71661 7.92312 81 77 76 
2.17955 -2.95582 7.87666 49 31 31 
2.19512 -2.82608 7.88742 147 137 127 
2.20857 -2.72147 7.90492 105 103 106 
2.20303 -2.99862 7.86545 51 42 25 
2.22689 -2.7311 7.93613 25 23 24 
2.25259 0.982406 8.0033 75 56 39 
2.23222 -2.82667 7.90656 145 138 128 
2.24361 -2.73753 7.91189 77 71 73 
2.32582 1.01851 8.162 199 183 158 
2.26442 -2.83979 7.91097 36 27 28 
2.30444 -2.8425 7.94095 77 63 63 
2.30444 -2.8425 7.94095 77 63 63 
2.29756 -2.87948 7.91598 164 154 144 
2.1368 -0.636668 7.34195 1 9 0 
2.31818 -2.99226 7.91644 174 158 143 
2.32282 -2.9044 7.91644 152 141 135 
2.33082 -3.9302 7.93594 9 10 12 
2.33082 -3.9302 7.93594 9 10 12 
2.33621 -2.82812 7.93338 78 73 69 
2.3418 -2.71791 7.94932 103 97 97 
2.33284 -2.91591 7.91164 66 52 41 
2.35443 -2.77764 7.94326 49 47 50 
2.37543 -2.94449 7.94655 155 143 127 
2.37217 -3.04656 7.92265 227 212 189 
2.37544 -4.14024 7.9111 0 1 3 
2.23997 -0.640997 7.46877 124 132 117 
2.37709 -4.05562 7.89648 73 73 65 
2.40451 -3.08138 7.93239 61 58 53 
2.4114 -3.01557 7.92251 79 74 70 
2.4114 -3.01557 7.92251 79 74 70 
2.3719 -2.70991 7.74392 28 26 31 
2.41849 -3.53343 7.87715 49 41 38 
2.45101 -3.04925 7.93074 218 199 166 
2.45101 -3.04925 7.93074 218 199 166 
2.42493 -2.91585 7.82234 34 26 24 
2.2509 -1.78745 7.24326 22 26 11 
2.57168 -3.71023 8.21389 152 144 131 
2.51906 0.20359 7.9265 32 40 25 
2.44489 -0.716458 7.67858 32 30 7 
2.47557 -0.355738 7.75734 41 39 18 
2.47652 -0.355651 7.75926 41 39 18 
2.4984 -2.90488 7.82069 110 97 81 
2.50463 -2.93013 7.82983 40 31 22 
2.62525 -3.30729 8.17593 111 32 87 
2.53162 -4.15609 7.87568 4 2 5 
2.48483 -0.577648 7.72804 202 187 164 
2.56062 -2.46259 7.91287 214 184 156 
2.56299 0.00443227 7.83171 34 41 25 
2.63881 -3.56077 8.04072 113 25 86 
2.52361 -0.794472 7.68692 192 183 154 
2.65133 -4.22787 8.05627 125 51 104 
2.6279 -3.81266 7.96533 165 119 129 
2.63838 -3.89719 7.95323 157 114 123 
2.63838 -3.89719 7.95323 157 114 123 
2.63441 -0.00905733 7.90909 207 194 162 
2.56917 -0.916393 7.67377 98 101 82 
2.59025 -0.818226 7.72325 203 179 155 
2.62662 -0.292567 7.82811 191 190 169 
2.62662 -0.292567 7.82811 191 190 169 
2.50563 -1.29381 7.42158 85 81 56 
2.68815 -0.187207 7.94577 38 39 25 
2.68846 -0.167275 7.93687 199 197 174 
2.6949 -0.165584 7.95423 200 196 171 
2.64878 -0.762264 7.79774 199 195 166 
2.67335 -0.750521 7.83111 49 51 30 
2.67609 -0.750398 7.83821 49 51 30 
2.70403 -0.0991452 7.90847 206 187 157 
2.69203 -0.762637 7.82732 202 189 172 
2.69203 -0.762637 7.82732 202 189 172 
2.70187 -0.317462 7.84397 34 38 24 
2.70778 -0.695395 7.8542 60 63 42 
2.74877 -0.23338 7.8883 32 40 25 
2.72351 -0.719508 7.81431 209 188 171 
2.73282 -0.826074 7.80389 206 190 164 
2.76527 -0.757204 7.83644 213 192 171 
2.74655 -0.793926 7.77953 213 189 163 
2.61202 -2.01876 7.38104 35 51 22 
2.82252 -0.19236 7.88689 211 189 165 
2.92018 -1.87524 8.13708 77 80 53 
2.94712 -1.71801 8.20934 56 73 31 
2.94712 -1.71801 8.20934 56 73 31 
2.67543 -1.3321 7.44479 213 197 163 
2.83882 -0.344209 7.85343 41 53 39 
2.83882 -0.344209 7.85343 41 53 39 
2.69348 -2.04509 7.38737 216 202 163 
2.68327 -2.04065 7.35866 220 200 165 
