ply                 
format ascii 1.0    
element vertex 1272
property float x    
property float y    
property float z    
property uchar red  
property uchar green
property uchar blue 
end_header          
-0.187447 0.315055 1.28677 1 1 0 
-0.182994 -0.0232153 1.526 84 83 81 
-0.176656 0.454033 1.21854 42 43 37 
-0.182484 -0.0129436 1.51853 97 96 92 
-0.196483 -0.275599 1.66005 6 5 0 
-0.182696 -0.0456261 1.53919 25 21 18 
-0.178818 0.380995 1.26082 151 153 152 
-0.182989 -0.0550874 1.54205 4 0 0 
-0.179685 0.0297168 1.49276 72 71 67 
-0.174789 0.46471 1.21226 85 85 87 
-0.18327 -0.169591 1.61651 78 78 78 
-0.173656 0.484388 1.20088 74 75 79 
-0.182051 -0.0351685 1.52872 93 93 85 
-0.189076 -0.248395 1.65372 66 65 61 
-0.199095 -0.387542 1.72161 108 103 99 
-0.194776 -0.405702 1.7436 66 63 56 
-0.173312 0.474906 1.20439 105 106 110 
-0.175442 0.417599 1.23697 104 103 101 
-0.177213 0.362499 1.26882 38 44 44 
-0.175436 0.400003 1.24705 163 163 163 
-0.181688 -0.218822 1.64393 25 24 20 
-0.168903 -0.510992 1.87162 109 104 98 
-0.180701 -0.0814776 1.55424 21 14 6 
-0.179089 0.0031376 1.4977 85 84 82 
-0.190867 -0.286053 1.66009 12 11 7 
-0.193739 -0.328012 1.68079 82 80 81 
-0.179088 -0.140389 1.59104 14 10 7 
-0.171738 0.107524 1.44258 56 52 40 
-0.178632 -0.0744767 1.54596 14 10 9 
-0.17471 0.34812 1.27405 134 138 150 
-0.178636 -0.153666 1.595 108 104 101 
-0.171424 0.442729 1.21719 19 22 31 
-0.178613 -0.191735 1.62016 14 13 9 
-0.176953 -0.0552453 1.53286 80 76 73 
-0.182037 0.258772 1.31137 25 21 18 
-0.178642 -0.232357 1.64361 12 8 7 
-0.182287 0.204383 1.34468 35 30 24 
-0.172555 0.3761 1.2546 142 146 145 
-0.169626 0.120027 1.43088 47 41 25 
-0.173121 0.0766788 1.45033 80 77 72 
-0.169575 0.465588 1.2019 91 92 87 
-0.17717 -0.166434 1.59754 21 17 16 
-0.181146 0.217263 1.33437 14 13 11 
-0.176264 -0.0692457 1.53372 97 89 78 
-0.17659 -0.103655 1.55352 101 93 80 
-0.171702 0.353342 1.26456 12 20 33 
-0.172106 0.0587075 1.45677 84 79 76 
-0.175541 -0.116776 1.56334 94 85 76 
-0.174708 -0.0845433 1.54417 15 10 7 
-0.176859 -0.201654 1.61495 87 86 84 
-0.168913 0.428882 1.21908 113 115 110 
-0.178096 0.307046 1.27544 97 92 89 
-0.169885 0.15086 1.3969 20 19 15 
-0.170042 0.365236 1.2556 36 39 44 
-0.171555 0.022156 1.47683 23 19 16 
-0.174485 -0.185941 1.60412 85 84 82 
-0.166199 0.105609 1.43338 59 57 44 
-0.169446 0.338819 1.27231 11 16 22 
-0.177763 -0.280449 1.65715 6 8 20 
-0.16667 0.453196 1.20388 102 109 117 
-0.171696 -0.095227 1.54629 24 14 13 
-0.166344 0.442879 1.20811 117 119 131 
-0.17087 -0.0441997 1.51494 105 101 98 
-0.172555 -0.129924 1.56659 17 12 8 
-0.16625 0.404981 1.22915 140 142 139 
-0.168013 0.0704265 1.44229 34 30 29 
-0.165051 0.464528 1.19139 107 111 123 
-0.169633 -0.0798465 1.53183 15 8 0 
-0.17109 -0.210509 1.61239 25 21 20 
-0.174123 0.252893 1.30312 81 77 76 
-0.165756 0.355559 1.25683 24 26 39 
-0.165692 0.376412 1.24341 22 24 19 
-0.169242 -0.176373 1.59119 98 94 93 
-0.180646 -0.300397 1.64372 93 87 87 
-0.17315 0.275597 1.28855 26 21 17 
-0.164879 0.386162 1.23705 22 22 24 
-0.168865 -0.158728 1.57988 5 4 0 
-0.161665 0.109248 1.42345 118 114 102 
-0.165793 0.343759 1.26137 132 139 157 
-0.167091 -0.0631805 1.52098 103 98 94 
-0.166915 -0.0148505 1.49004 85 81 80 
-0.163701 0.430974 1.20879 29 33 18 
-0.165299 0.0585074 1.44553 74 70 67 
-0.183338 -0.400548 1.69843 103 99 88 
-0.168706 -0.110518 1.54639 42 33 26 
-0.163615 0.140355 1.39373 7 5 6 
-0.166369 -0.0532 1.51094 23 22 18 
-0.163387 0.413344 1.21671 24 21 16 
-0.171595 0.29112 1.27549 64 55 46 
-0.171617 0.261865 1.29376 43 39 36 
-0.16624 -0.168751 1.58367 29 28 26 
-0.171338 0.308408 1.26297 2 2 2 
-0.163193 0.36316 1.24715 23 25 24 
-0.168869 -0.248368 1.62617 15 14 12 
-0.169556 -0.260301 1.63006 74 73 71 
-0.164083 0.0120769 1.46711 25 20 17 
-0.167344 0.191151 1.34422 81 77 66 
-0.163026 0.0312242 1.45473 82 77 73 
-0.164718 -0.0725686 1.51644 7 1 1 
-0.169352 0.296748 1.26749 58 49 40 
-0.162469 -0.00484178 1.47595 23 19 18 
-0.178628 -0.337389 1.6498 85 87 84 
-0.15915 0.446896 1.19461 27 29 26 
-0.163945 -0.105656 1.53526 94 84 74 
-0.159316 0.144564 1.38571 76 75 73 
-0.168819 0.210079 1.32095 6 3 0 
-0.162797 -0.0858315 1.52416 90 81 72 
-0.156101 0.124894 1.40557 14 10 1 
-0.168562 0.176334 1.34255 91 86 82 
-0.163899 -0.157159 1.56445 79 75 72 
-0.162599 -0.163943 1.57163 20 16 13 
-0.174249 -0.298786 1.62926 15 16 11 
-0.162705 -0.0965831 1.52681 22 14 3 
-0.161532 -0.061095 1.50673 17 13 12 
-0.16396 -0.238014 1.61335 73 75 72 
-0.157934 0.457657 1.18414 62 63 65 
-0.149447 -0.496821 1.81003 37 33 30 
-0.159014 0.386712 1.22526 137 133 132 
-0.167046 0.197419 1.32631 54 50 41 
-0.158042 0.416421 1.20855 22 27 23 
-0.15906 0.0581656 1.43357 6 2 0 
-0.160673 -0.143715 1.55655 28 23 19 
-0.159092 0.341569 1.25236 19 23 35 
-0.161601 -0.11846 1.53655 99 89 79 
-0.160098 -0.178082 1.57698 14 10 9 
-0.161907 -0.128982 1.5414 100 91 82 
-0.158225 0.365866 1.23656 144 148 149 
-0.158141 0.376038 1.23026 100 98 99 
-0.171246 -0.317813 1.63807 23 22 20 
-0.164608 0.25658 1.2884 92 88 85 
-0.153021 0.097854 1.41546 146 143 128 
-0.160176 -0.205484 1.59017 32 31 27 
-0.159105 -0.190086 1.58263 86 85 83 
-0.156378 0.431055 1.19649 18 29 21 
-0.159416 -0.0779012 1.51005 94 86 83 
-0.157615 0.329956 1.25629 94 96 95 
-0.151942 0.109924 1.40676 56 49 39 
-0.154614 0.154073 1.37091 71 67 66 
-0.156374 0.350023 1.24198 46 50 53 
-0.162247 0.298915 1.25942 96 93 84 
-0.130965 -0.577472 1.88317 43 40 31 
-0.166879 -0.280541 1.61172 90 89 87 
-0.154358 0.440567 1.18802 95 102 86 
-0.16395 -0.269267 1.61141 81 80 78 
-0.15392 0.135353 1.37926 5 5 3 
-0.167384 -0.29817 1.6194 0 0 0 
-0.153884 0.0773574 1.41531 60 58 61 
-0.155202 -0.0102434 1.4665 16 15 11 
-0.154037 0.0233487 1.44771 3 0 0 
-0.154633 -0.0561477 1.49356 88 84 81 
-0.153444 0.0523421 1.42702 15 11 8 
-0.15256 0.456799 1.17545 114 116 115 
-0.156369 -0.0867715 1.50633 86 81 77 
-0.154892 -0.188248 1.57206 30 29 25 
-0.156201 -0.212122 1.58352 101 102 97 
-0.154012 0.367988 1.22608 19 23 22 
-0.155682 -0.238061 1.60029 26 27 22 
-0.170111 -0.379129 1.65449 20 20 22 
-0.160448 0.310327 1.24659 5 0 0 
-0.152933 0.401373 1.20562 39 51 41 
-0.153526 -0.0723384 1.49946 30 25 22 
-0.153658 -0.0954862 1.51295 93 88 82 
-0.153499 -0.106909 1.52037 87 78 69 
-0.152724 0.377645 1.21935 155 157 156 
-0.162196 -0.275396 1.6034 18 19 21 
-0.155062 -0.201908 1.57414 90 89 85 
-0.146829 0.09936 1.40527 110 103 93 
-0.148468 0.103564 1.39494 72 68 56 
-0.151753 -0.0251 1.46701 97 93 90 
-0.151975 0.324906 1.24855 92 93 95 
-0.150222 0.0614637 1.41582 89 85 76 
-0.162024 -0.295651 1.60972 75 75 73 
-0.154685 -0.259448 1.60407 9 13 16 
-0.149238 0.150124 1.36236 67 66 62 
-0.1505 -0.139209 1.53865 32 28 17 
-0.161615 -0.286834 1.60384 97 96 94 
-0.150017 -0.0503978 1.48371 27 24 19 
-0.157042 0.246147 1.28352 76 75 71 
-0.152514 -0.116877 1.51793 79 70 63 
-0.151227 -0.230732 1.58918 3 2 0 
-0.150137 -0.22169 1.58262 93 92 88 
-0.143264 0.0889224 1.40644 95 93 80 
-0.148502 -0.0924951 1.50394 10 9 4 
-0.150526 -0.0862867 1.49506 89 76 68 
-0.146349 0.00480751 1.44611 83 79 76 
-0.147124 -0.185993 1.55951 9 6 1 
-0.146259 -0.0471831 1.47507 3 0 0 
-0.14599 -0.156762 1.54061 98 90 87 
-0.146548 -0.214724 1.57448 20 19 15 
-0.147464 -0.244887 1.59016 30 30 28 
-0.159242 -0.372755 1.64001 87 86 82 
-0.159334 -0.410138 1.6616 106 102 101 
-0.139602 0.0930288 1.39667 62 60 45 
-0.151631 0.313203 1.23464 96 93 88 
-0.155198 0.445996 1.14526 60 56 45 
-0.142315 0.200725 1.32411 70 66 67 
-0.145486 -0.141232 1.52545 9 4 0 
-0.142717 0.0564803 1.4106 101 95 95 
-0.142838 -0.0262521 1.45974 86 82 79 
-0.144458 -0.172028 1.54478 90 89 87 
-0.143027 0.0464813 1.41423 47 43 40 
-0.143956 -0.11244 1.50761 17 10 2 
-0.141363 0.175783 1.33775 70 66 65 
-0.154572 -0.31748 1.60795 93 89 88 
-0.150996 0.293593 1.24382 13 8 4 
-0.138097 0.110369 1.38402 101 97 85 
-0.126006 -0.528371 1.79971 54 49 46 
-0.154901 -0.33518 1.61625 28 23 20 
-0.149032 -0.301379 1.60737 6 9 14 
-0.140692 0.158102 1.34641 37 33 32 
-0.145619 0.347698 1.21996 89 90 85 
-0.142235 -0.104355 1.49977 11 3 1 
-0.141904 -0.201093 1.55842 94 93 91 
-0.148993 0.419847 1.16509 51 53 50 
-0.141735 -0.235158 1.57766 6 5 3 
-0.139417 0.0172007 1.4292 77 74 67 
-0.138532 0.138822 1.35719 29 25 22 
-0.141369 -0.166999 1.53513 36 31 28 
-0.139317 -0.0478054 1.46628 80 76 73 
-0.124636 -0.518721 1.78335 42 41 37 
-0.142049 -0.138223 1.51433 88 83 79 
-0.139972 -0.266864 1.59433 30 29 25 
-0.136802 0.184104 1.32827 86 86 84 
-0.138842 -0.193076 1.54821 87 84 77 
-0.139571 -0.220653 1.5616 115 114 110 
-0.137923 -0.0818256 1.48159 85 81 72 
-0.145814 0.359294 1.19839 84 79 75 
-0.137412 -0.159184 1.5285 89 82 76 
-0.145624 0.369127 1.19234 103 100 95 
-0.136918 -0.1784 1.54002 30 26 23 
-0.135573 0.0682262 1.39465 3 0 0 
-0.145303 0.345248 1.20621 93 90 83 
-0.146053 0.429481 1.15379 107 104 99 
-0.145124 0.328041 1.21642 69 67 55 
-0.137314 -0.0721882 1.47368 84 80 77 
-0.137518 -0.10006 1.48968 9 3 3 
-0.144732 0.278826 1.24598 49 46 39 
-0.143902 0.318561 1.22238 62 60 48 
-0.134643 -0.0045298 1.43568 18 14 11 
-0.136238 -0.212047 1.55569 42 41 37 
-0.134253 0.0259274 1.41701 85 81 80 
-0.143181 0.28722 1.24085 57 54 45 
-0.133448 0.122811 1.35982 4 3 1 
-0.13543 -0.0575001 1.46235 31 27 24 
-0.134739 -0.251722 1.57812 33 29 28 
-0.140377 -0.44193 1.67903 42 38 26 
-0.120726 -0.497547 1.75577 84 84 82 
-0.142328 0.261889 1.25482 110 106 97 
-0.134202 -0.11004 1.49342 25 19 23 
-0.132247 0.112931 1.36379 21 18 13 
-0.133256 0.0966857 1.37122 85 80 76 
-0.145797 0.442703 1.13708 43 42 38 
-0.132281 0.156341 1.33716 97 94 89 
-0.134099 -0.14362 1.51087 20 15 11 
-0.131011 0.0573067 1.39597 7 3 0 
-0.132211 -0.191145 1.54047 108 105 100 
-0.131103 0.011526 1.42178 77 74 69 
-0.13086 -0.0146775 1.43771 11 8 3 
-0.141454 -0.324168 1.5953 52 51 49 
-0.13061 -0.178875 1.53179 78 78 76 
-0.139063 0.241398 1.26324 82 78 75 
-0.130975 -0.135307 1.50359 3 0 0 
-0.130755 -0.264086 1.57899 74 73 71 
-0.129453 -0.066741 1.46493 91 87 84 
-0.127397 0.134493 1.34962 71 70 68 
-0.127717 0.0753519 1.38312 98 93 87 
-0.128127 0.0401075 1.4023 96 91 88 
-0.129114 -0.090056 1.47662 65 62 57 
-0.128552 0.0842896 1.37411 104 101 96 
-0.139198 -0.304628 1.57999 10 10 20 
-0.129089 -0.208503 1.54472 25 21 18 
-0.139019 -0.33606 1.59571 28 24 21 
-0.138075 0.419798 1.15228 33 33 31 
-0.136301 0.272221 1.24214 74 70 61 
-0.127237 -0.121417 1.49281 22 18 15 
-0.128793 -0.243161 1.56089 31 30 26 
-0.125925 0.184327 1.31499 30 27 22 
-0.127059 -0.186781 1.52633 98 94 91 
-0.123899 0.118368 1.35384 23 19 16 
-0.124829 -0.174008 1.52213 24 20 19 
-0.123657 0.0626211 1.38529 68 64 61 
-0.124527 -0.149515 1.50688 91 87 78 
-0.12382 -0.0582795 1.45416 28 27 25 
-0.122585 0.0178997 1.41213 25 22 17 
-0.138957 0.442315 1.12872 106 103 98 
-0.124134 -0.0195767 1.42967 7 3 0 
-0.135415 -0.379533 1.61472 12 9 4 
-0.134295 0.359376 1.18579 51 47 44 
-0.0915495 -0.618428 1.84834 101 96 92 
-0.122588 0.0893801 1.3681 6 0 0 
-0.123584 -0.0807471 1.46477 79 76 71 
-0.133216 0.324363 1.20736 58 55 48 
-0.123405 -0.237085 1.55479 22 18 15 
-0.121798 0.125737 1.34553 10 6 5 
-0.132792 0.340187 1.19684 118 115 110 
-0.121875 -0.0472734 1.44302 82 78 77 
-0.131501 -0.348201 1.59454 24 18 18 
-0.12023 -0.0961164 1.47221 82 77 74 
-0.120643 0.163601 1.31982 26 18 15 
-0.129087 -0.301553 1.57033 79 79 79 
-0.119145 0.238141 1.27762 8 6 7 
-0.119657 0.185603 1.30679 36 33 28 
-0.130616 0.381736 1.169 97 96 94 
-0.119308 0.174882 1.31275 22 17 14 
-0.118758 -0.213177 1.53623 84 83 81 
-0.118797 -0.118966 1.48172 93 89 86 
-0.117033 -0.071342 1.45448 28 27 23 
-0.116624 -0.175643 1.51393 74 70 69 
-0.0822589 -0.699712 1.88822 101 88 82 
-0.133332 -0.412288 1.61341 122 119 112 
-0.116658 -0.0374662 1.43069 86 82 81 
-0.120821 -0.288743 1.56549 50 50 50 
-0.115922 -0.059119 1.44067 82 81 79 
-0.114255 -0.00696547 1.41425 12 9 4 
-0.0804177 -0.644975 1.85112 95 92 87 
-0.114191 0.085871 1.36021 24 20 17 
-0.124618 0.25326 1.24172 50 47 40 
-0.113807 -0.029295 1.42403 72 71 69 
-0.113606 0.14058 1.3258 100 96 93 
-0.112195 -0.187876 1.51576 26 25 23 
-0.112219 -0.198582 1.52058 84 80 79 
-0.122363 0.283707 1.22269 101 98 91 
-0.119939 -0.455762 1.64875 115 111 102 
-0.111583 -0.17312 1.50511 81 80 78 
-0.121745 -0.320271 1.56738 12 12 10 
-0.111562 -0.0204956 1.41805 75 74 72 
-0.110675 0.00656815 1.40285 18 16 17 
-0.111265 -0.239754 1.54153 78 77 75 
-0.110867 0.0278064 1.39011 5 1 0 
-0.109601 -0.13878 1.4871 5 1 0 
-0.109627 -0.258504 1.55501 80 79 77 
-0.109378 -0.0680509 1.4465 6 2 0 
-0.109284 0.0647048 1.37075 28 19 20 
-0.109484 -0.223409 1.53021 73 71 72 
-0.108264 0.0480334 1.37811 16 11 8 
-0.105594 -0.164315 1.49995 40 36 33 
-0.10783 0.132692 1.32693 47 44 37 
-0.118186 -0.392624 1.60192 88 84 75 
-0.108455 0.211061 1.28101 101 96 93 
-0.108219 0.192636 1.29138 15 9 11 
-0.107304 0.087793 1.35161 17 16 14 
-0.115323 -0.355665 1.58123 42 41 39 
-0.103535 0.0133294 1.39753 80 75 72 
-0.0773792 -0.594724 1.791 46 42 39 
-0.0707611 -0.676706 1.85055 41 30 26 
-0.0693113 -0.663067 1.84586 33 22 20 
-0.105314 -0.0630528 1.43358 77 73 70 
-0.104752 0.120837 1.33093 92 88 85 
-0.104467 -0.144998 1.47999 98 94 91 
-0.104782 0.172903 1.30096 38 33 29 
-0.104456 -0.241708 1.53369 74 73 69 
-0.120241 -0.41668 1.59849 123 119 108 
-0.102813 -0.118244 1.46638 24 23 21 
-0.117426 0.387887 1.15179 86 83 78 
-0.11629 0.411215 1.14066 64 60 57 
-0.116788 0.398022 1.14655 65 59 59 
0.00410532 -0.97934 2.1665 59 52 44 
-0.103808 0.148498 1.31254 108 104 95 
-0.115718 0.331646 1.18549 99 96 91 
-0.112785 -0.377916 1.58764 101 98 93 
-0.116051 0.364125 1.16595 22 18 17 
-0.102212 0.073315 1.35701 84 79 76 
-0.111154 -0.346642 1.57311 7 5 6 
-0.115313 0.350942 1.17375 112 104 101 
-0.100573 -0.135764 1.47586 28 27 23 
-0.101826 -0.164969 1.48944 25 21 18 
-0.11392 0.295594 1.20721 117 113 104 
-0.100909 -0.184099 1.50101 20 19 17 
-0.0669507 -0.70179 1.85959 103 99 88 
-0.0886781 -0.516969 1.70929 21 21 19 
-0.100698 -0.0829757 1.44269 76 77 72 
-0.0999382 -0.0136188 1.40539 23 19 18 
-0.112711 -0.40768 1.59691 70 66 63 
-0.112408 0.308809 1.19783 122 113 104 
-0.0998683 0.0895455 1.34549 30 25 22 
-0.101345 0.240744 1.25833 90 86 85 
-0.0986619 -0.100954 1.45384 93 92 88 
-0.100666 0.227936 1.2656 80 73 65 
-0.0971212 -0.201849 1.50682 29 28 26 
-0.0976741 0.0436756 1.36959 17 13 12 
-0.0970124 -0.235056 1.52431 86 85 83 
-0.0966822 -0.0619444 1.42904 26 25 23 
-0.0978622 -0.258308 1.5339 88 87 83 
-0.109081 -0.445973 1.61466 75 73 61 
-0.0943938 -0.152913 1.48005 80 79 75 
-0.0965812 0.0603501 1.35774 25 20 16 
-0.0950077 -0.00581586 1.39716 87 87 85 
-0.108641 0.32191 1.18821 29 25 14 
-0.112711 0.424835 1.12232 81 80 78 
-0.0954322 -0.0311149 1.40842 10 6 3 
-0.0954381 -0.0423157 1.41267 32 28 25 
-0.0553029 -0.697996 1.85472 103 99 87 
-0.103322 -0.394652 1.58993 89 88 84 
-0.0939441 0.0517722 1.36282 5 1 0 
0.00752912 -0.9535 2.12169 108 105 100 
-0.0970785 0.269979 1.23476 81 76 72 
-0.109572 -0.420102 1.58873 125 119 107 
-0.0945302 0.11674 1.32395 89 82 76 
-0.0932098 0.0213206 1.37895 9 5 2 
-0.109914 0.413386 1.12965 16 13 8 
-0.0913441 -0.124691 1.46163 39 35 32 
-0.100606 -0.364225 1.57355 93 89 86 
-0.0925726 -0.0781736 1.43221 19 14 11 
-0.0925141 0.0677149 1.35221 22 18 17 
-0.0923982 0.00813433 1.38503 83 79 76 
-0.112203 0.436127 1.10934 18 14 11 
-0.0921946 -0.0603487 1.42026 12 11 6 
-0.100583 -0.387186 1.58138 95 91 88 
-0.0928503 0.176098 1.28794 22 18 15 
-0.0924434 0.215737 1.26638 34 31 26 
-0.0902057 -0.179465 1.48693 77 72 69 
0.018334 -0.991155 2.14851 110 106 97 
-0.105134 0.334456 1.17502 22 21 17 
-0.105184 0.365621 1.15705 5 1 0 
-0.0895631 -0.213243 1.50386 32 28 25 
-0.0925344 0.258414 1.23988 32 24 21 
-0.0879548 -0.291615 1.54852 20 19 15 
-0.0889585 0.125498 1.31477 89 84 80 
-0.0963237 0.300175 1.20425 66 64 65 
-0.0906441 0.235684 1.2499 16 15 10 
-0.0843142 -0.153379 1.46996 34 33 28 
-0.0497028 -0.720837 1.846 92 91 87 
-0.0836946 -0.16266 1.4759 29 28 26 
-0.0917753 0.288294 1.21518 5 3 4 
-0.0969523 0.309529 1.19318 8 7 5 
-0.0883807 0.13888 1.30235 18 15 10 
-0.0852216 -0.0715187 1.4225 86 82 79 
-0.0842854 -0.0241813 1.39674 69 68 66 
-0.0839881 -0.0385883 1.40475 76 68 66 
-0.0851386 0.106498 1.32392 98 94 85 
-0.0521995 -0.632424 1.78836 83 79 78 
-0.0983565 -0.420676 1.58089 52 50 38 
-0.0541882 -0.624284 1.77793 79 76 71 
-0.0837108 -0.0546171 1.41136 3 0 0 
-0.0962406 0.317882 1.18542 102 97 93 
-0.0832097 0.00219779 1.38123 28 24 21 
-0.0822589 -0.0910942 1.43313 12 8 5 
0.0185498 -0.949359 2.09359 116 112 109 
-0.085161 0.208088 1.26447 25 22 15 
-0.082006 -0.125861 1.45047 87 83 80 
-0.0986806 0.388486 1.14032 109 101 90 
-0.0979478 0.349825 1.16232 96 95 90 
-0.103125 0.428097 1.10947 82 78 75 
-0.0979132 0.326622 1.17323 3 0 0 
-0.0721028 -0.5212 1.6793 31 28 23 
-0.0796795 -0.194217 1.48798 78 74 71 
-0.0890196 -0.401902 1.58074 86 83 78 
-0.0869822 -0.384083 1.5731 107 103 100 
-0.0858025 0.276069 1.2199 73 69 66 
0.0302482 -0.994535 2.12812 57 50 44 
-0.0782525 -0.139639 1.45675 85 82 77 
-0.076673 -0.242934 1.51483 6 5 3 
-0.0767998 -0.291079 1.54014 102 103 98 
-0.0951455 0.376512 1.14517 34 29 25 
-0.0778005 -0.204929 1.49036 81 80 78 
-0.0774558 -0.066913 1.41502 80 72 70 
-0.0787319 0.0943969 1.32592 79 76 71 
-0.0798522 0.149728 1.29364 29 24 20 
-0.0748609 -0.156505 1.46559 31 30 26 
-0.075098 -0.306326 1.54457 72 68 65 
-0.0848381 0.290602 1.20629 17 17 17 
0.0857136 -1.22206 2.3447 58 51 41 
-0.0820832 -0.343272 1.54784 88 84 83 
-0.00136054 -0.828912 1.96218 69 62 52 
0.0962771 -1.34973 2.4259 119 116 111 
-0.0710495 -0.273755 1.52818 73 73 71 
-0.0715833 -0.235153 1.5059 31 30 28 
-0.0857257 0.305877 1.18954 90 85 82 
-0.0760175 0.130414 1.3014 81 76 73 
-0.0744028 0.102277 1.31943 93 88 85 
-0.0723419 -0.0956457 1.42795 84 83 81 
-0.0725391 0.0713882 1.33763 11 7 6 
-0.0706217 -0.120872 1.44242 67 67 65 
-0.0911337 0.384349 1.13509 26 21 15 
0.00932964 -0.866424 1.99155 51 48 39 
-0.0840178 -0.432255 1.57956 113 106 96 
-0.0750067 0.160552 1.28302 35 30 26 
-0.071712 0.0134641 1.36644 14 10 7 
-0.0261417 -0.704906 1.833 80 76 75 
-0.0760547 -0.39185 1.5702 78 74 71 
-0.0704031 -0.00349061 1.37456 74 70 67 
-0.0802167 -0.444633 1.5874 120 113 103 
-0.0687954 -0.157061 1.45685 96 89 79 
0.121754 -1.4732 2.51417 215 220 224 
-0.0866359 0.367622 1.1434 15 9 9 
-0.0875126 0.395682 1.12635 37 34 27 
-0.0649432 -0.255669 1.51128 87 86 84 
-0.0363375 -0.643679 1.76932 117 112 108 
-0.0663073 -0.0791859 1.41521 19 14 11 
-0.0697167 0.119366 1.3042 63 60 55 
-0.0733588 -0.401482 1.57025 12 7 4 
-0.0887447 0.413323 1.1116 80 76 67 
0.108991 -1.29198 2.3833 42 41 49 
-0.0757046 0.289299 1.20121 87 86 82 
-0.0313407 -0.659632 1.78256 116 109 101 
0.11089 -1.3364 2.4087 38 36 47 
-0.0640963 -0.0707559 1.41042 68 64 61 
-0.0659181 -0.307618 1.5308 68 64 61 
-0.0710171 -0.352124 1.54334 74 74 72 
-0.0649673 -0.0356986 1.38886 82 78 77 
-0.0632241 -0.166017 1.45809 114 111 104 
-0.0691513 -0.37419 1.55492 7 7 5 
-0.0745416 -0.433726 1.57542 117 115 103 
-0.0651681 0.0896247 1.31928 86 81 78 
-0.0670665 -0.336822 1.53761 72 71 69 
-0.0473844 -0.564986 1.69325 31 28 21 
-0.0664996 0.162002 1.27764 76 71 67 
-0.0818735 0.34615 1.15228 104 100 97 
-0.0887483 0.426632 1.0961 76 71 67 
-0.0607062 -0.1441 1.44556 89 85 82 
-0.0577657 -0.238892 1.49891 33 32 30 
-0.0589729 -0.155196 1.453 40 35 32 
-0.0809157 0.372803 1.13662 107 103 102 
0.114952 -1.28688 2.36602 125 120 117 
-0.0307016 -0.619525 1.74393 104 100 97 
-0.066374 0.252768 1.22407 84 80 77 
-0.0655718 0.221042 1.24012 88 85 78 
-0.0535721 -0.29631 1.53026 77 73 70 
-0.0732047 0.303198 1.1826 16 12 9 
-0.0631684 0.132804 1.28973 27 22 18 
0.0156024 -0.808682 1.91972 52 47 41 
-0.0511613 -0.259841 1.50776 87 86 84 
-0.00442441 -0.709076 1.82687 47 43 42 
-0.0547465 -0.0398034 1.38739 74 69 65 
-0.0650423 -0.430222 1.56766 52 48 39 
-0.0763813 0.394259 1.12146 118 114 111 
0.0771293 -1.05859 2.15484 100 97 92 
-0.0633173 0.272719 1.20734 19 15 12 
0.149321 -1.47013 2.50083 207 210 217 
-0.0744916 0.35985 1.14085 35 31 28 
-0.0510254 -0.0993083 1.41767 32 33 28 
-0.0475771 -0.292756 1.52268 85 81 78 
0.128259 -1.28645 2.3596 32 28 25 
-0.0517467 -0.070976 1.40048 86 82 79 
-0.0481266 -0.305194 1.52626 7 3 2 
-0.0441981 -0.513062 1.63854 9 4 1 
-0.0643025 0.294283 1.18802 77 73 72 
-0.0551868 -0.392148 1.55552 17 13 10 
0.142976 -1.50264 2.49014 73 78 84 
-0.0533109 0.0897863 1.31077 102 99 92 
-0.0266961 -0.559659 1.68954 86 82 79 
-0.0578134 0.262564 1.21199 86 82 79 
-0.0448165 -0.319097 1.53243 72 72 70 
-0.0545158 -0.41995 1.5647 7 6 12 
-0.046172 -0.141378 1.43716 105 104 102 
-0.0445483 -0.221545 1.48071 85 81 82 
0.139412 -1.3452 2.39227 37 38 43 
-0.04719 -0.0411796 1.38062 85 84 80 
-0.0687889 0.379299 1.1259 22 17 14 
-0.0478084 0.0367191 1.33743 15 11 8 
0.17399 -1.48857 2.51862 224 226 238 
-0.0621231 0.298611 1.17741 85 81 80 
-0.0411846 -0.26093 1.4994 77 75 76 
-0.038945 -0.311997 1.52756 96 92 91 
-0.0516495 0.216375 1.23458 20 16 13 
0.143249 -1.3949 2.40168 95 101 97 
-0.0365016 -0.278828 1.5089 13 12 8 
-0.074114 0.431945 1.08088 17 13 10 
-0.0421132 -0.00172682 1.35645 34 30 27 
0.0295965 -0.769406 1.87369 53 43 41 
-0.0360074 -0.251894 1.49131 80 76 77 
-0.0441736 0.128372 1.2829 17 11 11 
-0.0410821 0.0559524 1.32405 77 73 70 
-0.030519 -0.298617 1.51591 2 1 0 
-0.0460668 0.247019 1.21439 97 94 89 
0.159228 -1.38232 2.39997 119 115 112 
-0.0305683 -0.25982 1.49504 85 81 78 
-0.0376221 0.00709512 1.34887 87 82 78 
-0.0444639 0.225246 1.22701 101 96 92 
-0.0376241 -0.359963 1.53011 17 14 9 
-0.00898485 -0.550179 1.67652 26 22 19 
-0.0372322 0.0427335 1.32963 84 80 77 
-0.0329227 -0.125707 1.42041 57 53 52 
-0.0404566 0.140884 1.2736 87 79 77 
-0.00192288 -0.581569 1.7031 37 34 29 
0.160612 -1.39742 2.40161 73 78 74 
-0.0708425 0.474493 1.05052 27 23 20 
-0.0266735 -0.326154 1.52826 11 7 4 
-0.0352277 -0.385529 1.54231 86 82 81 
-0.0281567 -0.227453 1.4759 28 24 21 
-0.0504691 0.294868 1.17493 100 99 97 
-0.0346314 -0.399455 1.54843 45 38 30 
0.0447937 -0.771524 1.87601 46 39 31 
-0.0326527 -0.00939847 1.35625 92 89 84 
-0.0398091 0.193356 1.24184 24 20 17 
-0.0240603 -0.342507 1.53371 7 10 15 
-0.0311082 -0.0208156 1.36163 100 99 95 
-0.0673168 0.455145 1.05992 99 91 88 
-0.0285372 -0.0948884 1.40116 104 101 96 
-0.057439 0.404788 1.10157 124 119 115 
-0.0240215 -0.214869 1.46577 88 84 81 
-0.0298097 0.0334629 1.33166 19 18 14 
-0.0237159 -0.176517 1.44473 82 78 75 
-0.0271251 -0.354573 1.52517 19 14 10 
-0.0209685 -0.23764 1.47797 9 5 2 
-0.0195883 -0.32154 1.52172 72 68 65 
-0.0235056 -0.136247 1.42317 86 81 78 
-0.0510288 0.366566 1.1242 84 80 77 
-0.025316 -0.368057 1.52984 8 7 3 
-0.0267083 0.0415125 1.32591 74 73 69 
-0.0232445 -0.0129351 1.35873 7 3 0 
-0.0417654 0.287446 1.17817 29 25 22 
-0.0236545 -0.0674866 1.38324 40 36 33 
-0.0338326 0.255993 1.20608 27 23 22 
-0.0319078 0.139261 1.26591 72 68 65 
-0.0469492 0.328411 1.14309 119 115 114 
-0.0134202 -0.276409 1.49684 24 23 21 
-0.0459343 0.312049 1.15131 12 11 9 
-0.0097861 -0.30862 1.5159 0 0 0 
-0.0297416 0.219088 1.22344 91 81 79 
0.0540855 -0.736676 1.83676 42 38 37 
-0.0147821 -0.195289 1.45062 23 23 21 
-0.0165971 -0.320467 1.5073 81 80 76 
0.0416655 -0.669197 1.77919 120 117 110 
-0.0243741 0.124412 1.27568 33 29 26 
-0.0184627 -0.344244 1.5112 74 73 69 
-0.0569304 0.443807 1.0608 95 84 80 
-0.0412826 0.319992 1.14697 101 97 94 
-0.0143344 -0.42049 1.55202 99 99 91 
-0.00736035 -0.258012 1.48448 21 17 18 
-0.00922815 -0.206749 1.45446 35 34 30 
-0.0101157 -0.137798 1.41896 40 37 32 
-0.0333874 0.294582 1.16567 94 90 87 
-0.0407566 0.381359 1.11093 5 0 0 
-0.00842095 -0.350568 1.51613 7 3 0 
-0.0199889 0.183867 1.23895 27 24 17 
-0.0127333 0.0248706 1.32726 74 70 67 
-0.0487541 0.427008 1.07094 96 88 85 
-0.00814026 -0.464936 1.56849 116 110 98 
-0.0130125 0.0786181 1.2974 20 17 12 
-0.0210542 0.272461 1.18586 95 92 87 
-0.0336113 0.363812 1.11867 112 107 103 
-0.031829 0.336324 1.13361 91 90 86 
0.000937989 -0.150829 1.42187 35 31 28 
-0.0402049 0.412147 1.08213 22 18 15 
-0.00107301 -0.364469 1.51767 87 86 84 
0.080813 -0.730491 1.83007 23 22 17 
0.000950092 -0.38166 1.52711 95 95 93 
-0.010845 0.171855 1.24276 81 78 73 
0.00144773 -0.423575 1.54589 85 84 80 
0.0581615 -0.636348 1.74363 106 101 97 
-0.013856 0.239341 1.20491 7 2 0 
0.0109766 -0.300763 1.50187 42 38 37 
-0.025926 0.302034 1.1508 79 74 68 
0.0109725 -0.233639 1.46545 36 35 33 
0.0123915 -0.266085 1.48211 105 103 104 
0.0855506 -0.718099 1.81751 102 99 92 
0.0143215 -0.256973 1.47547 66 66 64 
-0.0148899 0.283598 1.17064 111 106 100 
-0.0269574 0.394243 1.098 96 91 85 
0.00872684 -0.343727 1.50548 7 7 17 
-0.0259534 0.383332 1.10432 32 27 23 
-0.00423936 0.201666 1.22249 38 33 30 
-0.025363 0.499511 1.04501 96 89 79 
0.0231544 -0.281135 1.48672 20 19 17 
-0.0180892 0.347562 1.1229 100 95 91 
0.0928133 -0.692921 1.79184 95 91 90 
0.0252173 -0.252911 1.47269 26 25 23 
0.0268092 -0.294315 1.49403 106 102 99 
-0.0150121 0.321478 1.13641 113 109 106 
-0.0231323 0.405732 1.08229 90 85 82 
0.00912966 0.105307 1.27478 86 81 78 
0.0161622 -0.450495 1.54439 100 97 92 
0.0237567 -0.38556 1.52384 93 92 88 
0.0672617 -0.557903 1.66999 44 40 39 
-0.0248939 0.423438 1.06391 92 84 81 
0.0305469 -0.216242 1.44995 84 84 82 
0.0359043 -0.310552 1.50043 83 79 76 
0.0372409 -0.293887 1.49181 80 78 79 
0.00140821 0.280462 1.1683 43 39 36 
-0.0112461 0.391083 1.09449 101 91 89 
0.00857995 0.261864 1.18563 104 99 93 
0.0125427 0.212875 1.21403 73 69 66 
0.033375 -0.381477 1.52003 87 85 86 
0.114565 -0.704419 1.79998 106 102 99 
0.0359368 -0.393138 1.5245 6 4 7 
0.119496 -0.719176 1.80966 85 81 82 
0.0437856 -0.302761 1.49466 15 11 10 
-0.00482374 0.341849 1.12052 87 82 78 
0.0189456 0.143318 1.24835 13 9 8 
0.0867333 -0.580776 1.68629 43 43 35 
-0.00345504 0.370629 1.10573 87 87 79 
0.0426961 -0.150957 1.41657 4 3 9 
-0.000106822 0.330665 1.12739 95 90 86 
-0.0170284 0.447388 1.04489 92 83 74 
0.0416175 0.0163719 1.33504 40 11 5 
0.0174422 0.266214 1.17956 24 23 19 
0.0129274 0.274728 1.16833 32 28 27 
0.028366 0.115418 1.26513 5 1 0 
0.00295821 0.358216 1.1129 25 22 17 
0.0471337 -0.379982 1.51727 13 9 10 
0.0258772 0.177784 1.2304 27 23 20 
0.0549828 -0.23375 1.45976 25 27 26 
0.0309876 0.142097 1.25022 77 76 72 
0.0563238 -0.317413 1.49587 14 13 19 
0.0515347 -0.367781 1.50912 92 86 86 
0.0552666 -0.176251 1.42581 91 87 84 
0.0418039 0.0742976 1.2889 84 81 74 
0.0316969 0.224379 1.20209 75 70 67 
0.00444816 0.403178 1.078 24 20 17 
0.00752224 0.395115 1.08552 24 23 19 
0.035949 0.211703 1.20902 14 10 9 
0.0657057 -0.413079 1.53206 123 119 116 
0.0426243 0.118581 1.25911 106 101 97 
0.0661826 -0.423731 1.53687 21 17 16 
0.0399199 0.163046 1.23471 28 23 19 
0.072434 -0.291106 1.48692 89 88 83 
0.0464914 0.0964884 1.27159 49 44 40 
0.133011 -0.634237 1.73067 97 94 87 
0.0176302 0.318058 1.12683 35 31 28 
0.0742945 -0.279638 1.47965 35 31 28 
0.0386613 0.234228 1.19519 98 92 92 
0.0431532 0.187204 1.22229 96 87 88 
0.0659043 0.0260885 1.3265 144 133 127 
0.0453191 0.176758 1.22779 25 21 18 
0.112269 -0.544969 1.65027 56 55 53 
0.0113327 0.412356 1.06712 37 29 26 
0.0749929 -0.412014 1.52835 27 26 22 
0.0755524 -0.187356 1.4302 25 26 21 
0.0219082 0.367061 1.10298 30 27 22 
0.080385 -0.472286 1.56244 58 53 47 
0.0468371 0.222085 1.20169 25 24 20 
0.0870849 -0.303376 1.48989 81 79 82 
0.0447205 0.264498 1.17565 107 102 98 
0.0847945 -0.228864 1.4529 72 71 69 
0.0274517 0.356768 1.10776 84 79 76 
0.137525 -0.595848 1.69142 19 14 11 
0.02918 0.33829 1.11675 31 27 26 
0.0680863 0.0225836 1.31344 75 70 64 
0.0575337 0.142884 1.24459 88 84 83 
0.0739504 -0.0426839 1.34952 91 83 70 
0.0887742 -0.219386 1.44716 80 79 75 
0.0855943 -0.183154 1.42594 67 66 62 
0.029806 0.378675 1.09358 108 104 101 
0.0330499 0.347329 1.11103 90 86 83 
0.0540126 0.245973 1.18673 92 89 84 
0.0397274 0.293092 1.14403 21 20 18 
0.0690873 0.0953417 1.27324 100 96 93 
0.0707259 0.0819484 1.28113 73 69 68 
0.0477554 0.277186 1.16105 93 93 85 
0.0882792 -0.139732 1.40325 26 21 18 
0.0672266 0.112813 1.2615 38 30 28 
0.060529 0.20885 1.20897 31 27 26 
0.0560795 0.259907 1.17941 78 75 70 
0.025785 0.407017 1.06943 110 105 101 
0.0860743 -0.0463384 1.3521 23 18 14 
0.0852107 -0.0329335 1.34497 23 16 6 
0.0318595 0.394756 1.07958 85 81 78 
0.155779 -0.602013 1.69413 114 109 103 
0.10843 -0.311529 1.49739 77 79 78 
0.0389465 0.366721 1.10059 85 81 78 
0.0353563 0.386573 1.08583 26 25 21 
0.0993468 -0.363517 1.50417 67 66 62 
0.102287 -0.198873 1.43669 19 18 14 
0.105016 -0.229643 1.4522 87 86 84 
0.0707012 0.166283 1.23013 38 34 33 
0.0446171 0.339291 1.1147 101 96 90 
0.0768913 0.126624 1.25401 83 82 78 
0.099106 -0.128416 1.39495 86 83 76 
0.110542 -0.261973 1.46896 81 80 78 
0.045078 0.356783 1.10623 89 85 82 
0.0880258 0.0208962 1.31303 4 0 0 
0.0952198 -0.0295155 1.34281 19 14 11 
0.25077 -0.84905 1.92365 78 79 74 
0.0965141 -0.0469415 1.35084 23 19 18 
0.115359 -0.271594 1.47461 24 22 23 
0.0794823 0.143899 1.24313 35 32 27 
0.108129 -0.149887 1.41019 86 83 78 
0.10162 -0.086426 1.37329 88 84 81 
0.0880936 0.0665444 1.28771 39 36 31 
0.04563 0.387754 1.08745 104 100 97 
0.099665 -0.0581653 1.35733 96 92 89 
0.112213 -0.170034 1.42148 85 84 82 
0.113728 -0.198664 1.43548 73 72 68 
0.10346 -0.0759863 1.36793 73 69 68 
0.116937 -0.330495 1.49527 88 87 85 
0.0931687 0.044841 1.30057 101 90 88 
0.123584 -0.310512 1.49612 81 81 81 
0.0865531 0.105114 1.26463 34 30 27 
0.0547776 0.308954 1.13082 8 7 3 
0.0907393 0.0792967 1.28128 81 80 78 
0.0531699 0.3289 1.11947 37 33 30 
0.108487 -0.122187 1.39269 21 19 20 
0.0713097 0.268195 1.17011 42 39 34 
0.102148 -0.0210522 1.33781 18 10 8 
0.120629 -0.374843 1.51472 46 42 41 
0.0796239 0.232082 1.196 26 16 14 
0.0869376 0.176115 1.22732 9 5 2 
0.114148 -0.107169 1.38571 102 102 94 
0.120711 -0.14804 1.4104 23 22 20 
0.11191 -0.0684713 1.36387 4 0 0 
0.0358782 0.454648 1.03087 95 90 86 
0.104328 0.0202491 1.31384 15 14 9 
0.120185 -0.120843 1.39603 7 7 7 
0.11118 -0.0420139 1.34952 82 78 75 
0.122984 -0.165731 1.41868 21 20 18 
0.132885 -0.236013 1.45832 79 79 79 
0.141377 -0.319912 1.50522 15 15 15 
0.121806 -0.101667 1.38317 87 86 84 
0.108336 0.0357752 1.30468 87 82 79 
0.115706 -0.0059495 1.33137 25 21 20 
0.101706 0.125852 1.25353 27 22 18 
0.12497 -0.0811147 1.37209 68 64 63 
0.119143 -0.02236 1.33887 70 68 69 
0.0971344 0.195877 1.21564 27 23 22 
0.101132 0.161275 1.23452 88 83 79 
0.0692132 0.336937 1.1143 10 6 3 
0.131371 -0.111969 1.38993 17 17 17 
0.142564 -0.371434 1.51379 84 83 81 
0.0570297 0.405945 1.0669 102 98 95 
0.0685733 0.379102 1.09258 116 108 105 
0.0701659 0.35448 1.10447 32 27 24 
0.123122 0.0131504 1.32209 53 45 42 
0.126394 -0.0291093 1.34399 11 10 6 
0.104279 0.182219 1.22437 105 100 97 
0.101584 0.209102 1.20884 78 74 71 
0.135758 -0.0993537 1.3858 29 29 27 
0.145578 -0.194339 1.4388 19 18 16 
0.116735 0.08763 1.27908 25 21 18 
0.131226 -0.0496367 1.35456 76 72 73 
0.161232 -0.296429 1.49878 37 35 36 
0.132859 -0.00692351 1.33551 79 75 74 
0.143772 -0.109571 1.39014 10 9 14 
0.127879 0.0505371 1.30143 58 53 50 
0.0823774 0.31833 1.1258 20 19 15 
0.0563765 0.435025 1.0405 23 17 17 
0.148199 -0.135255 1.4062 51 50 48 
0.0861466 0.29468 1.14038 81 78 73 
0.117323 0.150847 1.24274 27 26 21 
0.111023 0.236354 1.19685 91 87 84 
0.132737 0.0390808 1.30783 90 86 85 
0.17252 -0.304697 1.50377 25 24 22 
0.164688 -0.379959 1.52219 88 84 83 
0.123156 0.141802 1.24884 25 22 17 
0.128124 0.0972678 1.27389 102 96 96 
0.134155 0.0578318 1.29828 92 88 87 
0.138651 0.0153246 1.32109 21 17 16 
0.101094 0.278145 1.16012 92 88 87 
0.140695 0.00153958 1.32903 99 100 95 
0.0833299 0.375768 1.09473 37 37 29 
0.180649 -0.335062 1.52248 91 90 86 
0.087222 0.347315 1.11124 117 116 112 
0.0824059 0.392812 1.08533 45 40 37 
0.168497 -0.366448 1.51649 85 81 80 
0.122062 0.2029 1.21593 19 14 11 
0.156516 -0.0870558 1.38253 18 16 17 
0.120493 0.224697 1.20392 18 14 11 
0.185108 -0.32318 1.51754 13 9 10 
0.180377 -0.253724 1.48144 15 13 16 
0.18258 -0.286639 1.49502 36 35 33 
0.137099 0.114737 1.26721 17 16 12 
0.127427 0.194662 1.21997 17 13 10 
0.18163 -0.230734 1.46818 10 10 8 
0.183881 -0.270999 1.48729 78 77 75 
0.15123 0.0142338 1.32467 32 28 25 
0.166357 -0.0844097 1.3855 87 86 84 
0.125123 0.251627 1.1895 98 90 87 
0.181908 -0.364232 1.51736 98 94 93 
0.0969118 0.355746 1.10757 23 19 16 
0.171244 -0.10714 1.39847 29 29 31 
0.130365 0.212835 1.21136 34 30 29 
0.184129 -0.204968 1.45256 77 73 72 
0.183607 -0.216413 1.45522 90 89 87 
0.191505 -0.31982 1.50774 97 96 91 
0.193239 -0.336626 1.51567 86 85 81 
0.164342 -0.0219802 1.34794 85 83 84 
0.183541 -0.172648 1.43498 4 0 0 
0.169899 -0.0499966 1.36606 30 29 25 
0.134547 0.23483 1.2018 48 44 41 
0.0936036 0.392702 1.08048 31 27 26 
0.167112 0.00245393 1.33922 78 73 70 
0.185454 -0.18915 1.44081 71 70 65 
0.192049 -0.291882 1.49095 73 74 69 
0.182166 -0.146591 1.41851 82 83 78 
0.137179 0.224513 1.20691 32 27 24 
0.143139 0.194715 1.22421 29 25 24 
0.193021 -0.247994 1.46799 46 46 44 
0.191065 -0.224502 1.45507 14 15 10 
0.195202 -0.28432 1.48384 51 48 43 
0.194021 -0.273985 1.47759 114 111 106 
0.200447 -0.354424 1.51807 76 77 72 
0.156416 0.141356 1.25715 78 77 75 
0.179753 -0.0544925 1.36698 82 76 76 
0.187494 -0.13044 1.40752 3 2 0 
0.198182 -0.257469 1.4706 111 107 104 
0.117266 0.329091 1.12563 40 37 32 
0.178024 -0.0183522 1.34702 71 67 66 
0.0865504 0.457115 1.03098 59 56 51 
0.173703 0.0454479 1.31357 82 78 77 
0.169734 0.0930187 1.28888 19 14 18 
0.197182 -0.235463 1.45581 4 1 0 
0.183118 -0.0358438 1.35655 82 81 79 
0.192659 -0.166038 1.42099 77 73 70 
0.195279 -0.19797 1.43665 79 75 72 
0.190865 -0.149495 1.41129 94 90 87 
0.118527 0.343742 1.11654 83 80 75 
0.188904 -0.118299 1.3945 107 104 97 
0.127883 0.291842 1.14873 82 78 77 
0.217475 -0.379113 1.53603 12 8 5 
0.118959 0.354937 1.11132 96 91 88 
0.1955 -0.186317 1.42917 121 116 113 
0.188598 -0.105867 1.3875 84 83 79 
0.176433 0.068168 1.30063 9 5 6 
0.181588 -0.012752 1.3365 82 81 77 
0.193598 -0.129379 1.39852 95 91 82 
0.0998428 0.427332 1.05096 42 38 35 
0.174675 0.0739349 1.29144 26 20 20 
0.190724 -0.0901956 1.37682 69 65 64 
0.187581 -0.0620148 1.36088 83 82 77 
0.180629 0.0146962 1.32082 25 20 17 
0.1983 -0.139954 1.40468 24 20 17 
0.176311 0.0907544 1.281 69 68 64 
0.17493 0.138246 1.25768 21 20 16 
0.183463 0.0407896 1.30601 103 96 86 
0.181555 0.0601258 1.29559 85 84 80 
0.167758 0.247541 1.20145 13 7 9 
0.171005 0.221553 1.21292 73 72 70 
0.185363 0.0778345 1.28572 12 8 7 
0.181096 0.108116 1.26744 95 90 84 
0.177404 0.143485 1.24839 27 24 19 
0.184123 0.0955164 1.27336 21 17 14 
0.200531 -0.00539611 1.33336 93 88 84 
0.171112 0.253744 1.19185 88 83 80 
0.18001 0.175606 1.23317 17 13 12 
0.176328 0.201035 1.21732 32 32 24 
0.177926 0.191388 1.22 96 92 89 
0.172403 0.270291 1.18035 105 100 96 
0.189888 0.126326 1.25561 30 22 19 
0.179697 0.225274 1.20111 26 21 17 
0.174435 0.295314 1.15883 19 15 16 
0.184355 0.232857 1.19457 81 76 73 
-0.192451 0.442116 1.29023 182 111 7 
-0.195621 0.420228 1.30881 95 87 74 
-0.196156 0.392477 1.32392 80 71 62 
-0.191623 0.36832 1.33131 16 12 9 
-0.160459 0.37421 1.27926 164 164 164 
-0.156689 0.309291 1.2829 121 111 99 
-0.154331 0.349195 1.2814 139 145 159 
-0.110817 0.518633 1.0482 18 5 0 
-0.116481 0.491221 1.11711 71 70 66 
-0.150225 0.0566605 1.43961 84 79 75 
-0.106163 0.477731 1.11506 100 97 92 
-0.112728 0.396791 1.18444 104 101 96 
-0.145005 0.00057953 1.4611 126 119 111 
-0.134424 -0.031453 1.46483 22 14 11 
-0.129557 0.0273249 1.42712 32 23 16 
-0.148104 -0.312824 1.60316 73 69 66 
-0.115424 0.199155 1.31754 6 0 0 
-0.128245 -0.00827689 1.44382 87 80 74 
-0.0885415 0.506422 1.0871 119 115 106 
-0.132648 -0.0872553 1.49081 4 0 0 
-0.146351 -0.360018 1.62415 10 5 2 
-0.101808 0.312778 1.21853 144 137 121 
-0.114313 0.14809 1.34424 15 8 0 
-0.121826 0.00158938 1.42788 97 89 86 
-0.118207 0.0558253 1.39673 89 85 76 
-0.0983052 0.295277 1.22442 127 125 110 
-0.123599 -0.0576623 1.46317 32 27 23 
-0.085719 0.462779 1.10716 4 1 0 
-0.11675 0.0427365 1.40404 10 6 0 
-0.112946 0.0851122 1.37914 118 111 103 
-0.117676 -0.0130443 1.43489 12 5 0 
-0.131862 -0.276565 1.59371 83 80 73 
-0.108201 0.0253158 1.40214 77 70 64 
-0.101603 0.0874364 1.36589 30 26 17 
-0.0969653 0.148406 1.32759 109 102 92 
-0.101396 0.0451446 1.38835 10 7 2 
-0.0924047 0.186998 1.3027 118 108 98 
-0.0846633 0.297936 1.23222 101 97 94 
-0.105165 -0.0916244 1.461 13 3 1 
-0.0927133 0.124334 1.3353 101 97 86 
-0.0988302 -0.00307041 1.40695 101 96 92 
-0.100069 -0.0328071 1.42608 104 95 88 
-0.095504 0.0212241 1.39417 81 72 65 
-0.088468 0.150674 1.31856 6 2 0 
-0.10118 -0.102021 1.46236 74 69 65 
-0.0675069 0.468734 1.09406 121 115 99 
-0.0954288 0.00992125 1.40384 90 86 77 
-0.0912062 0.0682891 1.36552 36 29 21 
-0.139342 -0.664076 1.93962 60 60 60 
-0.0882789 0.0561958 1.36813 92 88 79 
-0.0809816 0.18659 1.293 126 117 102 
-0.0889761 0.00716395 1.39596 111 106 100 
-0.0824863 0.142111 1.32101 84 74 64 
-0.0991244 -0.209036 1.51883 7 2 0 
-0.0757743 0.249359 1.2572 103 99 90 
-0.0883915 -0.0325757 1.41604 74 63 57 
-0.0873156 -0.0227004 1.40858 7 2 0 
-0.0535364 0.501929 1.02238 69 65 54 
-0.0912071 -0.130675 1.46872 11 6 0 
-0.0708924 0.289724 1.22687 75 74 72 
-0.0731776 0.23585 1.26324 95 91 80 
-0.0917055 -0.169793 1.49068 82 79 74 
-0.0837238 -0.00486895 1.39737 20 15 12 
-0.096438 -0.276132 1.55283 14 11 6 
-0.0858524 -0.0831501 1.44011 28 23 17 
-0.0788151 0.0560599 1.36365 14 9 5 
-0.0772478 0.0814673 1.34574 9 6 1 
-0.0888225 -0.190844 1.50258 94 89 85 
-0.0674529 0.26892 1.24056 9 6 0 
-0.0818929 -0.0586764 1.4236 115 110 106 
-0.0688841 0.184265 1.28514 112 108 99 
-0.0613287 0.313141 1.1903 15 12 5 
-0.0520379 0.484091 1.07343 90 82 71 
-0.0524202 0.462781 1.08455 33 29 18 
-0.0739578 0.045295 1.36272 19 16 7 
-0.0689529 0.128063 1.31651 17 12 6 
-0.0880305 -0.371321 1.56978 4 0 0 
-0.0775391 -0.0997139 1.44086 14 9 3 
-0.0638029 0.207438 1.27235 115 111 100 
-0.0695105 0.0645138 1.35033 89 85 76 
-0.0860277 -0.428432 1.57925 149 139 127 
-0.0827788 -0.272505 1.53769 80 75 71 
-0.0678753 0.0544894 1.35344 108 103 99 
-0.0707974 -0.0231623 1.39841 21 18 13 
-0.0620971 0.128662 1.30885 91 86 80 
-0.080411 -0.382262 1.56918 92 89 80 
-0.0782667 -0.331337 1.54331 7 3 2 
-0.0544111 0.290461 1.21771 95 92 87 
-0.0579933 0.195254 1.27083 9 1 0 
-0.0578731 0.183334 1.28033 88 81 71 
-0.0561309 0.222458 1.258 97 88 83 
-0.0616362 0.0710028 1.34134 91 84 76 
-0.0628195 0.00234866 1.37638 41 36 32 
-0.0525554 0.275262 1.22664 14 9 3 
-0.0513898 0.25988 1.23452 4 1 0 
-0.0599412 0.0220358 1.36478 22 18 9 
-0.0529465 0.204065 1.26526 4 0 0 
-0.0616831 -0.0369194 1.39684 95 88 82 
-0.06692 -0.186735 1.47958 83 80 75 
-0.0704316 -0.326408 1.53535 81 77 66 
-0.0568708 0.080205 1.33261 117 113 104 
-0.0503999 0.228652 1.25151 96 87 78 
-0.0587853 -0.00654798 1.37999 74 71 66 
-0.0654473 -0.218898 1.49499 108 104 95 
-0.060327 -0.10086 1.42953 8 3 0 
-0.0650642 -0.296684 1.5325 5 6 1 
-0.0558718 -0.075153 1.41341 4 0 0 
-0.0648903 -0.405531 1.56969 6 0 0 
-0.0475138 0.144467 1.29 95 86 79 
-0.0432568 0.272384 1.22281 74 71 62 
-0.0484509 0.104262 1.31442 113 104 95 
-0.0499629 -0.0129605 1.37551 28 25 20 
-0.0607774 -0.432543 1.56518 42 40 27 
-0.0397679 0.280041 1.21314 124 120 111 
-0.0757507 -0.673715 1.8396 141 128 120 
-0.0408781 0.175164 1.2706 48 39 32 
-0.0497383 -0.1077 1.42757 4 0 0 
-0.051203 -0.168885 1.45731 116 107 100 
-0.0281841 0.470005 1.06999 112 102 92 
-0.0401263 0.118947 1.30228 27 18 11 
-0.0324653 0.318314 1.16726 70 66 57 
-0.031565 0.308075 1.17659 87 83 72 
-0.0403709 0.0445225 1.34356 15 12 3 
-0.0365373 0.164044 1.27533 4 0 0 
-0.0339835 0.224724 1.24288 13 6 0 
-0.0207842 0.497681 1.00742 110 98 82 
-0.0406845 -0.0366538 1.38305 8 3 0 
-0.0342499 0.186902 1.26146 85 82 73 
-0.0364011 0.0957319 1.31027 103 99 90 
-0.0344326 0.148746 1.27912 14 5 0 
-0.0376712 0.0265283 1.348 4 0 0 
-0.0301852 0.285984 1.20331 82 78 69 
-0.0307729 0.269911 1.21568 4 0 0 
-0.0337924 0.106904 1.30509 24 13 7 
-0.0360723 -0.000127881 1.36089 4 0 0 
-0.0499335 -0.560674 1.68774 22 18 7 
-0.0321954 0.0433095 1.33659 5 2 0 
-0.0312131 0.059921 1.32556 17 14 9 
-0.0283724 0.164159 1.26937 102 95 87 
-0.0553058 -0.715785 1.83002 101 94 86 
-0.027419 0.173385 1.26363 19 14 10 
-0.0300269 0.00776392 1.35103 108 98 96 
-0.0306802 -0.0831812 1.40102 73 68 64 
-0.0237728 0.199688 1.2502 77 73 64 
-0.0256568 0.10001 1.30275 131 127 115 
-0.0257852 0.0327527 1.33969 8 4 0 
-0.0245698 0.0500345 1.32742 8 3 0 
-0.0231758 0.108912 1.2953 97 88 79 
-0.0188703 0.276888 1.20622 81 77 68 
-0.0201666 0.215955 1.23822 103 96 86 
-0.0171148 0.302657 1.17349 106 99 91 
-0.0268337 -0.189672 1.45456 100 97 90 
-0.0251645 -0.112703 1.41514 88 84 81 
-0.0207195 0.0673478 1.3167 30 26 17 
-0.0183204 0.133247 1.28069 87 83 74 
-0.00593712 0.498755 1.00393 2 2 0 
-0.0150858 0.205456 1.2447 11 7 0 
-0.0146069 0.194699 1.24553 23 19 10 
-0.0158402 0.12124 1.28555 28 24 13 
-0.0129164 0.257676 1.21565 108 95 87 
-0.0190033 -0.0979076 1.40386 124 119 115 
-0.00576325 0.455362 1.06765 79 72 56 
-0.0204564 -0.267484 1.49394 2 1 0 
-0.00967156 0.279836 1.19383 94 87 77 
-0.0138878 0.00667732 1.34624 84 72 56 
-0.0106843 0.0971008 1.29749 97 93 84 
-0.0174953 -0.358129 1.51939 20 17 12 
-0.0148976 -0.227336 1.46783 101 98 93 
-0.0208242 -0.547045 1.67395 54 51 46 
-0.00842756 0.0866186 1.30152 18 9 2 
-0.012371 -0.244593 1.47832 28 24 15 
-0.00446668 0.239349 1.22104 97 92 86 
-0.00505204 0.189932 1.24542 106 102 93 
-0.00756287 0.0256533 1.33332 7 3 0 
-0.00530016 0.128201 1.27654 53 46 36 
-0.00775504 -0.0284826 1.36042 86 81 78 
-0.00260128 0.271365 1.20139 43 34 25 
-0.00718416 -0.101513 1.40167 21 16 12 
0.00283678 0.466222 1.06274 22 13 6 
-0.000349547 0.229707 1.2251 9 2 0 
0.00184652 0.303404 1.16424 90 80 71 
0.000232593 0.208183 1.23401 31 21 19 
-0.00698782 -0.382273 1.5281 10 5 0 
-0.0119604 -0.627385 1.74094 126 113 104 
0.00427749 0.31536 1.15614 15 7 0 
-0.00300959 -0.238083 1.4687 11 6 2 
0.00276266 0.160553 1.25737 98 88 86 
0.0084666 0.454156 1.06362 23 14 7 
-0.000441589 -0.217667 1.46018 4 0 0 
-0.000829121 -0.422198 1.54349 95 86 77 
0.00438442 0.0569173 1.31175 11 2 0 
0.00812464 0.239633 1.21517 9 5 0 
0.00318494 -0.35456 1.51158 63 54 45 
0.00507599 -0.167698 1.43064 7 0 0 
-0.00176194 -0.716202 1.82167 36 28 15 
0.00128243 -0.585079 1.70057 142 139 130 
0.00848512 0.0105727 1.33437 105 91 64 
0.00973746 0.106922 1.28259 101 100 95 
0.0131234 0.266113 1.19888 92 82 73 
0.0132627 0.249122 1.21063 95 85 75 
0.0165962 0.284426 1.17932 99 96 87 
0.0198529 0.495433 1.00229 0 1 0 
0.0145981 -0.449509 1.54281 131 126 122 
0.0154936 -0.320565 1.50731 94 91 84 
0.0184288 -0.248514 1.46828 103 98 94 
0.0223396 0.303818 1.15875 111 103 92 
0.020091 -0.236668 1.46106 98 97 93 
0.02355 0.273264 1.19067 25 21 12 
0.0198131 -0.557051 1.67214 139 132 122 
0.0261575 0.249214 1.20695 19 10 1 
0.0261864 0.142793 1.25756 5 1 0 
0.0274074 0.28481 1.17419 100 99 94 
0.0286438 -0.379179 1.51596 110 104 104 
0.0299627 0.106835 1.27576 72 69 64 
0.0303983 0.192249 1.23264 92 88 79 
0.0319277 0.303808 1.15245 78 70 59 
0.0323174 0.262826 1.19506 76 72 63 
0.0334575 0.0130026 1.34269 43 0 0 
0.0352814 -0.582066 1.68833 33 23 21 
0.0354719 -0.390236 1.51971 66 62 59 
0.0360133 -0.346582 1.49437 3 1 2 
0.0361079 0.177332 1.23907 9 2 0 
0.0377018 -0.310378 1.49565 97 89 87 
0.037718 -0.200262 1.43795 5 0 0 
0.0396402 -0.375986 1.51086 79 76 71 
0.0385613 0.203721 1.22716 4 0 0 
0.0410461 -0.661644 1.75963 135 126 117 
0.0393702 0.232422 1.21076 73 69 58 
0.0414647 -0.301706 1.48828 4 0 0 
0.0405891 0.450638 1.05821 94 89 85 
0.042686 0.0824569 1.28812 8 0 0 
0.0419029 0.305753 1.15092 3 0 0 
0.0460546 -0.587206 1.69058 32 28 25 
0.0463789 -0.424408 1.5341 7 2 0 
0.045006 0.0750206 1.29752 95 88 78 
0.044438 0.212168 1.22068 2 1 0 
0.0492354 -0.368716 1.50667 5 0 0 
0.0492086 -0.163822 1.41759 62 58 55 
0.0538562 -0.667782 1.76367 140 133 125 
0.0508197 -0.18983 1.42939 86 81 75 
0.0479608 0.288104 1.16661 111 107 98 
0.0528607 -0.315446 1.48837 6 2 3 
0.0493254 0.226835 1.20935 23 16 10 
0.0562809 -0.658106 1.75418 4 0 0 
0.0509232 0.142491 1.25311 99 94 88 
0.0511755 0.170544 1.23698 21 18 9 
0.0591043 -0.555752 1.65706 129 122 116 
0.0578526 -0.27488 1.47327 3 0 0 
0.0531017 0.267198 1.18615 28 23 19 
0.053978 0.275723 1.17716 37 36 31 
0.0643607 -0.49297 1.58422 132 124 113 
0.0693997 -0.724351 1.80959 93 88 84 
0.0642805 -0.394229 1.51586 4 0 0 
0.0660871 -0.289718 1.48002 18 15 10 
0.056972 0.469501 1.04643 99 93 81 
0.070805 -0.56449 1.6664 131 126 123 
0.0601465 0.314063 1.14707 43 38 34 
0.0631963 0.134248 1.25517 95 91 82 
0.0688983 -0.219014 1.44268 89 85 84 
0.0796262 -0.750905 1.83421 49 39 30 
0.06657 0.0746124 1.28843 113 104 97 
0.0643636 0.280942 1.16822 19 19 11 
0.0656064 0.232831 1.2056 13 8 2 
0.0751295 -0.469007 1.5528 57 47 37 
0.0731609 -0.254659 1.46208 108 105 100 
0.0747014 -0.280404 1.47421 105 102 97 
0.0803782 -0.554265 1.65651 47 42 38 
0.0757073 -0.265316 1.4654 23 18 14 
0.0697966 0.149853 1.24864 84 80 69 
0.0752131 -0.142721 1.40241 73 70 63 
0.0656433 0.450673 1.05488 81 71 69 
0.0801883 -0.372014 1.50421 3 0 0 
0.0866864 -0.625033 1.71534 28 20 17 
0.0746895 0.0978827 1.27509 17 13 4 
0.0732858 0.211261 1.21869 112 103 94 
0.0811409 -0.251865 1.45622 7 3 0 
0.0709925 0.311686 1.14416 21 16 12 
0.0831534 -0.301353 1.48174 77 73 70 
0.0825153 -0.238267 1.45112 7 2 0 
0.0755771 0.229628 1.20661 88 85 78 
0.0851721 -0.277107 1.47091 10 4 4 
0.0885469 -0.426895 1.52643 95 92 85 
0.0804192 0.0704149 1.28872 87 83 72 
0.0983166 -0.702259 1.78467 5 0 0 
0.0971748 -0.657827 1.74463 131 123 112 
0.0905712 -0.391513 1.51188 82 74 71 
0.0877321 -0.172793 1.41784 9 1 0 
0.09113 -0.2579 1.461 109 106 101 
0.0838063 0.102015 1.27049 103 96 90 
0.0942504 -0.407845 1.52142 113 108 104 
0.0841967 0.161508 1.23965 13 4 0 
0.0815667 0.287566 1.16307 30 29 25 
0.0906069 -0.0952313 1.37335 86 73 67 
0.0960518 -0.192098 1.42956 93 90 81 
0.0991813 -0.349532 1.49612 2 2 2 
0.0910705 0.0385853 1.30507 14 5 0 
0.0988533 -0.280913 1.47528 9 4 1 
0.104486 -0.510754 1.6001 134 124 114 
0.108811 -0.570929 1.66555 144 138 124 
0.0981881 -0.115137 1.38803 18 10 7 
0.101621 -0.225665 1.44641 11 8 3 
0.106106 -0.421683 1.5274 12 5 0 
0.092674 0.261548 1.19563 78 73 67 
0.0975038 0.070818 1.29055 45 35 26 
0.108239 -0.289109 1.47676 104 99 96 
0.110134 -0.373075 1.50426 92 91 86 
0.0934239 0.27716 1.17293 26 22 13 
0.0996265 0.102384 1.2687 97 92 86 
0.111948 -0.327694 1.48619 102 93 86 
0.11416 -0.272892 1.46917 80 75 71 
0.101028 0.194106 1.22462 86 79 71 
0.115943 -0.316684 1.48758 1 2 4 
0.116381 -0.34746 1.49258 87 76 72 
0.110238 -0.0949807 1.37242 94 89 83 
0.106309 0.0610132 1.29403 100 90 81 
0.130318 -0.617731 1.70285 131 119 107 
0.105872 0.146271 1.24699 11 6 3 
0.119439 -0.284223 1.47583 4 0 0 
0.121705 -0.385542 1.51091 108 97 91 
0.121253 -0.295574 1.48148 17 8 1 
0.120441 -0.177299 1.4195 79 74 70 
0.127127 -0.395727 1.51696 9 1 0 
0.122174 -0.140711 1.39962 40 35 29 
0.117632 0.0248298 1.30961 90 85 79 
0.128621 -0.252806 1.45703 5 1 0 
0.12341 -0.0952584 1.37537 95 90 87 
0.111635 0.269382 1.18247 32 25 17 
0.129778 -0.234556 1.45174 85 84 80 
0.147652 -0.642923 1.71892 119 111 100 
0.185562 -1.19912 2.30063 223 227 230 
0.104273 0.463542 1.04761 164 157 151 
0.11945 0.12201 1.2597 105 96 91 
0.120076 0.113253 1.26607 20 17 8 
0.129862 -0.130034 1.39528 11 7 4 
0.120832 0.161142 1.24019 16 7 0 
0.133925 -0.158884 1.41191 1 0 0 
0.11042 0.442933 1.05992 102 95 87 
0.156994 -0.609042 1.68687 72 62 52 
0.153848 -0.552482 1.63693 138 128 126 
0.120758 0.277721 1.1725 6 1 0 
0.113475 0.451065 1.05297 84 75 66 
