ply                 
format ascii 1.0    
element vertex 1285
property float x    
property float y    
property float z    
property uchar red  
property uchar green
property uchar blue 
end_header          
0.149692 -0.867821 1.93035 148 141 131 
0.126615 -0.412364 1.52686 29 25 16 
0.134145 -0.558999 1.6448 150 146 134 
0.113815 0.0670132 1.29653 9 4 0 
0.117777 -0.0516498 1.35529 42 34 31 
0.117902 -0.0390592 1.34953 36 31 28 
0.127618 -0.382432 1.50896 9 0 0 
0.145409 -0.730625 1.79547 155 143 127 
0.134469 -0.525646 1.60839 139 130 123 
0.13748 -0.568595 1.65093 113 105 94 
0.102956 0.441244 1.07812 96 91 85 
0.12801 -0.309122 1.48854 66 63 58 
0.127361 -0.276337 1.47401 85 81 82 
0.108328 0.314901 1.15791 10 5 2 
0.128171 -0.292741 1.47831 12 7 4 
0.112156 0.2512 1.20698 62 57 53 
0.118116 0.0585013 1.30282 85 81 70 
0.13044 -0.318879 1.49317 2 0 1 
0.122532 -0.0702578 1.36517 10 5 1 
0.139543 -0.553801 1.63854 109 104 98 
0.120622 -0.00232028 1.33149 95 90 84 
0.116555 0.140341 1.25669 78 73 70 
0.149441 -0.718315 1.78211 31 22 13 
0.129349 -0.221177 1.44554 77 72 69 
0.144245 -0.592249 1.66752 25 16 1 
0.134424 -0.369327 1.50594 102 97 91 
0.162128 -0.866885 1.9414 141 131 122 
0.150679 -0.689273 1.75665 33 26 18 
0.111757 0.376122 1.12828 85 80 76 
0.124395 0.042619 1.3076 4 0 0 
0.129721 -0.109556 1.38757 47 43 42 
0.138789 -0.399259 1.51835 106 93 84 
0.132865 -0.184962 1.42651 3 0 0 
0.115729 0.299609 1.16749 105 102 95 
0.141014 -0.417398 1.52792 36 32 23 
0.124372 0.134441 1.26332 22 17 11 
0.127369 0.0674778 1.29632 10 2 0 
0.137158 -0.200682 1.4361 33 29 26 
0.116384 0.36738 1.13359 30 23 17 
0.115497 0.39981 1.1142 88 83 77 
0.132497 -0.0415341 1.35031 11 7 4 
0.113867 0.433247 1.08059 69 64 58 
0.125275 0.174201 1.24286 49 40 33 
0.144159 -0.331664 1.50205 61 60 58 
0.145074 -0.388257 1.5139 22 15 5 
0.152406 -0.535964 1.61827 26 17 8 
0.125797 0.187548 1.23548 81 78 73 
0.139332 -0.169724 1.41982 8 7 3 
0.132974 0.0118638 1.32525 7 0 0 
0.1363 -0.0711102 1.36757 99 98 96 
0.136049 -0.0246835 1.34717 74 70 69 
0.153312 -0.509516 1.58112 62 55 47 
0.157209 -0.545882 1.62751 28 23 17 
0.125501 0.272161 1.19437 85 77 66 
0.144394 -0.217258 1.44616 72 67 63 
0.145416 -0.22487 1.45355 21 17 14 
0.132263 0.109618 1.27488 50 40 31 
0.149246 -0.357396 1.49494 36 35 33 
0.152026 -0.41039 1.52652 5 0 0 
0.134602 0.0835992 1.29121 99 94 90 
0.138455 -0.0176463 1.34021 89 84 78 
0.148293 -0.262035 1.4696 70 69 67 
0.150109 -0.293724 1.48308 10 6 5 
0.12544 0.329287 1.15133 81 77 74 
0.137563 0.0650512 1.30035 83 74 67 
0.126403 0.319229 1.15433 62 59 54 
0.148373 -0.205623 1.44051 78 73 69 
0.155589 -0.396475 1.51904 9 0 0 
0.144615 -0.0844053 1.37643 19 13 13 
0.17871 -0.719002 1.80004 97 90 82 
0.153396 -0.254045 1.46398 21 15 17 
0.142461 0.020616 1.32175 13 9 8 
0.153416 -0.238543 1.45788 81 77 74 
0.13887 0.127729 1.26799 83 78 72 
0.128438 0.367746 1.13148 32 24 13 
0.146602 -0.050484 1.35792 105 101 98 
0.143438 0.0347941 1.31708 3 0 0 
0.134454 0.266194 1.20136 49 41 38 
0.146599 -0.0255806 1.34901 77 73 70 
0.157227 -0.281176 1.47998 75 71 68 
0.150024 -0.115601 1.38894 100 94 94 
0.127128 0.413259 1.10261 23 20 15 
0.159624 -0.308527 1.49269 42 39 34 
0.148297 -0.0375422 1.35292 6 2 0 
0.16142 -0.324734 1.50406 114 111 106 
0.152617 -0.121685 1.39631 78 73 70 
0.185124 -0.728932 1.79228 26 25 23 
0.129559 0.409723 1.11447 82 79 74 
0.148951 0.00991392 1.32628 98 93 87 
0.148014 0.0437002 1.3128 4 0 0 
0.166936 -0.422504 1.53339 6 1 0 
0.13693 0.298422 1.17168 53 48 45 
0.148615 0.053336 1.30876 5 1 0 
0.142096 0.210693 1.22913 38 36 24 
0.160494 -0.207029 1.44233 22 17 11 
0.148538 0.0736618 1.2971 18 13 7 
0.166731 -0.358796 1.50541 77 72 68 
0.135628 0.359827 1.13929 89 80 73 
0.159971 -0.156668 1.41764 4 0 0 
0.144804 0.1857 1.23962 8 0 0 
0.15787 -0.0822862 1.3781 55 51 42 
0.166757 -0.271209 1.47498 20 15 12 
0.149926 0.110087 1.27825 52 43 34 
0.155708 -0.0125407 1.34254 72 69 64 
0.155226 0.00389751 1.3347 93 88 82 
0.153704 0.0340372 1.31731 33 29 26 
0.157454 -0.0477519 1.35916 10 6 3 
0.134262 0.426779 1.09254 112 107 103 
0.142173 0.29084 1.17854 24 21 16 
0.170308 -0.306026 1.49382 8 5 0 
0.13885 0.371144 1.13374 93 87 75 
0.16237 -0.111526 1.3935 61 60 55 
0.164394 -0.132457 1.40276 99 94 90 
0.151809 0.147613 1.26143 89 85 76 
0.170398 -0.240066 1.46228 82 78 75 
0.157906 0.0244364 1.32331 10 5 2 
0.175908 -0.385478 1.51576 36 31 27 
0.139466 0.409092 1.10966 74 71 62 
0.140788 0.391336 1.12341 94 89 83 
0.14933 0.250091 1.2121 75 70 64 
0.163718 -0.0588169 1.36729 14 9 13 
0.148279 0.275651 1.19618 12 7 3 
0.17568 -0.296826 1.49182 123 113 111 
0.144614 0.339461 1.15079 88 84 75 
0.154603 0.169346 1.24999 90 86 77 
0.177032 -0.286871 1.48618 22 19 12 
0.174902 -0.226147 1.45728 66 60 60 
0.143585 0.401852 1.11804 92 89 80 
0.173561 -0.176062 1.43037 6 2 0 
0.165986 -0.0039684 1.33976 101 98 93 
0.179438 -0.278196 1.47771 108 100 97 
0.176163 -0.202397 1.44325 3 0 0 
0.209899 -0.699222 1.78813 126 114 100 
0.14872 0.349235 1.14745 67 62 56 
0.157548 0.200417 1.23245 99 95 84 
0.187089 -0.421034 1.53497 92 87 83 
0.212864 -0.717894 1.79797 39 29 20 
0.176634 -0.140097 1.41186 96 91 85 
0.162959 0.130334 1.27003 55 52 47 
0.192117 -0.468635 1.55861 33 29 18 
0.176086 -0.104101 1.39585 9 3 3 
0.169985 0.0119751 1.33272 62 57 54 
0.189617 -0.401761 1.52814 11 7 0 
0.153861 0.302721 1.16749 47 44 39 
0.169967 0.0364455 1.32182 71 66 60 
0.159866 0.241711 1.22028 24 13 7 
0.169787 0.0458137 1.31618 9 6 1 
0.148256 0.421163 1.10029 89 86 79 
0.192784 -0.431937 1.54274 58 55 50 
0.164156 0.159151 1.25721 74 69 63 
0.179962 -0.161028 1.41333 103 96 86 
0.160465 0.252754 1.21273 14 11 6 
0.148339 0.434104 1.0907 33 30 23 
0.175876 -0.0490028 1.36372 8 5 0 
0.183896 -0.212497 1.44049 14 10 0 
0.18279 -0.19122 1.42769 4 0 0 
0.191571 -0.363419 1.51163 25 20 16 
0.215558 -0.628723 1.74755 88 83 77 
0.166588 0.144038 1.2626 67 64 57 
0.169669 0.0959704 1.29156 68 65 60 
0.19055 -0.33057 1.49541 142 139 134 
0.160431 0.27433 1.20038 28 25 20 
0.155994 0.32701 1.15534 67 64 59 
0.193008 -0.375608 1.51624 94 85 80 
0.163104 0.232495 1.22368 89 80 73 
0.22244 -0.711176 1.80597 120 105 98 
0.171721 0.0641996 1.30755 72 62 63 
0.188653 -0.278913 1.47129 135 126 117 
0.15504 0.366416 1.14075 78 74 65 
0.225008 -0.746698 1.82247 42 40 41 
0.21069 -0.567358 1.68171 129 125 116 
0.193188 -0.352084 1.5042 103 99 98 
0.188978 -0.26158 1.45896 138 132 120 
0.180306 -0.0713121 1.37398 22 13 6 
0.158509 0.312093 1.16312 104 100 97 
0.186364 -0.203921 1.43154 8 1 0 
0.189148 -0.247903 1.45516 34 28 16 
0.197524 -0.407468 1.5339 19 10 3 
0.192247 -0.308505 1.48218 120 112 101 
0.158218 0.338561 1.153 20 12 9 
0.154262 0.408103 1.11357 99 96 89 
0.186635 -0.178558 1.41966 101 96 93 
0.183144 -0.100419 1.38525 6 0 0 
0.202556 -0.452776 1.54619 106 97 88 
0.191317 -0.221031 1.43988 4 0 0 
0.181727 -0.0327805 1.34962 70 68 56 
0.175178 0.106571 1.28606 4 0 0 
0.157791 0.4027 1.12265 17 12 8 
0.186898 -0.133741 1.39506 24 15 6 
0.188062 -0.151435 1.40575 6 0 0 
0.235943 -0.778042 1.84782 54 41 32 
0.231966 -0.706017 1.81054 120 101 97 
0.164017 0.304457 1.16905 105 96 89 
0.182216 -0.0118403 1.33584 97 88 83 
0.198052 -0.294932 1.47741 129 121 118 
0.173792 0.179457 1.25037 58 53 50 
0.236202 -0.730102 1.82636 10 1 2 
0.205731 -0.418239 1.54087 117 110 104 
0.235996 -0.719539 1.81736 138 125 116 
0.187793 -0.0816283 1.36785 77 66 62 
0.186696 -0.061026 1.35753 99 94 90 
0.206034 -0.399805 1.53049 13 8 4 
0.239953 -0.763623 1.84177 46 35 29 
0.183173 0.017766 1.32179 62 53 44 
0.172232 0.242804 1.22162 22 17 13 
0.194395 -0.190606 1.42288 106 97 90 
0.244113 -0.828922 1.87789 89 89 77 
0.162722 0.382947 1.13322 35 30 26 
0.202614 -0.333662 1.4949 123 120 115 
0.186784 -0.0431896 1.35068 46 33 24 
0.165011 0.352426 1.14802 21 17 8 
0.181091 0.0746032 1.29268 98 90 79 
0.202643 -0.303573 1.48348 136 130 118 
0.233799 -0.630125 1.76567 18 11 3 
0.205648 -0.354055 1.50906 39 35 26 
0.199252 -0.247521 1.44981 131 122 113 
0.164931 0.371765 1.13914 36 28 25 
0.184271 0.0311918 1.31247 101 89 77 
0.19894 -0.228077 1.43769 107 105 93 
0.170849 0.287096 1.1857 100 96 85 
0.196747 -0.170733 1.41688 62 57 51 
0.170461 0.296604 1.18039 88 86 74 
0.194167 -0.12088 1.38868 54 41 32 
0.162733 0.417158 1.10681 87 84 75 
0.195546 -0.141075 1.39482 99 94 90 
0.205509 -0.28682 1.47529 123 118 114 
0.213824 -0.425304 1.54828 86 77 70 
0.189157 0.00936741 1.32258 127 118 109 
0.192321 -0.014035 1.33566 51 42 37 
0.182844 0.149596 1.25083 81 77 68 
0.199982 -0.130124 1.3947 2 2 0 
0.196098 -0.0566134 1.35817 97 93 84 
0.256279 -0.80195 1.87416 232 236 235 
0.206574 -0.206309 1.43722 83 74 69 
0.2556 -0.754635 1.85407 35 30 26 
0.188208 0.095328 1.2771 92 82 73 
0.200654 -0.109665 1.38123 13 10 5 
0.187185 0.120475 1.26607 79 62 54 
0.205567 -0.177329 1.42157 16 9 3 
0.253845 -0.710534 1.82866 119 106 98 
0.199222 -0.0688016 1.36309 87 82 76 
0.250675 -0.655219 1.8004 40 30 21 
0.191745 0.063275 1.29454 75 70 66 
0.200981 -0.0869246 1.37252 22 19 14 
0.173632 0.366029 1.14117 98 95 86 
0.172535 0.39533 1.13023 84 80 77 
0.21084 -0.226603 1.44901 99 94 88 
0.216398 -0.307163 1.49121 128 115 106 
0.220483 -0.369929 1.52468 52 47 44 
0.190561 0.106828 1.27387 9 0 0 
0.213953 -0.261281 1.46643 130 125 119 
0.193355 0.0745373 1.28742 100 92 79 
0.261176 -0.742764 1.8485 103 103 93 
0.206612 -0.121502 1.394 10 6 0 
0.179406 0.315335 1.16728 86 83 78 
0.172764 0.415654 1.1111 66 63 58 
0.183454 0.263216 1.19937 8 0 0 
0.19744 0.0279223 1.31257 8 0 0 
0.200814 -0.00656367 1.33219 12 5 0 
0.217419 -0.248637 1.46402 6 0 0 
0.192331 0.133299 1.2584 119 110 105 
0.210855 -0.149345 1.40735 6 1 0 
0.203227 -0.0307794 1.34518 99 92 84 
0.179844 0.356876 1.14883 26 21 17 
0.181037 0.342885 1.15624 84 80 71 
0.224054 -0.322511 1.50305 6 0 0 
0.204158 -0.0193494 1.34166 69 64 61 
0.211769 -0.133271 1.40143 80 77 72 
0.208268 -0.073269 1.37089 72 67 63 
0.207004 -0.0537094 1.35952 10 2 0 
0.226686 -0.344999 1.5133 97 92 88 
0.211273 -0.102993 1.38558 90 89 85 
0.196829 0.117343 1.26929 139 130 121 
0.192588 0.184614 1.23389 85 82 75 
0.198408 0.0957894 1.27982 91 82 73 
0.188726 0.252935 1.20254 76 72 61 
0.272631 -0.7662 1.87241 86 87 69 
0.187473 0.275581 1.1903 45 35 26 
0.224035 -0.271358 1.47661 15 8 0 
0.226244 -0.292828 1.49201 107 98 89 
0.223686 -0.256965 1.47121 100 96 85 
0.192525 0.206735 1.22147 118 109 100 
0.225672 -0.284218 1.48427 122 115 109 
0.22076 -0.210123 1.44198 83 79 70 
0.269541 -0.67675 1.82783 24 14 13 
0.196223 0.162167 1.24564 94 85 76 
0.233025 -0.373271 1.53177 21 12 13 
0.194639 0.194236 1.22892 111 102 93 
0.235271 -0.404393 1.54643 114 105 100 
0.187826 0.310088 1.17393 17 14 7 
0.219535 -0.151284 1.41437 119 115 104 
0.187988 0.333581 1.16076 103 99 90 
0.214308 -0.045113 1.35911 5 0 0 
0.21075 0.00915813 1.32922 85 81 70 
0.185548 0.397446 1.13359 120 116 107 
0.221432 -0.140265 1.40851 21 16 13 
0.207789 0.0633592 1.30164 86 76 74 
0.20459 0.1091 1.27654 53 49 46 
0.214523 -0.027401 1.349 7 2 0 
0.210832 0.0484643 1.31004 80 79 74 
0.222951 -0.119056 1.39891 15 10 6 
0.234016 -0.27303 1.48229 98 94 85 
0.238564 -0.337194 1.51456 115 110 104 
0.218749 -0.053965 1.36384 110 105 99 
0.212751 0.0291624 1.31686 75 66 59 
0.202882 0.180445 1.2402 120 116 107 
0.198653 0.243727 1.20759 78 73 69 
0.222972 -0.100601 1.38958 84 80 77 
0.274037 -0.597133 1.77082 121 117 108 
0.223075 -0.0905547 1.38585 77 68 61 
0.207813 0.126577 1.2689 9 0 0 
0.232461 -0.220785 1.45342 109 105 96 
0.190666 0.38477 1.14018 114 110 101 
0.23816 -0.287997 1.4919 98 94 85 
0.212013 0.0868316 1.2906 21 16 12 
0.228975 -0.146135 1.41571 100 94 94 
0.208037 0.146247 1.2581 16 9 0 
0.189509 0.41472 1.11821 94 90 81 
0.194849 0.362326 1.15197 27 22 18 
0.222891 -0.0350577 1.35625 9 5 0 
0.194723 0.373924 1.14446 103 100 91 
0.209384 0.166785 1.25097 44 36 25 
0.245752 -0.326297 1.51641 100 93 85 
0.199031 0.318006 1.17374 4 0 0 
0.253509 -0.442362 1.56641 120 116 107 
0.22353 -0.00661287 1.34061 8 1 0 
0.206578 0.229699 1.2168 25 18 8 
0.215585 0.103598 1.28091 79 76 71 
0.239275 -0.203141 1.45175 8 5 0 
0.203723 0.283526 1.19144 100 91 86 
0.250246 -0.342905 1.52577 124 119 113 
0.196141 0.404377 1.13299 25 20 14 
0.202442 0.306932 1.17803 112 108 99 
0.238997 -0.179946 1.43906 38 35 30 
0.248873 -0.309481 1.50984 98 91 85 
0.24216 -0.223688 1.46142 9 0 0 
0.254452 -0.383408 1.54788 5 0 0 
0.221144 0.078887 1.29974 75 72 65 
0.240364 -0.167184 1.43239 18 5 0 
0.238479 -0.135263 1.41781 14 5 0 
0.255752 -0.364879 1.53778 103 94 89 
0.255086 -0.349198 1.53301 52 47 44 
0.260179 -0.415449 1.5647 35 30 27 
0.213812 0.192751 1.23654 173 165 152 
0.224267 0.0612079 1.30884 97 93 82 
0.221886 0.0916509 1.29164 6 2 0 
0.231328 -0.0277591 1.35806 100 89 83 
0.220136 0.122782 1.27758 97 92 88 
0.225565 0.0379439 1.31485 83 74 69 
0.227879 0.0279616 1.32743 26 17 10 
0.204776 0.338764 1.16428 86 83 74 
0.261898 -0.426242 1.56259 62 59 52 
0.210155 0.274159 1.19961 97 90 80 
0.204219 0.352562 1.15781 90 87 82 
0.234438 -0.0444666 1.36896 81 72 63 
0.229881 0.0108767 1.33565 78 74 65 
0.208838 0.298126 1.18561 98 91 85 
0.257208 -0.321998 1.52176 4 0 0 
0.22338 0.110301 1.28383 82 78 69 
0.242169 -0.12152 1.41305 4 0 0 
0.239028 -0.0632266 1.38034 99 96 91 
0.208936 0.328614 1.17176 86 83 74 
0.24215 -0.0873753 1.39143 82 79 70 
0.254511 -0.235796 1.475 20 17 10 
0.260866 -0.299712 1.51325 114 111 106 
0.224433 0.151118 1.26402 88 81 73 
0.232305 0.0527063 1.31626 88 83 79 
0.267344 -0.378973 1.55255 6 0 0 
0.257087 -0.245034 1.48147 120 116 107 
0.206116 0.410468 1.13145 93 89 78 
0.240752 -0.0312667 1.36552 23 10 2 
0.221703 0.20009 1.23543 43 39 28 
0.263451 -0.310796 1.51718 110 100 98 
0.217788 0.26428 1.2084 30 25 19 
0.271264 -0.405528 1.56868 3 0 0 
0.238222 0.000589908 1.34547 20 13 5 
0.262145 -0.27824 1.50057 27 24 19 
0.248039 -0.104509 1.40585 109 99 97 
0.222994 0.21141 1.23427 113 103 93 
0.262225 -0.267184 1.49549 14 9 5 
0.228973 0.139211 1.27156 119 116 107 
0.235231 0.063261 1.31325 22 18 7 
0.233616 0.0893542 1.30135 63 58 52 
0.244617 -0.0458661 1.37285 31 23 12 
0.242758 -0.0196356 1.35857 87 82 78 
0.270688 -0.350462 1.54409 30 21 16 
0.216308 0.313789 1.18178 89 85 74 
0.226832 0.181907 1.24934 5 1 0 
0.253891 -0.137161 1.42814 128 124 115 
0.258001 -0.19547 1.4553 70 65 61 
0.250473 -0.0948815 1.40158 70 65 61 
0.214311 0.366123 1.15657 18 15 10 
0.271395 -0.322576 1.5314 47 42 38 
0.218072 0.323495 1.17694 85 83 71 
0.271281 -0.304467 1.523 4 0 0 
0.241211 0.0395439 1.32534 89 82 76 
0.221269 0.295182 1.19425 71 67 55 
0.22218 0.284288 1.19943 22 13 6 
0.26287 -0.202235 1.46405 74 69 66 
0.255207 -0.111022 1.41401 24 14 12 
0.22564 0.246329 1.21905 71 62 57 
0.277147 -0.365334 1.55282 84 80 71 
0.269895 -0.270403 1.50415 4 0 0 
0.259094 -0.144081 1.43374 27 22 16 
0.244277 0.0267527 1.33556 10 3 0 
0.266223 -0.221793 1.47636 17 14 5 
0.252865 -0.0645571 1.38915 134 126 123 
0.272245 -0.282108 1.51267 133 129 120 
0.280084 -0.37679 1.56293 3 0 0 
0.268434 -0.237534 1.48703 114 114 104 
0.219221 0.348417 1.16582 109 105 96 
0.256346 -0.0842244 1.39975 119 110 103 
0.238465 0.125838 1.28302 90 85 79 
0.264615 -0.165272 1.44923 94 86 75 
0.230245 0.23371 1.22766 90 86 75 
0.227001 0.268731 1.20478 107 103 91 
0.240275 0.116566 1.2882 91 84 78 
0.233882 0.201778 1.24541 11 7 0 
0.232226 0.223925 1.23299 54 45 38 
0.28238 -0.341077 1.54689 12 4 2 
0.234076 0.212348 1.24003 98 91 83 
0.254329 -0.0181648 1.3667 21 13 2 
0.24806 0.0516882 1.32553 91 87 78 
0.252911 -0.00468367 1.35577 31 24 18 
0.264391 -0.128279 1.42837 4 0 0 
0.245784 0.0838648 1.3103 84 81 74 
0.225916 0.31759 1.18421 91 87 76 
0.256735 -0.0333269 1.37622 119 110 103 
0.269976 -0.180326 1.45827 94 89 83 
0.2318 0.270916 1.21382 103 99 88 
0.240958 0.163267 1.26647 82 79 70 
0.284374 -0.310959 1.53622 96 91 85 
0.238757 0.191623 1.24932 43 36 26 
0.223871 0.378938 1.15522 120 113 103 
0.265717 -0.0948301 1.41244 12 8 0 
0.282517 -0.276643 1.51596 90 87 82 
0.255274 0.0176633 1.34606 82 77 74 
0.262844 -0.0589389 1.39054 53 48 42 
0.281284 -0.251696 1.50306 47 42 38 
0.236276 0.249171 1.22343 103 93 84 
0.288315 -0.320508 1.5428 104 99 95 
0.244719 0.155718 1.27289 82 78 69 
0.277437 -0.20032 1.47274 15 8 0 
0.255268 0.0462577 1.33259 16 12 3 
0.279664 -0.2104 1.47903 100 96 87 
0.271878 -0.118287 1.42933 14 7 0 
0.26331 -0.0238542 1.37317 87 77 76 
0.299031 -0.409951 1.59068 56 55 51 
0.262052 -0.00850279 1.36418 95 90 84 
0.269163 -0.0778821 1.40726 10 1 0 
0.255864 0.0634423 1.32457 94 87 81 
0.271696 -0.105873 1.42009 10 1 0 
0.238671 0.262112 1.21703 103 98 92 
0.24437 0.204568 1.24921 19 12 4 
0.231627 0.346349 1.17131 18 14 5 
0.247808 0.176011 1.26539 21 12 5 
0.285211 -0.228876 1.49199 4 0 0 
0.294065 -0.305196 1.54107 48 44 35 
0.235974 0.315545 1.18997 93 89 78 
0.263876 0.00682302 1.35726 76 66 64 
0.261911 0.0311895 1.34335 14 10 1 
0.285484 -0.20206 1.48203 93 85 74 
0.274748 -0.0837761 1.41346 106 99 91 
0.250228 0.185866 1.262 104 94 84 
0.260308 0.0785625 1.32114 21 20 15 
0.271469 -0.0351582 1.38556 100 91 84 
0.245753 0.241269 1.23163 124 111 92 
0.283475 -0.158678 1.45584 84 80 69 
0.263248 0.0571784 1.33461 82 74 63 
0.256988 0.129141 1.29537 30 25 21 
0.247577 0.230413 1.23939 45 33 17 
0.280158 -0.110631 1.43056 35 30 26 
0.300192 -0.316139 1.54899 28 24 21 
0.246199 0.252973 1.22701 109 101 88 
0.28464 -0.148457 1.45343 100 96 85 
0.255699 0.156294 1.27921 14 9 5 
0.250927 0.216551 1.2482 132 120 106 
0.242289 0.309438 1.19697 38 30 17 
0.234649 0.399894 1.15021 41 35 23 
0.277172 -0.0405786 1.39263 106 96 94 
0.296242 -0.227301 1.50425 56 49 39 
0.238071 0.384518 1.15973 85 81 72 
0.276896 -0.0257622 1.38618 93 91 78 
0.280718 -0.0698061 1.408 77 67 58 
0.295746 -0.214311 1.49515 8 1 0 
0.254908 0.200223 1.25648 120 111 94 
0.302975 -0.270394 1.52983 111 106 102 
0.287796 -0.112968 1.43785 57 48 41 
0.277167 -0.00849966 1.37536 88 84 75 
0.303082 -0.262172 1.52404 139 134 130 
0.261991 0.151508 1.28658 54 44 42 
0.245715 0.32669 1.1911 39 35 24 
0.312871 -0.35311 1.57777 84 79 75 
0.271824 0.0567116 1.34076 29 20 11 
0.317263 -0.391249 1.59975 7 3 0 
0.307017 -0.286628 1.5405 114 109 105 
0.249845 0.287984 1.20971 41 36 32 
0.312835 -0.335687 1.56987 12 11 6 
0.274972 0.0404127 1.3493 93 89 80 
0.26801 0.118143 1.30579 30 26 17 
0.290276 -0.0877744 1.42915 16 3 0 
0.302751 -0.202553 1.49548 126 122 111 
0.254699 0.274436 1.22242 24 17 7 
0.299791 -0.175115 1.47769 125 120 114 
0.289247 -0.0672172 1.41545 83 74 65 
0.264223 0.181604 1.27322 139 131 120 
0.270068 0.130739 1.30233 81 78 73 
0.303725 -0.19037 1.48942 99 92 84 
0.300059 -0.15599 1.46745 31 26 22 
0.311506 -0.258127 1.53076 5 0 0 
0.289399 -0.0339011 1.40043 99 89 80 
0.293149 -0.0764534 1.42125 98 89 82 
0.284848 0.00789864 1.37475 90 86 77 
0.299185 -0.118805 1.45061 7 0 0 
0.27243 0.141334 1.30084 8 3 0 
0.291694 -0.0426461 1.40808 107 98 93 
0.278989 0.0801186 1.334 109 104 98 
0.303221 -0.145729 1.46852 117 110 102 
0.318206 -0.277496 1.54881 134 127 119 
0.258249 0.290343 1.21556 127 119 116 
0.251146 0.363353 1.17594 30 23 13 
0.253307 0.338901 1.18785 27 23 14 
0.266886 0.201014 1.2627 11 3 1 
0.303648 -0.135341 1.46377 81 80 75 
0.324922 -0.330551 1.57928 23 19 10 
0.285195 0.0359072 1.35924 78 71 65 
0.263024 0.260507 1.23675 14 5 0 
0.292061 -0.0233357 1.39657 99 95 84 
0.307546 -0.168757 1.48087 88 81 73 
0.259421 0.302005 1.21038 107 100 94 
0.258229 0.322289 1.19999 94 90 81 
0.315176 -0.213646 1.512 51 47 38 
0.300763 -0.0786644 1.43148 53 49 40 
0.30077 -0.0632391 1.42412 80 76 65 
0.310929 -0.158058 1.47906 89 84 80 
0.277545 0.151172 1.29724 45 36 29 
0.294645 -0.00984381 1.39001 98 88 78 
0.279828 0.132922 1.30646 92 88 77 
0.299662 -0.0455854 1.41419 7 2 0 
0.289944 0.0455274 1.35914 36 29 21 
0.307946 -0.101008 1.4493 4 0 0 
0.290059 0.059178 1.35226 17 13 2 
0.25916 0.356744 1.18445 27 23 11 
0.312521 -0.133909 1.4691 103 98 94 
0.300947 -0.0223063 1.40567 18 9 0 
0.265947 0.297567 1.21753 8 3 0 
0.295176 0.0330457 1.36991 47 36 30 
0.278913 0.185693 1.28254 62 54 43 
0.285502 0.122343 1.31719 84 78 66 
0.267568 0.309094 1.21531 124 120 111 
0.310459 -0.0778475 1.44152 113 109 100 
0.284601 0.158434 1.30086 24 20 11 
0.331166 -0.236561 1.54357 99 96 89 
0.291922 0.101689 1.33332 7 3 0 
0.309792 -0.045767 1.42229 107 98 91 
0.315474 -0.0918578 1.45053 38 29 24 
0.3316 -0.216577 1.53367 96 92 83 
0.321407 -0.124236 1.4765 31 22 13 
0.293176 0.110804 1.32836 21 12 3 
0.310131 -0.0281918 1.41647 111 104 96 
0.327013 -0.175241 1.5046 94 85 78 
0.272291 0.328377 1.20694 21 18 11 
0.269275 0.35826 1.19076 33 29 20 
0.317108 -0.0496574 1.43387 117 108 99 
0.307176 0.0311978 1.38185 96 87 78 
0.314374 -0.0168599 1.41396 24 20 11 
0.275396 0.316712 1.21315 44 44 32 
0.298395 0.123525 1.32906 30 23 13 
0.304017 0.0778727 1.35693 119 109 99 
0.280317 0.290918 1.23323 57 52 46 
0.295321 0.1627 1.30683 31 18 10 
0.299241 0.133911 1.32618 69 62 52 
0.292769 0.21381 1.28809 89 75 74 
0.313871 0.0206478 1.39182 88 79 72 
0.295229 0.190217 1.29275 3 1 0 
0.305228 0.115066 1.33854 5 0 0 
0.312082 0.0685769 1.36888 33 23 13 
0.315692 0.0431215 1.38578 93 83 74 
0.325829 -0.0364863 1.43544 35 26 19 
0.274616 0.395325 1.1771 107 103 94 
0.332378 -0.0690116 1.45929 119 112 102 
0.322881 0.0150709 1.40578 6 0 0 
0.286538 0.317181 1.22524 43 36 26 
0.29002 0.285721 1.23998 134 125 110 
0.297555 0.23702 1.2766 123 111 95 
0.280125 0.383051 1.18749 45 41 32 
0.307469 0.164752 1.31626 127 117 105 
0.320582 0.0730041 1.37412 17 7 0 
0.297054 0.27662 1.25696 31 27 18 
0.335863 -0.0352527 1.44636 127 117 108 
0.285029 0.37534 1.19445 112 105 95 
0.3217 0.0959284 1.3657 132 123 114 
0.335128 -0.00487833 1.42963 141 132 125 
0.307826 0.204408 1.29725 133 128 109 
0.311079 0.18712 1.30995 17 7 0 
0.291713 0.352217 1.2121 59 55 43 
0.313616 0.177797 1.31608 140 133 117 
0.302765 0.290721 1.25156 143 136 120 
0.335747 0.0486611 1.40356 7 0 0 
0.333847 0.0663865 1.39443 8 0 0 
0.298742 0.339031 1.22475 32 28 17 
0.302953 0.314611 1.23933 42 38 27 
0.310329 0.258718 1.27202 137 127 115 
0.317607 0.221928 1.30015 139 128 100 
0.304375 0.331531 1.2355 39 30 21 
0.311195 0.292693 1.25998 53 44 27 
0.313737 0.274564 1.26862 111 101 89 
0.318547 0.240038 1.29087 136 127 110 
0.305735 0.350683 1.22544 33 24 15 
0.317622 0.259211 1.28039 125 118 108 
0.325896 0.201459 1.31827 110 106 95 
0.335658 0.129532 1.36295 108 99 92 
0.304683 0.362152 1.21965 20 16 5 
0.324007 0.220234 1.30801 109 101 90 
0.317685 0.30828 1.256 45 42 33 
0.334876 0.192064 1.33371 51 45 33 
0.316578 0.322816 1.249 35 32 23 
0.326367 0.310913 1.26499 132 128 119 
0.332058 0.26922 1.28895 26 16 6 
0.326273 0.333047 1.25613 117 109 98 
0.328983 0.378341 1.23331 106 98 87 
0.344256 0.28847 1.293 82 72 60 
0.340598 0.350848 1.25912 137 131 119 
0.33796 0.377702 1.24569 71 65 49 
-0.23055 0.478429 1.32971 42 39 34 
-0.230614 0.468552 1.34523 98 93 89 
-0.225256 0.453446 1.31739 19 14 11 
-0.210373 0.472748 1.25512 102 97 93 
-0.207743 0.481109 1.24222 117 107 98 
-0.205228 0.359095 1.31161 29 24 20 
-0.194731 0.439786 1.27197 166 104 3 
-0.187212 0.513171 1.22789 1 0 0 
-0.18597 0.50207 1.23015 6 0 2 
-0.197255 0.340627 1.30359 1 0 0 
-0.206453 0.146762 1.52905 108 99 94 
-0.20115 0.21439 1.45475 112 108 97 
-0.185562 0.45137 1.25387 6 12 12 
-0.193021 0.323445 1.29997 98 98 90 
-0.19694 0.18288 1.47335 17 6 0 
-0.219759 -0.202181 1.80406 79 77 78 
-0.20072 0.11015 1.53071 96 93 84 
-0.198525 0.128279 1.50963 23 16 8 
-0.207755 -0.0427333 1.66251 15 4 0 
-0.19651 0.150762 1.48432 54 50 41 
-0.177051 0.477203 1.22356 73 77 80 
-0.203469 0.0259618 1.58511 8 4 0 
-0.219761 -0.25216 1.75005 115 112 107 
-0.179542 0.414314 1.26411 51 52 47 
-0.187932 0.288181 1.31663 70 63 55 
-0.177424 0.433786 1.24042 105 98 72 
-0.190624 0.182787 1.44498 19 14 8 
-0.220921 -0.328725 1.8125 88 87 85 
-0.205855 -0.0952372 1.68065 112 108 99 
-0.213934 -0.225196 1.74409 78 74 71 
-0.214936 -0.272034 1.75324 18 14 13 
-0.19517 0.049446 1.54166 11 7 6 
-0.188311 0.16295 1.4558 88 83 77 
-0.191056 0.11212 1.49622 7 0 0 
-0.17383 0.419823 1.24732 19 18 16 
-0.19998 -0.0732432 1.64131 10 10 0 
-0.18594 0.181164 1.42784 17 13 10 
-0.170571 0.43999 1.23135 115 117 103 
-0.198659 -0.0895097 1.64736 14 5 0 
-0.193722 -0.00373936 1.56892 122 115 105 
-0.209527 -0.278321 1.72941 82 81 77 
-0.210803 -0.309048 1.75333 71 70 66 
-0.174297 0.310511 1.36116 105 99 87 
-0.19772 -0.114175 1.64429 103 98 92 
-0.164332 0.497118 1.19179 112 111 119 
-0.166165 0.46416 1.21279 34 38 41 
-0.188221 0.0597327 1.49632 44 34 33 
-0.169947 0.397412 1.24878 35 41 37 
-0.209486 -0.327347 1.76333 82 81 77 
-0.185369 0.107084 1.46516 95 90 87 
-0.192822 -0.0463902 1.58833 110 105 99 
-0.17193 0.346074 1.28831 101 102 104 
-0.167668 0.413689 1.23907 24 24 24 
-0.169554 0.376026 1.26359 39 43 44 
-0.185026 0.0772257 1.49258 93 88 84 
-0.190198 -0.0294049 1.57933 64 55 48 
-0.201233 -0.243123 1.74164 85 81 78 
-0.180121 0.151616 1.43089 25 24 20 
-0.20961 -0.374536 1.74773 125 122 115 
-0.206899 -0.34422 1.75783 96 92 89 
-0.195537 -0.192432 1.69536 95 90 86 
-0.1769 0.172266 1.4176 19 14 11 
-0.196877 -0.222651 1.71553 105 98 90 
-0.185631 -0.00349728 1.54426 106 105 101 
-0.163326 0.425342 1.2252 95 98 87 
-0.18957 -0.0764853 1.57376 89 80 73 
-0.16454 0.402111 1.23923 148 146 147 
-0.192982 -0.163604 1.66297 17 16 11 
-0.186967 -0.0650314 1.59278 54 50 41 
-0.188631 -0.0980903 1.61691 33 24 17 
-0.159287 0.466825 1.19696 34 35 30 
-0.176719 0.113485 1.45265 37 28 29 
-0.18121 0.0165499 1.51706 86 83 78 
-0.179791 0.0352965 1.50969 103 99 96 
-0.192761 -0.227487 1.69931 20 17 12 
-0.190466 -0.181114 1.66325 112 111 107 
-0.157379 0.479987 1.18737 19 19 29 
-0.196307 -0.279094 1.70019 90 89 85 
-0.199052 -0.354556 1.75121 68 67 65 
-0.19358 -0.254968 1.69348 6 5 3 
-0.181327 -0.0234657 1.5463 99 94 91 
-0.180841 -0.0129881 1.53594 115 112 107 
-0.19905 -0.348981 1.73257 82 82 80 
-0.186679 -0.137572 1.63188 32 30 31 
-0.175169 0.0992293 1.45665 3 3 1 
-0.187586 -0.165928 1.65178 30 26 23 
-0.185254 -0.121674 1.61448 108 101 95 
-0.189808 -0.239926 1.7011 97 96 91 
-0.192969 -0.283094 1.68767 2 1 0 
-0.15593 0.437649 1.20233 45 44 40 
-0.154535 0.462087 1.18773 36 34 45 
-0.179398 -0.0635129 1.55926 21 14 4 
-0.185169 -0.198814 1.6564 113 111 99 
-0.154562 0.44569 1.19344 39 39 39 
-0.15962 0.341155 1.26369 83 91 102 
-0.19607 -0.420051 1.78976 123 116 106 
-0.182052 -0.149406 1.62536 4 0 0 
-0.186241 -0.242109 1.68541 6 4 7 
-0.172662 0.0299272 1.49305 80 76 73 
-0.179908 -0.136404 1.62246 25 20 14 
-0.173901 -0.00192151 1.51492 98 94 95 
-0.182121 -0.179705 1.63722 94 91 86 
-0.154697 0.395059 1.23466 50 48 51 
-0.160104 0.311687 1.25601 107 103 94 
-0.154544 0.3652 1.24139 14 18 21 
-0.152459 0.410607 1.20908 41 36 30 
-0.17688 -0.123668 1.57718 91 84 76 
-0.178406 -0.17417 1.6253 38 34 31 
-0.154655 0.355338 1.2475 113 116 121 
-0.168402 0.0515303 1.46028 102 91 85 
-0.189443 -0.481668 1.90106 80 80 72 
-0.174793 -0.101558 1.57404 92 84 73 
-0.163487 0.127514 1.4311 110 103 87 
-0.166649 0.0716879 1.44676 44 40 39 
-0.149199 0.43466 1.19322 86 98 86 
-0.178487 -0.237233 1.67527 11 7 4 
-0.188343 -0.406472 1.74025 65 57 46 
-0.182596 -0.294955 1.66827 73 69 68 
-0.169863 -0.0445819 1.52866 96 93 86 
-0.166904 0.0228757 1.47756 32 28 29 
-0.180915 -0.283272 1.66963 1 2 4 
-0.176278 -0.20548 1.6379 112 108 105 
-0.185375 -0.457775 1.84822 114 110 99 
-0.170852 -0.0927715 1.5609 89 87 74 
-0.186491 -0.388416 1.70039 36 32 21 
-0.148035 0.423483 1.19505 67 85 71 
-0.170149 -0.105103 1.55929 7 0 0 
-0.150495 0.342067 1.24712 130 134 146 
-0.149144 0.357734 1.2349 37 43 43 
-0.148635 0.366648 1.22507 29 29 29 
-0.161888 0.0367042 1.46367 91 84 78 
-0.151283 0.311064 1.2422 128 119 112 
-0.163686 -0.0219188 1.50412 23 18 15 
-0.177532 -0.327454 1.67499 100 95 91 
-0.161404 0.00246445 1.48856 31 26 23 
-0.171484 -0.252094 1.66635 25 22 17 
-0.169248 -0.188788 1.6139 1 0 0 
-0.177496 -0.345017 1.68481 81 80 76 
-0.16252 -0.047165 1.51532 35 32 27 
-0.177674 -0.368695 1.69191 79 78 74 
-0.176164 -0.472399 1.85663 28 24 15 
-0.176315 -0.46609 1.84404 123 119 110 
-0.177111 -0.402098 1.70101 116 111 107 
-0.166417 -0.218733 1.63733 1 0 0 
-0.151711 0.136097 1.40197 29 25 26 
-0.168663 -0.265155 1.66046 83 80 73 
-0.167746 -0.250103 1.65202 7 3 2 
-0.164096 -0.158272 1.5789 95 86 87 
-0.161511 -0.125359 1.55588 96 87 82 
-0.169282 -0.287244 1.64071 88 87 85 
-0.16501 -0.254158 1.63827 12 11 7 
-0.168365 -0.307479 1.64608 1 0 0 
-0.157825 -0.0822156 1.51981 101 94 86 
-0.152582 0.0348682 1.45055 21 20 15 
-0.143342 0.316251 1.22673 110 101 92 
-0.154429 -0.0144459 1.47718 91 88 83 
-0.149638 0.106947 1.39385 104 95 80 
-0.162092 -0.24119 1.63903 8 4 3 
-0.159346 -0.196906 1.60123 102 99 92 
-0.166142 -0.333959 1.6575 15 6 7 
-0.157878 -0.17823 1.59338 77 73 70 
-0.164939 -0.507474 1.88703 115 110 106 
-0.16088 -0.281069 1.63532 8 6 9 
-0.151626 -0.0602641 1.50428 38 28 26 
-0.161886 -0.292956 1.62976 96 95 91 
-0.152108 -0.110057 1.53293 103 95 84 
-0.156574 -0.256508 1.63072 58 57 55 
-0.149869 -0.0752097 1.51022 117 110 104 
-0.16081 -0.504767 1.87054 46 41 38 
-0.164043 -0.417753 1.69248 43 39 28 
-0.157297 -0.276403 1.62378 89 89 87 
-0.154128 -0.228852 1.61012 105 105 97 
-0.131765 0.42119 1.15141 93 92 88 
-0.151104 -0.1871 1.58212 8 3 0 
-0.15185 -0.214026 1.60113 24 23 19 
-0.149481 -0.159992 1.56136 120 117 108 
-0.15916 -0.380117 1.66917 95 91 88 
-0.151796 -0.24587 1.62237 79 79 71 
-0.147089 -0.125919 1.53483 110 100 88 
-0.145357 -0.0887555 1.50841 40 30 18 
-0.149177 -0.208367 1.58982 59 56 51 
-0.154057 -0.560892 1.92899 116 111 105 
-0.155142 -0.337815 1.63945 94 86 84 
-0.142677 -0.041539 1.47976 4 0 0 
-0.136363 0.098307 1.39771 134 131 114 
-0.135761 0.119592 1.38177 90 81 76 
-0.148269 -0.234951 1.60121 15 12 7 
-0.134543 0.204269 1.28822 82 82 72 
-0.12713 0.440742 1.12245 48 45 40 
-0.142522 -0.110752 1.5158 111 103 92 
-0.151097 -0.319747 1.6267 7 2 0 
-0.143391 -0.14586 1.52946 82 73 68 
-0.142268 -0.152364 1.54275 12 5 0 
-0.144934 -0.265215 1.61879 77 76 72 
-0.149085 -0.316162 1.61464 60 56 53 
-0.148259 -0.332435 1.62797 117 111 111 
-0.144075 -0.282926 1.63213 1 0 0 
-0.134478 0.00762233 1.44642 71 61 60 
-0.137823 -0.0748806 1.48187 42 37 33 
-0.135178 -0.0307304 1.46845 10 5 2 
-0.122729 0.48053 1.08165 72 68 67 
-0.139626 -0.169006 1.54983 33 28 24 
-0.142345 -0.258197 1.60796 109 108 106 
-0.12889 0.146413 1.35016 97 93 92 
-0.147426 -0.367851 1.64446 99 96 91 
-0.137891 -0.120226 1.49924 100 91 76 
-0.136084 -0.101361 1.50209 14 5 0 
-0.132496 -0.00143748 1.43998 87 77 75 
-0.140955 -0.634215 2.00123 231 231 231 
-0.140419 -0.276121 1.62173 3 0 0 
-0.136219 -0.121571 1.51121 102 93 78 
-0.139048 -0.223698 1.57971 117 114 109 
-0.133272 -0.0464326 1.47022 4 0 0 
-0.126375 0.241601 1.25424 123 118 112 
-0.136743 -0.190488 1.5604 41 36 32 
-0.138812 -0.286944 1.62178 70 66 63 
-0.133185 -0.111016 1.50631 12 4 2 
-0.142386 -0.355145 1.63133 10 7 2 
-0.120083 0.337609 1.18812 4 0 0 
-0.118362 0.390446 1.15226 97 93 90 
-0.125651 0.00729994 1.42606 17 9 7 
-0.133957 -0.6894 2.00321 104 105 99 
-0.131873 -0.280184 1.61004 81 76 70 
-0.11863 0.199339 1.30017 5 0 1 
-0.127266 -0.133298 1.51693 14 5 0 
-0.125447 -0.0633872 1.45786 13 8 5 
-0.12085 0.0421002 1.40316 75 69 69 
-0.116051 0.225475 1.28509 95 88 80 
-0.120527 0.0539787 1.39247 8 3 0 
-0.122294 -0.0310629 1.45124 79 68 66 
-0.126932 -0.214068 1.56239 87 86 82 
-0.113056 0.46676 1.07796 101 101 93 
-0.12651 -0.188615 1.54186 110 102 99 
-0.121881 -0.014407 1.42799 91 86 80 
-0.133726 -0.396339 1.64285 76 73 68 
-0.131401 -0.353789 1.61667 15 11 8 
-0.128305 -0.724093 2.00554 64 65 60 
-0.121965 -0.0585386 1.4482 42 38 29 
-0.124638 -0.607403 1.92733 111 107 96 
-0.128491 -0.318348 1.59811 53 52 50 
-0.121453 -0.157209 1.5177 100 95 89 
-0.120183 -0.140216 1.51031 100 92 89 
-0.122876 -0.258099 1.58492 1 0 0 
-0.122119 -0.225559 1.56145 87 86 81 
-0.115128 0.0455758 1.39412 86 82 81 
-0.109098 0.457944 1.08362 5 1 0 
-0.124932 -0.296542 1.58839 4 4 4 
-0.1098 0.367022 1.15713 4 0 1 
-0.128661 -0.450289 1.68127 136 128 117 
-0.108922 0.444346 1.09033 30 25 19 
-0.120365 -0.215372 1.55244 17 13 10 
-0.110401 0.119197 1.3416 85 80 76 
-0.119612 -0.756265 2.0097 79 79 69 
-0.105849 0.4356 1.1011 5 0 0 
-0.114063 -0.0949214 1.47168 10 5 2 
-0.10643 0.339358 1.16948 33 28 25 
-0.115054 -0.650858 1.9481 100 93 83 
-0.12067 -0.325552 1.58826 6 6 4 
-0.111691 -0.0734466 1.45306 19 18 13 
-0.111777 -0.125661 1.49304 28 27 25 
-0.102759 0.42465 1.1149 15 7 4 
-0.115947 -0.282786 1.57825 3 2 7 
-0.102155 0.412728 1.12128 11 3 0 
-0.113017 -0.217758 1.5424 35 32 25 
-0.119466 -0.459773 1.67009 59 55 46 
-0.110348 -0.659936 1.94251 65 51 51 
-0.106403 0.0388127 1.38638 5 0 0 
-0.102624 0.321454 1.18265 28 19 10 
-0.110285 -0.67787 1.94854 96 78 78 
-0.119217 -0.410699 1.61786 72 69 62 
-0.116855 -0.400142 1.62876 90 87 80 
-0.111057 -0.237528 1.55402 76 75 71 
-0.102198 0.328674 1.17046 10 7 0 
-0.105624 0.000199276 1.40667 83 77 77 
-0.109382 -0.196971 1.53192 88 84 81 
-0.103485 0.112712 1.33416 89 86 81 
-0.117465 -0.424063 1.62451 39 37 24 
-0.109459 -0.261859 1.57339 89 85 84 
-0.10987 -0.273465 1.57669 3 0 0 
-0.10644 -0.0911518 1.46068 8 3 0 
-0.103944 0.0214062 1.39182 68 63 57 
-0.10416 -0.0453329 1.43406 105 100 97 
-0.0975827 0.50007 1.0475 115 108 102 
-0.105139 -0.699915 1.954 99 81 79 
-0.0997238 0.141426 1.31548 24 23 18 
-0.103367 -0.618071 1.89922 42 39 30 
-0.0971437 0.367327 1.15298 102 94 91 
-0.0966887 0.388773 1.13458 105 96 89 
-0.0967197 0.430384 1.09515 39 35 26 
-0.0964437 0.477693 1.05894 92 89 80 
-0.100882 -0.0093281 1.39813 77 72 69 
-0.109146 -0.37271 1.60446 106 103 98 
-0.103266 -0.804299 2.01542 224 225 220 
-0.108719 -0.349328 1.58859 82 78 75 
-0.0963456 0.169364 1.29814 70 63 55 
-0.0954774 0.44691 1.07899 85 80 74 
-0.0989593 -0.675418 1.9377 43 17 16 
-0.0986651 -0.630309 1.89988 111 106 100 
-0.0926567 0.262318 1.24164 86 82 79 
-0.100604 -0.198416 1.52407 91 86 82 
-0.0995011 -0.752217 1.97343 48 41 31 
-0.102318 -0.518381 1.75348 101 97 94 
-0.0985201 -0.113936 1.46908 9 8 6 
-0.0938008 0.46153 1.06125 79 76 67 
-0.0931039 0.37598 1.13603 9 0 0 
-0.108717 -0.425241 1.60175 138 135 120 
-0.0994631 -0.160126 1.48795 87 79 76 
-0.0930408 0.157681 1.3036 104 96 93 
-0.0964724 -0.051762 1.42533 12 7 4 
-0.0948263 -0.721841 1.95853 56 41 36 
-0.0915775 0.347539 1.15622 94 89 85 
-0.0905591 0.419892 1.10632 28 24 15 
-0.0893866 0.294292 1.21059 3 0 0 
-0.0912985 0.326648 1.16649 10 6 3 
-0.0977466 -0.260248 1.54309 95 94 92 
-0.0964632 -0.237851 1.53713 91 88 83 
-0.0939707 -0.749248 1.95329 95 86 79 
-0.0946372 -0.128381 1.468 106 98 95 
-0.0955821 -0.279953 1.56976 15 14 10 
-0.0941795 -0.138554 1.47559 4 0 0 
-0.0926138 -0.777451 1.97498 52 45 35 
-0.0878543 0.227181 1.25243 20 15 12 
-0.0897237 -0.721276 1.93991 23 10 2 
-0.0862627 0.283258 1.21726 102 99 92 
-0.0880215 -0.75645 1.97166 22 13 6 
-0.0922464 -0.204929 1.51479 5 0 0 
-0.0871898 0.42991 1.0896 122 118 109 
-0.0893668 -0.599507 1.83446 29 24 20 
-0.0911101 -0.173773 1.49586 81 77 74 
-0.0855071 0.382733 1.12763 66 63 58 
-0.0850786 0.118674 1.32334 88 85 76 
-0.0848526 -0.661973 1.89805 57 42 37 
-0.0859748 0.3378 1.1509 86 81 75 
-0.0845152 0.18674 1.27534 113 103 94 
-0.0908118 -0.294696 1.56556 12 8 0 
-0.0893727 -0.169821 1.48514 3 0 0 
-0.0851879 0.439697 1.0754 130 125 121 
-0.0830347 0.198199 1.26788 8 0 0 
-0.0920354 -0.339401 1.573 76 72 71 
-0.0905227 -0.326288 1.55833 1 2 4 
-0.0901152 -0.352126 1.57268 7 6 1 
-0.0789568 -0.677477 1.91002 26 5 2 
-0.085439 -0.234137 1.5242 9 5 2 
-0.0805743 0.37261 1.12937 15 8 2 
-0.0832792 -0.136936 1.46298 87 82 79 
-0.0874779 -0.376486 1.58558 7 3 0 
-0.0870633 -0.389372 1.59061 111 107 98 
-0.0792651 0.314108 1.16793 77 72 68 
-0.0803548 0.42075 1.08294 45 36 29 
-0.0797968 0.40637 1.09797 23 19 10 
-0.0777503 -0.607609 1.82204 108 103 97 
-0.081027 -0.0534193 1.40451 93 90 85 
-0.0781591 0.30416 1.17751 102 99 90 
-0.0816605 -0.531373 1.72547 51 48 39 
-0.0800243 -0.108233 1.44592 22 19 14 
-0.0779185 0.32361 1.16405 1 0 0 
-0.0791336 -0.0851195 1.43469 8 0 0 
-0.0740996 -0.694109 1.9019 98 80 80 
-0.0745434 -0.672736 1.87892 10 0 0 
-0.0845203 -0.344824 1.56134 21 17 14 
-0.0799695 -0.273114 1.55167 10 6 5 
-0.0781866 0.484368 1.04111 92 86 74 
-0.0743418 -0.619215 1.83574 107 102 98 
-0.0787991 -0.169373 1.48231 8 7 5 
-0.0772131 0.326499 1.1497 3 0 0 
-0.0729783 -0.693515 1.88327 116 105 99 
-0.0716774 -0.713693 1.90558 33 20 12 
-0.0773664 0.45828 1.05346 111 103 90 
-0.0782551 -0.293022 1.55675 78 75 70 
-0.0753631 0.0411911 1.35064 105 101 98 
-0.0722572 0.267011 1.217 4 0 0 
-0.0740058 0.386005 1.12119 88 80 77 
-0.0756548 0.441232 1.06342 67 61 49 
-0.0792472 -0.33695 1.55514 3 1 2 
-0.075231 -0.17926 1.48081 78 77 73 
-0.0748797 -0.11529 1.43901 90 89 85 
-0.0744593 -0.0668769 1.40834 77 69 66 
-0.0749076 -0.255884 1.5291 103 99 96 
-0.0728036 -0.0424431 1.39838 89 86 81 
-0.0705567 0.203698 1.25279 4 0 0 
-0.0722684 -0.199405 1.493 96 91 87 
-0.0751992 -0.327262 1.55124 80 76 73 
-0.0761681 -0.404253 1.58891 102 98 95 
-0.0719116 -0.23629 1.51059 14 10 7 
-0.0756792 -0.438697 1.5904 132 126 114 
-0.0685796 0.35956 1.13273 23 20 15 
-0.0677571 -0.0552868 1.40148 4 1 0 
-0.065956 0.00538759 1.36819 94 90 89 
-0.0664568 0.311973 1.16145 21 18 13 
-0.0649301 -0.186486 1.4824 39 35 32 
-0.0588544 -0.62792 1.80283 38 35 30 
-0.0663509 -0.310319 1.5412 75 68 62 
-0.0646639 -0.299821 1.54375 4 4 6 
-0.0719224 0.508231 0.974751 69 60 55 
-0.0588775 -0.616102 1.78708 27 22 18 
-0.0624431 0.0230486 1.35487 20 15 12 
-0.0631041 0.392828 1.11236 133 124 119 
-0.0546155 -0.665025 1.84115 22 21 16 
-0.0639095 -0.281006 1.52568 90 89 85 
-0.0630481 -0.162206 1.45739 100 96 85 
-0.062362 -0.262083 1.51956 84 83 79 
-0.0629846 0.412488 1.09088 19 15 6 
-0.0604172 0.124684 1.28929 90 83 73 
-0.0526991 -0.736765 1.88424 101 98 93 
-0.0624848 0.377497 1.11433 26 24 12 
-0.0597022 -0.558052 1.71137 52 47 41 
-0.0596805 -0.128844 1.44246 82 81 77 
-0.0596842 -0.233584 1.50655 14 6 3 
-0.057246 0.109023 1.29782 46 38 35 
-0.057277 0.0501047 1.3324 72 73 68 
-0.0602974 0.329738 1.13882 18 15 6 
-0.0572848 -0.200314 1.48196 78 75 68 
-0.0556174 0.260096 1.20802 35 33 34 
-0.0582153 -0.347922 1.54702 64 63 59 
-0.0545813 0.208854 1.236 14 11 6 
-0.0549118 -0.08644 1.40847 28 25 20 
-0.0462677 -0.642003 1.79706 96 96 86 
-0.0589043 0.453099 1.04874 115 108 98 
-0.0569092 0.403981 1.0901 98 94 83 
-0.0413914 -0.690439 1.85307 99 97 85 
-0.0526118 -0.126788 1.42905 65 64 60 
-0.0488114 -0.578588 1.72047 108 104 95 
-0.0431785 -0.653739 1.80357 117 115 103 
-0.0555068 -0.425397 1.57476 1 0 2 
-0.0517332 -0.100485 1.41214 88 84 81 
-0.0230473 -0.852602 2.04263 54 44 35 
-0.0604195 0.485702 0.982083 1 0 0 
-0.0366468 -0.669241 1.82067 127 119 108 
-0.0470917 -0.0653612 1.39443 87 84 75 
-0.0463264 -0.197772 1.47312 91 88 83 
-0.0465166 0.252908 1.2109 76 71 67 
-0.020404 -0.825432 1.99814 51 40 34 
-0.0522156 0.488669 1.02079 142 134 123 
-0.0340981 -0.628848 1.77192 33 28 24 
-0.0448833 0.237171 1.20779 94 87 81 
-0.0459535 0.294169 1.16486 114 105 100 
-0.0440549 -0.401797 1.56618 122 119 110 
-0.0409331 -0.309058 1.53581 23 22 18 
-0.0421578 -0.161156 1.44404 20 16 15 
-0.0209155 -0.793937 1.94802 110 107 102 
-0.0433363 0.173079 1.24432 4 0 0 
-0.0406554 -0.174231 1.45503 93 90 85 
-0.0457278 0.343149 1.12666 27 17 16 
-0.0379473 -0.297104 1.5276 48 45 40 
-0.0399286 0.015424 1.33922 85 80 77 
-0.0276643 -0.637692 1.78116 29 28 23 
-0.0440258 0.327909 1.13358 137 132 126 
-0.037916 -0.109476 1.41436 10 9 5 
-0.0385693 -0.3626 1.53694 15 8 0 
-0.00241457 -0.915071 2.09128 98 95 90 
-0.0288966 -0.567227 1.70757 98 95 88 
-0.0232243 -0.649469 1.78521 88 85 78 
-0.0335005 -0.28296 1.51439 45 42 37 
-0.0165633 -0.716897 1.85928 112 104 93 
-0.0147096 -0.740125 1.87249 43 33 23 
-0.0341953 0.126277 1.27556 24 19 13 
-0.0332423 0.139241 1.27482 7 2 0 
-0.0342455 -0.338259 1.51787 3 4 8 
-0.0424804 0.485871 1.02225 47 41 27 
-0.0295418 -0.30262 1.52284 110 106 103 
-0.028257 -0.512947 1.63913 60 51 44 
-0.0302669 -0.484173 1.60669 120 113 107 
-0.0481622 0.48009 0.977238 35 30 24 
-0.0224045 -0.556537 1.69796 24 23 19 
-0.0287795 -0.244374 1.48328 85 81 78 
-0.0321164 0.244576 1.20399 26 19 11 
-0.0192369 -0.574759 1.71152 94 88 90 
-0.0120169 -0.679549 1.81468 106 105 100 
-0.029108 -0.35274 1.52901 62 59 52 
-0.0176156 -0.589351 1.72945 94 91 86 
0.0056639 -0.886908 2.03569 54 47 37 
-0.0264512 -0.39066 1.55214 7 2 0 
-0.0366402 0.418498 1.06446 105 100 94 
-0.0235163 -0.286383 1.50796 86 81 78 
-0.0248819 -0.121227 1.41403 4 0 0 
-0.0117849 -0.613368 1.74892 114 111 102 
-0.00968968 -0.63316 1.76925 107 103 92 
-0.0274651 0.15329 1.24897 99 95 84 
-0.0271519 0.203432 1.22255 9 4 0 
-0.00761579 -0.644265 1.7783 117 110 100 
-0.0213658 -0.268441 1.49535 15 12 5 
-0.0307265 0.367738 1.10551 99 94 90 
-0.0330147 0.409095 1.06854 29 24 21 
-0.0213471 -0.373379 1.53201 35 31 22 
0.00238584 -0.734208 1.8653 118 115 106 
0.00557335 -0.782961 1.90873 113 104 97 
-0.00288109 -0.616939 1.75301 109 106 99 
0.0163362 -0.858751 1.99254 132 124 111 
-0.0309999 0.421513 1.05335 17 9 6 
0.00222746 -0.668693 1.80409 103 98 95 
-0.0255255 0.309431 1.1397 5 2 0 
-0.0255676 0.360054 1.10975 24 17 7 
-0.0135863 -0.222699 1.46882 103 100 95 
-0.0254065 0.398897 1.07972 99 95 86 
0.00267012 -0.594769 1.73341 28 25 20 
-0.0265796 0.414675 1.0599 18 11 5 
-0.0199568 0.284528 1.16161 97 93 82 
0.0116709 -0.707279 1.83865 120 113 105 
-0.0100787 -0.343181 1.52079 62 59 52 
-0.0250294 0.480249 1.0201 32 23 14 
-0.0065318 -0.234836 1.46712 90 87 80 
0.0224668 -0.774231 1.89866 103 96 90 
0.0103417 -0.590504 1.71572 28 27 23 
0.0252274 -0.765304 1.88585 24 20 11 
0.0290308 -0.789209 1.91787 49 40 33 
0.0189917 -0.680562 1.80485 110 106 97 
0.0350956 -0.836111 1.96396 47 44 39 
0.0174111 -0.625922 1.75754 46 42 30 
0.0333203 -0.818512 1.94169 98 95 90 
-0.0173592 0.409693 1.06555 85 74 72 
0.00408478 -0.498286 1.61282 26 22 11 
-0.0104905 0.267732 1.17021 40 33 25 
0.0289171 -0.745512 1.87345 39 36 31 
0.0418854 -0.886133 2.01451 52 41 35 
-0.00952042 0.283559 1.1642 125 120 114 
0.0152231 -0.565369 1.69891 63 60 55 
0.028989 -0.717613 1.84346 124 121 116 
5.6724e-05 -0.0292959 1.351 86 83 78 
0.0229898 -0.616993 1.74926 110 106 94 
0.0379525 -0.781326 1.91025 97 89 86 
-0.00998914 0.320237 1.12605 104 99 93 
-0.0108065 0.38698 1.08265 84 80 69 
0.0420819 -0.760239 1.88279 109 107 95 
0.00923251 -0.365089 1.51421 22 17 13 
0.0261707 -0.558042 1.69186 102 97 94 
0.0534258 -0.84986 1.97555 38 33 27 
0.0314048 -0.598102 1.72692 115 115 105 
-0.0192764 0.48996 0.959003 16 9 0 
0.0395964 -0.681702 1.80741 126 120 108 
-0.00427951 0.313365 1.1204 36 27 22 
-0.00271911 0.358262 1.1035 5 0 0 
0.0507736 -0.769691 1.89195 119 110 101 
-0.00843285 0.453608 1.02247 14 4 3 
0.0187308 -0.132141 1.40951 96 92 89 
0.0467171 -0.679654 1.79768 122 118 107 
0.045316 -0.630587 1.7601 25 21 18 
-0.0136094 0.477855 0.961368 63 58 52 
0.0242517 -0.275765 1.48971 10 7 2 
0.010224 0.173221 1.21537 84 79 73 
0.0390679 -0.555941 1.67738 85 80 76 
-0.00341571 0.476115 1.00896 23 14 7 
0.0510087 -0.665447 1.78633 135 129 117 
0.028256 -0.326393 1.5188 71 66 63 
0.0591347 -0.754581 1.86575 76 69 61 
0.0046161 0.366998 1.08954 84 74 73 
0.0595449 -0.715376 1.83878 38 34 31 
0.0723422 -0.83275 1.95432 36 32 21 
0.0244463 0.0106315 1.34251 26 0 0 
0.00721635 0.318739 1.11759 99 92 86 
0.0149943 0.213719 1.2024 10 1 0 
0.0551156 -0.656933 1.77617 117 114 105 
0.0551774 -0.640727 1.75954 115 115 103 
0.078459 -0.84975 1.96976 132 123 116 
0.0600551 -0.679635 1.79943 105 102 93 
0.052219 -0.591464 1.71001 109 106 99 
0.0764079 -0.774259 1.89921 104 94 84 
0.040532 -0.480872 1.58567 116 110 98 
0.0377783 -0.46578 1.55935 149 138 132 
-0.00388891 0.48442 0.957195 100 94 82 
0.0800391 -0.802702 1.91132 47 39 28 
0.0688409 -0.672602 1.78853 92 91 87 
0.00795476 0.466352 1.01071 24 17 7 
0.0780134 -0.709311 1.8232 141 141 129 
0.0310704 0.140965 1.24559 18 13 9 
0.0614091 -0.564581 1.67443 98 95 88 
0.0678046 -0.597653 1.71835 109 105 102 
0.0642338 -0.561601 1.68541 96 93 86 
0.082447 -0.729725 1.84259 115 113 100 
0.0890274 -0.777489 1.88764 56 49 39 
0.0453412 -0.118067 1.40376 38 0 0 
0.0391741 0.0691516 1.29845 196 186 177 
0.0534051 -0.465965 1.57523 127 125 112 
0.0485283 -0.396638 1.52117 21 17 16 
0.0359362 0.164757 1.22729 87 78 73 
0.0214784 0.391209 1.06638 110 105 101 
0.0836648 -0.653837 1.77123 111 107 96 
0.104914 -0.819197 1.92955 49 41 30 
0.0911032 -0.704901 1.81738 103 102 97 
0.0789845 -0.595348 1.70964 126 124 112 
0.0255596 0.363859 1.08276 161 157 148 
0.0578062 -0.330137 1.499 60 57 50 
0.113743 -0.847495 1.96631 56 47 38 
0.0633809 -0.473513 1.57433 151 139 125 
0.10462 -0.761564 1.872 65 56 47 
0.10686 -0.781015 1.88995 31 28 21 
0.11352 -0.831726 1.93943 68 64 53 
0.0733562 -0.513904 1.61801 74 70 59 
0.078137 -0.534236 1.64591 23 20 11 
0.0329655 0.337184 1.10252 109 101 99 
0.0913582 -0.638322 1.74254 29 26 19 
0.0288017 0.408352 1.0494 43 35 33 
0.115716 -0.766046 1.87252 141 131 119 
0.117903 -0.783874 1.88509 95 91 82 
0.0844236 -0.52573 1.63319 130 128 116 
0.122836 -0.800109 1.90628 43 32 26 
0.0421204 0.28995 1.12563 10 6 3 
0.0193555 0.498098 0.94333 26 21 17 
0.0667607 -0.00557212 1.32906 9 3 0 
0.110515 -0.647641 1.75508 104 95 86 
0.0573154 0.184848 1.21465 7 0 0 
0.0337771 0.418291 1.02403 35 27 24 
0.0680374 0.0134792 1.31983 9 3 0 
0.063476 0.106163 1.26206 90 81 76 
0.156021 -0.92242 2.03347 63 53 41 
0.139994 -0.831212 1.92863 50 41 32 
0.0409267 0.414511 1.03958 30 20 18 
0.128597 -0.722076 1.82434 96 88 77 
0.086629 -0.268791 1.47766 5 4 0 
0.127323 -0.706276 1.80424 83 80 73 
0.0406495 0.450222 1.01408 99 95 84 
0.0551237 0.291749 1.12472 74 70 67 
0.141413 -0.765342 1.86674 119 111 100 
0.0732237 0.0986735 1.26864 27 17 15 
0.121934 -0.616678 1.72576 67 65 50 
0.0910544 -0.207349 1.44559 63 60 55 
0.0866572 -0.148961 1.40396 12 8 5 
0.0945155 -0.261119 1.47421 95 91 90 
0.143576 -0.736606 1.83828 118 116 103 
0.154639 -0.806889 1.90867 137 129 118 
0.0568005 0.350702 1.08668 25 22 17 
0.102866 -0.479299 1.56514 140 134 120 
0.10328 -0.417204 1.53986 38 30 28 
0.124273 -0.548552 1.65684 113 109 98 
0.127341 -0.559807 1.66861 122 120 108 
0.144996 -0.671109 1.77872 36 29 23 
0.0809718 0.176401 1.22264 11 8 3 
0.0503747 0.474584 0.994627 31 22 13 
0.107729 -0.466661 1.54837 124 118 102 
0.0880134 0.10544 1.2585 34 31 24 
0.120687 -0.497348 1.59014 48 39 30 
0.118596 -0.480291 1.57205 59 57 44 
0.179284 -0.825249 1.93653 87 84 77 
0.0813119 0.231147 1.18463 7 0 0 
0.101557 -0.0935572 1.37407 106 103 98 
0.0933794 0.0453454 1.29349 98 94 83 
0.125625 -0.512697 1.60694 138 128 116 
0.095885 0.0345518 1.29867 117 110 102 
0.133727 -0.539727 1.6397 125 122 107 
0.090074 0.140565 1.23603 32 28 19 
0.0989928 0.0718557 1.29313 27 23 12 
0.105552 -0.0587179 1.35858 102 95 89 
0.0881132 0.260534 1.17942 70 64 64 
0.0968541 0.0954151 1.26613 104 99 96 
0.103734 0.043617 1.29869 104 93 89 
0.0541174 0.468601 0.959766 44 38 26 
0.112458 -0.079575 1.36657 3 0 0 
0.163587 -0.652888 1.75264 96 92 83 
0.116279 -0.127697 1.3961 34 30 29 
0.184022 -0.749838 1.86248 77 77 65 
0.0774643 0.34232 1.08807 86 81 77 
0.126649 -0.32846 1.49022 8 8 6 
0.10168 0.105568 1.2548 84 76 73 
0.168301 -0.661977 1.7576 110 106 97 
0.146053 -0.519139 1.61233 116 112 101 
0.163464 -0.57395 1.68055 48 41 35 
0.0600296 0.50788 0.937922 96 89 71 
0.116796 0.0874633 1.26978 19 13 13 
0.148881 -0.428603 1.54859 32 28 25 
0.144035 -0.366634 1.51112 1 0 0 
0.127249 -0.0285937 1.34419 4 0 0 
0.201995 -0.75213 1.84131 109 107 95 
