ply                 
format ascii 1.0    
element vertex 1276
property float x    
property float y    
property float z    
property uchar red  
property uchar green
property uchar blue 
end_header          
-0.169293 0.300516 1.26948 58 49 40 
-0.164296 -0.00364332 1.4816 23 19 18 
-0.182404 -0.34066 1.65934 85 87 84 
-0.158269 0.451586 1.19557 27 29 26 
-0.166363 -0.105667 1.54216 94 84 74 
-0.160242 0.147274 1.38965 76 75 73 
-0.169268 0.213244 1.32378 6 3 0 
-0.165092 -0.0855944 1.53082 90 81 72 
-0.157167 0.127447 1.40987 14 10 1 
-0.169214 0.179235 1.34574 91 86 82 
-0.166601 -0.157848 1.57201 79 75 72 
-0.165346 -0.164727 1.57935 20 16 13 
-0.177756 -0.301474 1.63833 15 16 11 
-0.16503 -0.0964841 1.53356 22 14 3 
-0.163647 -0.0605591 1.51305 17 13 12 
-0.167133 -0.239846 1.62206 73 75 72 
-0.156948 0.462368 1.18499 62 63 65 
-0.154216 -0.503207 1.82392 37 33 30 
-0.158431 0.391078 1.22666 137 133 132 
-0.167532 0.200475 1.32926 54 50 41 
-0.15729 0.420944 1.20972 22 27 23 
-0.160446 0.0600291 1.43844 6 2 0 
-0.163255 -0.144232 1.56397 28 23 19 
-0.158768 0.345682 1.25416 19 23 35 
-0.164011 -0.118645 1.54354 99 89 79 
-0.162868 -0.179068 1.58488 14 10 9 
-0.16437 -0.129302 1.5485 100 91 82 
-0.157745 0.370113 1.23814 144 148 149 
-0.1576 0.380339 1.23175 100 98 99 
-0.1748 -0.320803 1.6474 23 22 20 
-0.164707 0.260066 1.29077 92 88 85 
-0.154155 0.100126 1.42001 146 143 128 
-0.163079 -0.206853 1.59839 32 31 27 
-0.161918 -0.191241 1.59068 86 85 83 
-0.155501 0.435628 1.19753 18 29 21 
-0.161546 -0.0775811 1.5165 94 86 83 
-0.157319 0.333984 1.25817 94 96 95 
-0.152983 0.112308 1.41116 56 49 39 
-0.15536 0.156834 1.37467 71 67 66 
-0.155933 0.354159 1.24367 46 50 53 
-0.16205 0.302667 1.26138 96 93 84 
-0.136064 -0.585678 1.89938 43 40 31 
-0.170121 -0.282968 1.62049 90 89 87 
-0.153387 0.445169 1.18897 95 102 86 
-0.167138 -0.271543 1.62017 81 80 78 
-0.154743 0.137936 1.38319 5 5 3 
-0.170713 -0.300859 1.62837 0 0 0 
-0.155046 0.079393 1.4199 60 58 61 
-0.156868 -0.00913836 1.4721 16 15 11 
-0.155508 0.0248246 1.45294 3 0 0 
-0.15655 -0.0555768 1.49973 88 84 81 
-0.154716 0.0541155 1.43186 15 11 8 
-0.151458 0.461454 1.17626 114 116 115 
-0.158439 -0.0865746 1.51278 86 81 77 
-0.157561 -0.189386 1.57995 30 29 25 
-0.159002 -0.213592 1.59169 101 102 97 
-0.153407 0.372198 1.22759 19 23 22 
-0.158634 -0.239908 1.60884 26 27 22 
-0.173843 -0.383062 1.66435 20 20 22 
-0.16012 0.314121 1.2484 5 0 0 
-0.152124 0.405755 1.20685 39 51 41 
-0.155491 -0.071969 1.50578 30 25 22 
-0.155753 -0.0954021 1.51956 93 88 82 
-0.155662 -0.106969 1.52714 87 78 69 
-0.152043 0.381903 1.22078 155 157 156 
-0.1653 -0.277754 1.61206 18 19 21 
-0.157763 -0.203235 1.58211 90 89 85 
-0.147808 0.101615 1.40973 110 103 93 
-0.149381 0.105838 1.39923 72 68 56 
-0.153394 -0.0241821 1.4727 97 93 90 
-0.151566 0.328851 1.25042 92 93 95 
-0.151359 0.0633131 1.42051 89 85 76 
-0.165196 -0.298308 1.61856 75 75 73 
-0.157673 -0.261606 1.61277 9 13 16 
-0.14986 0.152811 1.36607 67 66 62 
-0.152798 -0.139694 1.54586 32 28 17 
-0.164726 -0.289358 1.61254 97 96 94 
-0.151791 -0.0497748 1.48975 27 24 19 
-0.157035 0.249512 1.28594 76 75 71 
-0.154654 -0.117071 1.5247 79 70 63 
-0.154021 -0.232481 1.59756 3 2 0 
-0.152856 -0.22331 1.59087 93 92 88 
-0.144219 0.0910579 1.41098 95 93 80 
-0.150456 -0.0923901 1.51045 10 9 4 
-0.152431 -0.0861051 1.50138 89 76 68 
-0.14773 0.00604671 1.45144 83 79 76 
-0.149585 -0.187118 1.56726 9 6 1 
-0.147915 -0.0465374 1.481 3 0 0 
-0.148259 -0.157493 1.54795 98 90 87 
-0.149145 -0.216254 1.5826 20 19 15 
-0.150227 -0.246847 1.59865 30 30 28 
-0.162691 -0.376603 1.6497 87 86 82 
-0.162993 -0.4146 1.67183 106 102 101 
-0.140434 0.0951812 1.40111 62 60 45 
-0.15112 0.316967 1.2364 96 93 88 
-0.153889 0.450358 1.14584 60 56 45 
-0.142513 0.203806 1.32727 70 66 67 
-0.147615 -0.141759 1.5325 9 4 0 
-0.143728 0.0582513 1.4153 101 95 95 
-0.144311 -0.0253739 1.46541 86 82 79 
-0.146754 -0.172968 1.55226 90 89 87 
-0.14408 0.0481448 1.41901 47 43 40 
-0.145898 -0.1126 1.51429 17 10 2 
-0.14168 0.178654 1.34115 70 66 65 
-0.157645 -0.320474 1.6169 93 89 88 
-0.15057 0.297224 1.24574 13 8 4 
-0.138797 0.11268 1.38825 101 97 85 
-0.130331 -0.535371 1.81376 54 49 46 
-0.158061 -0.338444 1.62542 28 23 20 
-0.152006 -0.30416 1.61633 6 9 14 
-0.141086 0.160816 1.34998 37 33 32 
-0.144903 0.3517 1.22154 89 90 85 
-0.144086 -0.104419 1.50631 11 3 1 
-0.144299 -0.202439 1.56626 94 93 91 
-0.14781 0.424137 1.16595 51 53 50 
-0.144309 -0.236989 1.58595 6 5 3 
-0.140569 0.0185466 1.43432 77 74 67 
-0.139003 0.141363 1.36097 29 25 22 
-0.143543 -0.167878 1.54246 36 31 28 
-0.140816 -0.0471909 1.47215 80 76 73 
-0.128803 -0.525497 1.797 42 41 37 
-0.144042 -0.138721 1.52122 88 83 79 
-0.142682 -0.269165 1.60304 30 29 25 
-0.136988 0.187027 1.33157 86 86 84 
-0.141108 -0.194317 1.55588 87 84 77 
-0.141976 -0.222277 1.56958 115 114 110 
-0.139555 -0.0816246 1.48782 85 81 72 
-0.144919 0.363277 1.19973 84 79 75 
-0.139474 -0.159969 1.53574 89 82 76 
-0.144671 0.373161 1.1936 103 100 95 
-0.139079 -0.179445 1.54752 30 26 23 
-0.136364 0.0700859 1.39917 3 0 0 
-0.144478 0.349152 1.20767 93 90 83 
-0.144747 0.433781 1.15455 107 104 99 
-0.144393 0.331848 1.21802 69 67 55 
-0.138868 -0.0718741 1.47976 84 80 77 
-0.139225 -0.100085 1.4961 9 3 3 
-0.144273 0.282333 1.24802 49 46 39 
-0.143214 0.322315 1.22408 62 60 48 
-0.135807 -0.00343893 1.44101 18 14 11 
-0.138544 -0.213559 1.56357 42 41 37 
-0.13524 0.0273453 1.42198 85 81 80 
-0.142659 0.290781 1.24282 57 54 45 
-0.133896 0.125183 1.36373 4 3 1 
-0.136858 -0.057018 1.46823 31 27 24 
-0.137234 -0.253808 1.58655 33 29 28 
-0.143919 -0.447014 1.68994 42 38 26 
-0.124598 -0.503881 1.76877 84 84 82 
-0.14193 0.265279 1.25702 110 106 97 
-0.135903 -0.110199 1.49996 25 19 23 
-0.13272 0.115205 1.36779 21 18 13 
-0.133813 0.0988021 1.37536 85 80 76 
-0.144345 0.446999 1.13768 43 42 38 
-0.13251 0.159 1.3407 97 94 89 
-0.135965 -0.144209 1.5178 20 15 11 
-0.131768 0.0590395 1.40059 7 3 0 
-0.134323 -0.192376 1.54807 108 105 100 
-0.132101 0.0127787 1.42689 77 74 69 
-0.132001 -0.0137116 1.44313 11 8 3 
-0.144246 -0.327284 1.60419 52 51 49 
-0.132623 -0.179942 1.53922 78 78 76 
-0.138716 0.244631 1.26561 82 78 75 
-0.132736 -0.135797 1.51041 3 0 0 
-0.133212 -0.26636 1.58752 74 73 71 
-0.130833 -0.0663827 1.47094 91 87 84 
-0.127687 0.136957 1.35343 71 70 68 
-0.12832 0.0772557 1.38754 98 93 87 
-0.128913 0.0416525 1.40708 96 91 88 
-0.130601 -0.0899816 1.48288 65 62 57 
-0.129088 0.0862712 1.37837 104 101 96 
-0.14182 -0.307448 1.58856 10 10 20 
-0.131207 -0.209981 1.55248 25 21 18 
-0.141791 -0.339357 1.60466 28 24 21 
-0.136694 0.424022 1.15313 33 33 31 
-0.135734 0.275652 1.24423 74 70 61 
-0.128852 -0.121739 1.49945 22 18 15 
-0.131063 -0.245129 1.56904 31 30 26 
-0.125889 0.1872 1.31824 30 27 22 
-0.128989 -0.187963 1.53373 98 94 91 
-0.124196 0.120666 1.35778 23 19 16 
-0.126685 -0.175023 1.52944 24 20 19 
-0.124239 0.0643811 1.38981 68 64 61 
-0.12624 -0.150206 1.51386 91 87 78 
-0.125039 -0.0578381 1.46004 28 27 25 
-0.1234 0.0191976 1.41717 25 22 17 
-0.137382 0.446565 1.12932 106 103 98 
-0.125135 -0.0186936 1.43506 7 3 0 
-0.138323 -0.383518 1.62421 12 9 4 
-0.133194 0.3633 1.18712 51 47 44 
-0.0957202 -0.627421 1.86431 101 96 92 
-0.123003 0.0913974 1.37233 6 0 0 
-0.1249 -0.0805764 1.47088 79 76 71 
-0.132303 0.328099 1.20899 58 55 48 
-0.125547 -0.23898 1.56288 22 18 15 
-0.122 0.128089 1.34936 10 6 5 
-0.131779 0.344007 1.19833 118 115 110 
-0.122974 -0.0467129 1.44871 82 78 77 
-0.134166 -0.3517 1.6036 24 18 18 
-0.121573 -0.0961411 1.47852 82 77 74 
-0.120603 0.166273 1.32324 26 18 15 
-0.131488 -0.30435 1.57883 79 79 79 
-0.118702 0.24141 1.28034 8 6 7 
-0.119488 0.188456 1.30999 36 33 28 
-0.129332 0.385757 1.17015 97 96 94 
-0.119189 0.177646 1.31606 22 17 14 
-0.120673 -0.214745 1.54397 84 83 81 
-0.120215 -0.119281 1.48826 93 89 86 
-0.118178 -0.071076 1.46047 28 27 23 
-0.118307 -0.176701 1.5212 74 70 69 
-0.0866219 -0.710477 1.90561 101 88 82 
-0.13623 -0.416761 1.623 122 119 112 
-0.117589 -0.036811 1.43622 86 82 81 
-0.123056 -0.291381 1.57395 50 50 50 
-0.116938 -0.0587181 1.44642 82 81 79 
-0.115005 -0.00597129 1.41947 12 9 4 
-0.0844313 -0.654527 1.8674 95 92 87 
-0.114452 0.0878201 1.36442 24 20 17 
-0.123947 0.256514 1.24396 50 47 40 
-0.114645 -0.0285548 1.42948 72 71 69 
-0.113553 0.143024 1.32942 100 96 93 
-0.113843 -0.18911 1.52315 26 25 23 
-0.113912 -0.199962 1.52808 84 80 79 
-0.121497 0.287158 1.22468 101 98 91 
-0.122947 -0.461055 1.65933 115 111 102 
-0.113129 -0.174157 1.51228 81 80 78 
-0.124036 -0.323354 1.57597 12 12 10 
-0.112319 -0.0196618 1.4234 75 74 72 
-0.111283 0.00769782 1.40791 18 16 17 
-0.113139 -0.241713 1.54952 78 77 75 
-0.111363 0.0291606 1.39492 5 1 0 
-0.110954 -0.139371 1.49389 5 1 0 
-0.111596 -0.260742 1.56332 80 79 77 
-0.110362 -0.0677668 1.45244 6 2 0 
-0.109584 0.066438 1.37521 28 19 20 
-0.111234 -0.22514 1.53798 73 71 72 
-0.108621 0.0495923 1.38273 16 11 8 
-0.107012 -0.16525 1.50707 40 36 33 
-0.107727 0.135052 1.33064 47 44 37 
-0.120754 -0.39684 1.6114 88 84 75 
-0.107947 0.214073 1.28395 101 96 93 
-0.107802 0.195502 1.29449 15 9 11 
-0.107417 0.0897342 1.35577 17 16 14 
-0.117659 -0.359306 1.59025 42 41 39 
-0.10401 0.0145191 1.40257 80 75 72 
-0.0808627 -0.60309 1.80568 46 42 39 
-0.0746225 -0.686893 1.86704 41 30 26 
-0.0731006 -0.672987 1.8622 33 22 20 
-0.106146 -0.0627283 1.43935 77 73 70 
-0.104654 0.123079 1.33476 92 88 85 
-0.105705 -0.145684 1.48673 98 94 91 
-0.104415 0.1756 1.30427 38 33 29 
-0.106179 -0.243708 1.54163 74 73 69 
-0.122835 -0.421232 1.60796 123 119 108 
-0.103904 -0.118593 1.47285 24 23 21 
-0.115883 0.391873 1.1529 86 83 78 
-0.114634 0.415327 1.14162 64 60 57 
-0.115192 0.402061 1.14759 65 59 59 
-0.000572805 -0.998678 2.19436 59 52 44 
-0.103538 0.150977 1.31607 108 104 95 
-0.114463 0.335344 1.18705 99 96 91 
-0.115153 -0.381905 1.59687 101 98 93 
-0.114623 0.367996 1.16725 22 18 17 
-0.102318 0.0751038 1.36133 84 79 76 
-0.11336 -0.350152 1.582 7 5 6 
-0.113948 0.354744 1.17516 112 104 101 
-0.10172 -0.136341 1.48256 28 27 23 
-0.103115 -0.165922 1.49642 25 21 18 
-0.112842 0.299082 1.20909 117 113 104 
-0.102288 -0.18531 1.50826 20 19 17 
-0.0708284 -0.712515 1.87644 103 99 88 
-0.0916958 -0.523601 1.72171 21 21 19 
-0.101555 -0.0828988 1.4487 76 77 72 
-0.10045 -0.012741 1.41065 23 19 18 
-0.115175 -0.412128 1.60641 70 66 63 
-0.111233 0.31237 1.19959 122 113 104 
-0.0998475 0.0914831 1.34964 30 25 22 
-0.100566 0.243957 1.261 90 86 85 
-0.0995903 -0.101099 1.4601 93 92 88 
-0.0999444 0.231054 1.26839 80 73 65 
-0.0985074 -0.203311 1.51426 29 28 26 
-0.0978442 0.0451529 1.37422 17 13 12 
-0.0985548 -0.23698 1.53214 86 85 83 
-0.0973686 -0.0616274 1.43482 26 25 23 
-0.099508 -0.260558 1.54197 88 87 83 
-0.111658 -0.451059 1.62466 75 73 61 
-0.0955033 -0.153728 1.48693 80 79 75 
-0.0966367 0.0619886 1.36216 25 20 16 
-0.0953902 -0.00486611 1.40234 87 87 85 
-0.107347 0.325542 1.18988 29 25 14 
-0.110872 0.428946 1.12313 81 80 78 
-0.0959246 -0.03045 1.41383 10 6 3 
-0.0959715 -0.0417805 1.41817 32 28 25 
-0.0589269 -0.708695 1.87159 103 99 87 
-0.105583 -0.39893 1.59936 89 88 84 
-0.0940125 0.0533224 1.36736 5 1 0 
0.0032303 -0.97187 2.14804 108 105 100 
-0.0960561 0.273371 1.23713 81 76 72 
-0.111939 -0.424724 1.59814 125 119 107 
-0.0942654 0.11891 1.32779 89 82 76 
-0.0934135 0.0225536 1.38381 9 5 2 
-0.108114 0.417457 1.13057 16 13 8 
-0.0922536 -0.125151 1.46816 39 35 32 
-0.102678 -0.368031 1.58262 93 89 86 
-0.0932433 -0.0780625 1.43814 19 14 11 
-0.0924743 0.0694189 1.35658 22 18 17 
-0.0926477 0.00922358 1.39002 83 79 76 
-0.110252 0.440245 1.11002 18 14 11 
-0.0927579 -0.0600303 1.42596 12 11 6 
-0.102733 -0.391343 1.59067 95 91 88 
-0.092252 0.178776 1.2912 22 18 15 
-0.0916498 0.218736 1.26929 34 31 26 
-0.0913319 -0.18064 1.49404 77 72 69 
0.0140844 -1.01071 2.17603 110 106 97 
-0.103696 0.338131 1.17657 22 21 17 
-0.103586 0.369465 1.15836 5 1 0 
-0.0908331 -0.214878 1.51137 32 28 25 
-0.0915116 0.261719 1.24238 32 24 21 
-0.0895948 -0.294383 1.55705 20 19 15 
-0.0885547 0.127731 1.31853 89 84 80 
-0.0950439 0.303701 1.20624 66 64 65 
-0.0896935 0.238812 1.25259 16 15 10 
-0.0852147 -0.154226 1.47678 34 33 28 
-0.0531832 -0.731939 1.86279 92 91 87 
-0.0846374 -0.163629 1.48285 29 28 26 
-0.090539 0.291767 1.21736 5 3 4 
-0.0955893 0.313085 1.19504 8 7 5 
-0.0878688 0.141215 1.30593 18 15 10 
-0.085721 -0.0713488 1.42833 86 82 79 
-0.0845463 -0.0234685 1.40206 69 68 66 
-0.0843154 -0.0380383 1.41024 76 68 66 
-0.0847731 0.108549 1.32788 98 94 85 
-0.0552531 -0.64158 1.80341 83 79 78 
-0.1005 -0.425332 1.59029 52 50 38 
-0.0571985 -0.633231 1.79268 79 76 71 
-0.0840959 -0.0542543 1.417 3 0 0 
-0.0948064 0.321472 1.18719 102 97 93 
-0.0833228 0.00319709 1.38627 28 24 21 
-0.0828131 -0.0911647 1.43921 12 8 5 
0.0146745 -0.96747 2.11918 116 112 109 
-0.0842801 0.211003 1.26745 25 22 15 
-0.0827114 -0.126362 1.45693 87 83 80 
-0.0968776 0.392432 1.14149 109 101 90 
-0.096333 0.353571 1.16378 96 95 90 
-0.101101 0.432167 1.11025 82 78 75 
-0.0963983 0.330224 1.17484 3 0 0 
-0.0746382 -0.527864 1.69128 31 28 23 
-0.0806815 -0.195618 1.49527 78 74 71 
-0.0910067 -0.406322 1.59018 86 83 78 
-0.0888677 -0.388231 1.58237 107 103 100 
-0.0845492 0.279453 1.2222 73 69 66 
0.0263928 -1.01407 2.15515 57 50 44 
-0.0789646 -0.140325 1.46338 85 82 77 
-0.0778669 -0.245021 1.52275 6 5 3 
-0.0782176 -0.293866 1.54864 102 103 98 
-0.0933554 0.38039 1.14644 34 29 25 
-0.0788027 -0.206479 1.49774 81 80 78 
-0.0777971 -0.0667089 1.42081 80 72 70 
-0.0783156 0.0963164 1.33 79 76 71 
-0.079171 0.152146 1.29716 29 24 20 
-0.0756044 -0.157417 1.47245 31 30 26 
-0.0765357 -0.309342 1.55322 72 68 65 
-0.083464 0.294057 1.20843 17 17 17 
0.0818207 -1.24995 2.38111 58 51 41 
-0.0836787 -0.346794 1.55658 88 84 83 
-0.00474918 -0.843237 1.98312 69 62 52 
0.0921371 -1.38216 2.46616 119 116 111 
-0.0722841 -0.276302 1.53649 73 73 71 
-0.0726349 -0.237141 1.5137 31 30 28 
-0.0842267 0.309388 1.19147 90 85 82 
-0.0753641 0.13265 1.30511 81 76 73 
-0.0738825 0.104261 1.32346 93 88 85 
-0.0727329 -0.095798 1.43406 84 83 81 
-0.0721516 0.0730771 1.342 11 7 6 
-0.0711136 -0.121339 1.44885 67 67 65 
-0.0892257 0.388238 1.13629 26 21 15 
0.00594853 -0.881824 2.0136 51 48 39 
-0.0859489 -0.437141 1.58913 113 106 96 
-0.0741854 0.163046 1.28643 35 30 26 
-0.071567 0.014552 1.37136 14 10 7 
-0.0290818 -0.715781 1.84972 80 76 75 
-0.0777636 -0.39615 1.57957 78 74 71 
-0.0703135 -0.00258897 1.37965 74 70 67 
-0.0821572 -0.449743 1.5972 120 113 103 
-0.0693953 -0.157995 1.46364 96 89 79 
0.117788 -1.51062 2.559 215 220 224 
-0.08476 0.371424 1.14474 15 9 9 
-0.085497 0.399617 1.12748 37 34 27 
-0.0659557 -0.257965 1.5193 87 86 84 
-0.0389888 -0.653023 1.78415 117 112 108 
-0.0665152 -0.0791553 1.42115 19 14 11 
-0.0690191 0.121488 1.30803 63 60 55 
-0.0750363 -0.405934 1.57967 12 7 4 
-0.0866191 0.417309 1.11255 80 76 67 
0.105465 -1.32242 2.42185 42 41 49 
-0.0742009 0.292722 1.20338 87 86 82 
-0.0340036 -0.669362 1.79782 116 109 101 
0.107253 -1.36839 2.44846 38 36 47 
-0.0642346 -0.0706296 1.41628 68 64 61 
-0.0671263 -0.310663 1.53931 68 64 61 
-0.0724264 -0.355806 1.55215 74 74 72 
-0.0649366 -0.0351679 1.3943 82 78 77 
-0.0637643 -0.167083 1.46498 114 111 104 
-0.070634 -0.378223 1.56403 7 7 5 
-0.0763017 -0.438663 1.58503 117 115 103 
-0.0645476 0.0914618 1.32342 86 81 78 
-0.0683641 -0.340289 1.54631 72 71 69 
-0.049646 -0.572551 1.70597 31 28 21 
-0.0655424 0.164488 1.28106 76 71 67 
-0.0800337 0.349823 1.15379 104 100 97 
-0.0864983 0.430626 1.0969 76 71 67 
-0.0611063 -0.144888 1.45221 89 85 82 
-0.0585753 -0.240968 1.50675 33 32 30 
-0.0594105 -0.156131 1.45983 40 35 32 
-0.078932 0.376616 1.13794 107 103 102 
0.111678 -1.31703 2.40398 125 120 117 
-0.0330634 -0.628348 1.75817 104 100 97 
-0.0649641 0.255955 1.22665 84 80 77 
-0.0642921 0.223986 1.24297 88 85 78 
-0.0545861 -0.299237 1.53886 77 73 70 
-0.0715317 0.306657 1.18458 16 12 9 
-0.0622818 0.135021 1.29341 27 22 18 
0.0128412 -0.822404 1.93962 52 47 41 
-0.0519548 -0.262236 1.51588 87 86 84 
-0.00691883 -0.720126 1.84373 47 43 42 
-0.0545776 -0.0393418 1.39292 74 69 65 
-0.0666015 -0.435126 1.57722 52 48 39 
-0.0742283 0.398167 1.12264 118 114 111 
0.0741713 -1.08026 2.18369 100 97 92 
-0.0617411 0.276021 1.20973 19 15 12 
0.146226 -1.50757 2.54556 207 210 217 
-0.0724872 0.363585 1.14229 35 31 28 
-0.0510652 -0.099559 1.42386 32 33 28 
-0.0484481 -0.295642 1.5312 85 81 78 
0.125378 -1.31664 2.39752 32 28 25 
-0.0516547 -0.0708863 1.40632 86 82 79 
-0.0490405 -0.30826 1.53487 7 3 2 
-0.0459909 -0.519574 1.64998 9 4 1 
-0.0625834 0.297693 1.19015 77 73 72 
-0.0564801 -0.396501 1.56484 17 13 10 
0.139718 -1.54077 2.53442 73 78 84 
-0.0524896 0.0915918 1.31492 102 99 92 
-0.028578 -0.567229 1.70241 86 82 79 
-0.0562191 0.265793 1.2145 86 82 79 
-0.0457352 -0.322383 1.54123 72 72 70 
-0.0558863 -0.424739 1.57429 7 6 12 
-0.0463143 -0.142168 1.44382 105 104 102 
-0.0450303 -0.22341 1.48832 85 81 82 
0.136632 -1.3775 2.43187 37 38 43 
-0.0468782 -0.0407568 1.38613 85 84 80 
-0.0666076 0.383119 1.12722 22 17 14 
-0.0471462 0.0379864 1.34213 15 11 8 
0.171528 -1.52709 2.56461 224 226 238 
-0.0603041 0.302009 1.17945 85 81 80 
-0.0417777 -0.263362 1.50748 77 75 76 
-0.0397375 -0.315195 1.53631 96 92 91 
-0.0501818 0.219251 1.23751 20 16 13 
0.140494 -1.42872 2.44191 95 101 97 
-0.0371052 -0.281537 1.51726 13 12 8 
-0.0716191 0.435906 1.08168 17 13 10 
-0.0415402 -0.000877464 1.36157 34 30 27 
0.0274272 -0.782125 1.8924 53 43 41 
-0.0364638 -0.25421 1.49928 80 76 77 
-0.0430218 0.130509 1.28669 17 11 11 
-0.0402304 0.0574013 1.32858 77 73 70 
-0.0310974 -0.301636 1.52451 2 1 0 
-0.0443749 0.250112 1.21707 97 94 89 
0.156939 -1.41595 2.44035 119 115 112 
-0.030977 -0.262266 1.50316 85 81 78 
-0.0369338 0.00802824 1.3539 87 82 78 
-0.0428577 0.228179 1.2299 101 96 92 
-0.0384542 -0.363859 1.53907 17 14 9 
-0.0104724 -0.557627 1.68929 26 22 19 
-0.0363811 0.0440403 1.33431 84 80 77 
-0.0327588 -0.126332 1.4269 57 53 52 
-0.0391882 0.143123 1.27727 87 79 77 
-0.0034827 -0.589701 1.71663 37 34 29 
0.158343 -1.4315 2.44213 73 78 74 
-0.0680673 0.478579 1.05104 27 23 20 
-0.0272989 -0.3296 1.5372 11 7 4 
-0.0361248 -0.389834 1.55159 86 82 81 
-0.0283774 -0.229445 1.48363 28 24 21 
-0.0485159 0.298226 1.17706 100 99 97 
-0.0355718 -0.403982 1.55787 45 38 30 
0.0429136 -0.784402 1.895 46 39 31 
-0.0319637 -0.00865437 1.36148 92 89 84 
-0.0382767 0.196028 1.24501 24 20 17 
-0.0246957 -0.34621 1.54283 7 10 15 
-0.0304444 -0.0202014 1.36698 100 99 95 
-0.0645936 0.459157 1.06057 99 91 88 
-0.0281613 -0.0951428 1.40732 104 101 96 
-0.0549592 0.408686 1.10272 124 119 115 
-0.0241057 -0.216695 1.47334 88 84 81 
-0.0288868 0.0346586 1.33646 19 18 14 
-0.0236268 -0.177823 1.45184 82 78 75 
-0.0277604 -0.358422 1.53414 19 14 10 
-0.0211071 -0.239795 1.48584 9 5 2 
-0.0200603 -0.324934 1.53061 72 68 65 
-0.0232395 -0.137028 1.42983 86 81 78 
-0.0486752 0.370287 1.12568 84 80 77 
-0.0259662 -0.372118 1.53896 8 7 3 
-0.025702 0.0427847 1.33064 74 73 69 
-0.0224534 -0.0122433 1.36409 7 3 0 
-0.039749 0.290756 1.18041 29 25 22 
-0.0230733 -0.0674252 1.3891 40 36 33 
-0.0319441 0.259139 1.20875 27 23 22 
-0.0304893 0.141452 1.26957 72 68 65 
-0.044715 0.33191 1.14487 119 115 114 
-0.0136022 -0.279145 1.50522 24 23 21 
-0.0437589 0.315446 1.15321 12 11 9 
-0.0100617 -0.311854 1.52476 0 0 0 
-0.0279521 0.221946 1.22644 91 81 79 
0.0526457 -0.748681 1.85471 42 38 37 
-0.01462 -0.196871 1.45798 23 23 21 
-0.0169296 -0.323831 1.51597 81 80 76 
0.0403681 -0.679513 1.79532 120 117 110 
-0.0229427 0.126472 1.27957 33 29 26 
-0.0188684 -0.347948 1.51998 74 73 69 
-0.0541309 0.447755 1.06156 95 84 80 
-0.0390244 0.32344 1.14885 101 97 94 
-0.0150034 -0.425424 1.56182 99 99 91 
-0.00735861 -0.260496 1.49266 21 17 18 
-0.00902069 -0.208501 1.46197 35 34 30 
-0.00963827 -0.138632 1.42569 40 37 32 
-0.0311935 0.297901 1.16785 94 90 87 
-0.0382004 0.38514 1.11235 5 0 0 
-0.00871185 -0.354411 1.52513 7 3 0 
-0.0182186 0.186427 1.24229 27 24 17 
-0.0115727 0.0259362 1.33218 74 70 67 
-0.045964 0.430904 1.07188 96 88 85 
-0.00885389 -0.470618 1.5788 116 110 98 
-0.0116205 0.0802282 1.30179 20 17 12 
-0.0188792 0.275677 1.1884 95 92 87 
-0.0310507 0.367497 1.12026 112 107 103 
-0.029372 0.339854 1.13541 91 90 86 
0.00154123 -0.151859 1.4288 35 31 28 
-0.0374238 0.416007 1.08325 22 18 15 
-0.00127272 -0.368546 1.52682 87 86 84 
0.0799482 -0.742504 1.84818 23 22 17 
0.000707797 -0.386017 1.5365 95 95 93 
-0.00900255 0.174303 1.24626 81 78 73 
0.00106186 -0.428606 1.55575 85 84 80 
0.0574055 -0.645971 1.759 106 101 97 
-0.0117512 0.242323 1.20779 7 2 0 
0.0111099 -0.303935 1.51067 42 38 37 
-0.0235491 0.305351 1.15289 79 74 68 
0.0113838 -0.235825 1.47343 36 35 33 
0.0126955 -0.268743 1.49048 105 103 104 
0.0848577 -0.729825 1.8353 102 99 92 
0.0147025 -0.259502 1.48372 66 66 64 
-0.0125404 0.286849 1.17306 111 106 100 
-0.0241696 0.398072 1.09939 96 91 85 
0.00876985 -0.347515 1.51445 7 7 17 
-0.0232066 0.387108 1.1058 32 27 23 
-0.00216735 0.204344 1.22575 38 33 30 
-0.0221268 0.503833 1.04577 96 89 79 
0.023581 -0.284047 1.49533 20 19 17 
-0.0154134 0.351144 1.12469 100 95 91 
0.09242 -0.704058 1.80899 95 91 90 
0.0257816 -0.255415 1.481 26 25 23 
0.0272371 -0.297437 1.50284 106 102 99 
-0.0124128 0.324905 1.13841 113 109 106 
-0.0201949 0.409564 1.08357 90 85 82 
0.0109591 0.107134 1.27902 86 81 78 
0.0159959 -0.45599 1.55447 100 97 92 
0.0238865 -0.390059 1.53342 93 92 88 
0.0671455 -0.565847 1.68353 44 40 39 
-0.0218378 0.427296 1.06499 92 84 81 
0.0313552 -0.218235 1.45783 84 84 82 
0.0364221 -0.31395 1.5095 83 79 76 
0.0378429 -0.297035 1.50069 80 78 79 
0.00394698 0.28368 1.17083 43 39 36 
-0.00828339 0.394883 1.09599 101 91 89 
0.011076 0.264987 1.18844 104 99 93 
0.0148709 0.215633 1.21731 73 69 66 
0.0336823 -0.385944 1.52963 87 85 86 
0.114556 -0.715955 1.81765 106 102 99 
0.0362491 -0.3978 1.53425 6 4 7 
0.119528 -0.731086 1.82769 85 81 82 
0.0444656 -0.306064 1.50369 15 11 10 
-0.0020014 0.34538 1.12241 87 82 78 
0.0210868 0.145471 1.25225 13 9 8 
0.0868661 -0.58929 1.7005 43 43 35 
-0.000502423 0.37433 1.10744 87 87 79 
0.0439293 -0.152092 1.42384 4 3 9 
0.00271275 0.334138 1.12941 95 90 86 
-0.0137547 0.451323 1.04584 92 83 74 
0.0434369 0.0172825 1.34061 40 11 5 
0.0200787 0.269355 1.18238 24 23 19 
0.0155888 0.277897 1.17098 32 28 27 
0.0305009 0.117315 1.2694 5 1 0 
0.00592195 0.361857 1.11475 25 22 17 
0.0476762 -0.384475 1.52697 13 9 10 
0.028237 0.180239 1.23407 27 23 20 
0.0560879 -0.236064 1.4681 25 27 26 
0.0332641 0.144238 1.25426 77 76 72 
0.0571817 -0.320974 1.50509 14 13 19 
0.0522032 -0.372091 1.51868 92 86 86 
0.0566122 -0.177757 1.43343 91 87 84 
0.0439382 0.0757867 1.2937 84 81 74 
0.0343304 0.227205 1.20537 75 70 67 
0.00768059 0.406999 1.07946 24 20 17 
0.0107322 0.398919 1.08709 24 23 19 
0.038582 0.214428 1.21245 14 10 9 
0.0664385 -0.418184 1.54233 123 119 116 
0.0449755 0.120485 1.26343 106 101 97 
0.0668885 -0.429015 1.54727 21 17 16 
0.0424135 0.165356 1.23859 28 23 19 
0.0736153 -0.294325 1.49608 89 88 83 
0.0488033 0.0981794 1.27616 49 44 40 
0.13376 -0.644179 1.74663 97 94 87 
0.0206309 0.321427 1.12902 35 31 28 
0.0755539 -0.282688 1.48867 35 31 28 
0.0414247 0.237126 1.19844 98 92 92 
0.045777 0.189725 1.22599 96 87 88 
0.0681098 0.027069 1.33215 144 133 127 
0.0479294 0.179188 1.23161 25 21 18 
0.113084 -0.552838 1.66387 56 55 53 
0.0147074 0.416196 1.06854 37 29 26 
0.0758994 -0.417132 1.53865 27 26 22 
0.0771693 -0.189068 1.43812 25 26 21 
0.0251369 0.370742 1.10487 30 27 22 
0.0811508 -0.478468 1.57363 58 53 47 
0.0496505 0.224888 1.20511 25 24 20 
0.0884748 -0.30683 1.49929 81 79 82 
0.0476911 0.267614 1.17866 107 102 98 
0.0864001 -0.231193 1.46141 72 71 69 
0.0307015 0.360391 1.10976 84 79 76 
0.138576 -0.604922 1.70639 19 14 11 
0.0323801 0.341799 1.11889 31 27 26 
0.0703917 0.0234919 1.31895 75 70 64 
0.0601743 0.145002 1.2488 88 84 83 
0.0760906 -0.0425281 1.35577 91 83 70 
0.0904791 -0.221589 1.45559 80 79 75 
0.0873898 -0.184834 1.43388 67 66 62 
0.033182 0.382412 1.09543 108 104 101 
0.0363322 0.350891 1.11313 90 86 83 
0.0570145 0.248956 1.18999 92 89 84 
0.0428475 0.296331 1.14662 21 20 18 
0.0716817 0.097007 1.27803 100 96 93 
0.0732884 0.0834795 1.28608 73 69 68 
0.0508552 0.280358 1.16391 93 93 85 
0.0902676 -0.140828 1.41072 26 21 18 
0.0698742 0.114644 1.26608 38 30 28 
0.0634561 0.211545 1.21262 31 27 26 
0.0591583 0.262998 1.18257 78 75 70 
0.0292864 0.410846 1.07099 110 105 101 
0.0883702 -0.0462462 1.35851 23 18 14 
0.0875419 -0.0326798 1.35123 23 16 6 
0.035352 0.39855 1.08129 85 81 78 
0.157164 -0.611309 1.70939 114 109 103 
0.110121 -0.31519 1.50717 77 79 78 
0.0423678 0.370404 1.1026 85 81 78 
0.0388418 0.390339 1.08763 26 25 21 
0.100817 -0.367938 1.51413 67 66 62 
0.104272 -0.20082 1.44501 19 18 14 
0.106942 -0.232042 1.4609 87 86 84 
0.0736056 0.168603 1.23422 38 34 33 
0.0479965 0.342811 1.11694 101 96 90 
0.0797151 0.128582 1.25855 83 82 78 
0.101308 -0.129387 1.40237 86 83 76 
0.112447 -0.264871 1.47811 81 80 78 
0.0485241 0.360415 1.10835 89 85 82 
0.0906054 0.0217581 1.31872 4 0 0 
0.0977076 -0.0292379 1.34913 19 14 11 
0.253104 -0.865279 1.94694 78 79 74 
0.0989659 -0.0468765 1.35733 23 19 18 
0.117307 -0.274654 1.48393 24 22 23 
0.0824111 0.146014 1.24751 35 32 27 
0.110374 -0.151166 1.418 86 83 78 
0.104001 -0.0868581 1.38028 88 84 81 
0.0908412 0.0678965 1.29293 39 36 31 
0.0492145 0.391552 1.08935 104 100 97 
0.102121 -0.0582421 1.36398 96 92 89 
0.11445 -0.171601 1.42958 85 84 82 
0.115898 -0.200639 1.44391 73 72 68 
0.105904 -0.0762901 1.37482 73 69 68 
0.118765 -0.334467 1.50516 88 87 85 
0.0959024 0.0459598 1.30607 101 90 88 
0.125532 -0.314209 1.50603 81 81 81 
0.0894308 0.106854 1.26944 34 30 27 
0.0581543 0.312286 1.13337 8 7 3 
0.0935659 0.0807799 1.28641 81 80 78 
0.0566081 0.332357 1.12185 37 33 30 
0.110846 -0.123097 1.40015 21 19 20 
0.0746259 0.271331 1.17328 42 39 34 
0.104767 -0.0206861 1.3441 18 10 8 
0.12239 -0.379542 1.52513 46 42 41 
0.0828729 0.234967 1.1996 26 16 14 
0.0900699 0.178527 1.23149 9 5 2 
0.116638 -0.107893 1.39307 102 102 94 
0.123149 -0.149325 1.41833 23 22 20 
0.114504 -0.0686969 1.37076 4 0 0 
0.0397472 0.458633 1.03211 95 90 86 
0.10713 0.0210839 1.31969 15 14 9 
0.122706 -0.121759 1.40365 7 7 7 
0.113854 -0.0419124 1.35612 82 78 75 
0.125404 -0.167265 1.42682 21 20 18 
0.135221 -0.238591 1.46743 79 79 79 
0.143572 -0.323828 1.51552 15 15 15 
0.124428 -0.102335 1.39055 87 86 84 
0.111251 0.0367761 1.3104 87 82 79 
0.118562 -0.00542366 1.33765 25 21 20 
0.104857 0.127786 1.25828 27 22 18 
0.127708 -0.0815235 1.37927 68 64 63 
0.122001 -0.0220351 1.34533 70 68 69 
0.100472 0.198458 1.21971 27 23 22 
0.104399 0.163545 1.23894 88 83 79 
0.0728635 0.340453 1.11674 10 6 3 
0.134099 -0.112791 1.39754 17 17 17 
0.144704 -0.376163 1.52441 84 83 81 
0.0608656 0.40979 1.06868 102 98 95 
0.0723677 0.38288 1.09472 116 108 105 
0.0738938 0.358106 1.10679 32 27 24 
0.126144 0.0138892 1.32825 53 45 42 
0.129327 -0.0288746 1.35062 11 10 6 
0.107653 0.184683 1.22864 105 100 97 
0.105022 0.211799 1.21283 78 74 71 
0.138582 -0.100017 1.39335 29 29 27 
0.148241 -0.19634 1.44759 19 18 16 
0.119933 0.0891837 1.2844 25 21 18 
0.134165 -0.0496617 1.36145 76 72 73 
0.163809 -0.300045 1.50909 37 35 36 
0.135944 -0.00642767 1.34201 79 75 74 
0.146691 -0.110387 1.39787 10 9 14 
0.131096 0.0516894 1.30724 58 53 50 
0.0861002 0.321743 1.1285 20 19 15 
0.0603781 0.438947 1.04201 23 17 17 
0.151095 -0.136428 1.4143 51 50 48 
0.0898178 0.297942 1.14331 81 78 73 
0.120753 0.153023 1.24742 27 26 21 
0.114661 0.239293 1.20072 91 87 84 
0.135984 0.0401012 1.31381 90 86 85 
0.175264 -0.308485 1.51431 25 24 22 
0.167164 -0.384928 1.53322 88 84 83 
0.126627 0.143893 1.25368 25 22 17 
0.13151 0.0989124 1.27921 102 96 96 
0.137481 0.0590596 1.30409 92 88 87 
0.141903 0.0160685 1.32738 21 17 16 
0.104827 0.281347 1.1634 92 88 87 
0.143931 0.0021209 1.33548 99 100 95 
0.0872717 0.379546 1.09701 37 37 29 
0.183433 -0.339385 1.53356 91 90 86 
0.0910987 0.350928 1.11377 117 116 112 
0.0864008 0.396686 1.08748 45 40 37 
0.171073 -0.371205 1.52742 85 81 80 
0.125723 0.205557 1.2202 19 14 11 
0.159683 -0.0875971 1.39019 18 16 17 
0.124209 0.227542 1.20798 18 14 11 
0.187999 -0.327323 1.52854 13 9 10 
0.183386 -0.25673 1.49151 15 13 16 
0.185547 -0.29017 1.50546 36 35 33 
0.140653 0.116563 1.27248 17 16 12 
0.131133 0.197244 1.22436 17 13 10 
0.184732 -0.233385 1.47795 10 10 8 
0.186913 -0.274285 1.49755 78 77 75 
0.154649 0.0149545 1.33112 32 28 25 
0.169666 -0.0849318 1.3933 87 86 84 
0.128987 0.254699 1.19336 98 90 87 
0.184717 -0.369009 1.52844 98 94 93 
0.100924 0.359426 1.11012 23 19 16 
0.174558 -0.107975 1.40658 29 29 31 
0.134164 0.215583 1.21562 34 30 29 
0.187356 -0.207234 1.462 77 73 72 
0.186806 -0.218848 1.46474 90 89 87 
0.194552 -0.323915 1.5186 97 96 91 
0.196272 -0.341006 1.52675 86 85 81 
0.167828 -0.0217062 1.35496 85 83 84 
0.186853 -0.174434 1.44402 4 0 0 
0.173371 -0.0500787 1.37349 30 29 25 
0.138461 0.237778 1.20592 48 44 41 
0.0977475 0.396559 1.08268 31 27 26 
0.170694 0.003029 1.34607 78 73 70 
0.188762 -0.191183 1.45001 71 70 65 
0.195193 -0.295519 1.50143 73 74 69 
0.185543 -0.147999 1.42718 82 83 78 
0.141096 0.227371 1.21114 32 27 24 
0.147033 0.197312 1.22878 29 25 24 
0.196305 -0.250938 1.47792 46 46 44 
0.194385 -0.227078 1.46468 14 15 10 
0.198435 -0.287842 1.49419 51 48 43 
0.197266 -0.277336 1.48778 114 111 106 
0.203588 -0.359117 1.52933 76 77 72 
0.160303 0.143453 1.26238 78 77 75 
0.183372 -0.0546514 1.37452 82 76 76 
0.191015 -0.131634 1.41601 3 2 0 
0.201538 -0.260575 1.48066 111 107 104 
0.121404 0.332633 1.12858 40 37 32 
0.181725 -0.0180527 1.35414 71 67 66 
0.0909291 0.461203 1.03259 59 56 51 
0.177525 0.0465155 1.31999 82 78 77 
0.173637 0.0946225 1.29478 19 14 18 
0.200595 -0.238221 1.46553 4 1 0 
0.186846 -0.0357709 1.36391 82 81 79 
0.196185 -0.16775 1.42985 77 73 70 
0.198763 -0.200157 1.4459 79 75 72 
0.194413 -0.150967 1.41993 94 90 87 
0.122735 0.347378 1.11938 83 80 75 
0.19251 -0.119331 1.40276 107 104 97 
0.132009 0.295139 1.15209 82 78 77 
0.220835 -0.384307 1.5479 12 8 5 
0.123206 0.358652 1.11408 96 91 88 
0.199026 -0.188332 1.43826 121 116 113 
0.192236 -0.106728 1.3956 84 83 79 
0.180366 0.0694885 1.30682 9 5 6 
0.185393 -0.0124012 1.34348 82 81 77 
0.197256 -0.130575 1.40692 95 91 82 
0.104235 0.43132 1.05289 42 38 35 
0.178627 0.0753052 1.29748 26 20 20 
0.194451 -0.0908523 1.38473 69 65 64 
0.191343 -0.0622963 1.36843 83 82 77 
0.184504 0.0153771 1.32749 25 20 17 
0.202002 -0.141308 1.41325 24 20 17 
0.180342 0.092303 1.28687 69 68 64 
0.179073 0.140299 1.26309 21 20 16 
0.18746 0.04177 1.31242 103 96 86 
0.185581 0.0613277 1.30179 85 84 80 
0.172118 0.250634 1.20582 13 7 9 
0.175343 0.224405 1.21751 73 72 70 
0.189498 0.0792287 1.29177 12 8 7 
0.185266 0.109834 1.27312 95 90 84 
0.181626 0.145569 1.25369 27 24 19 
0.188303 0.0970959 1.27918 21 17 14 
0.204644 -0.00498126 1.34046 93 88 84 
0.175564 0.256862 1.19612 88 83 80 
0.184354 0.178012 1.23821 17 13 12 
0.180706 0.203673 1.22207 32 32 24 
0.182308 0.193926 1.22482 96 92 89 
0.176933 0.273537 1.18446 105 100 96 
0.194245 0.128223 1.26116 30 22 19 
0.184207 0.228119 1.20563 26 21 17 
0.179103 0.298723 1.16265 19 15 16 
0.188958 0.235759 1.19903 81 76 73 
-0.193279 0.446815 1.29053 182 111 7 
-0.196579 0.424885 1.30938 95 87 74 
-0.197216 0.397012 1.32476 80 71 62 
-0.192706 0.372715 1.33237 16 12 9 
-0.161077 0.378394 1.27988 164 164 164 
-0.157357 0.313 1.28374 121 111 99 
-0.154935 0.353203 1.28214 139 145 159 
-0.110173 0.522183 1.04683 18 5 0 
-0.116113 0.495143 1.11617 71 70 66 
-0.151689 0.058459 1.4435 84 79 75 
-0.105743 0.481583 1.11421 100 97 92 
-0.112645 0.400628 1.18431 104 101 96 
-0.14655 0.00176184 1.46556 126 119 111 
-0.135897 -0.0306498 1.46952 22 14 11 
-0.130786 0.0287783 1.43102 32 23 16 
-0.150531 -0.315955 1.61126 73 69 66 
-0.11598 0.202096 1.31942 6 0 0 
-0.129553 -0.00721312 1.44811 87 80 74 
-0.0879162 0.510237 1.0861 119 115 106 
-0.134247 -0.0871337 1.49614 4 0 0 
-0.14888 -0.363937 1.63287 10 5 2 
-0.101834 0.316237 1.219 144 137 121 
-0.114995 0.150638 1.34663 15 8 0 
-0.123 0.00275481 1.4319 97 89 86 
-0.119187 0.0575491 1.40012 89 85 76 
-0.0983385 0.298638 1.22502 127 125 110 
-0.12497 -0.0571751 1.46795 32 27 23 
-0.0851747 0.466524 1.1064 4 1 0 
-0.117752 0.0443284 1.4076 10 6 0 
-0.113787 0.0871111 1.38222 118 111 103 
-0.118843 -0.012045 1.43911 12 5 0 
-0.134001 -0.279191 1.60167 83 80 73 
-0.109125 0.0267149 1.40576 77 70 64 
-0.102288 0.0894326 1.36884 30 26 17 
-0.0974329 0.150911 1.32986 109 102 92 
-0.102187 0.0467364 1.39175 10 7 2 
-0.0927215 0.189784 1.30456 118 108 98 
-0.0846125 0.301359 1.23299 101 97 94 
-0.106351 -0.0915573 1.46595 13 3 1 
-0.0931862 0.12663 1.33775 101 97 86 
-0.0996966 -0.00198229 1.41078 101 96 92 
-0.101035 -0.0320459 1.4303 104 95 88 
-0.0962745 0.0225639 1.39775 81 72 65 
-0.0888284 0.153176 1.32075 6 2 0 
-0.102334 -0.102083 1.46739 74 69 65 
-0.0668184 0.472442 1.09331 121 115 99 
-0.0962376 0.0111444 1.40762 90 86 77 
-0.0918047 0.0700861 1.36857 36 29 21 
-0.143249 -0.675851 1.95866 60 60 60 
-0.0888668 0.0578717 1.37126 92 88 79 
-0.0811699 0.189342 1.29481 126 117 102 
-0.0896962 0.00834927 1.39966 111 106 100 
-0.0828062 0.144537 1.32329 84 74 64 
-0.100527 -0.210553 1.52524 7 2 0 
-0.0757644 0.252514 1.25845 103 99 90 
-0.0892 -0.0318225 1.42017 74 63 57 
-0.0880824 -0.0218379 1.41255 7 2 0 
-0.0525704 0.505299 1.02125 69 65 54 
-0.0922913 -0.131105 1.474 11 6 0 
-0.0707272 0.293066 1.2277 75 74 72 
-0.073174 0.238918 1.2646 95 91 80 
-0.0928962 -0.170748 1.49647 82 79 74 
-0.084404 -0.00381733 1.40115 20 15 12 
-0.0979725 -0.278664 1.56013 14 11 6 
-0.0867483 -0.0829877 1.44479 28 23 17 
-0.0792953 0.0577223 1.36678 14 9 5 
-0.077641 0.0833595 1.34854 9 6 1 
-0.090032 -0.192101 1.50869 94 89 85 
-0.0673139 0.272164 1.24161 9 6 0 
-0.0826757 -0.0582257 1.42795 115 110 106 
-0.0689468 0.18697 1.28692 112 108 99 
-0.0609784 0.316483 1.19072 15 12 5 
-0.0511995 0.487747 1.07261 90 82 71 
-0.0516285 0.466407 1.08384 33 29 18 
-0.0743968 0.0468436 1.36588 19 16 7 
-0.0691473 0.130343 1.31884 17 12 6 
-0.089592 -0.375258 1.57768 4 0 0 
-0.0783585 -0.099755 1.44564 14 9 3 
-0.0637678 0.210302 1.27395 115 111 100 
-0.069855 0.0662391 1.35329 89 85 76 
-0.087642 -0.433231 1.58748 149 139 127 
-0.084088 -0.274956 1.54475 80 75 71 
-0.0682207 0.0561169 1.35648 108 103 99 
-0.0713593 -0.0223222 1.40233 21 18 13 
-0.0622077 0.130929 1.31111 91 86 80 
-0.081878 -0.386368 1.57715 92 89 80 
-0.0795861 -0.334612 1.55062 7 3 2 
-0.0540936 0.293771 1.21853 95 92 87 
-0.0579155 0.198007 1.27246 9 1 0 
-0.0578272 0.186015 1.28212 88 81 71 
-0.055982 0.225397 1.25944 97 88 83 
-0.0618743 0.0727754 1.3442 91 84 76 
-0.0632184 0.00345176 1.37992 41 36 32 
-0.0522576 0.278497 1.22761 14 9 3 
-0.051114 0.263029 1.23562 4 1 0 
-0.0602638 0.0233359 1.36811 22 18 9 
-0.0528038 0.206874 1.26685 4 0 0 
-0.0621555 -0.0362384 1.40081 95 88 82 
-0.0677954 -0.187917 1.48537 83 80 75 
-0.0716235 -0.329592 1.54252 81 77 66 
-0.0570329 0.0820523 1.33535 117 113 104 
-0.050182 0.231619 1.25289 96 87 78 
-0.0591581 -0.00554237 1.38364 74 71 66 
-0.0663733 -0.220531 1.50115 108 104 95 
-0.0609222 -0.100924 1.43422 8 3 0 
-0.0661509 -0.299476 1.53961 5 6 1 
-0.0563551 -0.0749132 1.41779 4 0 0 
-0.0661684 -0.410011 1.57782 6 0 0 
-0.0474318 0.146827 1.29206 95 86 79 
-0.042878 0.275583 1.2238 74 71 62 
-0.0484684 0.106304 1.31689 113 104 95 
-0.0502385 -0.0120321 1.37915 28 25 20 
-0.0620122 -0.437383 1.57328 42 40 27 
-0.0393342 0.283257 1.21403 124 120 111 
-0.0781581 -0.684887 1.85586 141 128 120 
-0.0406672 0.177741 1.27238 48 39 32 
-0.0502145 -0.107857 1.43231 4 0 0 
-0.0518199 -0.169818 1.46271 116 107 100 
-0.0272178 0.473591 1.06931 112 102 92 
-0.0400254 0.121099 1.3046 27 18 11 
-0.0318493 0.321588 1.16761 70 66 57 
-0.0309695 0.311326 1.17707 87 83 72 
-0.0404261 0.0460178 1.34664 15 12 3 
-0.0363075 0.166536 1.27722 4 0 0 
-0.0336122 0.227625 1.24425 13 6 0 
-0.0196351 0.500959 1.0064 110 98 82 
-0.0408989 -0.03599 1.38692 8 3 0 
-0.0339508 0.189552 1.26314 85 82 73 
-0.0363023 0.0976795 1.31277 103 99 90 
-0.0342048 0.151112 1.2811 14 5 0 
-0.0377244 0.0278439 1.35119 4 0 0 
-0.0296506 0.289202 1.20414 82 78 69 
-0.0302817 0.273061 1.21666 4 0 0 
-0.0336482 0.108945 1.30752 24 13 7 
-0.036159 0.000918389 1.36436 4 0 0 
-0.0514171 -0.568463 1.69935 22 18 7 
-0.0321552 0.0447798 1.33961 5 2 0 
-0.0311264 0.0615432 1.32839 17 14 9 
-0.0280572 0.166633 1.27123 102 95 87 
-0.0573545 -0.727737 1.84626 101 94 86 
-0.0270764 0.175923 1.2654 19 14 10 
-0.0300251 0.00888285 1.35435 108 98 96 
-0.0308634 -0.0830528 1.40535 73 68 64 
-0.02335 0.202406 1.25178 77 73 64 
-0.025437 0.101978 1.30521 131 127 115 
-0.0256956 0.0341143 1.34282 8 4 0 
-0.0244299 0.0515563 1.33033 8 3 0 
-0.0229108 0.110948 1.29764 97 88 79 
-0.01826 0.280052 1.20716 81 77 68 
-0.0196773 0.218766 1.23963 103 96 86 
-0.0164119 0.305856 1.17402 106 99 91 
-0.0271708 -0.190894 1.46011 100 97 90 
-0.0253393 -0.112935 1.41981 88 84 81 
-0.0205063 0.0690231 1.31944 30 26 17 
-0.017962 0.135471 1.28282 87 83 74 
-0.00470918 0.502028 1.00298 2 2 0 
-0.0145729 0.208203 1.24625 11 7 0 
-0.0141006 0.197359 1.24711 23 19 10 
-0.0154781 0.123365 1.28778 28 24 13 
-0.0122918 0.260732 1.21675 108 95 87 
-0.0190739 -0.0979647 1.40834 124 119 115 
-0.00467669 0.458878 1.06709 79 72 56 
-0.0208567 -0.269829 1.50048 2 1 0 
-0.00896582 0.282966 1.19466 94 87 77 
-0.0137113 0.00776675 1.34959 84 72 56 
-0.0103156 0.099022 1.29996 97 93 84 
-0.0179835 -0.361789 1.52663 20 17 12 
-0.0151467 -0.229085 1.47379 101 98 93 
-0.0218063 -0.554596 1.6854 54 51 46 
-0.00805228 0.088447 1.30408 18 9 2 
-0.0126214 -0.246602 1.48454 28 24 15 
-0.00379634 0.242284 1.2223 97 92 86 
-0.00446765 0.192548 1.24705 106 102 93 
-0.00728373 0.0269225 1.33647 7 3 0 
-0.00481939 0.130363 1.2787 53 46 36 
-0.00756797 -0.0277639 1.3641 86 81 78 
-0.00185871 0.274466 1.20236 43 34 25 
-0.00712108 -0.101625 1.4062 21 16 12 
0.00399025 0.469768 1.06218 22 13 6 
0.000340643 0.232579 1.22644 9 2 0 
0.00270616 0.306567 1.16479 90 80 71 
0.000896233 0.210912 1.2355 31 21 19 
-0.00737139 -0.386338 1.53566 10 5 0 
-0.0129849 -0.636951 1.75456 126 113 104 
0.00517664 0.318567 1.15659 15 7 0 
-0.00312133 -0.239994 1.47477 11 6 2 
0.00337354 0.162951 1.25926 98 88 86 
0.00964088 0.457648 1.06312 23 14 7 
-0.000490694 -0.219299 1.46606 4 0 0 
-0.00118843 -0.426923 1.55149 95 86 77 
0.00484238 0.058465 1.31457 11 2 0 
0.00890854 0.242545 1.21642 9 5 0 
0.00298696 -0.358183 1.51878 63 54 45 
0.00517998 -0.168651 1.43589 7 0 0 
-0.00281102 -0.728306 1.83812 36 28 15 
0.000580976 -0.59358 1.71303 142 139 130 
0.00891296 0.0116745 1.33764 105 91 64 
0.0103314 0.108895 1.28494 101 100 95 
0.0139916 0.269163 1.19993 92 82 73 
0.014103 0.25209 1.21184 95 85 75 
0.0175325 0.287528 1.18014 99 96 87 
0.0212072 0.498702 1.00146 0 1 0 
0.014429 -0.454651 1.55094 131 126 122 
0.0154947 -0.323746 1.51446 94 91 84 
0.018578 -0.250599 1.4745 103 98 94 
0.0233591 0.30696 1.15934 111 103 92 
0.0202793 -0.23858 1.46712 98 97 93 
0.0245175 0.276332 1.19166 25 21 12 
0.0194748 -0.564891 1.68388 139 132 122 
0.0271086 0.252166 1.20819 19 10 1 
0.0269946 0.145025 1.25961 5 1 0 
0.0284323 0.287888 1.175 100 99 94 
0.0287599 -0.383222 1.52347 110 104 104 
0.030756 0.108781 1.27813 72 69 64 
0.0313105 0.194832 1.2343 92 88 79 
0.0330255 0.30692 1.15303 78 70 59 
0.0333437 0.265835 1.19618 76 72 63 
0.0341389 0.0141047 1.34625 43 0 0 
0.0351582 -0.590522 1.70069 33 23 21 
0.0356683 -0.39447 1.52737 66 62 59 
0.0362768 -0.350084 1.50139 3 1 2 
0.0370523 0.179807 1.24087 9 2 0 
0.0380181 -0.313418 1.50267 97 89 87 
0.0381784 -0.201682 1.44358 5 0 0 
0.0399121 -0.379982 1.51832 79 76 71 
0.0395601 0.206378 1.22878 4 0 0 
0.040894 -0.672223 1.77434 135 126 117 
0.0404145 0.235254 1.21215 73 69 58 
0.0418448 -0.304606 1.49515 4 0 0 
0.0419565 0.454096 1.05784 94 89 85 
0.0435686 0.0841867 1.29077 8 0 0 
0.0430778 0.308871 1.15153 3 0 0 
0.0461041 -0.595808 1.7031 32 28 25 
0.0466829 -0.42923 1.54221 7 2 0 
0.0458973 0.0766906 1.30033 95 88 78 
0.0454997 0.21487 1.22224 2 1 0 
0.0496463 -0.372614 1.51408 5 0 0 
0.0498571 -0.164773 1.42286 62 58 55 
0.0539255 -0.678566 1.77862 140 133 125 
0.0514564 -0.191123 1.43492 86 81 75 
0.0491548 0.291171 1.16744 111 107 98 
0.0533791 -0.318551 1.49533 6 2 3 
0.05045 0.229614 1.21078 23 16 10 
0.0564072 -0.668622 1.76884 4 0 0 
0.0519611 0.144695 1.25523 99 94 88 
0.0522502 0.172948 1.23884 21 18 9 
0.0594141 -0.563566 1.66866 129 122 116 
0.0584794 -0.277401 1.47987 3 0 0 
0.0543057 0.270196 1.18725 28 23 19 
0.0552023 0.278747 1.17816 37 36 31 
0.0648382 -0.499203 1.59379 132 124 113 
0.0696874 -0.73677 1.82627 93 88 84 
0.0648696 -0.398565 1.52361 4 0 0 
0.0668061 -0.292479 1.48685 18 15 10 
0.0584627 0.472989 1.04604 99 93 81 
0.0712951 -0.572573 1.67837 131 126 123 
0.0614679 0.31722 1.14772 43 38 34 
0.0643388 0.136375 1.25738 95 91 82 
0.0697267 -0.220737 1.44863 89 85 84 
0.0800821 -0.764177 1.85186 49 39 30 
0.0676797 0.0762486 1.29122 113 104 97 
0.0656794 0.283963 1.16916 19 19 11 
0.066876 0.235639 1.20705 13 8 2 
0.0757946 -0.474673 1.5616 57 47 37 
0.0740076 -0.256908 1.46852 108 105 100 
0.0755425 -0.283035 1.48095 105 102 97 
0.0810356 -0.562122 1.66825 47 42 38 
0.0765767 -0.267718 1.47193 23 18 14 
0.0710162 0.152098 1.25077 84 80 69 
0.076195 -0.143432 1.40749 73 70 63 
0.0671641 0.454122 1.0546 81 71 69 
0.0810179 -0.376018 1.51176 3 0 0 
0.0873866 -0.634668 1.72897 28 20 17 
0.0759036 0.0997109 1.27769 17 13 4 
0.074599 0.213939 1.22037 112 103 94 
0.082092 -0.254068 1.46256 7 3 0 
0.0723942 0.314811 1.14483 21 16 12 
0.0840873 -0.304308 1.48872 77 73 70 
0.0834974 -0.240284 1.45735 7 2 0 
0.0769285 0.232411 1.20812 88 85 78 
0.0861537 -0.279702 1.47764 10 4 4 
0.0894426 -0.43181 1.53461 95 92 85 
0.0816626 0.0719995 1.29159 87 83 72 
0.0991684 -0.714087 1.80072 5 0 0 
0.0980357 -0.668389 1.75931 131 123 112 
0.0915244 -0.39585 1.51968 82 74 71 
0.0888378 -0.173915 1.42333 9 1 0 
0.0922049 -0.26022 1.46751 109 106 101 
0.0851132 0.103867 1.27307 103 96 90 
0.0952431 -0.412479 1.5295 113 108 104 
0.0855608 0.163823 1.24172 13 4 0 
0.0830248 0.290609 1.16402 30 29 25 
0.091811 -0.0953741 1.3779 86 73 67 
0.0972429 -0.193499 1.43536 93 90 81 
0.100287 -0.353229 1.50356 2 2 2 
0.0923926 0.0398672 1.30828 14 5 0 
0.100012 -0.283605 1.48218 9 4 1 
0.105557 -0.517502 1.61037 134 124 114 
0.109925 -0.579236 1.67778 144 138 124 
0.0994662 -0.115539 1.39293 18 10 7 
0.102857 -0.227545 1.45264 11 8 3 
0.107255 -0.426578 1.53571 12 5 0 
0.0941975 0.264534 1.19704 78 73 67 
0.098919 0.072394 1.29353 45 35 26 
0.109515 -0.291934 1.48376 104 99 96 
0.111376 -0.377166 1.512 92 91 86 
0.0949666 0.280168 1.17406 26 22 13 
0.101086 0.104223 1.27132 97 92 86 
0.113245 -0.33108 1.49346 102 93 86 
0.115525 -0.275484 1.47601 80 75 71 
0.102572 0.196648 1.22653 86 79 71 
0.117304 -0.31994 1.4949 1 2 4 
0.117723 -0.35115 1.50003 87 76 72 
0.111668 -0.0951472 1.37705 94 89 83 
0.107804 0.06249 1.29712 100 90 81 
0.13178 -0.627264 1.71641 131 119 107 
0.107424 0.148458 1.24928 11 6 3 
0.120869 -0.287003 1.48287 4 0 0 
0.123097 -0.389869 1.51888 108 97 91 
0.1227 -0.298532 1.48866 17 8 1 
0.121945 -0.178535 1.42522 79 74 70 
0.12859 -0.400245 1.52511 9 1 0 
0.123717 -0.141465 1.40488 40 35 29 
0.119219 0.0259511 1.31304 90 85 79 
0.130187 -0.255118 1.46366 5 1 0 
0.124994 -0.0954509 1.38013 95 90 87 
0.113322 0.272369 1.1838 32 25 17 
0.131371 -0.236619 1.45823 85 84 80 
0.149411 -0.653119 1.73312 119 111 100 
0.188539 -1.23126 2.34015 223 227 230 
0.106043 0.467028 1.04744 164 157 151 
0.121116 0.123998 1.26226 105 96 91 
0.121742 0.115172 1.26873 20 17 8 
0.131504 -0.130667 1.40049 11 7 4 
0.122533 0.163433 1.24243 16 7 0 
0.135605 -0.1599 1.41751 1 0 0 
0.11221 0.446387 1.05987 102 95 87 
0.158908 -0.618344 1.70009 72 62 52 
0.155698 -0.560358 1.64859 138 128 126 
0.122523 0.280724 1.17374 6 1 0 
0.115292 0.454521 1.05288 84 75 66 
0.122272 0.305233 1.14681 18 14 11 
0.161781 -0.595436 1.67837 122 112 100 
0.135561 0.0286743 1.31357 87 83 74 
0.153291 -0.339394 1.51171 78 75 68 
0.1579 -0.440461 1.54383 2 1 0 
0.153973 -0.300381 1.49336 72 68 65 
0.133828 0.199227 1.22497 91 82 75 
0.149848 -0.175407 1.42702 95 90 86 
0.135911 0.18196 1.23493 25 21 12 
0.134074 0.254854 1.19745 100 92 81 
0.138885 0.168632 1.24277 112 107 104 
0.122933 0.479637 1.04383 111 102 93 
0.154841 -0.100178 1.38812 87 83 80 
0.154355 -0.0690314 1.37155 72 67 64 
0.164793 -0.297582 1.49408 106 103 98 
0.138133 0.281276 1.17604 8 3 0 
0.160251 -0.166449 1.42463 73 69 66 
0.148457 0.0935307 1.28743 99 92 86 
0.142289 0.225353 1.21429 96 88 77 
0.163377 -0.224316 1.45693 77 76 72 
0.141677 0.261915 1.19598 31 22 15 
0.163261 -0.193589 1.43896 9 5 2 
0.160832 -0.140108 1.40977 88 83 79 
0.170863 -0.33943 1.52362 87 84 79 
0.170615 -0.367008 1.51251 16 8 5 
0.146674 0.180515 1.23876 4 0 0 
0.174134 -0.399072 1.52803 24 20 9 
0.136307 0.428646 1.07471 31 26 20 
0.156229 0.118662 1.27313 25 22 13 
0.179533 -0.338047 1.51808 8 7 3 
0.178036 -0.30807 1.50186 4 0 0 
0.167649 -0.0917727 1.38669 62 61 57 
0.173346 -0.078811 1.38059 102 99 94 
0.180132 -0.215412 1.44842 106 103 98 
0.18296 -0.26759 1.47362 121 117 108 
0.185619 -0.31406 1.49732 134 123 117 
0.180057 -0.18965 1.43965 5 2 0 
0.183936 -0.250926 1.46418 122 119 114 
0.15804 0.264312 1.19813 15 14 9 
0.156344 0.285593 1.17431 92 89 80 
0.18856 -0.29224 1.48439 86 82 71 
0.163765 0.188341 1.23788 13 9 6 
0.182931 -0.152404 1.41589 77 72 68 
0.193045 -0.341118 1.5116 4 0 0 
0.180168 -0.0892918 1.37896 1 1 0 
0.188338 -0.228864 1.44974 115 112 107 
0.193927 -0.310758 1.49201 120 112 101 
0.186237 -0.135217 1.40086 84 77 69 
0.185613 -0.11672 1.3883 144 134 122 
0.169116 0.207572 1.22843 3 0 0 
0.193089 -0.217548 1.4469 108 104 93 
0.190222 -0.15789 1.41052 22 18 9 
0.198619 -0.277259 1.47621 44 34 25 
0.202832 -0.323989 1.49902 110 106 103 
0.18942 -0.0892637 1.37372 78 71 65 
0.1709 0.268346 1.20074 60 60 58 
0.200739 -0.249022 1.45728 131 122 113 
0.200368 -0.229248 1.44458 107 105 93 
0.160436 0.424984 1.08284 115 110 104 
0.210848 -0.378122 1.52544 7 2 0 
0.173627 0.276643 1.19195 29 20 23 
0.194949 -0.0984721 1.37682 81 76 70 
0.189717 -0.00174811 1.3276 100 90 81 
0.200367 -0.151707 1.40909 29 24 18 
0.211557 -0.318329 1.50245 30 23 15 
0.204989 -0.213346 1.44187 124 119 113 
0.207942 -0.233964 1.45429 11 6 0 
0.195108 -0.0349882 1.34413 120 115 109 
0.21196 -0.289445 1.48473 16 6 5 
0.202022 -0.110097 1.38761 13 10 5 
0.193745 0.0212322 1.31248 86 82 73 
0.224084 -0.430105 1.56211 5 1 0 
0.177591 0.296515 1.16904 72 71 66 
0.218258 -0.333024 1.50839 97 92 86 
0.194022 0.0428637 1.30236 88 81 75 
0.171816 0.40607 1.10842 33 30 21 
0.186539 0.186979 1.22956 14 4 2 
0.203406 -0.0601779 1.36279 93 90 85 
0.184022 0.242854 1.20157 77 74 69 
0.189474 0.157634 1.24405 111 104 94 
0.184151 0.268626 1.19043 107 98 91 
0.229601 -0.393336 1.54724 6 0 0 
0.184919 0.279346 1.18412 8 2 2 
0.200026 0.056632 1.29885 14 9 3 
0.189678 0.213012 1.21525 7 0 0 
0.206438 -0.0329372 1.34912 76 67 62 
0.202887 0.0183668 1.31961 7 3 0 
0.190606 0.201977 1.22016 16 9 0 
0.210208 -0.0856976 1.37662 14 9 3 
0.189427 0.22916 1.20703 105 98 90 
0.185871 0.289862 1.17863 88 83 77 
0.203217 0.0407479 1.30879 13 5 3 
0.200355 0.0851931 1.28255 103 96 88 
0.214879 -0.10606 1.39056 2 2 0 
0.17791 0.434381 1.07724 94 90 81 
0.227893 -0.224171 1.45859 124 120 109 
0.224305 -0.150586 1.41901 118 111 101 
0.21923 -0.0763083 1.37511 87 82 78 
0.192548 0.297736 1.17196 82 79 74 
0.214622 -0.00824675 1.33928 89 78 72 
0.181794 0.428138 1.0874 76 72 63 
0.203194 0.157322 1.24474 25 18 8 
0.199623 0.208216 1.21626 41 37 26 
