ply                 
format ascii 1.0    
element vertex 155
property float x    
property float y    
property float z    
property uchar red  
property uchar green
property uchar blue 
end_header          
-0.0986861 0.388315 1.15712 105 94 88 
-0.116619 0.00386878 1.43133 31 24 16 
-0.0912873 0.407042 1.14374 14 8 0 
-0.10629 0.0810814 1.3742 21 18 13 
-0.10619 0.0379066 1.39698 55 52 47 
-0.113818 -0.158278 1.51801 86 82 73 
-0.092811 0.18945 1.29782 118 108 98 
-0.0827026 0.361355 1.16374 23 20 13 
-0.0904241 0.190055 1.29629 52 38 27 
-0.0961145 0.0324184 1.38943 86 82 73 
-0.0973367 -0.0319057 1.42687 20 11 4 
-0.0965463 -0.0299492 1.42679 81 72 67 
-0.0965463 -0.0299492 1.42679 81 72 67 
-0.0943228 0.021407 1.39682 81 72 65 
-0.0968485 -0.0704384 1.44836 18 15 6 
-0.0929938 -0.0544099 1.43404 19 16 11 
-0.0747428 0.343032 1.16766 111 108 99 
-0.0769613 0.252177 1.24961 103 99 90 
-0.0790605 0.0627683 1.36058 70 67 60 
-0.0767668 0.0827399 1.34428 9 6 1 
-0.0789441 -0.0125322 1.40124 5 0 0 
-0.0704283 0.22682 1.25844 16 12 3 
-0.0643511 0.34939 1.15679 29 26 17 
-0.070235 0.187904 1.28007 96 89 79 
-0.0796617 -0.147976 1.47628 28 23 19 
-0.0666095 0.146149 1.30008 104 95 86 
-0.0574862 0.37214 1.14084 104 95 86 
-0.0764833 -0.229144 1.51991 19 16 9 
-0.0691441 -0.0240078 1.40014 21 18 13 
-0.0651009 0.0602854 1.34925 61 56 52 
-0.0672573 -0.0467976 1.41062 5 0 0 
-0.054514 0.347165 1.15204 18 16 4 
-0.0669525 -0.063253 1.41527 102 97 93 
-0.0699794 -0.182736 1.48828 5 0 0 
-0.0633416 0.0607417 1.34858 31 26 22 
-0.0652489 -0.0622007 1.41483 5 0 0 
-0.0681608 -0.179835 1.48682 5 0 0 
-0.0636768 -0.0581124 1.41387 5 0 0 
-0.0477982 0.328816 1.15953 112 109 102 
-0.0655267 -0.453374 1.60145 137 131 119 
-0.0455474 0.397503 1.12161 151 147 138 
-0.0535115 0.038025 1.35307 17 12 6 
-0.05429 0.0033502 1.37351 124 119 113 
-0.0433627 0.397042 1.12057 127 120 110 
-0.0433627 0.397042 1.12057 127 120 110 
-0.0572728 -0.202116 1.49044 3 0 0 
-0.0525112 0.00180257 1.37264 9 4 0 
-0.0426498 0.36035 1.14069 103 101 89 
-0.0505799 0.027767 1.35773 92 87 83 
-0.0451003 0.275145 1.21375 74 71 62 
-0.0520768 -0.052027 1.40197 8 0 0 
-0.038523 0.41715 1.09774 14 5 0 
-0.0493191 -0.0630092 1.40651 18 14 5 
-0.0473784 0.00179244 1.36879 123 118 112 
-0.0416126 0.103077 1.30991 22 11 5 
-0.0347683 0.394654 1.11672 26 24 12 
-0.0432984 -0.0888469 1.41544 98 93 87 
-0.0372159 0.166459 1.27025 4 0 0 
-0.0400779 -0.0899597 1.41409 36 31 28 
-0.0350466 0.150982 1.27473 14 5 0 
-0.0389787 -0.124325 1.43247 93 86 80 
-0.0349093 -0.0757373 1.40407 96 91 87 
-0.0305485 0.164624 1.26703 12 9 0 
-0.0287193 0.171089 1.26059 7 0 0 
-0.0259999 0.331952 1.14656 127 127 117 
-0.0281168 0.174576 1.25909 10 5 1 
-0.0274123 0.0970742 1.30464 31 27 16 
-0.027136 0.112631 1.29514 84 75 66 
-0.0266962 -0.075569 1.4006 6 0 0 
-0.0255781 -0.0341054 1.37652 5 1 0 
-0.0196536 0.35451 1.13227 29 25 14 
-0.0274029 -0.470738 1.6359 62 59 50 
-0.0230559 -0.0336936 1.37573 78 72 72 
-0.0227239 -0.060947 1.38919 103 98 92 
-0.0203076 0.0686449 1.3166 30 26 17 
-0.0208152 -0.0519178 1.38308 7 2 0 
-0.0167966 0.379842 1.11913 97 91 79 
-0.017975 0.174792 1.25535 76 73 66 
-0.0195526 -0.090445 1.40489 5 1 0 
-0.015757 0.322674 1.1488 131 127 116 
-0.0166307 0.152569 1.26717 19 12 4 
-0.0174219 -0.00300326 1.35478 49 44 40 
-0.0177354 -0.0588738 1.38574 9 5 0 
-0.0164162 0.0993386 1.29707 88 84 73 
-0.0151211 0.269584 1.20221 18 9 0 
-0.0167755 -0.0244957 1.36731 16 13 8 
-0.0168783 -0.0912976 1.40512 11 7 4 
-0.0124286 0.439237 1.06296 114 110 101 
-0.0135798 0.258288 1.20806 7 0 0 
-0.0119464 0.367637 1.12365 15 6 0 
-0.0141016 0.013175 1.34475 11 1 0 
-0.0130703 -0.0226827 1.36511 92 87 83 
-0.0104726 0.375665 1.11758 94 85 76 
-0.0120552 -0.388561 1.54432 152 142 130 
-0.0108771 -0.132808 1.42511 51 42 33 
-0.0114611 -0.401786 1.55126 36 27 22 
-0.00810895 -0.0214989 1.36158 103 96 88 
-0.00736238 -0.0750257 1.39089 91 82 75 
-0.00657598 -0.130422 1.42206 100 89 83 
-0.00599041 0.0890024 1.29952 112 105 95 
-0.00566385 0.194784 1.23831 30 26 15 
-0.00466167 0.377617 1.11621 17 13 2 
-0.00591006 -0.194583 1.45702 7 4 0 
-0.00404029 0.386924 1.10838 13 9 0 
-0.0041198 0.121866 1.27874 22 18 9 
-0.00110875 0.132002 1.27163 88 79 72 
-0.000901553 -0.0805511 1.39154 104 100 89 
0.00210157 -0.0972169 1.39848 114 105 100 
0.00228389 -0.0798676 1.39067 18 10 0 
0.00275545 -0.131515 1.41847 96 87 80 
0.00257773 0.421012 1.07445 16 11 5 
0.00333777 0.195641 1.2359 125 119 107 
0.00392657 -0.0950388 1.39841 7 0 0 
0.0045683 -0.0799306 1.38954 8 0 0 
0.00568804 -0.26566 1.49134 102 97 94 
0.00633426 0.242839 1.20883 9 5 0 
0.00880081 0.41095 1.08443 14 7 0 
0.0106595 0.119539 1.27478 21 16 10 
0.011412 0.252245 1.20303 95 85 75 
0.0181218 0.365977 1.11554 22 13 6 
0.0274199 0.0895192 1.28766 102 95 89 
0.0289677 0.190689 1.23055 7 2 0 
0.0293191 0.195251 1.22784 92 88 79 
0.0293191 0.195251 1.22784 92 88 79 
0.0337876 0.0961164 1.28147 105 102 93 
0.0391928 -0.240114 1.46843 3 0 0 
0.0294839 0.387246 1.10152 93 83 74 
0.0300584 0.361573 1.11618 32 25 15 
0.0329769 0.384788 1.10134 32 28 17 
0.0407186 0.239368 1.20193 75 72 63 
0.0563566 -0.472175 1.56092 141 138 129 
0.0622307 -0.30765 1.49821 13 10 5 
0.0558795 0.143198 1.2514 7 3 0 
0.0674887 -0.267285 1.47825 118 117 112 
0.0730402 -0.156528 1.41707 94 89 85 
0.077048 0.225658 1.20504 13 4 0 
0.0769828 0.228281 1.20402 82 73 66 
0.179018 -1.51662 2.57228 138 131 115 
0.179323 -1.52617 2.5762 145 136 127 
0.101349 -0.105935 1.3866 92 89 82 
0.0798126 0.384964 1.09646 27 23 12 
0.0994848 -0.025921 1.34291 45 35 26 
0.0921333 0.345426 1.11798 92 88 79 
0.186162 -0.0928749 1.38796 1 1 0 
0.193042 -0.164197 1.42423 107 102 96 
0.191629 -0.130126 1.40368 124 123 119 
0.187421 -0.0555344 1.36784 2 2 0 
0.193886 -0.145552 1.40921 120 110 108 
0.186322 -0.00436727 1.33948 84 75 66 
0.187991 -0.00178548 1.33727 7 0 0 
0.191021 -0.0429223 1.35409 119 106 98 
0.191826 -0.0408666 1.35413 7 0 0 
0.191826 -0.0408666 1.35413 7 0 0 
0.180475 0.140983 1.25949 6 0 0 
0.18417 0.146124 1.25109 6 1 0 
