ply                 
format ascii 1.0    
element vertex 553
property float x    
property float y    
property float z    
property uchar red  
property uchar green
property uchar blue 
end_header          
1.01394 -0.773802 2.7774 22 6 0 
1.37529 -0.70546 2.80508 163 153 143 
1.17779 -0.671761 2.87373 86 78 65 
1.11683 -0.655413 2.84879 43 32 12 
1.13736 -0.649175 2.85795 25 14 0 
1.12936 -0.646421 2.85337 27 16 0 
1.19963 -0.627352 2.89275 23 13 1 
1.20032 -0.621951 2.89652 58 46 32 
1.12233 -0.604074 2.86152 95 81 68 
1.12049 -0.598969 2.86419 88 74 65 
1.20484 -0.466987 2.63904 240 203 63 
1.20809 -0.465393 2.64074 145 104 0 
1.15691 -0.44434 2.66157 50 14 0 
0.530077 -0.366173 2.22198 248 202 127 
0.725801 -0.263044 2.44567 182 160 149 
0.699104 -0.257804 2.43643 230 205 198 
0.606016 -0.243253 2.38863 20 5 0 
0.625636 -0.241161 2.38348 139 123 110 
0.384068 -0.237524 2.39815 175 155 148 
0.24799 -0.212066 2.16112 114 110 101 
0.535813 -0.230819 2.36726 73 62 58 
0.450626 -0.21237 2.33711 10 0 0 
0.430785 -0.210768 2.35003 121 102 88 
0.447012 -0.209065 2.34074 19 2 0 
1.1318 -0.0475215 2.58834 65 35 7 
1.54759 0.298321 3.01347 67 34 15 
1.1134 -0.691287 2.83408 99 94 74 
1.17161 -0.660706 2.8742 19 6 0 
1.19884 -0.629096 2.89449 18 8 0 
1.18722 -0.498671 2.65195 63 14 0 
0.737761 -0.287195 2.44927 47 30 20 
0.461938 -0.219676 2.3363 60 46 37 
0.498824 -0.116082 2.21408 17 0 0 
0.358355 0.318596 2.3608 138 112 97 
-0.868976 0.372877 2.04591 161 150 128 
1.11333 -0.690792 2.83209 99 94 74 
1.18841 -0.670828 2.87609 11 8 0 
1.18891 -0.510122 2.65154 236 194 74 
1.16519 -0.499327 2.67322 239 211 172 
0.200362 -0.279793 2.1969 36 16 65 
1.31807 -0.319073 2.5576 224 194 168 
0.498882 -0.282319 2.39416 218 169 111 
0.510579 -0.27265 2.39824 49 26 10 
0.576652 -0.229093 2.38209 130 111 107 
0.591358 -0.226341 2.37001 14 0 0 
0.462077 -0.219458 2.3336 57 43 34 
1.14175 0.15522 2.7033 202 176 163 
1.05211 0.177348 2.66748 204 176 162 
-1.09493 0.418246 1.92085 117 89 85 
1.24209 -0.823186 2.86434 14 0 0 
1.1821 -0.667934 2.87511 23 14 5 
0.622909 -0.481814 2.25775 66 126 62 
0.37241 -0.458509 2.31729 196 122 119 
0.541042 -0.274807 2.39175 120 92 70 
0.503428 -0.22843 2.35084 105 91 82 
0.619265 -0.230425 2.37519 57 35 24 
1.1414 0.15479 2.69643 211 183 169 
-0.0123643 0.640851 2.33027 57 29 15 
1.04898 0.178147 2.66656 199 171 157 
1.31957 -0.741396 2.80506 13 7 11 
1.54013 0.298127 3.02254 72 43 29 
1.36315 -0.710041 2.79694 63 56 50 
1.12462 -0.700647 2.8344 29 22 4 
1.15737 -0.700198 2.85042 10 0 0 
1.12401 -0.677197 2.8398 108 94 85 
1.16568 -0.677889 2.86124 118 102 89 
1.11553 -0.654747 2.84548 43 32 12 
1.14027 -0.6511 2.85354 48 40 19 
1.14872 -0.645812 2.85566 117 99 99 
1.13291 -0.637657 2.85059 42 28 17 
1.19688 -0.625336 2.88629 23 13 1 
0.624604 -0.488237 2.25966 0 7 0 
0.639796 -0.474665 2.24717 163 162 108 
0.658999 -0.47405 2.24977 247 209 126 
0.665361 -0.472308 2.24155 36 0 0 
1.11866 -0.598197 2.85958 88 74 65 
0.631837 -0.465766 2.24261 199 176 126 
0.538708 -0.481571 2.34229 113 76 57 
0.470139 -0.482193 2.37336 69 35 7 
1.16985 -0.574586 2.88517 88 70 68 
1.23474 -0.520336 2.63861 255 224 83 
1.21851 -0.508353 2.6356 132 91 0 
1.18766 -0.5065 2.65013 58 9 0 
1.16603 -0.498823 2.67421 248 219 175 
1.14666 -0.499725 2.68498 248 203 86 
0.570283 -0.421038 2.31822 110 93 85 
1.19992 -0.468251 2.63362 166 131 0 
1.17903 -0.47094 2.66497 139 105 44 
0.369678 -0.391478 2.32782 102 68 58 
1.15565 -0.441801 2.65968 232 198 161 
1.24514 -0.398135 2.69685 218 182 134 
1.13192 -0.397807 2.70572 138 109 77 
0.500067 -0.298269 2.40028 191 130 49 
1.3204 -0.31866 2.55575 217 185 162 
0.721071 -0.28364 2.44143 43 26 18 
0.37264 -0.273093 2.38976 148 134 125 
0.400567 -0.264213 2.40232 129 115 104 
0.356553 -0.259165 2.39507 24 11 3 
0.725907 -0.26315 2.44609 182 160 149 
1.1705 -0.265919 2.49387 64 38 15 
0.608282 -0.248413 2.38885 24 9 4 
0.62709 -0.247595 2.39179 18 5 0 
0.655296 -0.24894 2.40787 50 32 22 
0.406338 -0.244687 2.37808 131 117 106 
0.354879 -0.239214 2.39702 28 7 2 
0.483841 -0.234561 2.34847 148 131 121 
0.58099 -0.236285 2.37503 68 57 55 
0.228752 -0.21297 2.15292 10 0 0 
0.599996 -0.235142 2.38357 35 18 11 
0.449807 -0.221976 2.32674 18 4 0 
0.506908 -0.224516 2.35405 111 98 90 
0.450993 -0.208827 2.34458 28 11 3 
0.572682 -0.131303 2.24417 26 0 0 
1.13374 -0.0477132 2.5927 65 35 7 
1.10394 -0.0393746 2.56717 134 107 86 
-0.309962 0.105938 2.05699 72 3 48 
1.46935 0.223966 3.13935 38 19 12 
-0.437116 0.139651 1.94073 129 83 122 
0.737304 0.237548 2.52146 142 114 102 
1.11477 -0.674467 2.84098 117 108 99 
0.526818 -0.54203 2.37501 0 14 0 
1.15525 -0.645461 2.8639 31 12 5 
1.11544 -0.636319 2.8398 29 16 0 
0.521473 -0.514093 2.33792 0 6 0 
1.12498 -0.612561 2.85505 50 36 10 
0.355975 -0.431967 2.33313 160 143 133 
0.475239 -0.395933 2.27432 118 106 94 
0.496104 -0.383009 2.23415 77 8 0 
1.16658 -0.438463 2.66252 39 11 0 
1.20746 -0.42312 2.64569 92 51 0 
1.25049 -0.39946 2.70778 218 182 134 
0.360229 -0.332534 2.36191 8 0 0 
0.769208 -0.358284 2.54799 136 119 111 
1.29334 -0.353695 2.61181 117 56 11 
1.28881 -0.351249 2.598 126 62 1 
0.348671 -0.274861 2.39605 65 53 39 
0.500191 -0.256217 2.38987 24 10 7 
0.651966 -0.240105 2.39916 69 43 30 
0.62964 -0.233286 2.38479 15 0 0 
0.617487 -0.230902 2.38132 24 2 0 
0.231607 -0.194025 2.16197 106 102 91 
1.54426 0.297542 3.011 62 29 10 
-0.713791 0.419085 1.97222 53 27 10 
1.01307 -0.771891 2.77285 20 6 0 
1.35917 -0.734085 2.78599 15 0 3 
1.12999 -0.722057 2.82608 36 30 6 
1.17352 -0.669443 2.86827 116 104 90 
0.643301 -0.526752 2.26923 39 120 41 
0.531617 -0.536478 2.36196 70 107 73 
0.648465 -0.51614 2.2672 91 156 88 
0.491219 -0.537747 2.37788 48 0 0 
0.601142 -0.48754 2.26084 157 143 96 
0.612268 -0.453312 2.25981 129 98 67 
0.586451 -0.415115 2.32213 17 0 0 
1.19487 -0.466757 2.68315 193 158 64 
1.04244 -0.479464 2.85515 17 0 0 
0.363955 -0.383084 2.33128 83 68 63 
1.15505 -0.412855 2.74253 61 25 0 
1.52212 -0.347753 2.64845 66 44 30 
0.348206 -0.29164 2.40754 197 176 159 
0.362808 -0.280214 2.40249 56 42 33 
0.493371 -0.277651 2.39532 189 149 98 
0.523994 -0.273078 2.39205 119 99 75 
0.510789 -0.272621 2.39917 49 26 10 
0.485414 -0.27043 2.40179 126 85 29 
0.680412 -0.26705 2.42043 46 31 24 
0.65485 -0.260422 2.41352 112 99 91 
0.388835 -0.238704 2.39928 19 0 0 
0.449507 -0.223269 2.34065 13 0 0 
0.532745 -0.206849 2.33913 104 77 60 
-0.0813425 -0.161746 2.25046 105 79 54 
1.17264 -0.0623659 2.61836 28 0 0 
1.67023 0.182859 3.23379 65 34 13 
-0.326698 0.118615 2.07577 64 48 58 
1.05133 0.177107 2.66547 204 176 162 
-0.901853 0.313272 2.16856 61 26 7 
-0.964257 0.345572 1.95394 169 146 132 
-0.863425 0.371086 2.03174 164 151 132 
-0.75381 0.405187 1.99794 65 34 16 
-0.772205 0.465596 1.89219 68 28 3 
1.40722 -0.693947 2.8055 14 0 0 
0.607478 -0.521123 2.2608 70 93 67 
0.497521 -0.478534 2.34134 215 160 70 
0.373059 -0.45973 2.32097 196 122 119 
0.590773 -0.450917 2.3008 14 4 0 
1.18248 -0.447204 2.66042 22 0 0 
1.30864 -0.324833 2.54822 146 94 55 
0.654148 -0.288824 2.44488 95 57 46 
0.752966 -0.270575 2.45345 53 34 28 
0.488076 -0.25778 2.3854 13 0 0 
0.49596 -0.227483 2.34843 47 32 25 
0.610343 -0.225237 2.37337 202 178 166 
0.601453 -0.218261 2.35649 151 124 107 
1.70056 0.183874 3.23758 63 28 6 
1.47284 0.209749 3.13049 99 89 79 
-0.919352 0.32164 2.14834 52 20 5 
-1.05782 0.397732 1.93097 111 91 84 
-0.681892 0.422646 1.9645 55 22 7 
-0.707712 0.438911 1.92319 44 12 0 
1.31847 -0.742515 2.80471 18 2 5 
1.3622 -0.735918 2.79722 14 3 9 
1.39667 -0.693179 2.8162 150 129 108 
0.532957 -0.518894 2.34055 5 13 0 
0.58866 -0.486293 2.26384 150 117 76 
1.18901 -0.432853 2.65397 21 11 12 
1.13986 -0.418679 2.74778 62 27 0 
0.59244 -0.331275 2.48674 162 127 108 
0.651467 -0.261922 2.39801 99 85 76 
-0.29191 0.110763 2.06037 29 1 23 
1.31447 0.34791 2.91589 26 13 7 
-1.05055 0.479312 1.8004 168 141 134 
0.610722 -0.583125 2.25259 169 2 32 
0.581971 -0.580694 2.2671 140 0 23 
0.208166 -0.248951 2.1967 79 68 62 
0.664047 -0.247732 2.39891 152 125 114 
-0.00867891 0.632996 2.31133 56 31 24 
1.01391 -0.775031 2.78064 29 9 0 
1.16579 -0.701345 2.86223 112 100 88 
1.16867 -0.686886 2.86478 83 70 61 
0.490755 -0.537932 2.3724 43 0 0 
1.12585 -0.674328 2.84744 61 40 23 
1.16627 -0.669846 2.8707 126 111 78 
1.11621 -0.658088 2.84813 134 119 98 
0.508937 -0.507542 2.34417 231 205 178 
1.13335 -0.649168 2.85918 111 99 73 
1.16414 -0.648534 2.87575 72 54 34 
1.12356 -0.637353 2.85871 67 51 28 
0.366784 -0.473286 2.30463 114 13 0 
0.669811 -0.470704 2.23152 185 144 112 
0.648994 -0.467142 2.23597 216 173 120 
0.538626 -0.481436 2.34063 109 68 38 
1.20047 -0.622388 2.8987 27 11 0 
0.740453 -0.512473 2.49189 27 8 0 
0.773716 -0.500596 2.48868 31 2 0 
0.380026 -0.446283 2.32343 25 9 0 
0.735751 -0.493946 2.48264 117 75 51 
0.756182 -0.490141 2.47478 194 152 114 
0.85574 -0.538919 2.81079 156 129 120 
0.365493 -0.408193 2.31674 72 61 55 
0.848685 -0.523463 2.81139 41 14 3 
0.868735 -0.519909 2.81752 166 143 129 
0.894141 -0.518559 2.82923 235 146 150 
0.850237 -0.512685 2.81551 160 114 101 
0.879061 -0.513295 2.82407 89 12 2 
0.853143 -0.504711 2.8102 174 136 123 
0.866047 -0.505102 2.81959 155 97 93 
0.575042 -0.401789 2.34219 171 133 97 
0.904469 -0.505184 2.83495 209 142 126 
0.880513 -0.496295 2.82365 180 107 100 
0.869731 -0.49274 2.81718 75 1 0 
0.895056 -0.495024 2.83008 80 23 6 
1.1975 -0.473489 2.6433 157 118 0 
0.899291 -0.48014 2.82826 116 66 43 
1.2084 -0.466103 2.6448 132 92 0 
0.98253 -0.495848 2.90534 83 56 39 
0.886245 -0.473196 2.8249 102 57 36 
0.923952 -0.475741 2.83825 126 85 65 
0.485644 -0.342523 2.21241 175 110 10 
0.913557 -0.469507 2.83326 132 76 49 
0.731189 -0.371094 2.32682 254 203 146 
0.749809 -0.370163 2.34114 199 149 96 
1.15701 -0.444478 2.66298 50 15 0 
-0.0439931 -0.26787 2.21712 209 172 153 
0.773074 -0.36666 2.55988 20 0 0 
-0.0486721 -0.263624 2.20406 207 172 153 
0.760359 -0.357712 2.55108 119 109 99 
0.3595 -0.271411 2.38876 29 15 6 
0.711513 -0.281445 2.437 53 36 29 
0.721952 -0.277067 2.44148 133 120 112 
0.618937 -0.2551 2.39763 35 18 11 
0.519415 -0.241982 2.36231 124 107 97 
0.725829 -0.262773 2.44551 155 131 119 
0.487197 -0.236029 2.35166 42 24 10 
0.713536 -0.26109 2.44305 192 169 161 
0.648672 -0.251648 2.40602 116 101 96 
0.608157 -0.245567 2.38862 101 88 82 
0.530009 -0.221567 2.36998 188 168 159 
1.13162 -0.0475378 2.58476 74 43 15 
0.738069 0.036815 2.43062 116 89 80 
0.733512 0.239421 2.53085 99 72 61 
1.12439 -0.697032 2.84395 47 34 17 
0.637207 -0.509183 2.25167 88 104 59 
0.616503 -0.497076 2.25072 107 110 91 
1.17262 -0.654216 2.88124 80 62 48 
0.362764 -0.457681 2.31257 166 130 116 
0.355641 -0.426006 2.3283 14 0 0 
1.10763 -0.56675 2.86688 91 78 70 
0.88843 -0.547113 2.83004 77 49 37 
0.859755 -0.525138 2.81401 147 107 105 
1.18754 -0.499514 2.6567 82 33 0 
1.19221 -0.478414 2.65721 225 194 42 
0.196626 -0.279342 2.20788 104 82 69 
1.13423 -0.398292 2.71227 157 127 99 
0.658807 -0.263819 2.41584 50 32 28 
0.474683 -0.22314 2.336 73 59 46 
1.54705 0.297934 3.01857 61 30 10 
1.24226 -0.824554 2.86747 28 11 4 
1.10916 -0.675234 2.83588 116 108 97 
0.758362 -0.554206 2.47378 111 0 0 
0.75774 -0.543888 2.47751 198 146 135 
0.651398 -0.484301 2.24443 192 152 93 
0.675811 -0.484502 2.24847 255 234 179 
0.621415 -0.480534 2.25036 64 130 59 
0.643419 -0.477082 2.24017 168 156 82 
0.648288 -0.441683 2.25972 143 111 90 
0.526749 -0.438612 2.30355 24 0 0 
0.531964 -0.442144 2.31239 168 125 56 
1.14641 -0.514444 2.69823 58 23 0 
1.17814 -0.449004 2.66647 29 0 0 
-0.0583846 -0.276051 2.20272 45 12 3 
1.13373 -0.404021 2.72186 221 191 157 
0.741511 -0.351947 2.53603 95 80 73 
1.23331 -0.388481 2.68889 154 119 89 
0.692746 -0.325289 2.49193 164 134 106 
0.678625 -0.318729 2.48361 162 132 104 
0.654458 -0.288893 2.44787 94 49 43 
1.5414 -0.369096 2.65257 223 193 182 
0.754609 -0.271439 2.46597 37 18 11 
0.701464 -0.257993 2.43749 216 194 183 
0.65677 -0.248708 2.41213 37 18 11 
1.11218 -0.0390715 2.58797 132 107 77 
1.05213 0.177119 2.66878 217 189 177 
1.70423 0.185175 3.24189 69 37 16 
1.12262 -0.674386 2.83729 55 37 25 
-0.321614 -0.415726 2.18288 99 79 68 
0.578303 -0.423512 2.3137 90 79 75 
1.14148 -0.483876 2.70125 57 20 0 
1.24453 -0.397779 2.70696 109 67 9 
0.501908 -0.273651 2.393 182 153 121 
0.687959 -0.268473 2.42706 95 82 74 
1.52719 -0.349305 2.66091 44 22 11 
1.32887 -0.32149 2.55951 226 174 135 
0.705406 -0.25447 2.40476 150 126 114 
0.511887 -0.230232 2.34649 46 29 22 
0.628387 -0.232375 2.38039 32 10 0 
0.609939 -0.224679 2.36818 203 180 166 
0.349582 -0.33583 2.38579 86 63 55 
-0.0260575 -0.266936 2.21178 130 103 34 
0.530512 -0.272603 2.39505 30 12 0 
1.10518 -0.0465486 2.60017 18 0 0 
1.25098 0.155412 2.77405 22 10 10 
1.54388 0.298813 3.02852 66 40 25 
1.31898 -0.740663 2.80022 29 20 25 
1.39141 -0.695069 2.81194 154 128 105 
1.17548 -0.486171 2.67955 223 187 28 
1.12611 -0.438413 2.74798 199 172 151 
0.681754 -0.321248 2.46583 156 119 90 
1.29017 -0.360926 2.62304 152 87 59 
0.49817 -0.275184 2.37688 168 138 104 
0.435515 -0.215913 2.34087 59 43 44 
1.1045 -0.0465517 2.58308 19 0 0 
1.11446 -0.694375 2.80914 29 22 4 
1.1539 -0.658736 2.8364 69 58 30 
1.12438 -0.641706 2.82579 25 14 0 
1.1101 -0.597532 2.83079 95 81 68 
1.15381 -0.688856 2.82869 23 14 7 
1.17458 -0.452142 2.61276 217 180 99 
0.57238 -0.239638 2.36354 104 93 91 
1.10207 -0.684054 2.80387 99 94 74 
1.09784 -0.244057 2.4503 125 99 72 
1.39235 -0.690282 2.77748 18 2 3 
1.36215 -0.686846 2.77978 11 8 19 
1.12095 -0.680214 2.81903 123 104 74 
0.56076 -0.130059 2.2463 18 0 0 
0.504521 -0.117471 2.21008 20 0 0 
1.11482 -0.685588 2.80178 60 47 28 
1.15645 -0.682553 2.82017 110 98 86 
1.11138 -0.659252 2.80719 108 92 79 
1.09749 -0.652767 2.79938 114 101 93 
1.10586 -0.648104 2.805 134 119 98 
1.11411 -0.635379 2.81133 107 91 68 
1.1884 -0.612479 2.85305 27 11 0 
0.849566 -0.530533 2.76986 156 129 120 
1.17566 -0.496202 2.61615 204 157 65 
0.887288 -0.500037 2.7839 83 10 3 
0.880781 -0.475294 2.7741 193 144 129 
0.973483 -0.487405 2.85762 83 56 39 
0.869061 -0.461347 2.77248 181 136 115 
1.3664 -0.498124 2.86592 171 154 160 
0.430731 -0.284775 2.42965 120 102 92 
0.644426 -0.259329 2.38866 42 28 25 
0.472726 -0.208432 2.32774 31 11 4 
1.1652 -0.263867 2.47586 41 16 0 
1.08741 -0.246596 2.44438 110 86 74 
0.571827 -0.130595 2.23139 21 0 0 
0.761781 -0.507474 2.46716 17 0 0 
1.14772 -0.438222 2.6267 41 6 0 
1.12191 -0.0467765 2.55418 70 40 14 
0.357543 0.31667 2.34167 116 88 76 
1.11625 -0.670732 2.80586 59 40 23 
0.743387 -0.537844 2.45108 184 151 134 
0.509564 -0.228622 2.33618 41 26 21 
0.585008 -0.235559 2.35975 91 82 75 
1.128 0.152551 2.662 208 180 168 
-0.927521 0.382772 1.90038 160 136 132 
1.38801 -0.677873 2.77911 121 101 92 
1.51135 -0.343837 2.62202 44 22 11 
1.36766 -0.690754 2.77514 137 123 110 
0.603091 0.267246 2.44193 70 42 30 
0.629459 0.256267 2.37339 201 172 154 
1.16056 -0.680013 2.77033 103 93 81 
1.16344 -0.665674 2.7732 62 45 37 
1.11572 -0.653488 2.75952 100 91 82 
1.11805 -0.644251 2.75388 95 83 69 
1.16267 -0.654263 2.77128 48 34 21 
1.11266 -0.638092 2.7583 123 114 97 
1.12255 -0.639796 2.76019 81 70 40 
1.16029 -0.63932 2.77676 26 15 0 
1.13294 -0.628727 2.76349 36 25 7 
1.11905 -0.624444 2.76083 25 17 0 
1.15269 -0.628967 2.77485 128 112 99 
1.16413 -0.632263 2.78096 108 94 83 
1.13413 -0.622248 2.76989 102 85 75 
0.761209 -0.480101 2.42284 179 140 107 
1.12322 -0.591735 2.77329 139 126 110 
1.19373 -0.607412 2.80153 47 33 22 
0.698492 -0.446011 2.34212 18 0 0 
1.11656 -0.579573 2.76786 80 67 58 
1.19395 -0.59585 2.7999 47 31 15 
1.17467 -0.588902 2.7966 96 88 75 
0.860017 -0.523102 2.72718 166 143 127 
1.09921 -0.560738 2.7621 104 94 85 
0.830012 -0.509381 2.70964 106 23 9 
0.865356 -0.511548 2.72444 102 71 68 
1.10298 -0.5485 2.7651 96 87 80 
1.16373 -0.524664 2.59465 167 131 0 
0.82394 -0.494945 2.70715 118 73 52 
0.872944 -0.503486 2.72664 156 128 117 
0.801296 -0.486872 2.69476 220 141 134 
0.855234 -0.495844 2.72051 132 97 75 
0.822078 -0.486715 2.70058 87 0 0 
0.876905 -0.494926 2.72743 65 32 17 
0.896647 -0.498326 2.73487 77 15 4 
0.864951 -0.490221 2.72198 136 94 82 
0.756302 -0.394197 2.29081 208 222 187 
0.90289 -0.493185 2.73956 195 133 120 
0.871224 -0.485713 2.7271 213 151 138 
0.896106 -0.488174 2.73372 232 158 155 
0.849575 -0.47769 2.71566 172 105 96 
0.862471 -0.479195 2.71649 215 131 131 
0.829081 -0.471521 2.71084 84 22 23 
0.838349 -0.470363 2.70762 190 147 131 
0.878715 -0.478587 2.72804 205 141 131 
1.18226 -0.492989 2.57927 105 59 0 
0.896234 -0.476098 2.73492 193 142 125 
1.18198 -0.484511 2.57482 86 39 0 
0.846355 -0.458291 2.7149 220 139 135 
0.88035 -0.465713 2.72422 181 129 116 
0.871554 -0.459862 2.71975 185 136 121 
0.902488 -0.465233 2.7382 123 75 53 
0.861964 -0.454125 2.71855 166 118 106 
0.728752 -0.36238 2.29237 240 184 97 
0.890065 -0.457536 2.73011 90 43 23 
0.880326 -0.454403 2.72495 175 129 113 
0.74024 -0.361259 2.29108 167 114 70 
0.64113 -0.357611 2.39907 48 0 0 
0.808029 -0.430355 2.69328 139 84 54 
0.866738 -0.442091 2.72028 108 66 44 
0.916143 -0.452542 2.7355 124 75 43 
0.859191 -0.43874 2.71353 186 141 120 
0.552865 -0.334585 2.36213 79 27 0 
1.20218 -0.452243 2.56315 146 106 0 
0.777224 -0.342085 2.44676 38 29 22 
0.508441 -0.280765 2.36216 209 162 110 
1.22175 -0.411108 2.5801 207 155 53 
0.684037 -0.304046 2.42049 81 64 56 
0.692171 -0.303174 2.44077 95 84 80 
0.500256 -0.252785 2.35213 121 105 92 
0.74039 -0.292516 2.41427 67 53 44 
0.453244 -0.225981 2.30582 54 40 31 
0.489552 -0.231524 2.31596 147 133 122 
0.552697 -0.243719 2.33573 82 68 57 
0.733861 -0.279548 2.39689 59 42 34 
0.499411 -0.231748 2.32088 54 40 29 
0.438479 -0.213609 2.31297 63 46 38 
0.614602 -0.244951 2.35213 14 1 0 
0.47242 -0.213101 2.30739 118 102 102 
0.542289 -0.227801 2.33317 74 63 59 
0.631317 -0.237558 2.34637 147 132 125 
0.614241 -0.22795 2.31071 137 120 113 
0.637206 -0.230153 2.34418 12 0 0 
0.613802 -0.22215 2.33741 225 202 194 
1.12537 -0.619254 2.76878 32 16 3 
0.798818 -0.499328 2.69838 209 137 123 
1.13266 -0.514273 2.60944 66 44 23 
1.19822 -0.497526 2.56753 140 94 6 
0.860847 -0.465963 2.71886 200 137 128 
0.845448 -0.45186 2.70694 101 15 16 
0.68202 -0.318652 2.4191 203 158 103 
-0.0432062 -0.162558 2.17057 205 179 146 
0.793204 -0.328655 2.52114 109 87 76 
1.13001 -0.385695 2.6236 155 125 97 
0.44238 -0.222683 2.30779 15 0 0 
0.668108 -0.268037 2.37708 66 11 16 
0.770165 -0.278814 2.40107 47 32 27 
0.715803 -0.257288 2.40621 207 187 180 
0.356583 -0.0837771 2.13891 16 0 0 
1.12036 -0.674624 2.74895 25 15 6 
1.09596 -0.666766 2.74262 27 25 10 
1.15351 -0.67982 2.76203 42 31 9 
1.12356 -0.659324 2.75422 58 39 22 
1.11356 -0.652565 2.74848 103 99 88 
1.10766 -0.641215 2.75122 95 86 77 
1.14138 -0.496955 2.60246 23 0 0 
0.840533 -0.465834 2.70031 114 13 17 
0.559199 -0.361697 2.3672 53 3 0 
0.80765 -0.452121 2.68899 126 20 22 
0.831886 -0.458226 2.70668 106 0 0 
0.984142 -0.480326 2.80491 102 79 61 
0.779188 -0.359694 2.50986 39 20 16 
0.67338 -0.3281 2.42708 121 59 0 
0.419836 -0.26524 2.36059 129 113 100 
0.497768 -0.279399 2.35978 148 91 20 
0.784635 -0.341065 2.51815 43 28 23 
0.717308 -0.321234 2.45265 55 38 30 
1.10654 -0.409334 2.66751 134 107 86 
0.696774 -0.308432 2.43183 18 3 0 
0.351471 -0.239958 2.3739 58 38 31 
1.22664 -0.376781 2.60871 214 184 150 
0.700085 -0.252503 2.387 41 23 13 
1.11136 -0.672318 2.75816 91 86 67 
1.18262 -0.651106 2.78604 34 31 16 
0.745648 -0.4639 2.44671 41 21 10 
0.877397 -0.503706 2.73581 184 143 123 
0.892908 -0.507629 2.74239 196 149 143 
0.835273 -0.453984 2.71767 192 138 102 
1.13725 -0.469571 2.61771 60 34 7 
0.269147 -0.261162 2.20263 202 176 159 
0.678227 -0.343866 2.44271 154 87 19 
0.698485 -0.33176 2.45346 74 48 33 
1.20339 -0.412031 2.56867 96 61 5 
0.509816 -0.225643 2.31985 107 97 87 
0.784781 -0.27932 2.42863 78 54 44 
0.661241 -0.244214 2.3849 155 138 130 
0.60991 -0.214811 2.32012 154 126 114 
1.28544 -0.348994 2.54485 166 106 43 
1.35699 -0.69875 2.71902 141 129 113 
1.11615 -0.664932 2.73244 85 80 50 
0.75541 -0.524427 2.42708 15 6 7 
1.1723 -0.63013 2.77614 122 106 81 
0.40588 -0.240246 2.35596 40 29 27 
0.657363 -0.256945 2.37449 94 80 79 
0.609039 -0.234008 2.344 126 111 104 
1.27964 -0.355826 2.55007 149 94 63 
1.01682 -0.750884 2.70311 36 23 17 
1.23207 -0.789725 2.75723 27 18 21 
1.34879 -0.716252 2.71631 17 7 15 
1.15233 -0.667839 2.77629 130 104 77 
1.37174 -0.651574 2.73015 145 124 105 
0.989749 -0.488013 2.81639 103 80 66 
1.19165 -0.469628 2.57125 241 207 47 
0.784278 -0.304854 2.45195 161 144 128 
1.1101 -0.243586 2.42781 117 86 58 
