ply                 
format ascii 1.0    
element vertex 733
property float x    
property float y    
property float z    
property uchar red  
property uchar green
property uchar blue 
end_header          
1.01213 -0.769707 2.75796 22 6 0 
1.36981 -0.700815 2.78391 163 153 143 
1.17426 -0.668367 2.85264 86 78 65 
1.11374 -0.652353 2.82838 43 32 12 
1.13407 -0.646128 2.83735 25 14 0 
1.12612 -0.643421 2.83288 27 16 0 
1.19574 -0.624395 2.87148 23 13 1 
1.19642 -0.619059 2.87522 58 46 32 
1.119 -0.60157 2.84111 95 81 68 
1.11716 -0.596533 2.84377 88 74 65 
1.19934 -0.464917 2.62167 240 203 63 
1.20255 -0.463332 2.62333 145 104 0 
1.15182 -0.44276 2.64424 50 14 0 
0.528646 -0.366487 2.21364 248 202 127 
0.723164 -0.264309 2.43402 182 160 149 
0.696659 -0.259199 2.42506 230 205 198 
0.604172 -0.24501 2.37844 20 5 0 
0.623571 -0.242837 2.37325 139 123 110 
0.384391 -0.240317 2.38925 175 155 148 
0.248136 -0.214814 2.15599 114 110 101 
0.53448 -0.232918 2.35781 73 62 58 
0.449871 -0.214899 2.32863 10 0 0 
0.430281 -0.213447 2.34154 121 102 88 
0.446296 -0.211656 2.33225 19 2 0 
1.12492 -0.0497943 2.57361 65 35 7 
1.53644 0.292227 2.99255 67 34 15 
1.11045 -0.687823 2.81375 99 94 74 
1.16809 -0.657451 2.85318 19 6 0 
1.19498 -0.626128 2.87319 18 8 0 
1.18207 -0.496393 2.63437 63 14 0 
0.735131 -0.288183 2.4374 47 30 20 
0.461102 -0.222083 2.32773 60 46 37 
0.496562 -0.118848 2.2071 17 0 0 
0.356326 0.310337 2.35492 138 112 97 
-0.863056 0.36075 2.05368 161 150 128 
1.11037 -0.687329 2.81178 99 94 74 
1.18478 -0.667409 2.85493 11 8 0 
1.18379 -0.507721 2.63391 236 194 74 
1.16031 -0.497194 2.65548 239 211 172 
0.201445 -0.282245 2.19141 36 16 65 
1.3106 -0.317741 2.54122 224 194 168 
0.498263 -0.284165 2.3844 218 169 111 
0.509827 -0.274557 2.3884 49 26 10 
0.574996 -0.23109 2.37223 130 111 107 
0.58949 -0.228257 2.36021 14 0 0 
0.461225 -0.221856 2.32506 57 43 34 
1.13427 0.150378 2.68788 202 176 163 
1.04528 0.172048 2.65306 204 176 162 
-1.08926 0.405661 1.93242 117 89 85 
1.23858 -0.817951 2.84252 14 0 0 
1.17851 -0.664566 2.854 23 14 5 
0.621305 -0.480766 2.24794 66 126 62 
0.37335 -0.458914 2.30847 196 122 119 
0.539973 -0.27654 2.38179 120 92 70 
0.502311 -0.230629 2.3418 105 91 82 
0.617174 -0.232202 2.36514 57 35 24 
1.13391 0.149983 2.68109 211 183 169 
-0.0123963 0.627983 2.32873 57 29 15 
1.04217 0.172829 2.65217 199 171 157 
1.31477 -0.736586 2.78399 13 7 11 
1.52907 0.291955 3.00153 72 43 29 
1.3617 -0.707405 2.78373 63 56 50 
1.12485 -0.699029 2.82189 29 22 4 
1.15743 -0.698498 2.83759 10 0 0 
1.12418 -0.675783 2.82737 108 94 85 
1.16563 -0.676365 2.84838 118 102 89 
1.11569 -0.653561 2.83316 43 32 12 
1.14027 -0.649871 2.84104 48 40 19 
1.14865 -0.644601 2.84313 117 99 99 
1.1329 -0.636557 2.83823 42 28 17 
1.19649 -0.624184 2.8733 23 13 1 
0.624936 -0.488675 2.25635 0 7 0 
0.639921 -0.475097 2.24394 163 162 108 
0.659017 -0.474417 2.24642 247 209 126 
0.665294 -0.472638 2.23824 36 0 0 
1.11864 -0.597494 2.8474 88 74 65 
0.631952 -0.466274 2.23951 199 176 126 
0.539968 -0.482629 2.33883 113 76 57 
0.472012 -0.483609 2.37002 69 35 7 
1.16946 -0.573947 2.87261 88 70 68 
1.23293 -0.51923 2.62865 255 224 83 
1.21675 -0.507388 2.62581 132 91 0 
1.18613 -0.505705 2.64035 58 9 0 
1.16469 -0.498232 2.66434 248 219 175 
1.14548 -0.499231 2.67508 248 203 86 
0.570973 -0.422312 2.3151 110 93 85 
1.19811 -0.467643 2.62416 166 131 0 
1.17748 -0.470482 2.65528 139 105 44 
0.371591 -0.393799 2.32596 102 68 58 
1.15411 -0.441634 2.65032 232 198 161 
1.24299 -0.398055 2.68696 218 182 134 
1.13053 -0.398195 2.69625 138 109 77 
0.501132 -0.300927 2.39752 191 130 49 
1.3171 -0.318404 2.54731 217 185 162 
0.720838 -0.285636 2.43716 43 26 18 
0.37439 -0.276414 2.38798 148 134 125 
0.402164 -0.267522 2.40031 129 115 104 
0.358383 -0.262667 2.39342 24 11 3 
0.725583 -0.265283 2.44186 182 160 149 
1.16766 -0.266406 2.48696 64 38 15 
0.608382 -0.25093 2.38584 24 9 4 
0.62708 -0.25005 2.38866 18 5 0 
0.655189 -0.251326 2.40444 50 32 22 
0.407683 -0.248024 2.37636 131 117 106 
0.356649 -0.242867 2.39546 28 7 2 
0.484479 -0.237541 2.34659 148 131 121 
0.581147 -0.238947 2.37237 68 57 55 
0.229793 -0.216457 2.15427 10 0 0 
0.600069 -0.237764 2.38073 35 18 11 
0.450496 -0.225104 2.32531 18 4 0 
0.507385 -0.227488 2.35204 111 98 90 
0.451716 -0.212102 2.34307 28 11 3 
0.571809 -0.134202 2.24318 26 0 0 
1.13063 -0.0502014 2.58627 65 35 7 
1.10089 -0.04194 2.56116 134 107 86 
-0.307788 0.0986602 2.06435 72 3 48 
1.4647 0.218486 3.12721 38 19 12 
-0.435341 0.132187 1.95001 129 83 122 
0.735263 0.231754 2.51924 142 114 102 
1.115 -0.673111 2.82859 117 108 99 
0.528569 -0.542803 2.37101 0 14 0 
1.15516 -0.644247 2.85124 31 12 5 
1.11552 -0.635269 2.82764 29 16 0 
0.522954 -0.514984 2.33442 0 6 0 
1.12495 -0.611705 2.84281 50 36 10 
0.358176 -0.43408 2.33108 160 143 133 
0.476201 -0.397628 2.27225 118 106 94 
0.49667 -0.38458 2.23234 77 8 0 
1.16497 -0.438287 2.6531 39 11 0 
1.20548 -0.422848 2.63633 92 51 0 
1.24835 -0.399384 2.69775 218 182 134 
0.362152 -0.335403 2.36013 8 0 0 
0.769437 -0.359906 2.54207 136 119 111 
1.29048 -0.353483 2.60277 117 56 11 
1.28593 -0.351029 2.58912 126 62 1 
0.350625 -0.27829 2.39434 65 53 39 
0.501028 -0.259128 2.38743 24 10 7 
0.651804 -0.242535 2.39587 69 43 30 
0.629521 -0.235803 2.38178 15 0 0 
0.617421 -0.233473 2.37842 24 2 0 
0.232606 -0.19765 2.16333 106 102 91 
1.53858 0.292474 3.00053 62 29 10 
-0.711651 0.408879 1.98482 53 27 10 
1.01414 -0.769973 2.76114 20 6 0 
1.35781 -0.731254 2.77279 15 0 3 
1.13024 -0.720226 2.81352 36 30 6 
1.1734 -0.667976 2.85535 116 104 90 
0.643721 -0.526888 2.26553 39 120 41 
0.533246 -0.537236 2.35808 70 107 73 
0.648799 -0.516319 2.26355 91 156 88 
0.493204 -0.538701 2.37408 48 0 0 
0.601621 -0.48808 2.25766 157 143 96 
0.612535 -0.45403 2.25675 129 98 67 
0.587033 -0.416375 2.31892 17 0 0 
1.19326 -0.466319 2.67322 193 158 64 
1.04249 -0.48 2.84404 17 0 0 
0.365891 -0.385496 2.32947 83 68 63 
1.15368 -0.41315 2.73248 61 25 0 
1.51805 -0.346812 2.63811 66 44 30 
0.350298 -0.294993 2.40565 197 176 159 
0.364725 -0.283568 2.40061 56 42 33 
0.494369 -0.280461 2.39275 189 149 98 
0.524757 -0.275784 2.38937 119 99 75 
0.511672 -0.275408 2.3965 49 26 10 
0.486469 -0.273346 2.39925 126 85 29 
0.680276 -0.269253 2.41665 46 31 24 
0.654819 -0.262752 2.40998 112 99 91 
0.390388 -0.242228 2.39751 19 0 0 
0.450278 -0.226439 2.3391 13 0 0 
0.532909 -0.209779 2.3372 104 77 60 
-0.0779524 -0.167223 2.25334 105 79 54 
1.16944 -0.0646954 2.61144 28 0 0 
1.6646 0.178138 3.21952 65 34 13 
-0.324343 0.111108 2.08319 64 48 58 
1.04813 0.172403 2.66001 204 176 162 
-0.896448 0.3018 2.18068 61 26 7 
-0.960871 0.334824 1.96836 169 146 132 
-0.859813 0.360191 2.04489 164 151 132 
-0.751184 0.394746 2.01061 65 34 16 
-0.770763 0.455388 1.90601 68 28 3 
1.40545 -0.691298 2.79211 14 0 0 
0.608054 -0.521414 2.2574 70 93 67 
0.499031 -0.479776 2.33814 215 160 70 
0.375195 -0.461549 2.31879 196 122 119 
0.591368 -0.451858 2.29755 14 4 0 
1.18079 -0.446894 2.65089 22 0 0 
1.30541 -0.324557 2.53986 146 94 55 
0.654386 -0.291067 2.44091 95 57 46 
0.75253 -0.272571 2.44897 53 34 28 
0.488976 -0.260715 2.38307 13 0 0 
0.496491 -0.230461 2.34653 47 32 25 
0.61026 -0.227846 2.37062 202 178 166 
0.601315 -0.220894 2.35396 151 124 107 
1.69473 0.17926 3.22317 63 28 6 
1.46819 0.204438 3.11837 99 89 79 
-0.914099 0.310155 2.16081 52 20 5 
-1.05456 0.386492 1.9466 111 91 84 
-0.679989 0.412595 1.97692 55 22 7 
-0.706141 0.42891 1.93617 44 12 0 
1.31746 -0.739799 2.79143 18 2 5 
1.36086 -0.733084 2.78388 14 3 9 
1.395 -0.690599 2.80274 150 129 108 
0.534396 -0.519713 2.33694 5 13 0 
0.589227 -0.486899 2.26071 150 117 76 
1.1872 -0.432604 2.64455 21 11 12 
1.13863 -0.419004 2.73772 62 27 0 
0.593461 -0.333608 2.4825 162 127 108 
0.651389 -0.264201 2.39462 99 85 76 
-0.289832 0.103519 2.0676 29 1 23 
1.30979 0.341925 2.90765 26 13 7 
-1.04908 0.468499 1.81719 168 141 134 
0.611489 -0.58297 2.24892 169 2 32 
0.582978 -0.580704 2.26348 140 0 23 
0.20975 -0.252453 2.19766 79 68 62 
0.663837 -0.25006 2.39552 152 125 114 
-0.00876416 0.622566 2.31744 56 31 24 
1.01206 -0.769238 2.75511 29 9 0 
1.16208 -0.696099 2.83492 112 100 88 
1.16488 -0.681814 2.83745 83 70 61 
0.492296 -0.53596 2.35651 43 0 0 
1.12245 -0.669521 2.82062 61 40 23 
1.16245 -0.665006 2.84333 126 111 78 
1.11286 -0.653519 2.82139 134 119 98 
0.509994 -0.505774 2.32865 231 205 178 
1.12979 -0.644674 2.8322 111 99 73 
1.16027 -0.643979 2.84837 72 54 34 
1.12006 -0.633041 2.83181 67 51 28 
0.369126 -0.472397 2.29077 114 13 0 
0.668329 -0.46837 2.21655 185 144 112 
0.647752 -0.464946 2.22109 216 173 120 
0.539214 -0.479841 2.32506 109 68 38 
1.19611 -0.618087 2.87088 27 11 0 
0.739531 -0.510132 2.47282 27 8 0 
0.772335 -0.498251 2.46948 31 2 0 
0.38221 -0.445706 2.3093 25 9 0 
0.734764 -0.491815 2.46379 117 75 51 
0.754902 -0.487951 2.45593 194 152 114 
0.854922 -0.536716 2.78626 156 129 120 
0.36765 -0.408104 2.30295 72 61 55 
0.84789 -0.521483 2.78693 41 14 3 
0.8677 -0.517915 2.79288 166 143 129 
0.892832 -0.516518 2.80427 235 146 150 
0.849395 -0.51085 2.79102 160 114 101 
0.877896 -0.511364 2.79929 89 12 2 
0.852208 -0.502949 2.7858 174 136 123 
0.864991 -0.503314 2.79498 155 97 93 
0.574884 -0.400981 2.32663 171 133 97 
0.902997 -0.50329 2.80989 209 142 126 
0.879255 -0.494572 2.79891 180 107 100 
0.868565 -0.491085 2.79261 75 1 0 
0.893637 -0.493281 2.80517 80 23 6 
1.19162 -0.470271 2.61961 157 118 0 
0.897746 -0.478563 2.80339 116 66 43 
1.20237 -0.462936 2.62104 132 92 0 
0.98032 -0.49398 2.87879 83 56 39 
0.884819 -0.471749 2.80018 102 57 36 
0.922121 -0.474155 2.81311 126 85 65 
0.485601 -0.342363 2.19944 175 110 10 
0.911808 -0.468025 2.80827 132 76 49 
0.729028 -0.369951 2.31053 254 203 146 
0.747494 -0.369 2.32455 199 149 96 
1.15154 -0.441829 2.63929 50 15 0 
-0.0384146 -0.27084 2.20835 209 172 153 
0.771445 -0.366159 2.5401 20 0 0 
-0.0431511 -0.266619 2.19553 207 172 153 
0.758806 -0.357343 2.53154 119 109 99 
0.361567 -0.273202 2.3745 29 15 6 
0.709704 -0.281817 2.41964 53 36 29 
0.72002 -0.277465 2.424 133 120 112 
0.617924 -0.256034 2.38152 35 18 11 
0.519341 -0.243364 2.34741 124 107 97 
0.723809 -0.26334 2.42799 155 131 119 
0.48742 -0.23758 2.33716 42 24 10 
0.711644 -0.261721 2.42565 192 169 161 
0.647334 -0.25253 2.3896 116 101 96 
0.607187 -0.246628 2.37274 101 88 82 
0.529765 -0.223176 2.35497 188 168 159 
1.12438 -0.049602 2.56342 74 43 15 
0.734564 0.0326989 2.4142 116 89 80 
0.729652 0.232276 2.51363 99 72 61 
1.1211 -0.691943 2.81713 47 34 17 
0.636348 -0.506605 2.23653 88 104 59 
0.615823 -0.494719 2.23577 107 110 91 
1.16869 -0.649579 2.85375 80 62 48 
0.365133 -0.457012 2.29868 166 130 116 
0.358049 -0.425784 2.31437 14 0 0 
1.10404 -0.563398 2.84012 91 78 70 
0.88732 -0.544735 2.80502 77 49 37 
0.858841 -0.523101 2.78945 147 107 105 
1.18195 -0.496062 2.6328 82 33 0 
1.18647 -0.475201 2.63334 225 194 42 
0.199535 -0.281117 2.19732 104 82 69 
1.129 -0.396457 2.68813 157 127 99 
0.657447 -0.264548 2.39917 50 32 28 
0.474916 -0.224841 2.32185 73 59 46 
1.53444 0.291147 2.98931 61 30 10 
1.23824 -0.817559 2.83944 28 11 4 
1.10593 -0.670447 2.80931 116 108 97 
0.757325 -0.551244 2.45472 111 0 0 
0.756683 -0.541062 2.45844 198 146 135 
0.650241 -0.481925 2.22937 192 152 93 
0.674398 -0.482035 2.23319 255 234 179 
0.620608 -0.478343 2.23544 64 130 59 
0.6423 -0.474811 2.22525 168 156 82 
0.647059 -0.439854 2.24463 143 111 90 
0.527108 -0.437456 2.28872 24 0 0 
0.532322 -0.440951 2.29739 168 125 56 
1.14151 -0.511095 2.67392 58 23 0 
1.17246 -0.44623 2.64262 29 0 0 
-0.0527153 -0.278941 2.19423 45 12 3 
1.12857 -0.402149 2.69756 221 191 157 
0.740093 -0.351676 2.51684 95 80 73 
1.22678 -0.386302 2.66459 154 119 89 
0.691598 -0.325394 2.47376 164 134 106 
0.67758 -0.318944 2.46567 162 132 104 
0.653407 -0.289449 2.4307 94 49 43 
1.53113 -0.365819 2.62723 223 193 182 
0.752377 -0.271856 2.44796 37 18 11 
0.699677 -0.258692 2.42027 216 194 183 
0.655353 -0.249614 2.39558 37 18 11 
1.10515 -0.0413361 2.56672 132 107 77 
1.04515 0.171482 2.64729 217 189 177 
1.69077 0.179576 3.20806 69 37 16 
1.11923 -0.669564 2.81063 55 37 25 
-0.3127 -0.418118 2.17619 99 79 68 
0.578058 -0.422349 2.29844 90 79 75 
1.13652 -0.480927 2.67699 57 20 0 
1.23797 -0.395501 2.68231 109 67 9 
0.502329 -0.274833 2.37768 182 153 121 
0.686327 -0.269063 2.41003 95 82 74 
1.517 -0.346349 2.63558 44 22 11 
1.3205 -0.3193 2.53666 226 174 135 
0.703406 -0.255079 2.38798 150 126 114 
0.511771 -0.231729 2.33191 46 29 22 
0.627085 -0.233481 2.36453 32 10 0 
0.608762 -0.225911 2.35264 203 180 166 
0.352015 -0.336879 2.3714 86 63 55 
-0.0207138 -0.26982 2.20294 130 103 34 
0.530602 -0.273686 2.3795 30 12 0 
1.09831 -0.0487989 2.57876 18 0 0 
1.24202 0.150423 2.74979 22 10 10 
1.53133 0.291951 2.99912 66 40 25 
1.31345 -0.734237 2.77301 29 20 25 
1.38487 -0.68896 2.78434 154 128 105 
1.17005 -0.482998 2.65543 223 187 28 
1.12129 -0.436231 2.72325 199 172 151 
0.680599 -0.321359 2.44812 156 119 90 
1.28263 -0.358635 2.59943 152 87 59 
0.498557 -0.276309 2.36181 168 138 104 
0.436201 -0.217881 2.32695 59 43 44 
1.09757 -0.0487347 2.56193 19 0 0 
1.11296 -0.691597 2.79284 29 22 4 
1.15225 -0.656322 2.82033 69 58 30 
1.12279 -0.639455 2.80989 25 14 0 
1.10853 -0.595718 2.81526 95 81 68 
1.15217 -0.68614 2.81237 23 14 7 
1.16993 -0.450917 2.59751 217 180 99 
0.570283 -0.241245 2.35214 104 93 91 
1.10058 -0.681375 2.78767 99 94 74 
1.0915 -0.244397 2.43624 125 99 72 
1.38862 -0.687203 2.76071 18 2 3 
1.35861 -0.68382 2.76305 11 8 19 
1.11944 -0.67759 2.80284 123 104 74 
0.557335 -0.132518 2.23548 18 0 0 
0.501362 -0.120155 2.19974 20 0 0 
1.11345 -0.682454 2.78367 60 47 28 
1.15488 -0.679498 2.80218 110 98 86 
1.11 -0.656418 2.78935 108 92 79 
1.09614 -0.649975 2.78154 114 101 93 
1.10448 -0.645376 2.78723 134 119 98 
1.11267 -0.632794 2.79368 107 91 68 
1.18667 -0.610211 2.83583 27 11 0 
0.84987 -0.529269 2.75357 156 129 120 
1.1715 -0.494147 2.59807 204 157 65 
0.887221 -0.499056 2.76773 83 10 3 
0.880608 -0.474539 2.75808 193 144 129 
0.973167 -0.486651 2.8418 83 56 39 
0.868939 -0.460746 2.75658 181 136 115 
1.36327 -0.496754 2.84993 171 154 160 
0.432288 -0.286119 2.41614 120 102 92 
0.643146 -0.260189 2.37313 42 28 25 
0.472883 -0.210215 2.31374 31 11 4 
1.15909 -0.263635 2.45854 41 16 0 
1.08168 -0.246614 2.42707 110 86 74 
0.569863 -0.132726 2.21649 21 0 0 
0.76067 -0.505493 2.44984 17 0 0 
1.14371 -0.436809 2.60911 41 6 0 
1.11618 -0.048797 2.53882 70 40 14 
0.357022 0.308735 2.33075 116 88 76 
1.11485 -0.667767 2.78789 59 40 23 
0.742494 -0.535487 2.43361 184 151 134 
0.509415 -0.230084 2.32177 41 26 21 
0.58414 -0.236778 2.34472 91 82 75 
1.12256 0.148815 2.64882 208 180 168 
-0.922175 0.371893 1.91094 160 136 132 
1.38434 -0.674561 2.76082 121 101 92 
1.50462 -0.342762 2.60577 44 22 11 
1.36411 -0.687313 2.7567 137 123 110 
0.600549 0.260649 2.42938 70 42 30 
0.626204 0.24991 2.36022 201 172 154 
1.15748 -0.678811 2.76087 103 93 81 
1.16032 -0.664596 2.76394 62 45 37 
1.11274 -0.652376 2.74979 100 91 82 
1.115 -0.643139 2.74399 95 83 69 
1.15949 -0.653275 2.76217 48 34 21 
1.10964 -0.637102 2.74875 123 114 97 
1.11948 -0.638807 2.75071 81 70 40 
1.1571 -0.638492 2.76798 26 15 0 
1.12979 -0.627848 2.75425 36 25 7 
1.11595 -0.623585 2.75155 25 17 0 
1.14949 -0.628204 2.76612 128 112 99 
1.16092 -0.631532 2.77245 108 94 83 
1.13098 -0.621501 2.76105 102 85 75 
0.759417 -0.4784 2.40632 179 140 107 
1.12003 -0.591244 2.76486 139 126 110 
1.19041 -0.607065 2.79424 47 33 22 
0.697187 -0.444312 2.32451 18 0 0 
1.11334 -0.579122 2.75935 80 67 58 
1.19059 -0.595544 2.79258 47 31 15 
1.17135 -0.588618 2.78918 96 88 75 
0.858175 -0.523022 2.71776 166 143 127 
1.09598 -0.560387 2.75356 104 94 85 
0.828294 -0.509341 2.69994 106 23 9 
0.86342 -0.511523 2.71497 102 71 68 
1.09969 -0.548268 2.75685 96 87 80 
1.1589 -0.523229 2.58167 167 131 0 
0.822203 -0.495015 2.6975 118 73 52 
0.870906 -0.503546 2.71739 156 128 117 
0.799664 -0.486979 2.685 220 141 134 
0.853266 -0.495971 2.71131 132 97 75 
0.820285 -0.486828 2.69093 87 0 0 
0.874803 -0.495051 2.71827 65 32 17 
0.89443 -0.49845 2.72589 77 15 4 
0.862895 -0.490376 2.71279 136 94 82 
0.753956 -0.392686 2.27219 208 222 187 
0.900619 -0.493376 2.73077 195 133 120 
0.869133 -0.485908 2.71795 213 151 138 
0.893839 -0.488379 2.72485 232 158 155 
0.847562 -0.477933 2.70646 172 105 96 
0.860374 -0.479397 2.7072 215 131 131 
0.827199 -0.471807 2.70154 84 22 23 
0.836385 -0.470613 2.69817 190 147 131 
0.876538 -0.478832 2.71896 205 141 131 
1.17707 -0.491711 2.56631 105 59 0 
0.893917 -0.476403 2.72619 193 142 125 
1.17673 -0.483286 2.5619 86 39 0 
0.844294 -0.458672 2.70575 220 139 135 
0.878075 -0.466048 2.71527 181 129 116 
0.869312 -0.460223 2.71071 185 136 121 
0.900094 -0.465627 2.72962 123 75 53 
0.859749 -0.454561 2.70967 166 118 106 
0.726621 -0.361351 2.27416 240 184 97 
0.887706 -0.457951 2.72135 90 43 23 
0.878003 -0.454834 2.71614 175 129 113 
0.73794 -0.360217 2.27285 167 114 70 
0.640093 -0.357502 2.38383 48 0 0 
0.806072 -0.430916 2.68399 139 84 54 
0.86445 -0.44261 2.71146 108 66 44 
0.913572 -0.453006 2.72704 124 75 43 
0.856929 -0.439251 2.70454 186 141 120 
0.552719 -0.334808 2.34709 79 27 0 
1.19658 -0.451211 2.55042 146 106 0 
0.774686 -0.342029 2.43162 38 29 22 
0.508478 -0.281778 2.34811 209 162 110 
1.216 -0.41053 2.56856 207 155 53 
0.682287 -0.30453 2.40574 81 64 56 
0.690353 -0.303743 2.4264 95 84 80 
0.500277 -0.254098 2.33809 121 105 92 
0.737957 -0.292937 2.39907 67 53 44 
0.453686 -0.227577 2.29167 54 40 31 
0.489614 -0.232973 2.30151 147 133 122 
0.552117 -0.244895 2.32081 82 68 57 
0.731429 -0.280042 2.38138 59 42 34 
0.499372 -0.233179 2.30637 54 40 29 
0.439009 -0.215429 2.29921 63 46 38 
0.613338 -0.245984 2.33685 14 1 0 
0.472619 -0.214786 2.29302 118 102 102 
0.541757 -0.229186 2.31839 74 63 59 
0.629822 -0.238603 2.33088 147 132 125 
0.612893 -0.229013 2.29474 137 120 113 
0.635606 -0.231258 2.32866 12 0 0 
0.612423 -0.223395 2.32206 225 202 194 
1.12225 -0.618511 2.75987 32 16 3 
0.797282 -0.499351 2.68856 209 137 123 
1.12812 -0.513023 2.59668 66 44 23 
1.19285 -0.496141 2.55442 140 94 6 
0.858719 -0.466282 2.70971 200 137 128 
0.843333 -0.452251 2.69767 101 15 16 
0.680374 -0.318966 2.40417 203 158 103 
-0.0385379 -0.166251 2.16331 205 179 146 
0.790555 -0.329122 2.508 109 87 76 
1.12507 -0.385648 2.61291 155 125 97 
0.442912 -0.224364 2.29386 15 0 0 
0.666329 -0.268764 2.3618 66 11 16 
0.767309 -0.279244 2.38554 47 32 27 
0.713446 -0.258136 2.39136 207 187 180 
0.357873 -0.0869479 2.12379 16 0 0 
1.11737 -0.673243 2.73867 25 15 6 
1.09308 -0.665349 2.73198 27 25 10 
1.15042 -0.678539 2.75228 42 31 9 
1.12052 -0.658103 2.74423 58 39 22 
1.11053 -0.651387 2.73854 103 99 88 
1.10464 -0.640124 2.74134 95 86 77 
1.13665 -0.495846 2.58999 23 0 0 
0.838512 -0.466064 2.69068 114 13 17 
0.559087 -0.361616 2.35211 53 3 0 
0.805788 -0.452472 2.67937 126 20 22 
0.829912 -0.458585 2.69736 106 0 0 
0.981514 -0.480968 2.7983 102 79 61 
0.77679 -0.359832 2.49631 39 20 16 
0.671889 -0.328371 2.41229 121 59 0 
0.420735 -0.266718 2.34765 129 113 100 
0.49792 -0.280451 2.34579 148 91 20 
0.782108 -0.341425 2.50496 43 28 23 
0.715299 -0.321611 2.43833 55 38 30 
1.10212 -0.409391 2.65763 134 107 86 
0.694915 -0.308889 2.41722 18 3 0 
0.352836 -0.242026 2.36243 58 38 31 
1.22094 -0.376633 2.59841 214 184 150 
0.697896 -0.25335 2.37172 41 23 13 
1.10847 -0.671076 2.74831 91 86 67 
1.17941 -0.650295 2.7776 34 31 16 
0.744026 -0.462564 2.43079 41 21 10 
0.875369 -0.503806 2.72671 184 143 123 
0.890801 -0.507722 2.73343 196 149 143 
0.833299 -0.454429 2.70859 192 138 102 
1.13254 -0.468798 2.60591 60 34 7 
0.271962 -0.262538 2.18912 202 176 159 
0.676776 -0.34403 2.42808 154 87 19 
0.696723 -0.332082 2.43923 74 48 33 
1.19768 -0.411369 2.55655 96 61 5 
0.509688 -0.227094 2.30507 107 97 87 
0.781831 -0.27983 2.41355 78 54 44 
0.659454 -0.245257 2.36992 155 138 130 
0.608567 -0.216078 2.3044 154 126 114 
1.27882 -0.348612 2.53336 166 106 43 
1.35263 -0.697135 2.70919 141 129 113 
1.11306 -0.663435 2.72158 85 80 50 
0.753945 -0.522198 2.41009 15 6 7 
1.16901 -0.629352 2.76744 122 106 81 
0.406753 -0.242051 2.34341 40 29 27 
0.655642 -0.257821 2.35935 94 80 79 
0.607812 -0.235144 2.32859 126 111 104 
1.27312 -0.355434 2.53865 149 94 63 
1.01465 -0.748335 2.69028 36 23 17 
1.2289 -0.787487 2.74616 27 18 21 
1.34448 -0.714425 2.70594 17 7 15 
1.14929 -0.666773 2.76706 130 104 77 
1.36729 -0.650453 2.72152 145 124 105 
0.98717 -0.488679 2.81008 103 80 66 
1.18625 -0.468521 2.55856 241 207 47 
0.781494 -0.305211 2.43725 161 144 128 
1.10358 -0.243737 2.41315 117 86 58 
1.28231 -0.665537 2.67039 90 89 95 
1.15298 -0.693403 2.81544 92 83 74 
1.16179 -0.665391 2.83512 42 31 11 
1.1689 -0.667144 2.83992 86 78 65 
1.17024 -0.654485 2.8423 126 114 92 
1.12302 -0.639722 2.81046 25 14 0 
1.15981 -0.646474 2.83816 100 81 74 
1.16837 -0.570297 2.87003 88 70 68 
0.570912 -0.220615 2.20575 92 74 62 
1.1562 -0.686625 2.82233 101 89 77 
1.13985 -0.640899 2.82246 117 102 99 
1.19511 -0.625528 2.87352 18 8 0 
1.11292 -0.631513 2.81316 28 14 3 
0.470419 -0.222282 2.23157 47 32 25 
1.10991 -0.685094 2.7622 41 33 12 
1.15797 -0.676635 2.81129 83 70 61 
1.1098 -0.662195 2.76971 101 82 68 
1.10598 -0.652304 2.773 108 92 79 
1.11942 -0.63454 2.79066 111 99 73 
1.15758 -0.582333 2.85004 91 78 72 
1.1314 -0.568884 2.82423 116 102 93 
0.900045 -0.554961 2.83863 107 60 34 
0.861254 -0.545216 2.82666 156 129 120 
0.858171 -0.535833 2.82052 158 126 111 
0.859412 -0.527519 2.81782 56 18 7 
0.896901 -0.521409 2.82834 235 146 150 
0.853174 -0.516649 2.81589 160 114 101 
0.878854 -0.516684 2.82478 162 119 100 
0.868829 -0.512534 2.81556 178 145 130 
0.897248 -0.511348 2.82733 83 10 3 
0.859012 -0.498447 2.81145 220 135 130 
0.889056 -0.486219 2.816 194 145 130 
0.875837 -0.469998 2.80862 164 117 99 
0.887748 -0.470066 2.80891 173 124 107 
1.11187 -0.594703 2.79905 151 138 121 
1.15538 -0.662939 2.71125 31 17 4 
1.11009 -0.623592 2.66407 90 78 66 
1.11151 -0.617826 2.64517 88 77 57 
1.10517 -0.612945 2.64754 123 114 97 
1.16838 -0.645033 2.76878 41 24 16 
1.16384 -0.637344 2.77537 111 94 84 
1.12631 -0.611794 2.68659 36 25 7 
1.11856 -0.607621 2.67735 24 13 0 
1.10728 -0.601178 2.66134 28 16 0 
1.15457 -0.623221 2.75415 47 32 11 
1.11311 -0.572975 2.71225 110 99 81 
1.1191 -0.556543 2.73083 106 93 87 
0.849092 -0.547814 2.887 151 119 98 
0.843386 -0.539236 2.87886 44 24 13 
0.888175 -0.540707 2.89927 203 152 151 
0.845564 -0.526024 2.87061 132 97 75 
0.848337 -0.524932 2.87195 56 16 4 
0.858369 -0.526355 2.87238 134 97 89 
0.875084 -0.5253 2.87285 84 3 0 
0.889187 -0.527685 2.88328 77 15 4 
0.891638 -0.526691 2.88797 214 150 138 
0.861965 -0.516394 2.86672 173 106 98 
0.846286 -0.509638 2.85506 184 132 118 
0.888838 -0.51536 2.87525 232 158 155 
0.817623 -0.499945 2.845 166 127 122 
0.879052 -0.510386 2.85991 93 9 7 
0.871124 -0.508891 2.86922 102 36 22 
0.828576 -0.495866 2.84066 190 147 131 
0.839889 -0.499027 2.85548 198 101 112 
0.841634 -0.497248 2.84307 213 127 130 
0.865763 -0.503194 2.86034 107 40 34 
0.828707 -0.492365 2.83699 79 5 2 
0.891936 -0.502261 2.8599 99 46 30 
0.889421 -0.49838 2.85634 185 136 119 
0.837743 -0.480963 2.83052 220 139 135 
0.863322 -0.484174 2.83578 97 41 28 
0.839822 -0.48016 2.83804 183 104 100 
0.842091 -0.482228 2.84522 206 139 131 
0.868023 -0.485877 2.84579 196 147 130 
0.854831 -0.47901 2.83337 72 17 10 
0.850705 -0.477231 2.83378 104 52 41 
0.896314 -0.486309 2.85129 123 75 53 
0.843895 -0.458494 2.81179 203 155 132 
1.15613 -0.666093 2.72278 38 26 14 
1.11458 -0.630853 2.65556 39 25 16 
1.15556 -0.640293 2.73092 118 107 79 
1.16924 -0.651151 2.77411 118 108 99 
1.17058 -0.640036 2.78061 121 105 80 
1.14922 -0.622973 2.72556 117 104 88 
1.12799 -0.606714 2.70037 102 85 75 
1.10899 -0.559266 2.7008 110 97 89 
0.883542 -0.56656 2.91416 103 71 58 
0.81549 -0.547369 2.89939 99 16 2 
0.842315 -0.531604 2.87577 177 140 113 
0.809554 -0.518359 2.85967 87 0 0 
0.876496 -0.526215 2.87453 79 0 0 
0.878348 -0.523838 2.8806 217 139 135 
0.847022 -0.51108 2.85792 186 149 130 
0.863227 -0.509421 2.84938 220 156 146 
0.865492 -0.506592 2.84663 96 47 32 
0.890703 -0.492679 2.85261 82 34 12 
0.878844 -0.488385 2.84458 106 61 42 
0.838815 -0.479752 2.82311 228 158 150 
0.835414 -0.464433 2.81902 59 5 0 
0.823784 -0.460699 2.81504 63 2 0 
0.861085 -0.462686 2.82478 113 70 51 
1.10534 -0.622733 2.62103 103 99 88 
1.1706 -0.639121 2.77704 121 105 80 
1.15846 -0.628908 2.76176 125 111 98 
1.11593 -0.577401 2.69007 33 18 0 
1.19516 -0.626146 2.87573 38 26 14 
0.888157 -0.537829 2.8853 201 151 150 
0.879255 -0.511041 2.85345 125 35 35 
0.821089 -0.485807 2.85062 106 0 0 
0.921685 -0.484674 2.86916 137 100 81 
1.166 -0.646354 2.76195 129 116 100 
0.868912 -0.534044 2.88598 184 143 123 
0.92289 -0.482979 2.85791 135 104 84 
1.09777 -0.607467 2.63367 40 31 24 
1.15588 -0.636975 2.77756 44 29 22 
0.868196 -0.521012 2.88523 50 26 26 
0.850702 -0.496919 2.85958 197 144 130 
1.15364 -0.679033 2.77655 23 14 0 
1.15852 -0.668446 2.77702 78 68 59 
1.16891 -0.645565 2.76408 25 12 4 
1.16247 -0.639902 2.77382 19 4 0 
1.12877 -0.641123 2.80506 20 7 0 
1.14596 -0.636537 2.7937 27 12 5 
1.16189 -0.629458 2.78094 19 2 0 
1.10015 -0.629663 2.82388 30 15 0 
0.899843 -0.491311 2.53945 179 152 135 
0.933134 -0.501592 2.56959 93 42 11 
0.873264 -0.47801 2.5173 91 14 0 
0.887664 -0.481465 2.56029 39 16 10 
0.902866 -0.482361 2.58838 138 115 97 
0.860051 -0.463551 2.5329 96 15 12 
0.888486 -0.471586 2.56129 153 115 102 
0.926086 -0.478396 2.58588 232 142 144 
0.896679 -0.466239 2.56742 169 132 123 
0.908078 -0.471469 2.58627 52 14 5 
0.925326 -0.470457 2.59253 85 15 7 
0.897154 -0.46075 2.57759 220 123 132 
0.933293 -0.468386 2.60185 195 127 114 
0.907244 -0.460865 2.58744 77 14 7 
0.92059 -0.461116 2.6087 86 33 15 
0.916147 -0.449791 2.59705 209 162 144 
0.880028 -0.440607 2.58379 219 157 144 
0.894925 -0.445436 2.599 85 34 15 
0.887164 -0.4368 2.60801 68 25 6 
0.895559 -0.433606 2.60644 168 123 104 
0.874263 -0.425618 2.59991 207 160 134 
0.889353 -0.429787 2.61944 113 71 49 
0.000433115 -0.490049 3.70562 43 0 0 
-0.549929 -0.56963 5.90758 128 111 101 
-0.635462 -0.654846 6.96694 107 96 90 
-0.57069 -0.540324 6.17114 232 213 206 
-0.634397 -0.581779 6.59458 168 148 137 
1.11064 -0.673602 2.81109 71 54 44 
1.15504 -0.653575 2.78624 119 112 86 
0.890103 -0.477481 2.54264 39 8 3 
0.846513 -0.458319 2.50834 231 157 148 
0.912551 -0.47005 2.56032 175 134 114 
0.925995 -0.446483 2.60895 120 72 49 
-0.60987 -0.577234 6.52691 178 158 147 
1.14561 -0.688617 2.7878 23 12 0 
1.08894 -0.678035 2.83598 101 98 91 
1.08843 -0.681632 2.85291 107 104 97 
1.16961 -0.644977 2.74559 110 101 94 
1.09195 -0.648544 2.83684 129 118 100 
0.924096 -0.501668 2.57214 86 59 38 
0.885328 -0.480171 2.57952 183 136 116 
0.865469 -0.457034 2.54454 48 19 15 
0.872973 -0.44649 2.57746 214 156 144 
0.886347 -0.434235 2.58726 74 21 3 
0.933552 -0.439842 2.63515 143 90 58 
0.0209548 -0.51351 4.40721 68 44 20 
1.09066 -0.647887 2.81057 22 16 4 
0.889975 -0.465576 2.54564 54 15 8 
1.08992 -0.709129 2.85682 25 22 15 
1.16215 -0.658479 2.76411 18 8 6 
0.887832 -0.49046 2.52745 72 53 36 
0.927235 -0.494255 2.53171 92 83 68 
0.843176 -0.472285 2.48073 135 86 54 
0.921124 -0.478637 2.57161 214 156 142 
-0.000405863 -0.521621 4.42409 167 132 94 
