ply
format ascii 1.0
comment PCL generated
element vertex 1122
property float x
property float y
property float z
property uchar red
property uchar green
property uchar blue
element face 0
element camera 0
property float view_px
property float view_py
property float view_pz
property float x_axisx
property float x_axisy
property float x_axisz
property float y_axisx
property float y_axisy
property float y_axisz
property float z_axisx
property float z_axisy
property float z_axisz
property float focal
property float scalex
property float scaley
property float centerx
property float centery
property int viewportx
property int viewporty
property float k1
property float k2
end_header
-1.14229 -0.884597 4.10676 81 71 61
-1.13756 -0.88255602 4.10495 100 89 77
-1.1376801 -0.88553703 4.1090999 52 42 36
-1.13282 -0.88427299 4.1068802 69 59 51
-1.1282901 -0.88233602 4.1051002 94 83 73
-1.12322 -0.879273 4.10076 110 98 83
-1.12375 -0.88379502 4.1072001 59 48 42
-1.12054 -0.88007402 4.1032 105 94 81
-1.11843 -0.88017601 4.0977101 110 98 84
-1.12009 -0.88039398 4.0980401 110 98 84
-1.11143 -0.880602 4.1031299 101 90 78
-1.1068 -0.879673 4.1010299 107 96 83
-1.10458 -0.87908 4.0980401 110 98 83
-1.10482 -0.88077003 4.1023102 102 91 79
-1.10497 -0.88331503 4.1061602 53 43 36
-1.10032 -0.882891 4.1038599 78 67 57
-1.10031 -0.88287002 4.1037202 79 69 59
-1.1004601 -0.88512301 4.1079502 37 28 24
-1.09582 -0.88471699 4.1056499 46 37 31
-1.09583 -0.88472003 4.1055598 47 37 31
-1.0929101 -0.88195401 4.10287 94 84 72
-1.07213 -0.88232303 4.1006598 102 90 78
-1.06383 -0.88569802 4.1064 43 33 27
-0.37567899 -0.86419803 4.0195098 211 207 208
-0.37140101 -0.86246401 4.0206399 214 211 212
-0.36757299 -0.85642397 3.9961901 217 215 217
-0.362423 -0.86489201 4.0272198 217 214 216
-0.36254501 -0.86924201 4.03298 216 214 216
-0.33050701 -0.85210103 3.9576299 222 220 223
-0.327553 -0.84848201 3.95557 219 218 221
-0.31925201 -0.85345 3.95806 214 213 216
-0.313474 -0.85263097 3.9587801 87 87 89
-0.30780101 -0.85260499 3.9591 48 49 50
-0.30780599 -0.852651 3.95912 48 48 50
-0.30790201 -0.85331202 3.9588301 48 48 50
-0.30499101 -0.84897399 3.9563301 46 46 48
-0.19995201 -0.85434699 3.9823501 20 18 21
-0.194178 -0.85441703 3.98069 20 18 21
-0.188391 -0.85529798 3.97684 20 18 21
-0.140568 -0.85111898 3.9650199 23 22 26
-0.118146 -0.85026002 3.96222 28 27 31
-0.117514 -0.85009599 3.9621201 28 27 31
-0.112261 -0.85005599 3.96206 32 31 33
-0.111754 -0.85071403 3.9603601 32 30 33
-0.114599 -0.85416597 3.9630101 39 38 40
-0.106832 -0.85072303 3.9590199 33 32 35
-0.109406 -0.85422701 3.9611001 41 40 42
-0.083195403 -0.84936398 3.9526701 37 36 39
0.054018699 -0.84415698 3.92026 39 38 41
0.063957401 -0.84315902 3.9161799 43 42 45
0.063736103 -0.84300297 3.9159 43 42 45
0.093234397 -0.83120698 3.8650501 48 47 48
0.103845 -0.82981199 3.8726599 219 216 221
0.13509201 -0.85441703 3.9655099 224 221 224
0.150939 -0.848894 3.95632 219 211 217
0.152779 -0.84491402 3.93906 217 210 216
0.152831 -0.84368497 3.9208701 215 207 213
0.15403301 -0.843472 3.9137599 214 206 212
0.172313 -0.83732599 3.90344 209 198 204
0.17984 -0.83883703 3.9096701 186 172 178
0.19414601 -0.84142298 3.9219999 165 151 155
1.1712101 -0.898902 4.1617498 167 151 134
1.1759599 -0.89652199 4.15799 161 144 126
-1.18045 -0.87993801 4.1119299 149 129 110
-1.1578 -0.87884003 4.1068702 117 105 91
-1.16046 -0.87883598 4.1038098 127 114 100
-1.15178 -0.87759501 4.1069598 113 101 88
-1.15201 -0.87592697 4.1079402 115 102 89
-1.14583 -0.87548202 4.1076002 112 100 87
-1.1396199 -0.875449 4.10707 109 96 81
-1.13336 -0.87578601 4.1062999 108 96 81
-1.1271501 -0.87579399 4.1057401 107 96 81
-1.11603 -0.87779301 4.1019402 109 98 84
-1.11134 -0.87607002 4.1045098 107 96 82
-1.1049 -0.87646198 4.0960898 111 100 84
-1.10165 -0.87682003 4.1013198 109 98 83
-1.10242 -0.87620097 4.10005 110 98 83
-1.09913 -0.87559003 4.0964398 111 100 85
-1.09829 -0.87663603 4.09762 110 98 84
-1.09583 -0.877253 4.1012802 109 98 83
-1.0926501 -0.87633002 4.0977201 111 99 84
-1.09271 -0.87626898 4.0978398 111 99 84
-1.09008 -0.87722403 4.10116 110 98 84
-1.08689 -0.87594301 4.0978098 111 99 84
-1.08421 -0.87729502 4.1009402 110 98 83
-1.0874701 -0.877841 4.10466 103 92 79
-1.0809799 -0.87545699 4.0980101 113 101 86
-1.07842 -0.87539101 4.10182 111 100 85
-1.0815901 -0.87806499 4.1043501 103 92 79
-1.0723799 -0.87549001 4.1018701 111 99 84
-1.07581 -0.875916 4.1047301 107 96 82
-1.07477 -0.87755501 4.0977101 111 100 84
-1.07577 -0.87629801 4.1044598 107 96 82
-1.07491 -0.87594002 4.0984902 112 101 85
-1.0663199 -0.87585402 4.10183 108 97 80
-1.06025 -0.87604898 4.1016598 107 95 80
-1.05415 -0.87638801 4.1013298 106 94 78
-0.38149399 -0.85904199 4.0192699 207 202 204
-0.37601301 -0.85205501 3.9995201 213 210 212
-0.372951 -0.85640001 3.99787 214 211 213
-0.35803899 -0.85985398 4.03373 216 214 217
-0.35916999 -0.85894001 4.0317402 216 213 217
-0.35916999 -0.85894001 4.0317402 216 213 217
-0.335673 -0.84215999 3.95595 222 220 223
-0.32455599 -0.84365302 3.95508 206 205 208
-0.318914 -0.84364903 3.95591 81 81 83
-0.31329599 -0.84383398 3.95665 48 48 50
-0.308144 -0.84494799 3.95981 47 47 49
-0.30233601 -0.844634 3.9583199 39 39 41
-0.25661901 -0.84900498 3.98599 25 24 26
-0.24684399 -0.85012299 3.98896 25 24 27
-0.202048 -0.84861302 3.97719 29 27 30
-0.192461 -0.846461 3.97435 31 29 30
-0.185605 -0.85027999 3.97808 23 21 24
-0.137789 -0.84517503 3.96788 18 16 21
-0.13217901 -0.84520602 3.96615 18 17 21
-0.12655 -0.84522003 3.9649799 19 17 22
-0.121085 -0.84523302 3.96363 19 17 22
-0.115469 -0.84526199 3.9618299 23 21 24
-0.109931 -0.845231 3.96065 24 22 25
-0.086123601 -0.84431797 3.95346 25 23 27
-0.080289997 -0.844455 3.95172 27 26 29
-0.074427702 -0.84473199 3.95101 30 28 32
-0.068734199 -0.84457201 3.95122 31 30 33
-0.055872701 -0.84650302 3.95474 38 39 40
-0.051259499 -0.84358001 3.95385 33 33 35
0.051338799 -0.839028 3.92243 34 33 37
0.069986001 -0.83485001 3.9167099 37 36 40
0.066372201 -0.83845598 3.9165499 40 38 42
0.066587299 -0.838 3.91733 40 38 42
0.088610299 -0.82762998 3.8662801 45 44 45
0.108029 -0.824992 3.8539901 217 214 219
0.135893 -0.84643799 3.9654901 224 220 224
0.140595 -0.84373599 3.9542401 221 217 221
0.148633 -0.84608901 3.9488201 218 212 217
0.148598 -0.84014702 3.9452 218 212 217
0.15333501 -0.83596498 3.9146299 215 205 212
0.179967 -0.83343899 3.9056499 190 178 183
0.196751 -0.83745998 3.9177499 154 142 146
1.16787 -0.89353698 4.16189 201 187 172
1.16688 -0.88885498 4.15379 205 191 177
1.1719199 -0.89145702 4.1556301 182 166 151
1.17134 -0.88825399 4.15065 193 177 162
1.17667 -0.89019603 4.1526899 161 144 127
1.17538 -0.88799202 4.1467199 166 149 133
-1.15119 -0.868451 4.1044798 134 120 106
-1.1424 -0.87368798 4.1051302 116 103 89
-1.14239 -0.87373 4.1051002 116 103 89
-1.13618 -0.873685 4.1045299 113 101 85
-0.38570899 -0.84777999 4.00668 206 200 203
-0.38567501 -0.852377 4.0091 205 199 202
-0.37753001 -0.84323198 3.98579 214 211 213
-0.37880901 -0.84619498 3.9966099 212 209 211
-0.37449601 -0.84701401 3.99263 215 212 214
-0.37226701 -0.84377497 3.98246 216 214 216
-0.33850101 -0.83866602 3.9530399 222 221 224
-0.33286199 -0.83886498 3.9530399 219 218 221
-0.327214 -0.83881497 3.9535999 203 202 205
-0.32157299 -0.83883601 3.9544001 77 77 79
-0.321558 -0.83863097 3.95432 75 74 77
-0.31594399 -0.83899701 3.9551001 48 48 50
-0.31092399 -0.839625 3.95854 46 45 48
-0.31320199 -0.83590198 3.9504399 45 44 46
-0.26780099 -0.84487897 3.9833801 28 27 31
-0.26201901 -0.84451401 3.98333 28 27 29
-0.25665599 -0.84450799 3.98386 28 27 28
-0.251479 -0.84495699 3.98664 27 26 28
-0.251335 -0.84850699 3.9874599 27 26 29
-0.247015 -0.84673601 3.98859 26 24 27
-0.245959 -0.84565997 3.9869699 27 25 27
-0.239959 -0.84498203 3.98475 30 28 29
-0.241482 -0.84748501 3.9888501 24 23 25
-0.24249899 -0.844239 3.9862299 29 27 28
-0.23415101 -0.84485298 3.9846499 31 30 30
-0.22837099 -0.84452701 3.9834399 28 27 27
-0.22265001 -0.84460902 3.98434 34 33 34
-0.21688201 -0.84455699 3.9844601 29 28 29
-0.199867 -0.84500301 3.9733701 35 32 33
-0.19449501 -0.84658098 3.97949 27 25 28
-0.18883701 -0.84687501 3.9781001 27 24 27
-0.182803 -0.84520602 3.97948 26 24 25
-0.177844 -0.84634501 3.9806001 24 22 23
-0.17191499 -0.84548002 3.98244 23 21 23
-0.14622 -0.84108698 3.9660299 20 17 21
-0.140845 -0.84058702 3.96628 18 16 20
-0.113038 -0.84025103 3.96364 18 15 18
-0.107499 -0.84022701 3.9623201 21 18 21
-0.088810399 -0.83926201 3.9552 18 16 19
-0.083017603 -0.83940899 3.9533801 20 18 20
-0.077130198 -0.83901203 3.95403 22 18 22
-0.0714911 -0.83903599 3.95351 23 20 23
-0.065863401 -0.83913201 3.9526401 22 20 24
-0.060390402 -0.83921403 3.9525399 26 25 27
-0.0466648 -0.84075201 3.9525299 28 27 29
0.054910701 -0.832524 3.9293001 33 32 36
0.086275898 -0.81756598 3.8603401 39 38 40
0.091107398 -0.81880599 3.86729 42 42 43
0.091960602 -0.816921 3.85905 40 39 40
0.095387504 -0.82156998 3.86798 49 48 49
0.096382998 -0.81737399 3.86394 48 47 48
0.099797398 -0.820476 3.8601201 166 164 167
0.10095 -0.81777102 3.8628199 175 173 176
0.106097 -0.81938601 3.86742 218 215 219
0.10704 -0.81928599 3.8596001 217 214 218
0.131919 -0.841766 3.9757199 224 221 224
0.143254 -0.836218 3.9409399 219 214 219
0.152055 -0.83697701 3.9468901 217 210 216
0.15603299 -0.83118701 3.91096 214 204 210
0.179225 -0.830504 3.9067199 201 189 194
0.188743 -0.83273 3.91429 173 161 166
0.19445901 -0.82925802 3.9149101 161 151 155
0.203603 -0.83570099 3.9276099 132 118 119
1.1643 -0.88619798 4.1585798 206 193 180
1.1839401 -0.88034499 4.1465902 161 144 124
-1.14592 -0.86480099 4.1066699 132 118 104
-0.38222 -0.84301198 3.9888101 211 207 210
-0.38110599 -0.83819401 3.98576 212 210 211
-0.38361999 -0.84475702 4.0047402 208 205 206
-0.375723 -0.83836001 3.98826 215 213 215
-0.37219399 -0.837533 3.9707999 216 214 216
-0.35497001 -0.85218501 4.0399699 219 217 220
-0.34402499 -0.82960701 3.94997 219 218 221
-0.338361 -0.829494 3.9500699 219 219 221
-0.33832201 -0.830275 3.9488201 219 219 221
-0.33557999 -0.83420497 3.9514201 220 219 222
-0.32993099 -0.83413398 3.9520199 202 201 204
-0.32715699 -0.83104098 3.9514101 97 96 97
-0.321679 -0.83081502 3.95081 49 49 49
-0.31863999 -0.835096 3.9523599 48 48 50
-0.31624201 -0.83164501 3.9488599 45 45 47
-0.31357199 -0.83418697 3.9569099 44 44 47
-0.31298599 -0.83474201 3.9535799 44 44 46
-0.27314401 -0.83548301 3.9763401 29 27 28
-0.276039 -0.839522 3.9755299 24 24 27
-0.27056101 -0.84006399 3.9786799 29 28 31
-0.26482001 -0.84050202 3.9806399 28 27 30
-0.25913101 -0.84050697 3.9816999 30 29 28
-0.25376701 -0.8405 3.9822199 38 36 34
-0.25082499 -0.83648002 3.9804201 117 113 109
-0.248386 -0.84038502 3.9823401 53 49 47
-0.242645 -0.84031802 3.9830201 59 56 54
-0.23692501 -0.84031302 3.98366 53 51 49
-0.231208 -0.84029698 3.98406 45 43 41
-0.225494 -0.84026498 3.9844899 38 36 34
-0.21978199 -0.84024 3.9847901 36 34 34
-0.214076 -0.84022701 3.98493 33 31 32
-0.20834801 -0.84013498 3.98441 34 33 32
-0.20254301 -0.83969301 3.9823599 35 33 32
-0.179869 -0.83954602 3.98069 30 28 28
-0.17422201 -0.83938801 3.9813299 29 27 27
-0.16676 -0.83718002 3.9834299 29 27 27
-0.151355 -0.83690798 3.95925 51 46 46
-0.121642 -0.83329898 3.95767 26 23 23
-0.087466903 -0.83176899 3.9554701 20 17 19
-0.068755798 -0.83421201 3.9523699 19 17 20
-0.062967703 -0.83460897 3.95173 19 17 20
-0.060252398 -0.83395499 3.9522099 19 17 20
-0.00034236701 -0.82809299 3.9359801 29 25 28
0.097143598 -0.81290901 3.8605199 50 49 50
0.093469098 -0.81004602 3.85833 40 39 40
0.103049 -0.81442702 3.86327 204 201 204
0.109841 -0.808667 3.8528099 217 213 216
0.109011 -0.80830002 3.84499 216 213 216
0.137234 -0.83811098 3.9714999 223 219 222
0.14114 -0.83283401 3.94417 220 214 219
0.146826 -0.83388299 3.9463999 219 213 218
0.158784 -0.826814 3.9128599 219 208 215
0.175882 -0.82143801 3.9019599 207 195 201
0.175928 -0.82586902 3.9065101 207 196 201
0.181106 -0.82495397 3.90469 198 186 191
0.18703499 -0.82500601 3.9106801 171 160 163
0.18834101 -0.82284498 3.9130299 170 159 162
1.16978 -0.879664 4.1523299 206 193 180
1.16995 -0.87611598 4.1476798 206 193 181
1.17277 -0.87742001 4.1431799 206 193 179
1.17382 -0.87974298 4.1487699 200 186 173
1.18444 -0.88026798 4.1507902 161 144 124
1.18795 -0.87453902 4.14468 160 143 123
-0.40545201 -0.84285498 4.0358901 125 122 117
-0.37602699 -0.827299 3.9626801 216 214 216
-0.371214 -0.82975203 3.95751 217 215 217
-0.34117001 -0.82472199 3.9488201 220 219 221
-0.33264101 -0.82942802 3.9504499 203 203 205
-0.32969901 -0.82467002 3.9495201 71 71 72
-0.33021599 -0.82655799 3.9500301 108 107 108
-0.32471299 -0.82654601 3.94925 49 49 49
-0.31932199 -0.82797998 3.9465499 47 46 48
-0.28349099 -0.83445197 3.97402 24 23 26
-0.281048 -0.83085001 3.9744899 28 27 28
-0.27819401 -0.83474898 3.9751899 29 27 29
-0.27562001 -0.83072799 3.9737501 30 28 28
-0.26988101 -0.83067501 3.9746799 59 56 54
-0.26728001 -0.83529001 3.97719 34 32 33
-0.26418599 -0.83071202 3.97579 122 118 116
-0.26161101 -0.83528799 3.9779799 65 63 62
-0.258562 -0.83086699 3.9772999 135 130 126
-0.252866 -0.83083302 3.97838 129 123 117
-0.245186 -0.83547199 3.98032 135 129 124
-0.24528401 -0.835482 3.98051 135 129 124
-0.24779201 -0.83116502 3.97877 126 119 113
-0.23955201 -0.83542901 3.9809301 132 126 121
-0.233896 -0.83542597 3.98155 132 127 120
-0.22820701 -0.83539099 3.98224 121 117 111
-0.22817101 -0.83539999 3.9822299 121 117 111
-0.222523 -0.83547401 3.9830401 88 84 80
-0.225173 -0.83112699 3.98193 117 111 103
-0.225214 -0.83109498 3.98195 116 111 103
-0.216904 -0.83560401 3.9839001 51 48 46
-0.21958201 -0.83134401 3.9826801 127 124 118
-0.211274 -0.835621 3.98382 37 35 32
-0.205487 -0.835343 3.98247 36 33 30
-0.199604 -0.83485401 3.98311 38 35 33
-0.19149201 -0.83080298 3.9797499 43 39 36
-0.188416 -0.83444202 3.98085 39 36 35
-0.18275601 -0.8351 3.97809 39 36 35
-0.176965 -0.83506 3.9797299 37 34 34
-0.171516 -0.83496302 3.9800301 35 32 33
-0.171047 -0.83478701 3.9823301 34 31 31
-0.15820301 -0.83179802 3.98015 31 28 28
-0.142465 -0.83140099 3.9691 28 26 28
-0.128727 -0.83248299 3.9674599 20 18 19
-0.115604 -0.83274698 3.9669001 19 16 18
-0.083481804 -0.82706398 3.9540801 27 22 21
-0.078180999 -0.829409 3.9502699 27 24 25
-0.072642103 -0.82941902 3.9493401 25 22 24
-0.075672999 -0.82489997 3.94753 43 38 34
-0.0205501 -0.823937 3.9386699 32 30 30
-0.0129278 -0.82325798 3.93364 38 35 35
-0.0149941 -0.82455701 3.9372201 34 31 32
-0.0114142 -0.82628298 3.93946 31 29 29
-0.0094349002 -0.82506502 3.9354601 35 32 33
-0.00569891 -0.82639098 3.93819 31 28 29
-0.0075631202 -0.82701403 3.94244 27 24 25
0.0050947098 -0.82442999 3.9368999 31 28 29
0.078744702 -0.823313 3.9242499 39 38 41
0.0906431 -0.80584103 3.8535299 36 34 37
0.0988677 -0.80712903 3.8594201 53 51 53
0.104775 -0.80577701 3.86203 202 200 202
0.109175 -0.80424702 3.8415799 216 212 216
0.138895 -0.81584799 3.8868699 216 209 215
0.142984 -0.81147099 3.88116 213 205 212
0.149606 -0.82948798 3.9488001 217 211 216
0.155728 -0.81384701 3.88252 212 200 206
0.16391601 -0.81734103 3.90503 214 201 208
0.16859099 -0.81479001 3.9036901 212 199 205
0.16564301 -0.82177699 3.9126599 213 201 207
0.172185 -0.81618798 3.9008701 209 197 203
0.18745901 -0.81583601 3.90874 179 167 170
0.18614 -0.81546199 3.9005899 184 170 173
0.192948 -0.81661499 3.9131 158 149 150
0.19981 -0.82262403 3.9196999 137 131 131
1.16996 -0.872298 4.1435299 206 193 182
1.1716501 -0.87165898 4.1372399 207 194 182
1.1795 -0.87335902 4.1441002 189 174 159
1.18375 -0.87285101 4.1402602 161 145 126
1.18944 -0.87032402 4.1391902 160 143 123
1.18967 -0.871243 4.1402702 160 143 123
1.18997 -0.86764801 4.1318402 159 142 123
-0.34683901 -0.82352698 3.9507599 221 220 222
-0.34676701 -0.823434 3.9503701 221 220 222
-0.343977 -0.82000399 3.94752 219 218 220
-0.338094 -0.82007599 3.9475601 207 207 208
-0.338323 -0.81990999 3.9477301 208 208 209
-0.33244401 -0.81998801 3.94801 73 73 74
-0.32771301 -0.821872 3.9481299 49 49 49
-0.326877 -0.82161999 3.94631 49 49 49
-0.322236 -0.82237798 3.9466901 47 47 47
-0.283786 -0.82658499 3.9725201 28 27 28
-0.28116599 -0.82393903 3.9684801 24 22 23
-0.278108 -0.82601798 3.97135 36 35 33
-0.27237901 -0.82599503 3.97242 107 104 101
-0.27243599 -0.82601702 3.9724 106 103 100
-0.26673001 -0.82602 3.97335 144 139 135
-0.26666 -0.82597101 3.97329 144 139 135
-0.261186 -0.82675701 3.97767 128 124 120
-0.26123101 -0.82678598 3.9776599 128 124 120
-0.26109099 -0.826132 3.97438 132 126 121
-0.25553501 -0.82668799 3.9774499 141 136 129
-0.214101 -0.830966 3.9823799 122 118 112
-0.208349 -0.830805 3.9817901 93 89 83
-0.20273 -0.830446 3.9811499 71 67 62
-0.196851 -0.830549 3.9832499 46 43 40
-0.193832 -0.82651699 3.97961 111 107 101
-0.188512 -0.82567197 3.9800899 104 100 95
-0.18563899 -0.829992 3.97996 42 39 36
-0.18808299 -0.82638699 3.97961 88 85 79
-0.179896 -0.830037 3.9786501 41 38 36
-0.182807 -0.82503802 3.9786699 100 96 91
-0.17405599 -0.83000702 3.9782 39 36 35
-0.176972 -0.82492799 3.9781001 80 76 72
-0.16829 -0.829916 3.9787199 37 34 33
-0.171251 -0.82497501 3.97736 63 59 57
-0.16255 -0.82973498 3.9809999 35 32 31
-0.165428 -0.82495803 3.9765201 53 50 47
-0.165655 -0.82521701 3.9764199 50 46 44
-0.162579 -0.82607698 3.9760799 40 37 34
-0.159604 -0.82495302 3.9755499 44 41 38
-0.15816399 -0.827941 3.97858 33 30 28
-0.156792 -0.82605898 3.97522 36 32 30
-0.150993 -0.82612902 3.9751699 33 30 29
-0.130098 -0.82418299 3.96995 30 29 25
-0.124372 -0.82427597 3.9669099 56 53 44
-0.085887901 -0.82101101 3.95965 43 38 33
-0.0421797 -0.820126 3.95069 26 22 25
0.0080717001 -0.81906098 3.93801 35 32 33
0.017699899 -0.819875 3.94104 27 25 26
0.023158301 -0.82017899 3.9374001 29 26 27
0.089051403 -0.80650699 3.8707299 38 37 39
0.10184 -0.80064303 3.86269 84 82 84
0.128124 -0.809017 3.89978 219 215 220
0.13361099 -0.810691 3.9064 219 213 218
0.13866299 -0.80933499 3.89905 216 210 215
0.14338 -0.81144398 3.8916199 214 207 213
0.15306 -0.80993497 3.8870499 212 201 207
0.158545 -0.808927 3.8826799 212 198 205
0.168639 -0.81076801 3.89976 211 197 204
0.178141 -0.811432 3.9014699 205 190 196
0.182923 -0.80813497 3.89956 202 184 191
0.18254399 -0.810646 3.8945701 201 183 190
0.186829 -0.810202 3.9037499 190 175 178
0.192459 -0.81051099 3.90851 158 145 146
0.192494 -0.80988401 3.9072299 158 145 146
0.19907799 -0.81645203 3.9174299 133 128 125
1.17421 -0.86288601 4.1350999 208 196 183
1.17439 -0.86194599 4.13235 208 196 183
1.16783 -0.860668 4.1178398 209 198 184
1.17896 -0.86614799 4.1366701 201 188 173
1.18027 -0.86299902 4.1328001 199 185 171
1.17755 -0.86219198 4.1272402 203 191 177
1.18541 -0.86546201 4.1356301 165 150 132
1.18876 -0.85956001 4.1273999 159 142 126
1.19436 -0.86194801 4.1326199 158 140 121
-0.40290901 -0.83700299 4.03901 146 144 142
-0.38554999 -0.82415801 3.9972 213 210 213
-0.379408 -0.82059097 3.96875 214 212 215
-0.37976599 -0.82483602 3.98681 214 212 215
-0.37557501 -0.82040203 3.9776101 216 215 218
-0.346784 -0.81541401 3.94608 218 218 220
-0.34112599 -0.81517899 3.94649 209 209 210
-0.341097 -0.815171 3.9463799 208 208 210
-0.34079799 -0.81518799 3.94631 206 206 207
-0.32955301 -0.81537497 3.94679 49 50 51
-0.32687199 -0.81382 3.9416599 46 47 48
-0.294653 -0.817711 3.96858 28 27 28
-0.289148 -0.81838 3.96805 28 27 27
-0.29137099 -0.821832 3.97012 28 27 28
-0.28646901 -0.82245898 3.97031 28 27 28
-0.28380501 -0.81920397 3.9670501 36 35 34
-0.27493 -0.82130402 3.96997 141 137 133
-0.263675 -0.82153797 3.97278 152 146 140
-0.26361799 -0.82152098 3.9727001 152 146 140
-0.174237 -0.820081 3.9775701 152 148 142
-0.16834401 -0.81983203 3.97699 151 146 142
-0.162517 -0.81987798 3.9753599 149 144 139
-0.159649 -0.82103199 3.97492 119 115 110
-0.153842 -0.82095301 3.9740701 101 96 92
-0.153863 -0.82100397 3.9741001 100 95 91
-0.14797799 -0.82044202 3.9737101 89 85 82
-0.14806201 -0.82046098 3.9737401 89 85 82
-0.14244001 -0.82041299 3.97346 71 68 66
-0.13529401 -0.823892 3.9751599 27 26 25
-0.13685299 -0.82045197 3.97224 56 54 51
-0.131193 -0.82044703 3.97155 43 41 37
-0.12554801 -0.82044899 3.97052 44 41 33
-0.119907 -0.82051301 3.96909 48 44 35
-0.113923 -0.819305 3.9660101 49 44 35
-0.108501 -0.82034302 3.96786 39 34 28
-0.102878 -0.82059801 3.96632 21 17 15
-0.100241 -0.81606102 3.96368 46 42 39
-0.0972737 -0.82086903 3.96439 20 17 17
-0.091631703 -0.82094997 3.9640999 22 19 18
-0.055140998 -0.81753498 3.9626 25 23 24
-0.055140801 -0.81744999 3.9623201 26 23 24
-0.050686501 -0.81554598 3.9600201 27 25 25
-0.050679401 -0.81548101 3.9600501 27 25 25
-0.0506525 -0.81907302 3.9605601 24 22 23
-0.050646301 -0.81903601 3.96065 24 22 23
-0.046164401 -0.81722099 3.95983 25 23 25
-0.046174701 -0.81738502 3.9607301 25 23 25
-0.0461035 -0.82027501 3.9579 24 21 23
-0.0461016 -0.82020402 3.9577999 24 21 23
-0.041659102 -0.81524903 3.9584899 27 24 26
-0.041750301 -0.81567901 3.9590001 26 24 26
-0.0371961 -0.81743002 3.9574101 25 22 25
-0.000218849 -0.812783 3.94104 42 37 38
0.0055293399 -0.81260902 3.9406199 40 36 37
0.0146276 -0.815377 3.94121 33 31 31
0.0208239 -0.81478 3.9418199 32 29 29
0.0291568 -0.81213802 3.93994 31 29 29
0.034443799 -0.81234998 3.93838 28 26 26
0.040918399 -0.81132197 3.92734 29 28 28
0.0462704 -0.80856001 3.92485 29 27 27
0.045753699 -0.80894601 3.92536 30 27 27
0.058658998 -0.81103098 3.9172499 25 24 26
0.061098799 -0.80673498 3.9112501 29 28 30
0.135657 -0.80363297 3.8958299 216 211 216
0.135447 -0.80430299 3.89306 216 210 215
0.155984 -0.80562001 3.8900199 211 199 206
0.159642 -0.80028802 3.8809099 212 198 205
0.16473 -0.801633 3.88673 211 196 203
0.16438399 -0.80455601 3.8880999 212 197 204
0.17259499 -0.80249602 3.8889301 206 187 196
0.172644 -0.80640697 3.8933401 207 190 199
0.173613 -0.806934 3.89891 207 192 200
0.177461 -0.80343002 3.89276 203 184 191
0.178388 -0.80400801 3.89779 203 185 193
0.198649 -0.81015599 3.9135001 133 123 121
1.18442 -0.85516298 4.1266499 201 187 173
1.17856 -0.853701 4.1231699 208 195 181
1.1888601 -0.85411799 4.1230202 168 152 137
1.19396 -0.85734499 4.1248899 158 141 122
1.19472 -0.85534102 4.1207099 158 141 123
-0.40076801 -0.83143198 4.04563 168 165 164
-0.388309 -0.81793302 3.9977901 210 207 210
-0.39001501 -0.82137698 4.0148301 207 203 204
-0.387427 -0.82460701 4.02177 207 203 205
-0.382305 -0.81227702 3.9699199 214 212 214
-0.35436499 -0.80648601 3.9453101 218 216 219
-0.349592 -0.81057799 3.9450099 218 217 220
-0.343876 -0.81041098 3.9451001 211 210 212
-0.343923 -0.81051803 3.9451001 211 211 213
-0.34351599 -0.81038398 3.9450099 207 207 209
-0.34394401 -0.81060499 3.94504 211 211 213
-0.33823001 -0.81042802 3.9452901 85 85 86
-0.33827201 -0.81042999 3.9453499 87 87 88
-0.337874 -0.81045198 3.9455099 78 78 80
-0.33258399 -0.81044102 3.9455099 50 50 51
-0.332618 -0.81031102 3.9456699 50 50 51
-0.29747099 -0.81407899 3.96557 28 27 29
-0.29186699 -0.81424397 3.9654901 29 29 28
-0.28622001 -0.81424803 3.9658799 67 66 64
-0.27742001 -0.81663698 3.96752 149 145 140
-0.27997801 -0.81198102 3.9651201 149 145 139
-0.271727 -0.816652 3.9686899 139 134 127
-0.274331 -0.81214201 3.9667399 156 150 144
-0.27191401 -0.81345499 3.9630001 154 148 141
-0.26607999 -0.81675398 3.9703701 151 145 138
-0.156718 -0.81595403 3.97436 139 132 126
-0.150996 -0.81615901 3.97316 150 143 137
-0.151068 -0.81601101 3.9730599 148 142 136
-0.14543299 -0.81593198 3.9723499 151 146 141
-0.139823 -0.81587499 3.97136 152 148 143
-0.13985901 -0.81568003 3.97118 153 148 143
-0.13421001 -0.81570202 3.9700601 146 141 136
-0.1286 -0.81568199 3.9689901 135 131 125
-0.122924 -0.81570297 3.96838 112 108 100
-0.117165 -0.81565499 3.96734 95 90 83
-0.117133 -0.81563902 3.96737 95 90 83
-0.111426 -0.81554198 3.96703 75 70 65
-0.111457 -0.81558198 3.9669199 75 70 65
-0.10576 -0.815561 3.96644 56 52 48
-0.103172 -0.811077 3.9637101 149 143 136
-0.097331204 -0.81085902 3.9626601 145 139 134
-0.091485702 -0.81082398 3.9616399 133 127 122
-0.088682599 -0.81552899 3.9618499 41 36 33
-0.085761003 -0.81069899 3.9608099 123 116 111
-0.082748502 -0.81553501 3.96138 52 48 40
-0.080089599 -0.81051397 3.9606199 108 101 96
-0.062679097 -0.81069201 3.9577 57 53 51
-0.0596103 -0.81529999 3.9614401 28 25 25
-0.050688099 -0.81115502 3.9572999 38 34 32
-0.050680902 -0.81109703 3.95731 38 35 33
-0.0461509 -0.813546 3.95841 30 27 27
-0.0461464 -0.81345499 3.95825 30 27 27
-0.046293501 -0.80856597 3.9540701 66 62 58
-0.0417023 -0.81120503 3.9544699 34 31 31
-0.037203301 -0.81339502 3.9566901 29 26 27
-0.032861199 -0.81164598 3.9522099 35 31 31
-0.0268781 -0.811288 3.9570701 31 28 29
-0.022511199 -0.813703 3.95485 32 30 30
-0.0180868 -0.81199402 3.95294 35 33 32
-0.0159453 -0.810826 3.9518001 36 34 33
-0.0138573 -0.810516 3.9474699 40 37 35
-0.0027673999 -0.80732 3.9442301 45 40 38
0.0029485601 -0.80732799 3.94295 43 39 38
0.00289348 -0.80731899 3.9430499 43 39 38
0.0086653205 -0.80734599 3.9414501 43 39 39
0.0085982103 -0.80735701 3.9416499 43 39 39
0.0144026 -0.80734199 3.9405301 41 38 37
0.0116676 -0.810332 3.9420199 40 37 37
0.0202216 -0.80725902 3.94046 38 36 34
0.0257934 -0.807208 3.9393401 36 34 32
0.0312337 -0.80719 3.9370899 34 32 29
0.036627699 -0.80726302 3.93313 32 30 28
0.041765101 -0.804474 3.9289701 42 39 37
0.051117599 -0.80628502 3.9204299 27 25 24
0.056364801 -0.80314302 3.9154799 26 24 24
0.056600899 -0.80359203 3.91571 26 24 25
0.064057201 -0.80089998 3.91132 28 26 29
0.068420097 -0.801373 3.90839 26 24 28
0.106921 -0.78972 3.84969 200 197 200
0.103951 -0.79052699 3.86427 82 80 82
0.151419 -0.79915297 3.8867099 212 201 207
0.166059 -0.79511899 3.88324 210 193 200
0.172629 -0.79806602 3.8852899 205 185 193
0.19443899 -0.80157399 3.91063 154 135 138
1.15678 -0.83643699 4.0625701 200 188 174
1.1846499 -0.844935 4.11625 205 192 178
1.18978 -0.84741002 4.1198201 184 169 155
1.18943 -0.843265 4.1073499 186 171 156
1.19303 -0.84990001 4.11415 158 141 124
1.1950001 -0.842206 4.1045299 155 138 121
1.19322 -0.842363 4.0964198 155 138 122
-0.40340999 -0.82459801 4.0455298 160 161 160
-0.39120501 -0.81273502 3.99684 209 205 208
-0.39407301 -0.81647301 4.0120902 204 199 201
-0.39307201 -0.81566697 4.0145102 205 200 202
-0.39298999 -0.81633002 4.0056 206 201 203
-0.39606401 -0.81872803 4.0264802 199 193 194
-0.39754 -0.82167298 4.0369601 192 187 187
-0.38344899 -0.81147599 3.97644 213 211 214
-0.38587001 -0.81268799 3.99544 212 209 213
-0.381466 -0.81236702 3.99281 213 211 214
-0.355104 -0.80109698 3.9421101 216 215 218
-0.35519701 -0.80144602 3.9412 216 215 218
-0.35766101 -0.80361801 3.9440401 216 215 219
-0.34665799 -0.80579197 3.94368 213 213 215
-0.34671801 -0.80584401 3.9437599 214 213 215
-0.349455 -0.801 3.94245 215 214 216
-0.34954399 -0.80144101 3.94209 216 215 217
-0.34100801 -0.805718 3.94402 94 93 95
-0.34061599 -0.80567801 3.9440601 84 84 85
-0.33535501 -0.80567199 3.9442301 49 49 50
-0.335412 -0.80569702 3.9442 49 49 50
-0.30231401 -0.80977899 3.9697599 23 23 26
-0.301658 -0.80430597 3.9595201 22 22 24
-0.29683599 -0.807073 3.9614201 20 20 21
-0.29601401 -0.80497003 3.96088 38 37 38
-0.291127 -0.807046 3.9638901 90 89 87
-0.28264099 -0.80750102 3.9635899 149 145 139
-0.27700999 -0.80773002 3.96539 157 151 145
-0.120145 -0.81075197 3.96701 134 128 120
-0.114492 -0.81073701 3.96609 145 139 132
-0.088545598 -0.80589902 3.96099 129 121 114
-0.083066396 -0.80549401 3.9607899 136 128 121
-0.0712981 -0.806005 3.95748 152 145 139
-0.0656728 -0.80602801 3.95646 152 145 140
-0.059944499 -0.80602199 3.9554601 150 145 139
-0.054173101 -0.80598301 3.9546001 146 140 134
-0.038998999 -0.806297 3.9523001 94 89 86
-0.030082701 -0.80671299 3.9511499 59 54 52
-0.024328999 -0.80659199 3.9521699 47 43 42
-0.026873499 -0.807724 3.95351 41 38 38
-0.0189573 -0.80666202 3.9507899 43 39 37
-0.0167349 -0.80256599 3.9477501 113 108 103
-0.013694 -0.80669397 3.9493101 40 37 34
-0.0115255 -0.80234498 3.9466901 109 103 98
0.011601 -0.80243599 3.9407001 89 84 81
0.017222 -0.80228603 3.9391401 95 91 86
0.022858201 -0.802347 3.93786 97 92 87
0.0430369 -0.79821098 3.92839 121 116 111
0.047125999 -0.80178201 3.9247899 64 61 59
0.052455399 -0.79905701 3.9208 63 60 58
0.057682499 -0.79560202 3.9149499 55 53 51
0.065186799 -0.79610699 3.9093699 28 26 27
0.067745499 -0.79436398 3.9047 28 25 27
0.101295 -0.78663099 3.86323 41 40 41
0.134562 -0.79524797 3.9016199 216 211 216
0.147046 -0.79395998 3.8898001 213 203 210
0.14992 -0.78533298 3.8693199 211 200 207
0.15483201 -0.78741699 3.8619201 209 196 203
0.166116 -0.790739 3.8801 208 192 200
0.170844 -0.79282302 3.8816199 204 185 194
0.177444 -0.79228401 3.88901 201 178 187
0.184147 -0.79167402 3.8989301 197 170 179
1.10699 -0.83065999 4.05656 205 192 176
1.11499 -0.82709002 4.05024 202 190 176
1.17951 -0.83943301 4.1036601 203 190 177
1.19045 -0.84353101 4.1142502 189 175 159
1.1862299 -0.83802402 4.1075401 202 188 174
1.19172 -0.83708602 4.10323 186 171 156
-0.39669701 -0.81154197 4.0050998 202 198 200
-0.39931199 -0.81369799 4.0210199 196 191 192
-0.398507 -0.81287998 4.0239801 197 192 193
-0.40201601 -0.80950302 4.0102201 194 190 191
-0.40201601 -0.80950302 4.0102201 194 190 191
-0.39374 -0.80838799 3.99471 208 203 206
-0.39473099 -0.80805898 3.9955499 207 202 205
-0.38885599 -0.80457002 3.98721 211 208 211
-0.38552201 -0.80939502 3.9877801 213 210 213
-0.35795099 -0.796543 3.941 215 214 217
-0.352231 -0.796251 3.9411399 216 215 217
-0.352245 -0.796579 3.94081 216 215 217
-0.346596 -0.796664 3.9415901 122 122 123
-0.34658 -0.79614598 3.9414899 114 114 115
-0.30720499 -0.80187899 3.9603601 25 24 27
-0.30424699 -0.79907697 3.9577501 29 28 29
-0.29860699 -0.799824 3.9590199 55 54 53
-0.298599 -0.79920697 3.95892 63 62 61
-0.28900301 -0.80163997 3.96018 154 150 145
-0.28542301 -0.80344898 3.9646299 145 141 138
-0.0330269 -0.80182803 3.9506099 150 143 139
0.048467901 -0.79464501 3.92559 122 116 112
0.0524913 -0.79395998 3.91871 133 128 123
0.0626375 -0.79216802 3.90798 37 34 33
0.0658646 -0.78785998 3.9025099 32 29 29
0.074435703 -0.79099798 3.8984101 27 24 28
0.107113 -0.780451 3.8610301 133 132 134
0.107113 -0.780451 3.8610301 133 132 134
0.107113 -0.780451 3.8610301 133 132 134
0.115566 -0.78290403 3.8624401 215 212 216
0.13283899 -0.78952998 3.90483 216 212 217
0.137991 -0.79135197 3.9003699 215 209 214
0.14602 -0.78272402 3.88129 212 204 210
0.14351501 -0.78650999 3.87849 212 205 211
0.19109 -0.78912503 3.9100101 188 160 168
0.20213901 -0.79483598 3.91835 119 102 101
1.10278 -0.82373101 4.0562901 206 194 178
1.11 -0.82503998 4.0538001 202 190 174
1.1154701 -0.82276899 4.0428801 209 197 182
-0.404708 -0.80533302 4.0127101 190 185 187
-0.40957299 -0.81063402 4.0395598 141 147 146
-0.397365 -0.802463 4.0009599 204 199 202
-0.392169 -0.80387402 3.9884601 209 206 209
-0.38577399 -0.80087203 3.9777801 213 210 213
-0.386318 -0.79445797 3.96768 214 210 213
-0.38186699 -0.79398501 3.9611499 214 212 214
-0.38196301 -0.79645997 3.9690101 214 212 214
-0.360618 -0.79148 3.93911 215 214 217
-0.35496399 -0.79169399 3.93963 216 215 218
-0.35504699 -0.79167998 3.9398999 216 215 218
-0.31016099 -0.79738599 3.9583099 29 29 29
-0.307037 -0.79303098 3.9565699 31 30 28
-0.30114299 -0.79419601 3.9572401 87 86 85
-0.30148199 -0.792871 3.95702 103 100 98
-0.292952 -0.798702 3.9628899 148 145 143
-0.29580301 -0.79288602 3.95768 159 154 151
-0.29011101 -0.79325801 3.95699 168 162 157
0.0533388 -0.78488201 3.91522 93 86 80
0.058126099 -0.78815001 3.9112 146 142 139
0.063040502 -0.78326797 3.9012301 135 131 129
0.071726501 -0.78554201 3.90171 27 25 27
0.073904701 -0.78134298 3.8989 27 24 26
0.077836603 -0.78114003 3.89183 26 24 27
0.103232 -0.771155 3.8517201 38 37 38
0.112535 -0.77542198 3.8579199 216 212 216
0.135764 -0.78243399 3.89186 215 210 215
0.141243 -0.782345 3.8898699 213 207 212
0.143116 -0.77800101 3.8834 213 206 211
0.148388 -0.77812397 3.88026 212 203 209
0.15388501 -0.77841902 3.87767 210 199 206
0.15371899 -0.77830303 3.8775899 210 199 206
0.187986 -0.78502202 3.9047 192 162 171
0.19417299 -0.78428102 3.90888 178 146 154
0.197257 -0.78873003 3.9145401 151 122 127
0.202655 -0.78923702 3.9191999 115 90 91
0.21119 -0.78430998 3.91483 98 36 41
1.10297 -0.818923 4.0524902 206 194 178
1.1088901 -0.81645101 4.0525098 209 197 182
1.11392 -0.81669003 4.04813 211 199 184
-0.41218501 -0.80657703 4.0369601 132 142 138
-0.36349401 -0.78681803 3.9386401 214 213 216
-0.35785699 -0.78687698 3.9387701 215 214 217
-0.35203099 -0.78686798 3.9391999 141 141 143
-0.34638 -0.786834 3.9391999 48 48 48
-0.31263101 -0.791686 3.95735 29 29 28
-0.31023601 -0.787368 3.9548199 31 29 27
-0.310231 -0.78659201 3.9549601 33 32 30
-0.304326 -0.78832501 3.9557099 107 106 103
-0.30412501 -0.78813601 3.95523 120 117 114
-0.29844499 -0.78821301 3.9556501 162 157 153
-0.29272699 -0.78852099 3.9551599 173 166 161
0.0570479 -0.77950299 3.91078 110 105 99
0.059983701 -0.774589 3.89465 146 139 134
0.097715102 -0.77017897 3.85166 32 30 33
0.145767 -0.773633 3.8808801 212 204 210
0.151346 -0.77362299 3.88077 216 207 213
0.157024 -0.773664 3.8803101 209 197 203
0.16288 -0.773476 3.8824601 208 191 199
0.17378899 -0.77668202 3.8894701 202 180 190
0.19117799 -0.78005201 3.9042101 187 155 164
0.20270599 -0.78332299 3.9163899 100 66 69
0.21317001 -0.778714 3.9145801 103 27 34
0.21641999 -0.78363198 3.91868 123 55 61
1.11014 -0.81164598 4.0450201 213 201 186
1.1102 -0.80678701 4.0405302 209 197 182
1.11523 -0.80916703 4.0416698 213 200 185
1.85061 -0.88980699 4.4239602 192 184 172
-0.65015203 -0.82419401 4.1669102 60 41 31
-0.65008301 -0.82816702 4.1697602 126 103 92
-0.632056 -0.82429099 4.1662102 99 75 62
-0.58344698 -0.82404703 4.1638098 96 51 46
-0.411504 -0.79434103 4.0215101 168 169 168
-0.413928 -0.79890001 4.0316 131 138 135
-0.41478601 -0.80214298 4.0343499 131 142 137
-0.406495 -0.79575503 4.0216999 188 184 186
-0.39441699 -0.78221297 3.9514 209 206 210
-0.39034799 -0.78338099 3.94768 211 209 212
-0.36914 -0.77686203 3.9368999 212 210 214
-0.36619601 -0.78117102 3.9379001 213 212 215
-0.36609799 -0.78051198 3.93817 213 212 215
-0.363446 -0.77718699 3.9365499 214 212 216
-0.36065999 -0.78213203 3.9375999 214 213 216
-0.355019 -0.78219599 3.9377 160 159 161
-0.35218599 -0.77738899 3.9365799 51 51 52
-0.34921101 -0.78205001 3.9380901 48 48 49
-0.315635 -0.78599399 3.95715 26 25 26
-0.318948 -0.78182298 3.9559 27 25 28
-0.31316701 -0.78208297 3.95314 34 33 31
-0.31349999 -0.78205401 3.95402 32 31 29
-0.30732599 -0.78307098 3.95329 129 127 123
-0.30105501 -0.783445 3.9539101 164 159 155
-0.295387 -0.78382498 3.95311 172 165 160
0.056590099 -0.77212799 3.8987601 106 98 90
0.100812 -0.764458 3.85637 33 32 34
0.105499 -0.76345098 3.8556399 43 42 44
0.111061 -0.76358902 3.8548801 184 181 184
0.136813 -0.76922798 3.8877299 213 208 212
0.14862099 -0.76942003 3.8784599 211 203 208
0.148507 -0.76911402 3.8786299 211 203 208
0.17806 -0.76939303 3.8908401 197 174 182
0.18211199 -0.77500302 3.8991399 195 168 178
0.187148 -0.77197498 3.8998699 193 163 171
0.18864501 -0.77502799 3.90325 189 157 167
0.193114 -0.77088398 3.9047401 181 147 156
0.202574 -0.77455199 3.9166601 98 56 63
0.20788699 -0.77761298 3.9182301 67 18 20
1.10509 -0.80442202 4.0391502 208 196 181
1.11143 -0.80196702 4.04039 206 194 179
1.1160901 -0.80442703 4.0403399 209 196 182
1.11867 -0.80192 4.0427999 207 195 180
1.12249 -0.804456 4.0402398 211 199 184
1.85127 -0.88422501 4.41959 235 231 221
1.85807 -0.88622802 4.4226599 235 231 222
1.85746 -0.88203901 4.4168 234 230 221
-0.65017903 -0.82037002 4.1635499 45 28 19
-0.64561403 -0.82256401 4.1648598 68 50 38
-0.64216799 -0.81856298 4.1592202 137 114 102
-0.639476 -0.82278901 4.1637702 113 92 77
-0.632052 -0.82066 4.1623998 123 99 84
-0.62869602 -0.81646001 4.1577902 167 140 123
-0.613783 -0.81718099 4.15764 128 99 84
-0.60628098 -0.819179 4.1598601 120 79 65
-0.60164499 -0.82122898 4.1607399 176 117 109
-0.59708703 -0.81949002 4.1586199 120 48 45
-0.592489 -0.82118398 4.1600199 121 51 50
-0.59707701 -0.82305998 4.1623802 119 49 46
-0.58794397 -0.81898302 4.1578798 185 131 125
-0.58346599 -0.820436 4.1602201 181 137 129
-0.416693 -0.79259801 4.0276999 134 144 140
-0.41422901 -0.788122 4.0165901 161 163 160
-0.40428999 -0.788638 4.0137601 197 191 194
-0.36900201 -0.77569801 3.9373 212 210 214
-0.366292 -0.77233499 3.9356699 212 211 214
-0.36071801 -0.77296698 3.9363999 196 194 197
-0.360634 -0.77235597 3.93554 185 185 187
-0.35506701 -0.77323699 3.9351499 58 58 58
-0.34959799 -0.77467799 3.9346299 49 49 49
-0.322209 -0.77751499 3.95469 32 31 32
-0.316107 -0.77761799 3.9514501 35 33 32
-0.31672901 -0.778512 3.9519999 31 29 29
-0.310056 -0.778364 3.9516399 138 135 131
-0.30438501 -0.77841198 3.95187 165 161 155
-0.301395 -0.77397799 3.94961 172 166 160
0.100195 -0.755422 3.85725 34 32 34
0.108186 -0.75888002 3.8539 75 72 75
0.114292 -0.75754201 3.85864 211 207 210
0.129456 -0.76257098 3.88135 216 211 216
0.135471 -0.76170403 3.88465 213 208 212
0.140634 -0.76407897 3.8835399 212 206 210
0.146075 -0.76447803 3.88152 211 203 208
0.151683 -0.76446903 3.8810799 210 202 206
0.157738 -0.76406902 3.8858199 209 196 203
0.178147 -0.76317102 3.88904 195 172 180
0.184091 -0.76434898 3.8924899 192 165 173
0.18436401 -0.76781797 3.8970101 192 163 172
0.19032501 -0.76705498 3.90009 185 153 162
0.211307 -0.77007002 3.91434 80 11 18
1.12014 -0.79903001 4.0405302 207 194 180
1.11525 -0.79374498 4.03332 205 193 178
1.12696 -0.79899698 4.0418301 209 197 182
1.12091 -0.79395801 4.0309501 207 195 180
-1.2076 -0.81283802 4.1518202 143 114 88
-1.20578 -0.80933201 4.1543698 145 118 96
-0.64667797 -0.81181002 4.15486 92 64 52
-0.63764799 -0.81224501 4.1543999 172 143 126
-0.63770401 -0.81642801 4.1580801 91 65 50
-0.633093 -0.81006998 4.1529799 194 161 142
-0.62868398 -0.812307 4.15451 185 147 131
-0.61969501 -0.812877 4.1542602 176 147 128
-0.615192 -0.81052101 4.1529698 188 152 134
-0.61055303 -0.81288999 4.1535802 129 92 76
-0.59697503 -0.81125301 4.1514702 120 47 45
-0.60147798 -0.81308103 4.1533999 165 109 99
-0.59248197 -0.80939102 4.1496902 182 97 97
-0.59246302 -0.81327897 4.1529298 159 97 91
-0.58796197 -0.81491399 4.1547799 206 155 147
-0.412 -0.78254098 4.0185399 181 177 176
-0.40229699 -0.782462 4.0163598 201 196 197
-0.37487501 -0.767712 3.9350901 210 208 210
-0.369174 -0.76750398 3.9349 211 208 211
-0.36350399 -0.76748902 3.9346099 196 196 198
-0.35812899 -0.76819801 3.93453 68 68 69
-0.358118 -0.76833802 3.9343801 68 68 69
-0.35246399 -0.76852602 3.9332299 50 51 51
-0.35247299 -0.76831001 3.93332 50 51 51
-0.32552201 -0.77333701 3.95225 29 27 30
-0.32482201 -0.77304202 3.9503801 33 32 32
-0.32204801 -0.76835001 3.9487801 34 32 29
-0.319134 -0.773076 3.9500101 32 30 29
-0.31353599 -0.77296001 3.9497499 136 134 130
-0.307107 -0.77369797 3.9502499 165 161 155
0.0542375 -0.76501 3.9067199 96 87 77
0.105376 -0.75398803 3.85361 36 34 36
0.110977 -0.754022 3.85323 145 142 145
0.118299 -0.75054401 3.8531201 215 212 216
0.117099 -0.75264901 3.8580799 215 212 216
0.120415 -0.756199 3.8634 215 211 216
0.138337 -0.75703102 3.8828299 212 206 210
0.143437 -0.75909501 3.88311 211 204 209
0.14920101 -0.75869399 3.8841 210 202 206
0.15124901 -0.755395 3.8772199 209 200 204
0.154368 -0.75981998 3.8796799 208 198 203
0.16162699 -0.75881499 3.8852899 206 192 198
0.167292 -0.75941801 3.8858399 204 187 193
0.17809699 -0.759287 3.88464 196 173 181
0.183992 -0.75969601 3.88778 191 163 171
0.18903001 -0.761181 3.89202 179 146 154
0.188878 -0.76131803 3.8898499 175 140 149
1.10948 -0.790106 4.03016 206 194 179
1.1085 -0.78644902 4.0238199 209 197 181
1.11282 -0.788288 4.0213399 208 196 180
1.81344 -0.863693 4.40137 212 204 194
1.8147399 -0.86421603 4.4017501 215 207 197
1.82719 -0.86397302 4.4011898 235 230 222
-1.20166 -0.80677998 4.1486001 164 142 124
-1.11418 -0.80971402 4.16014 144 133 121
-1.1075701 -0.80971801 4.1587601 152 142 129
-0.65577197 -0.80335802 4.1494699 231 202 184
-0.65123701 -0.805453 4.1508598 169 138 122
-0.64678299 -0.80336702 4.1496501 165 134 118
-0.64667797 -0.80764401 4.1517 135 103 88
-0.63769102 -0.80783701 4.1518998 220 187 169
-0.62871999 -0.80791998 4.1519299 217 186 166
-0.61978602 -0.80438101 4.1489902 227 198 178
-0.61972898 -0.80832303 4.1518302 221 188 169
-0.61520302 -0.806463 4.1498299 182 147 128
-0.61075801 -0.80839401 4.1520801 216 176 160
-0.61062598 -0.808276 4.1516299 217 176 160
-0.60169297 -0.80475301 4.14922 203 126 120
-0.597049 -0.80725098 4.1489201 150 60 60
-0.592498 -0.80559599 4.14642 181 76 80
-0.58800602 -0.80354702 4.1451402 218 120 122
-0.39854699 -0.76803899 3.9618001 206 203 206
-0.40511 -0.77747202 4.0007901 198 194 195
-0.39496401 -0.77465701 3.98807 208 205 207
-0.386323 -0.76357001 3.94695 210 208 211
-0.377774 -0.761347 3.9381499 210 208 211
-0.372024 -0.76203698 3.9351599 210 208 210
-0.366357 -0.76199299 3.93449 202 201 204
-0.36070901 -0.76261401 3.9335599 67 66 67
-0.35795701 -0.759341 3.93066 49 48 49
-0.33069599 -0.76364899 3.9481399 29 28 28
-0.33070201 -0.76356202 3.9481101 29 28 27
-0.32501599 -0.76365298 3.94751 35 33 29
-0.32774299 -0.76827103 3.9493401 33 32 30
-0.31933799 -0.76356101 3.9472401 135 132 127
-0.31624699 -0.76807302 3.9486101 141 138 133
-0.31897601 -0.76306099 3.9479301 144 141 137
-0.31057999 -0.76815802 3.94894 166 162 156
-0.31326801 -0.76334602 3.9474299 166 162 155
-0.31329799 -0.76329201 3.9477201 166 162 155
-0.30760401 -0.76333702 3.94822 172 167 158
0.051723801 -0.75853997 3.9124801 99 89 79
0.102566 -0.74913102 3.85307 33 31 33
0.10023 -0.74557799 3.84677 31 28 31
0.113772 -0.74749798 3.85409 188 185 188
0.114031 -0.74719 3.8541601 192 189 192
0.128153 -0.74593902 3.8570399 213 208 214
0.128126 -0.750054 3.8599 213 209 214
0.133128 -0.748941 3.86536 213 208 212
0.16442101 -0.75149697 3.8749001 203 187 194
0.171186 -0.75184 3.8854101 201 183 190
0.176162 -0.75014102 3.87623 197 175 182
0.17836501 -0.75338101 3.88272 195 172 180
0.178082 -0.75476599 3.8806901 195 172 179
0.174858 -0.750476 3.88151 199 178 186
0.182271 -0.74976802 3.8799701 186 160 166
0.18232401 -0.74962503 3.8786299 184 158 164
0.184035 -0.754592 3.88411 188 160 167
0.184692 -0.753649 3.88465 185 156 163
0.189501 -0.75079799 3.88358 152 117 124
0.189638 -0.75466198 3.8886199 157 122 131
0.192995 -0.75668502 3.8927901 149 112 120
0.217499 -0.76052397 3.9105999 124 30 40
0.217952 -0.760131 3.9131899 124 30 40
1.80202 -0.85872602 4.3969798 181 172 161
1.80252 -0.86284101 4.40275 145 134 123
1.8082 -0.85658997 4.3942399 232 226 216
1.81374 -0.85881698 4.39678 234 229 219
1.81498 -0.85838401 4.3975101 235 231 221
1.81356 -0.85936099 4.3949299 236 230 221
1.82121 -0.861301 4.3996 236 231 222
1.8196599 -0.86161101 4.3987999 236 231 222
1.8362 -0.86193401 4.4050498 232 228 221
-1.20186 -0.80475199 4.1630301 187 168 153
-1.20262 -0.80152899 4.1543398 174 153 135
-1.19813 -0.80065602 4.1585398 190 174 160
-1.1372499 -0.80377001 4.16611 135 123 108
-1.1353 -0.80568802 4.1697302 133 120 106
-1.13077 -0.80357999 4.1655002 136 123 110
-1.1241 -0.80402601 4.16398 143 131 119
-0.64683098 -0.796157 4.1424499 192 162 150
-0.619739 -0.79671198 4.1415601 128 100 83
-0.61521298 -0.79879898 4.14292 127 96 79
-0.61527902 -0.80248898 4.1472201 148 117 98
-0.60599601 -0.79620802 4.1368299 237 180 169
-0.60609198 -0.79561597 4.1389999 237 180 169
-0.60604799 -0.799878 4.1410699 235 175 165
-0.59708798 -0.79616201 4.1377401 176 94 94
-0.40973499 -0.76421601 3.98316 195 191 192
-0.41164899 -0.77118301 4.0022998 192 188 190
-0.40917099 -0.768978 3.9976101 194 190 191
-0.400269 -0.76114899 3.9621 204 202 205
-0.40199301 -0.763246 3.9697299 203 199 202
-0.40400901 -0.76711899 3.9863601 201 197 199
-0.39504099 -0.75815398 3.95049 207 205 209
-0.39561 -0.76289201 3.96013 207 205 209
-0.39100599 -0.76033902 3.94717 208 206 209
-0.39108801 -0.76106602 3.9468601 208 206 209
-0.38666999 -0.76028699 3.9467299 210 207 210
-0.375025 -0.75700498 3.93522 209 206 209
-0.37491801 -0.75713098 3.93468 209 206 209
-0.36934701 -0.75705302 3.9342101 207 205 207
-0.36357799 -0.75802398 3.93244 78 78 79
-0.35822099 -0.75732899 3.9302001 49 49 50
-0.33363399 -0.75894099 3.9468801 34 33 33
-0.32802299 -0.75897199 3.9462099 35 34 30
-0.32204899 -0.758663 3.94593 141 138 133
-0.32235301 -0.75861597 3.9469399 130 127 124
-0.31612 -0.75882602 3.94541 169 164 158
-0.31031701 -0.75866097 3.9461601 173 167 159
0.058744598 -0.75159401 3.9170599 92 83 74
0.113773 -0.743047 3.8510301 182 179 182
0.113953 -0.73809898 3.8497801 178 176 178
0.118317 -0.74109203 3.8510399 215 212 215
0.120788 -0.73739201 3.84619 214 210 215
0.128049 -0.74094301 3.8498499 211 207 212
0.13312399 -0.74412102 3.86165 212 207 211
0.147826 -0.74360597 3.87289 210 202 207
0.156215 -0.74766701 3.8731401 206 195 200
0.161833 -0.74739599 3.87239 204 190 196
0.17432299 -0.74451602 3.8734601 197 177 184
0.174224 -0.74488699 3.87306 197 177 184
0.180112 -0.74480498 3.87515 185 161 167
0.186217 -0.74555802 3.88078 158 127 133
0.19755401 -0.74819398 3.8980801 131 94 100
1.78343 -0.84907901 4.3905602 151 139 128
1.78971 -0.85144103 4.3933001 161 151 140
1.7951601 -0.85077202 4.3891201 219 211 200
1.80165 -0.85325801 4.3917298 226 220 210
1.80837 -0.85005099 4.3899298 234 230 221
1.80765 -0.85072303 4.3889399 235 230 221
1.80846 -0.85568798 4.3947201 232 226 216
1.81521 -0.85233498 4.3926702 233 229 221
-1.19384 -0.797607 4.1828899 186 174 158
-1.18771 -0.80032498 4.1824598 182 170 154
-1.18182 -0.799842 4.1831799 177 163 150
-1.1338201 -0.798217 4.1666899 145 131 120
-1.12722 -0.79840499 4.1655798 154 141 131
-1.1206501 -0.79843599 4.1646199 155 143 134
-1.1141599 -0.79835403 4.16399 156 144 134
-0.62429398 -0.79459202 4.1402302 169 140 123
-0.61973101 -0.793037 4.1377501 194 164 148
-0.61519402 -0.79136997 4.1357198 143 109 93
-0.61515099 -0.79514301 4.1389198 129 97 81
-0.61061198 -0.79358 4.1367998 164 125 109
-0.60599202 -0.78888601 4.1296601 229 177 165
-0.601524 -0.79440302 4.1352201 176 106 100
-0.601524 -0.79059798 4.13169 159 98 90
-0.597094 -0.792355 4.1342702 178 116 110
-0.59256202 -0.79036301 4.13201 247 207 198
-0.59254098 -0.79400098 4.1356702 243 197 188
-0.39693201 -0.75639403 3.9568501 206 204 207
-0.378014 -0.752078 3.93487 208 205 208
-0.377819 -0.75219399 3.93432 208 205 208
-0.37233201 -0.75214398 3.9338 209 207 209
-0.361792 -0.75287801 3.9295001 46 46 46
-0.33669499 -0.754206 3.9458899 34 33 33
-0.33101699 -0.75423598 3.9451001 33 31 30
-0.324765 -0.75376898 3.9446399 145 142 137
-0.32533699 -0.75423098 3.9445601 130 127 123
-0.319074 -0.75418901 3.9439099 169 163 158
-0.31338999 -0.75429702 3.94309 174 168 161
0.063081399 -0.74668002 3.9161401 99 91 84
0.114167 -0.73304898 3.8489599 168 165 168
0.121114 -0.73233402 3.8461399 214 210 215
0.13112301 -0.73180199 3.83391 210 205 210
0.134689 -0.72815001 3.8247499 207 202 206
0.14826 -0.740426 3.87658 210 202 207
0.15353 -0.74054098 3.8747399 207 197 203
0.16287 -0.73916501 3.8758299 203 189 196
0.172169 -0.73957402 3.8702099 196 179 185
0.178001 -0.739658 3.87169 186 164 170
0.17761999 -0.738958 3.8717 184 161 168
0.183504 -0.73868299 3.8736701 158 130 135
1.76862 -0.84443802 4.39714 127 115 102
1.77325 -0.84635597 4.3957701 128 115 104
1.78124 -0.84686399 4.3991899 140 128 116
1.78321 -0.84489799 4.38517 195 186 176
1.7771 -0.84192002 4.38272 182 172 161
1.78887 -0.84792399 4.3870001 207 199 189
1.7893 -0.84236401 4.3822699 234 228 219
1.79559 -0.84495002 4.3846102 235 230 221
1.80204 -0.847449 4.3873 234 230 221
1.8023601 -0.84175599 4.3826499 231 227 220
-1.20832 -0.78610402 4.1547399 151 126 102
-1.19197 -0.79463398 4.1700702 187 174 159
-1.18701 -0.79334199 4.1669202 183 170 155
-1.17853 -0.79236197 4.17732 180 166 153
-1.17357 -0.79511899 4.1777201 174 161 147
-1.16819 -0.794554 4.1777 166 152 139
-1.16056 -0.78976601 4.1729102 176 163 150
-1.1556799 -0.79257399 4.1733499 160 147 134
-1.14353 -0.79405999 4.1690102 142 130 116
-1.1364501 -0.79375899 4.1660099 151 139 127
-0.69236797 -0.78695101 4.1384702 225 201 180
-0.68779898 -0.78556198 4.13585 226 202 183
-0.68329197 -0.78781402 4.13731 176 156 142
-0.67872101 -0.78625202 4.1346698 176 157 142
-0.619663 -0.78136802 4.1269498 171 140 122
-0.61054498 -0.78599602 4.1291199 229 185 171
