ply                 
format ascii 1.0    
element vertex 869
property float x    
property float y    
property float z    
property uchar red  
property uchar green
property uchar blue 
end_header          
-0.0788292 -0.867202 1.90128 217 223 255 
-0.0485459 -0.864474 1.89608 57 61 90 
-0.0537319 -0.491414 1.79055 55 52 47 
-0.0731026 -0.354341 1.7442 113 110 105 
-0.0789555 -0.352669 1.74494 28 24 21 
-0.0886424 -0.340545 1.74134 125 124 119 
-0.0907246 -0.337288 1.74153 103 104 99 
-0.0949171 -0.336517 1.74185 94 94 94 
-0.0427667 -0.334489 1.73283 51 48 41 
-0.115008 -0.331994 1.74191 11 10 6 
-0.0373695 -0.319766 1.72659 126 123 118 
-0.108827 -0.27893 1.71973 3 0 0 
-0.0386901 -0.252286 1.70322 37 34 29 
-0.0401855 -0.249661 1.7023 117 114 109 
-0.0835598 -0.237055 1.70446 21 20 15 
-0.0978733 -0.191029 1.68926 114 110 107 
-0.0286173 -0.183858 1.67909 119 115 114 
-0.0752192 -0.175612 1.68196 35 30 27 
-0.139478 -0.159557 1.68538 25 24 20 
-0.0943228 -0.159632 1.6794 73 72 70 
-0.0513168 -0.149208 1.67023 39 36 31 
-0.0485843 -0.138349 1.66601 20 17 10 
-0.065171 -0.134267 1.66579 8 4 1 
-0.124392 -0.122965 1.67223 2 1 0 
-0.125139 -0.121806 1.67298 163 162 160 
-0.16015 -0.110692 1.67197 96 95 93 
-0.0552787 -0.109236 1.65849 110 108 109 
-0.137529 -0.107829 1.66675 129 123 125 
-0.143885 -0.0958096 1.66588 29 24 21 
-0.0442956 -0.0931622 1.65024 35 32 27 
-0.0763756 -0.0861327 1.65205 131 127 126 
-0.115629 -0.084668 1.65586 29 28 24 
-0.0636576 -0.0530641 1.63053 92 89 80 
-0.138694 -0.0435497 1.6355 109 104 100 
-0.223742 -0.0120186 1.67092 120 119 117 
-0.172988 -0.0119515 1.63338 107 106 101 
-0.0962492 0.00114405 1.62199 5 1 2 
-0.0932816 0.0135462 1.62072 98 96 97 
-0.158897 0.0251441 1.63538 1 0 0 
-0.118921 0.0308846 1.62362 7 5 6 
-0.0575397 0.0365872 1.61859 85 84 82 
-0.142922 0.0492378 1.62993 69 69 69 
-0.116103 0.0929183 1.63177 11 9 10 
-0.0842374 0.101524 1.62674 98 96 97 
-0.151013 0.107981 1.64111 116 116 116 
-0.114183 0.109802 1.63018 96 96 96 
-0.0499581 0.115767 1.62797 85 85 85 
-0.00129883 0.131201 1.62901 87 87 87 
0.00166531 0.163806 1.6229 21 21 21 
0.00888143 0.16536 1.62219 9 9 7 
3.30336 3.30474 23.0575 46 51 57 
3.32996 3.34534 23.1563 154 159 163 
4.75565 3.3363 22.9506 19 23 34 
-0.0487425 0.227149 1.62039 81 80 78 
3.33004 3.46314 23.1386 12 15 22 
4.2131 3.6159 23.9996 20 20 28 
3.33328 3.49827 23.1522 160 163 172 
4.88486 3.48973 22.7123 65 69 80 
-0.1437 0.245456 1.62931 83 82 80 
3.34374 3.61365 22.5395 90 90 92 
-0.0616922 0.256562 1.61474 1 0 0 
2.54811 3.14248 18.528 42 42 34 
-0.146313 0.28296 1.62719 5 3 4 
-0.151321 0.304484 1.62905 1 1 1 
-0.170433 0.382243 1.63258 92 88 87 
-0.146114 0.381935 1.62079 77 76 74 
-0.00100502 0.386336 1.61203 86 85 81 
-0.129075 0.482204 1.60897 92 91 89 
-0.0847314 0.54568 1.59704 80 80 78 
-0.0786233 0.550986 1.59502 93 95 92 
-0.058469 0.565605 1.58982 91 89 90 
-0.0785801 0.572644 1.58553 71 70 68 
0.516869 0.813202 2.15086 89 89 81 
-0.0765009 0.595575 1.58184 72 70 71 
0.588176 0.825792 2.07461 86 85 80 
0.523568 0.852615 2.12765 71 66 62 
-0.109873 0.679534 1.5709 112 106 106 
-0.0894247 0.732163 1.56164 111 108 101 
-0.0677017 0.737478 1.53664 91 90 85 
-0.0666412 0.738388 1.53632 5 4 0 
-0.0411546 0.743223 1.53855 87 86 84 
-0.0562973 0.744763 1.53633 90 86 85 
-0.0835624 0.768837 1.53334 70 66 63 
-0.0851201 0.773178 1.53134 93 89 86 
-0.0916471 0.781737 1.51111 97 96 94 
-0.0494864 -0.102852 1.65498 128 127 123 
-0.0674291 -0.0561673 1.63305 115 112 105 
-0.223855 -0.0119545 1.6707 120 119 117 
-0.0965303 0.0898484 1.628 73 72 68 
-0.111168 0.11255 1.62896 88 88 88 
-0.143752 0.245427 1.62922 83 82 80 
-0.0550334 -0.813336 1.89832 125 130 149 
-0.0715072 -0.689241 1.85757 118 115 108 
-0.0400636 -0.243303 1.69967 105 102 97 
-0.108046 -0.170276 1.68526 112 108 105 
-0.0854475 0.012982 1.61959 106 105 103 
-0.0962497 0.0898375 1.62844 90 89 85 
-0.0838152 0.106111 1.6264 98 96 97 
-0.157237 0.142528 1.64232 96 92 91 
-0.11617 0.222225 1.6237 71 69 70 
3.39011 3.34979 23.5111 136 141 145 
4.68769 3.35016 23.2899 54 60 72 
4.27788 3.64233 24.2418 64 65 70 
4.73412 3.61974 22.7952 25 28 37 
4.26233 3.63538 24.1692 48 49 54 
4.0479 3.78584 24.2441 49 50 55 
4.01512 3.65778 23.5245 113 116 123 
-0.0613209 -0.88108 1.90915 9 14 44 
-0.04595 -0.869626 1.90066 212 217 239 
-0.0572904 -0.878557 1.92033 210 217 236 
-0.0488072 -0.87388 1.91616 57 61 90 
-0.0759055 -0.874381 1.92168 49 51 74 
-0.0595918 -0.863896 1.91723 46 52 76 
-0.0599983 -0.851599 1.90878 169 175 201 
-0.0958578 -0.781262 1.9021 95 89 103 
-0.055309 -0.767006 1.87182 32 27 24 
-0.071399 -0.764826 1.86872 52 51 49 
-0.0460833 -0.767857 1.87913 113 109 106 
-0.0809422 -0.766732 1.88003 29 27 28 
-0.0330035 -0.76841 1.88742 37 33 32 
-0.0808729 -0.713379 1.87721 33 29 26 
-0.0945463 -0.709954 1.90368 214 211 220 
-0.0774166 -0.676908 1.86629 111 108 101 
-0.0504648 -0.678768 1.87038 19 12 6 
-0.0985793 -0.681167 1.89733 29 28 36 
-0.0722155 -0.649219 1.85904 46 41 35 
-0.0450727 -0.644841 1.86104 42 37 33 
-0.0864547 -0.625443 1.85187 127 124 119 
-0.0699451 -0.622847 1.8479 108 104 101 
-0.110718 -0.6256 1.8766 100 99 107 
-0.0206014 -0.557622 1.83043 6 4 5 
-0.0409418 -0.547425 1.82178 27 25 26 
-0.0965209 -0.5377 1.81319 16 12 9 
-0.107379 -0.528009 1.81666 105 104 100 
-0.0925675 -0.527547 1.82074 36 35 33 
-0.103359 -0.517069 1.81632 31 27 24 
-0.0584215 -0.510184 1.80327 38 34 31 
-0.0671691 -0.509571 1.80983 29 24 20 
-0.0909327 -0.509386 1.81372 30 27 22 
-0.037096 -0.504376 1.80704 102 101 97 
-0.11119 -0.504815 1.81692 43 40 35 
-0.0187687 -0.503168 1.82067 99 98 96 
-0.070888 -0.497342 1.8033 37 33 30 
-0.0573249 -0.496813 1.80094 34 31 22 
-0.0611194 -0.491044 1.79111 80 76 73 
0.00243324 -0.504573 1.83682 83 82 80 
-0.148495 -0.511468 1.87322 39 39 51 
-0.0385796 -0.487343 1.79488 36 32 29 
-0.0296293 -0.487883 1.81007 112 108 109 
-0.0617547 -0.483509 1.79987 92 91 89 
-0.0713752 -0.484125 1.80291 114 113 111 
-0.00327909 -0.489858 1.82458 84 80 79 
-0.097508 -0.48422 1.80419 111 107 104 
-0.0142194 -0.486429 1.81506 22 18 17 
-0.052934 -0.471804 1.79817 131 128 123 
0.000114019 -0.477488 1.82472 17 13 10 
-0.0215582 -0.469543 1.80376 135 131 128 
-0.00926862 -0.47461 1.81956 16 12 9 
-0.153435 -0.484184 1.86751 37 33 32 
-0.0662348 -0.461218 1.78794 95 93 94 
-0.0154413 -0.458754 1.80072 113 109 106 
-0.0914476 -0.451298 1.79349 86 85 81 
-0.0283909 -0.449564 1.79281 89 85 82 
-0.126524 -0.451807 1.80546 9 10 5 
-0.0469569 -0.446306 1.78624 103 100 95 
-0.0749818 -0.443032 1.78727 76 76 74 
-0.00291893 -0.445487 1.80686 118 114 111 
-0.0333415 -0.438096 1.78503 47 44 37 
-0.000475971 -0.44508 1.81802 119 115 112 
-0.0962116 -0.430732 1.78507 15 11 8 
-0.146405 -0.438283 1.81922 90 86 85 
-0.0045503 -0.432731 1.79943 88 87 83 
-0.112424 -0.429635 1.78932 20 16 13 
-0.0510593 -0.426563 1.77596 104 100 97 
-0.0157794 -0.428008 1.79605 111 110 106 
-0.117552 -0.427503 1.79967 69 64 58 
-0.143839 -0.429277 1.81307 27 23 20 
-0.125163 -0.422602 1.78802 48 46 34 
0.0223434 -0.429989 1.82179 102 98 97 
-0.111726 -0.418525 1.78057 44 41 36 
0.00276381 -0.423697 1.80745 127 123 122 
-0.0688197 -0.413211 1.78027 35 34 30 
-0.132798 -0.415748 1.79638 53 49 40 
-0.0514629 -0.40843 1.77146 29 24 20 
-0.00905003 -0.411194 1.79032 130 129 125 
-0.0813216 -0.406478 1.77578 100 96 93 
-0.111887 -0.402154 1.77519 31 28 21 
0.0295407 -0.413393 1.82354 75 71 72 
-0.0983293 -0.398437 1.77402 46 43 38 
0.00782334 -0.404805 1.80131 124 123 121 
-0.141326 -0.405844 1.80821 18 13 10 
-0.0327918 -0.396427 1.76972 29 30 25 
-0.0132008 -0.395176 1.77661 106 105 103 
-0.0531587 -0.38991 1.75726 43 36 30 
-0.14242 -0.396008 1.78845 35 30 27 
-0.0728536 -0.391449 1.77123 18 15 8 
-0.120874 -0.390873 1.77822 121 116 113 
-0.0622795 -0.388192 1.76614 100 97 92 
-0.171349 -0.402769 1.8397 77 74 67 
0.01989 -0.396885 1.808 102 101 99 
-0.156231 -0.398471 1.82177 21 17 14 
-0.0232812 -0.384798 1.76987 17 12 9 
-0.0548336 -0.378698 1.75331 115 111 102 
0.00311621 -0.383739 1.78574 122 118 117 
-0.131136 -0.378657 1.76911 42 37 33 
-0.0421926 -0.376575 1.75765 110 107 100 
-0.0855934 -0.377225 1.77262 121 117 114 
-0.0215451 -0.370617 1.7599 42 38 35 
0.0295649 -0.380733 1.80816 22 23 18 
0.022661 -0.378305 1.79881 94 93 91 
-0.145424 -0.37408 1.7872 17 14 9 
-0.0413929 -0.364315 1.75241 27 24 19 
-0.0663777 -0.364389 1.75832 34 33 28 
-0.000163996 -0.36851 1.77641 18 14 11 
-0.103569 -0.365875 1.76594 41 38 31 
0.019774 -0.36791 1.79046 127 126 122 
-0.183783 -0.377125 1.84339 30 26 23 
0.0150523 -0.362748 1.78092 40 36 37 
-0.0120972 -0.356318 1.76153 112 111 109 
-0.0252841 -0.354893 1.75741 18 13 7 
-0.177765 -0.370821 1.83595 117 112 109 
-0.0626809 -0.350634 1.75218 49 47 35 
-0.148884 -0.35572 1.779 110 107 102 
-0.137619 -0.352764 1.76634 24 20 11 
-0.174458 -0.362458 1.81979 24 20 19 
-0.150029 -0.34305 1.76801 26 21 17 
-0.00160637 -0.342894 1.76776 105 104 102 
-0.0428594 -0.335959 1.73966 51 48 41 
-0.0215292 -0.33793 1.75144 116 115 111 
-0.0613725 -0.333525 1.74534 133 130 123 
-0.0129982 -0.332694 1.74921 82 81 79 
-0.106485 -0.331563 1.74614 130 129 125 
-0.131492 -0.332334 1.75708 33 29 26 
-0.028271 -0.327363 1.74267 95 91 90 
-0.0466349 -0.324844 1.73671 43 40 35 
-0.139032 -0.325255 1.74849 29 26 21 
-0.0177884 -0.322549 1.74421 96 95 91 
-0.120411 -0.32001 1.74898 107 106 104 
-0.2098 -0.327574 1.78892 53 51 62 
-0.185562 -0.321763 1.76168 50 49 45 
-0.0427033 -0.315197 1.73587 50 47 38 
-0.105444 -0.316976 1.75062 99 98 96 
-0.0337895 -0.310685 1.73052 34 31 24 
-0.219384 -0.322204 1.80153 28 30 43 
-0.157159 -0.311879 1.76435 63 62 60 
-0.0706627 -0.306492 1.73437 28 25 18 
-0.202176 -0.312335 1.77507 21 18 11 
-0.0202544 -0.305188 1.73936 80 79 77 
-0.122913 -0.305851 1.74761 40 39 35 
-0.0847922 -0.303046 1.73425 21 18 9 
0.0234065 -0.299956 1.72762 34 34 24 
-0.119006 -0.298861 1.73884 100 95 92 
-0.192054 -0.30044 1.76695 110 110 100 
-0.0181883 -0.294498 1.73335 69 68 66 
-0.0705953 -0.293158 1.73585 41 36 30 
-0.135605 -0.294577 1.74554 95 94 90 
0.0448199 -0.295314 1.74744 86 85 80 
-0.123329 -0.287717 1.73334 114 113 109 
0.0302402 -0.288294 1.73659 6 5 3 
0.023525 -0.284782 1.7275 35 33 34 
-0.0424418 -0.282874 1.72484 28 25 20 
-0.0602488 -0.278424 1.72172 30 27 20 
-0.0840011 -0.277029 1.73065 24 21 16 
-0.0232192 -0.275894 1.72446 68 67 62 
0.0477717 -0.279436 1.74483 100 100 98 
-0.192458 -0.281862 1.76198 14 10 7 
-0.035009 -0.272881 1.71572 19 16 11 
-0.100653 -0.268602 1.72723 82 83 78 
-0.0581244 -0.266632 1.72354 47 42 38 
-0.229853 -0.277504 1.81303 203 207 218 
-0.0715041 -0.262219 1.72022 27 24 19 
0.0295403 -0.26344 1.73373 82 81 79 
-0.0519024 -0.258073 1.71892 20 16 13 
-0.131568 -0.259033 1.72806 33 32 27 
-0.116935 -0.258554 1.72793 112 111 106 
-0.170377 -0.257782 1.72759 15 14 12 
-0.106392 -0.257137 1.72401 7 6 1 
-0.146872 -0.257526 1.73682 92 88 85 
-0.00868778 -0.25492 1.72216 63 62 58 
-0.200906 -0.261868 1.77573 18 10 7 
-0.177027 -0.255295 1.73759 117 116 112 
0.0428029 -0.255508 1.74524 97 87 86 
-0.207372 -0.261837 1.78938 93 85 82 
0.0293575 -0.244553 1.73547 28 14 13 
-0.134783 -0.243248 1.72984 25 21 18 
-0.01918 -0.240386 1.71002 96 95 93 
-0.0634445 -0.236687 1.71027 96 91 88 
0.0199558 -0.238984 1.72705 59 45 45 
-0.217294 -0.247285 1.80026 31 19 21 
-0.0384423 -0.231351 1.70522 99 96 91 
-0.148204 -0.231557 1.72264 36 35 30 
-0.133017 -0.230292 1.72009 88 87 83 
-0.0860307 -0.229373 1.71347 97 96 92 
-0.0494969 -0.226073 1.7071 86 82 81 
0.0500789 -0.231016 1.75174 99 91 89 
0.0201359 -0.228348 1.73595 40 26 23 
0.0167397 -0.22558 1.72538 113 100 94 
-0.0222554 -0.221831 1.70171 14 9 6 
-0.00954661 -0.220543 1.70371 102 101 97 
-0.110373 -0.220202 1.70847 68 69 64 
0.0278284 -0.219646 1.72998 115 101 101 
-0.0885887 -0.215582 1.70898 25 24 22 
-0.157135 -0.216102 1.71985 91 88 81 
-0.043698 -0.212333 1.70463 41 38 33 
-0.143996 -0.212369 1.71315 83 82 80 
0.0377077 -0.213672 1.74136 111 100 98 
-0.00650206 -0.208678 1.70666 83 78 74 
-0.096275 -0.20581 1.7081 44 43 39 
-0.04479 -0.201486 1.69402 111 108 103 
-0.0852921 -0.200037 1.70408 108 107 105 
-0.157075 -0.201219 1.71801 23 20 15 
-0.137155 -0.195413 1.70622 2 1 0 
-0.107455 -0.194977 1.70744 79 75 74 
0.0549384 -0.199189 1.747 53 52 48 
0.0658037 -0.200204 1.7647 94 93 89 
-0.016917 -0.190118 1.68961 23 19 16 
-0.161682 -0.19226 1.71391 133 127 127 
-0.0901494 -0.190355 1.69771 4 0 0 
-0.199501 -0.197635 1.76514 26 25 23 
0.0325648 -0.193477 1.72773 86 84 85 
-0.151603 -0.190034 1.71757 85 84 82 
0.0220512 -0.187255 1.71967 98 97 93 
-0.213509 -0.193699 1.78542 10 10 8 
-0.107268 -0.182967 1.69687 83 82 80 
-0.00164186 -0.182063 1.69762 117 113 110 
-0.0175797 -0.179528 1.68631 95 94 90 
-0.183347 -0.1796 1.74255 103 102 100 
-0.0714288 -0.172706 1.68755 23 19 18 
-0.0452216 -0.172306 1.68701 25 21 18 
0.0356703 -0.174636 1.72213 73 72 70 
-0.24627 -0.184461 1.83489 105 105 107 
-0.230749 -0.179812 1.80199 116 115 113 
0.00476944 -0.164746 1.69681 101 97 96 
-0.0485495 -0.161678 1.68426 89 86 81 
-0.111364 -0.161533 1.69454 80 79 77 
-0.213012 -0.167935 1.7709 89 88 83 
0.0472478 -0.164031 1.73179 100 99 97 
0.0621308 -0.162992 1.7392 93 92 90 
-0.00256589 -0.154693 1.68742 80 79 75 
-0.0331007 -0.15038 1.67579 53 50 45 
-0.15151 -0.152155 1.70027 104 103 101 
-0.0728802 -0.150691 1.68628 38 37 35 
0.0764781 -0.157434 1.75271 127 126 122 
-0.210547 -0.157149 1.75665 15 14 12 
0.0161163 -0.150804 1.70505 87 86 84 
0.00901075 -0.146362 1.69493 77 77 69 
-0.180818 -0.145634 1.71261 118 118 116 
-0.030343 -0.140271 1.67061 114 109 103 
0.0755122 -0.147548 1.74882 144 144 142 
-0.0121691 -0.139601 1.67858 17 16 12 
-0.16094 -0.141492 1.69944 23 22 20 
-0.0865646 -0.139635 1.68537 23 22 20 
-0.150246 -0.13862 1.69339 101 100 98 
-0.260266 -0.148438 1.82768 171 171 181 
0.0271743 -0.137876 1.70768 6 5 3 
0.0660729 -0.139814 1.7359 17 15 16 
-0.139165 -0.135409 1.69185 41 40 38 
-0.163153 -0.132628 1.68729 98 97 95 
0.0881103 -0.13403 1.74472 100 99 95 
-0.232004 -0.135264 1.78112 27 25 26 
-0.019813 -0.125713 1.66876 41 40 35 
0.0158354 -0.127675 1.69547 105 103 104 
-0.0409045 -0.124193 1.67121 3 2 0 
-0.0529472 -0.124677 1.67384 2 1 0 
0.0341592 -0.127041 1.70704 89 88 86 
-0.140096 -0.124104 1.68952 19 18 16 
-0.185269 -0.121115 1.70651 94 93 91 
-0.152713 -0.118326 1.69221 23 22 20 
-0.00850283 -0.116367 1.66878 91 90 85 
0.0970638 -0.120511 1.75204 89 87 88 
0.0373534 -0.114672 1.70326 29 25 24 
-0.0386651 -0.111299 1.66632 23 22 18 
-0.0552451 -0.109133 1.65693 110 108 109 
0.080074 -0.115334 1.7401 93 92 90 
-0.149599 -0.110062 1.68282 5 4 2 
0.0257656 -0.111675 1.69916 30 29 25 
-0.000157921 -0.107564 1.67258 108 106 107 
-0.00739753 -0.101616 1.6628 28 26 27 
-0.272159 -0.112005 1.82981 55 53 66 
-0.125381 -0.100789 1.67747 109 108 106 
-0.186605 -0.101471 1.69812 16 16 16 
-0.172807 -0.100268 1.68388 114 113 111 
-0.018749 -0.0972347 1.66579 136 134 135 
0.0589257 -0.100001 1.71986 111 110 108 
-0.145447 -0.0969662 1.68573 29 24 21 
0.000482184 -0.0954249 1.66571 88 86 87 
0.0914656 -0.101182 1.7436 105 104 102 
-0.100501 -0.0943524 1.66475 122 122 122 
-0.242694 -0.0993908 1.77817 15 14 12 
0.0215733 -0.0935033 1.68559 84 82 83 
-0.16536 -0.0919655 1.67233 64 60 57 
0.0421413 -0.0925142 1.70373 38 37 35 
-0.0243624 -0.0889346 1.65518 5 4 2 
-0.061362 -0.0883288 1.65528 10 8 9 
-0.0605834 -0.0890348 1.66683 2 0 3 
-0.0384513 -0.0868112 1.65235 74 70 67 
-0.000465913 -0.0826787 1.65733 15 14 12 
0.0752442 -0.0852717 1.72165 20 18 19 
-0.0791338 -0.0812417 1.6543 43 38 35 
0.0735013 -0.0846824 1.71008 34 32 33 
0.0346584 -0.0806446 1.67749 97 96 92 
-0.0956029 -0.079589 1.65456 26 27 22 
-0.18889 -0.0805879 1.68742 28 26 27 
-0.135625 -0.0773794 1.66394 18 15 10 
0.0590535 -0.0784404 1.70167 19 18 16 
-0.0530136 -0.0749157 1.65033 10 7 0 
0.110578 -0.0777308 1.74606 59 56 51 
0.0933623 -0.0761136 1.72803 101 101 101 
-0.113846 -0.0701589 1.65819 22 19 12 
-0.157195 -0.0697029 1.66217 96 95 93 
0.0412734 -0.0706529 1.68114 108 107 105 
-0.101088 -0.0673539 1.65838 11 10 6 
0.016665 -0.0661459 1.65625 93 92 88 
0.00785289 -0.0648695 1.64995 29 28 26 
-0.252104 -0.0689517 1.76857 92 92 90 
-0.0266978 -0.0631905 1.63507 130 126 125 
-0.124285 -0.0602524 1.65723 21 17 16 
-0.0447306 -0.060049 1.64528 110 107 102 
-0.0866334 -0.0576902 1.64767 9 4 0 
-0.240403 -0.0601027 1.74584 31 28 21 
-0.136969 -0.0542745 1.65031 121 120 116 
0.0555987 -0.0541733 1.68158 105 105 103 
0.0779383 -0.0496186 1.69753 14 13 11 
-0.0959829 -0.0465708 1.64497 20 20 10 
0.0241594 -0.0469498 1.65319 39 38 33 
-0.115555 -0.0454297 1.64416 31 32 24 
-0.1476 -0.044625 1.65562 102 98 97 
0.0599828 -0.0455459 1.68624 15 15 15 
0.0408119 -0.0441509 1.6574 42 41 39 
0.0982955 -0.044275 1.70388 1 0 0 
0.107024 -0.0448998 1.71397 28 27 23 
-0.232859 -0.0443314 1.72421 38 33 27 
-0.0878779 -0.040301 1.63788 26 23 14 
-0.277185 -0.0409344 1.78486 17 13 10 
-0.131525 -0.0350158 1.64183 40 37 32 
-0.0890689 -0.0300814 1.62866 37 33 21 
-0.0597797 -0.0303012 1.63183 45 41 30 
-0.228956 -0.030306 1.70072 115 114 110 
0.00845379 -0.0277901 1.63507 104 103 101 
0.0438168 -0.0278088 1.64811 111 110 106 
0.090613 -0.027787 1.69019 17 16 12 
0.0667595 -0.0249989 1.66732 21 21 9 
-0.260617 -0.0250757 1.73189 35 32 25 
-0.104054 -0.0169904 1.62702 117 113 110 
-0.0102248 -0.0140459 1.62346 113 112 108 
-0.188742 -0.013704 1.65244 59 58 54 
-0.225612 -0.0122019 1.68552 120 119 117 
0.0729544 -0.0116311 1.66479 80 79 77 
-0.209082 -0.0103355 1.67399 24 20 17 
0.114757 0.00239962 1.71383 90 89 87 
-0.15226 0.00463115 1.64254 18 17 13 
-0.0237913 0.0045484 1.62914 101 99 100 
-0.178362 0.00518402 1.65727 101 100 96 
0.0764509 0.00675715 1.6702 8 7 5 
-0.23418 0.00673405 1.70393 105 104 102 
0.089863 0.00684304 1.68852 4 2 3 
0.143585 0.00733115 1.76684 12 10 11 
0.127368 0.00973259 1.72833 1 0 0 
0.136662 0.0117641 1.75178 93 91 92 
0.0333691 0.0143812 1.64663 3 2 0 
-0.209905 0.0147397 1.67624 97 96 94 
0.0729031 0.0153378 1.67656 1 0 2 
0.107149 0.0155854 1.70566 105 105 105 
-0.236152 0.0174446 1.70508 94 93 89 
0.0947048 0.020065 1.69186 33 33 33 
0.130896 0.0217116 1.73956 110 108 109 
-0.0264492 0.0221999 1.63278 20 16 15 
-0.0965562 0.0247804 1.63316 85 83 84 
-0.00269318 0.0246395 1.63022 11 9 10 
0.0696325 0.0270644 1.67008 3 1 2 
0.0322779 0.0336488 1.647 7 6 4 
-0.108196 0.0346603 1.63275 71 71 71 
0.0592367 0.0352167 1.6609 8 4 3 
-0.0464129 0.0356712 1.62975 90 89 87 
-0.136823 0.0369485 1.64046 2 0 1 
0.0779692 0.0375334 1.67656 77 77 77 
-0.271021 0.0410121 1.75856 21 19 22 
-0.14703 0.0380313 1.64502 73 69 66 
0.0489217 0.0393274 1.65127 82 80 81 
0.105768 0.040949 1.70475 107 106 102 
0.0928573 0.0409268 1.68883 91 90 86 
0.123781 0.0431755 1.72836 11 7 8 
-0.236231 0.0431285 1.69976 99 97 98 
-0.202219 0.043938 1.67588 11 9 10 
-0.157601 0.0431845 1.64628 6 5 3 
-0.128145 0.0455369 1.63456 88 86 87 
-0.0113923 0.047094 1.63265 83 81 82 
0.00105402 0.0495489 1.63517 124 123 121 
0.0685318 0.0511301 1.67009 79 78 76 
-0.0315478 0.0535182 1.63221 50 46 47 
-0.0512946 0.0554667 1.62796 63 59 58 
-0.185436 0.0572816 1.66358 58 57 53 
0.0249522 0.0589585 1.64338 90 89 87 
0.0519196 0.0609346 1.65144 93 92 90 
0.0879537 0.0633548 1.67726 94 93 91 
0.103599 0.0705632 1.69491 100 99 97 
-0.0420425 0.073945 1.63089 65 65 65 
-0.159093 0.077508 1.6573 80 80 78 
0.109517 0.080214 1.71058 89 89 87 
-0.232367 0.0824709 1.71453 88 87 85 
0.0508322 0.0806452 1.64391 0 0 0 
0.0926938 0.0833206 1.68545 83 82 80 
0.00919708 0.0831994 1.63264 118 114 111 
0.061881 0.0855924 1.66082 77 76 74 
-0.00409818 0.0881735 1.64009 69 67 68 
0.0807226 0.0928637 1.67341 87 86 84 
-0.249627 0.0988051 1.74033 6 4 5 
0.0180328 0.0941287 1.63571 83 82 78 
0.0513689 0.0964374 1.65332 74 74 76 
0.0742011 0.0994418 1.6661 26 25 21 
0.108132 0.10227 1.69974 13 9 10 
0.032439 0.0992278 1.64093 114 113 111 
0.0597754 0.101763 1.65821 97 97 95 
-0.243376 0.107542 1.72372 83 83 83 
-0.0558021 0.101752 1.63572 90 88 89 
-0.224902 0.109388 1.7106 8 4 5 
0.0740053 0.108287 1.67236 95 94 92 
0.0418404 0.10768 1.65053 8 7 5 
0.0951415 0.109857 1.68197 15 15 13 
-0.236687 0.115063 1.71543 10 10 10 
-0.17735 0.112903 1.67022 1 0 0 
0.0703929 0.114039 1.66377 92 88 89 
-0.068643 0.111726 1.63067 86 86 86 
-0.122623 0.117107 1.64555 78 78 78 
-0.217763 0.120971 1.69486 68 66 67 
-0.231291 0.122107 1.71035 106 106 106 
0.114651 0.131948 1.70899 89 83 83 
-0.187592 0.128298 1.66532 10 8 9 
0.0486993 0.127232 1.64764 82 81 79 
0.0871988 0.13332 1.67988 101 99 100 
-0.153862 0.13181 1.6517 3 3 3 
0.0418901 0.134888 1.64338 80 79 77 
0.100775 0.140398 1.6945 27 25 26 
0.000417333 0.135657 1.62685 29 27 28 
0.0663152 0.138342 1.66344 5 5 3 
-0.177824 0.142949 1.66362 75 74 72 
-0.127987 0.141804 1.64128 69 68 66 
-0.226532 0.148042 1.70602 105 104 102 
0.050013 0.145935 1.65316 85 84 82 
0.0793285 0.147561 1.66409 87 86 82 
0.0150687 0.146411 1.63238 68 67 65 
0.0649472 0.150446 1.6608 91 90 88 
-0.0679833 0.148564 1.63247 3 0 0 
-0.238056 0.156624 1.71719 7 5 6 
0.00982946 0.153398 1.62505 110 109 107 
-0.245943 0.167936 1.72947 32 31 29 
-0.0726489 0.159096 1.63039 81 80 78 
0.11492 0.170055 1.70529 42 41 39 
0.121885 0.179115 1.71588 84 80 81 
-0.0924994 0.170024 1.63271 72 70 73 
-0.203331 0.177739 1.68323 18 17 15 
0.0953182 0.178291 1.68245 31 30 28 
0.0795812 0.178502 1.66613 85 84 82 
0.050744 0.176994 1.6441 85 84 82 
-0.1532 0.18259 1.64659 76 74 77 
-0.178335 0.194135 1.66505 16 12 11 
0.0884557 0.196092 1.67074 80 79 77 
-0.237364 0.200798 1.70137 4 0 0 
-0.169369 0.195386 1.65227 8 4 1 
-0.00385684 0.193631 1.63256 1 0 0 
-0.200086 0.204323 1.66813 14 12 13 
0.111941 0.21346 1.69953 15 14 10 
-0.201624 0.219531 1.67534 17 13 14 
0.0766041 0.220105 1.66321 83 79 78 
-0.24376 0.229506 1.71597 3 0 0 
-0.187173 0.222521 1.66739 8 8 8 
-0.251549 0.232815 1.72461 4 0 0 
0.00210378 0.221936 1.62253 91 90 88 
0.10615 0.23369 1.69397 38 37 35 
0.0890393 0.233978 1.67255 1 0 0 
-0.268361 0.24625 1.75862 93 92 90 
-0.227757 0.240233 1.69752 76 75 73 
0.10033 0.242413 1.68739 89 88 86 
-0.0170883 0.237255 1.62769 82 80 81 
-0.000692706 0.238311 1.61722 85 84 80 
-0.1317 0.246062 1.63686 70 69 67 
0.0340707 0.24535 1.6291 72 71 69 
-0.0486305 0.245778 1.62168 73 73 73 
0.0524317 0.255169 1.64315 84 83 81 
0.10439 0.264669 1.69079 30 29 25 
-0.18213 0.261089 1.65825 1 0 2 
-0.165441 0.259967 1.64764 6 4 5 
0.0459709 0.262585 1.63782 66 65 63 
-0.174864 0.265681 1.6506 3 3 3 
0.0949085 0.271941 1.67339 83 82 78 
0.0799281 0.277086 1.66107 86 84 85 
-0.14692 0.27263 1.63655 87 87 89 
0.0479364 0.27371 1.6348 109 109 107 
0.0903572 0.279037 1.66466 88 87 83 
-0.0588085 0.272417 1.6179 2 0 1 
-0.165682 0.279214 1.6453 12 11 9 
0.111374 0.289536 1.69067 31 30 26 
-0.207738 0.289759 1.67595 7 6 4 
-0.00171554 0.280102 1.61736 9 8 6 
0.0287881 0.282233 1.62118 14 13 11 
-0.234435 0.296778 1.70062 78 76 79 
0.0873828 0.291185 1.66665 93 92 88 
-0.154154 0.290105 1.63481 86 84 85 
0.0168644 0.289836 1.62701 5 3 6 
0.0976259 0.299981 1.678 24 20 17 
0.0527929 0.295392 1.62971 1 0 0 
0.0271398 0.297809 1.62112 11 10 8 
-0.212694 0.3174 1.677 7 3 0 
-0.200081 0.317672 1.66707 67 65 66 
-0.0560717 0.307772 1.61478 14 13 11 
-0.128646 0.31119 1.62809 4 3 0 
0.0529017 0.315102 1.63539 5 4 2 
-0.142966 0.313695 1.62532 0 1 0 
-0.0388536 0.312744 1.61629 66 66 66 
-0.271026 0.343822 1.75444 64 62 63 
0.0517415 0.326524 1.63263 67 66 64 
-0.129758 0.326916 1.62236 3 0 0 
0.103456 0.348882 1.67786 53 49 46 
0.0716314 0.343416 1.65174 10 9 7 
-0.215798 0.348114 1.67339 66 65 63 
-0.0382379 0.336552 1.61648 9 8 6 
0.0947714 0.35265 1.66446 101 97 94 
-0.257014 0.372431 1.73375 99 98 96 
0.0337457 0.346846 1.61653 12 11 9 
0.067425 0.357696 1.64331 4 3 1 
-0.153715 0.356961 1.62736 4 0 0 
0.0412252 0.366246 1.62764 0 1 0 
0.0877566 0.37453 1.66041 96 92 89 
0.0984174 0.384642 1.6717 6 2 1 
0.11336 0.3913 1.68844 29 26 21 
-0.0309796 0.374269 1.61155 70 68 69 
0.0534459 0.390216 1.62969 13 12 8 
0.0956294 0.406031 1.66322 19 18 16 
-0.033848 0.397424 1.61179 69 68 66 
0.007544 0.395685 1.6059 86 82 81 
-0.0230954 0.40556 1.60429 81 77 78 
0.0701783 0.417605 1.63891 95 94 90 
-0.198183 0.424097 1.64992 86 85 83 
0.0849274 0.42873 1.65631 19 18 16 
-0.0950449 0.425076 1.60752 81 80 78 
0.0326777 0.440796 1.61898 78 77 75 
0.0901758 0.453489 1.65767 121 117 114 
0.0643282 0.464002 1.63328 20 19 17 
0.0852614 0.475688 1.65089 114 110 107 
0.0984276 0.482953 1.66689 14 15 9 
0.0444958 0.475158 1.61534 97 96 91 
-0.0541083 0.476549 1.60184 3 1 2 
0.0231516 0.481443 1.60668 96 95 91 
-0.118244 0.486663 1.60178 79 75 74 
-0.00340401 0.488818 1.59957 62 61 59 
0.0369673 0.497475 1.6109 12 11 9 
0.0407891 0.509825 1.61496 73 69 66 
-0.0886891 0.510844 1.5997 68 67 65 
-0.267681 0.55031 1.70323 1 0 0 
0.0351843 0.523358 1.61236 24 23 19 
-0.273454 0.559517 1.71093 12 14 13 
-0.244323 0.548243 1.66859 111 107 106 
-0.0449984 0.529252 1.59673 102 101 99 
-0.209129 0.544734 1.6394 3 3 3 
-0.265098 0.571026 1.71142 98 98 98 
-0.268955 0.579861 1.7213 78 77 82 
0.00339282 0.538086 1.59554 77 76 74 
-0.0337878 0.543278 1.59773 3 2 0 
-0.240206 0.571184 1.67596 101 100 116 
-0.265478 0.585855 1.70926 23 22 30 
-0.281625 0.593242 1.72624 96 95 93 
-0.268253 0.592122 1.72142 88 85 92 
0.0936083 0.569066 1.65667 84 80 79 
0.347431 0.829728 2.37537 77 78 64 
-0.00481224 0.550068 1.60244 66 65 63 
0.33299 0.836817 2.37663 59 58 53 
0.0547699 0.561581 1.62135 96 95 93 
-0.057214 0.551136 1.58991 105 103 104 
-0.027377 0.554367 1.58568 85 83 84 
-0.196702 0.570521 1.627 84 82 83 
-0.0418062 0.557915 1.59255 73 72 70 
-0.262646 0.607721 1.70761 80 80 82 
-0.273711 0.615936 1.72372 57 56 54 
-0.250713 0.605561 1.69122 105 105 107 
-0.21762 0.589502 1.63844 98 100 97 
-0.200099 0.581779 1.61915 105 104 102 
-0.004747 0.57262 1.59121 74 72 75 
-0.261485 0.618593 1.70757 116 116 116 
-0.0705491 0.569044 1.57693 82 78 77 
-0.0566536 0.57096 1.58014 73 71 72 
0.0351352 0.579781 1.60335 83 82 80 
-0.27235 0.629973 1.71231 28 5 0 
-0.276062 0.639048 1.71574 145 129 113 
-0.0999477 0.586116 1.58044 84 83 81 
-0.0858486 0.586784 1.58068 93 92 90 
-0.162647 0.592803 1.5934 82 80 81 
-0.257037 0.641936 1.69923 96 97 91 
-0.260757 0.649488 1.70864 84 83 81 
-0.0949804 0.60179 1.58372 60 59 57 
-0.0724564 0.608891 1.57732 79 77 78 
-0.247349 0.656604 1.68691 0 0 7 
-0.1434 0.622947 1.58672 93 89 88 
-0.0357364 0.621051 1.58043 80 76 75 
-0.0941081 0.621665 1.57421 80 80 78 
-0.261547 0.692171 1.71215 95 93 94 
-0.0449053 0.641474 1.57751 76 74 75 
-0.145138 0.651093 1.59119 88 87 85 
-0.199035 0.66345 1.61229 3 2 0 
-0.105952 0.653562 1.57377 80 79 77 
-0.193316 0.674188 1.60338 90 90 88 
-0.186695 0.671095 1.59309 82 78 77 
-0.0517119 0.659787 1.56763 72 71 69 
0.0532948 0.68556 1.60695 104 103 101 
-0.19282 0.709171 1.5959 106 105 103 
-0.160514 0.715593 1.57523 80 74 74 
-0.133923 0.71298 1.56331 91 90 88 
-0.193455 0.728893 1.58847 105 103 104 
-0.136602 0.72852 1.57165 95 91 88 
-0.159812 0.729695 1.56954 108 104 101 
-0.121092 0.72678 1.56336 86 81 77 
-0.23074 0.738446 1.58567 109 105 96 
-0.218099 0.735164 1.57183 125 122 117 
-0.0848154 0.728205 1.55462 107 104 99 
-0.204296 0.73812 1.56766 10 6 3 
-0.133522 0.733047 1.54585 95 92 87 
-0.145718 0.731228 1.53666 86 82 79 
-0.0672669 0.731381 1.52523 91 90 85 
-0.332374 0.770505 1.59669 78 77 73 
-0.20707 0.757484 1.56359 70 69 67 
-0.0560566 0.74107 1.52991 90 86 85 
-0.114147 0.745794 1.52669 97 93 90 
-0.280348 0.7584 1.53721 94 93 89 
-0.184804 0.771882 1.5362 101 98 93 
-0.202445 0.774313 1.53269 12 9 4 
-0.267432 0.774176 1.5264 103 105 94 
-0.229426 0.781851 1.5296 104 104 94 
-0.13889 0.771409 1.50844 10 11 5 
-0.188155 0.786818 1.50449 110 110 98 
-0.196403 0.784638 1.47449 30 26 14 
-0.275902 0.794973 1.47801 37 35 22 
-0.15856 0.791901 1.47092 50 40 30 
-0.252627 0.790764 1.42883 33 29 18 
-0.207381 0.790216 1.40524 31 29 16 
-0.091181 -0.573016 1.83071 21 19 20 
0.000635045 -0.52973 1.85037 103 101 102 
-0.00802831 -0.421199 1.79637 120 115 112 
-0.190875 -0.256312 1.75428 8 3 0 
-0.0959929 -0.178116 1.69736 28 25 20 
-0.0624904 -0.160819 1.68622 98 97 95 
-0.195804 -0.116132 1.71878 22 21 19 
-0.222231 -0.0999134 1.74812 103 102 100 
-0.0834354 -0.0938402 1.66896 97 95 96 
-0.0293877 -0.0797225 1.64615 121 120 118 
-0.165072 -0.0798793 1.67029 39 38 34 
-0.0615963 -0.0683958 1.64428 81 77 66 
0.107374 -0.0709534 1.73434 138 134 131 
-0.119319 -0.0542884 1.6472 105 101 98 
-0.0778648 -0.0460777 1.63984 114 111 106 
-0.112965 -0.0294092 1.63284 35 31 20 
-0.123715 0.0250152 1.63805 10 8 9 
-0.110852 0.0247584 1.62792 5 1 2 
0.059513 0.113505 1.65542 79 78 76 
-0.271419 0.130583 1.77365 91 89 92 
-0.0631031 0.227023 1.6192 64 63 61 
0.0888874 0.336365 1.66223 96 92 91 
-0.0625688 0.35638 1.61048 12 11 9 
-0.231016 0.580263 1.65427 4 3 8 
-0.253958 0.747127 1.58434 81 82 68 
-0.402867 0.769113 1.33481 97 94 85 
-0.0569493 -0.818909 1.90472 76 80 92 
-0.0688391 -0.811844 1.90456 76 82 98 
-0.0235617 -0.793105 1.89368 45 48 63 
-0.0719402 -0.695329 1.87357 118 115 108 
-0.0502874 -0.488822 1.8029 57 54 49 
-0.176174 -0.381795 1.83013 104 100 97 
-0.00404299 -0.341288 1.75652 95 94 90 
-0.0224529 -0.335066 1.73655 114 113 109 
-0.0562941 -0.310812 1.73643 106 105 101 
0.0372147 -0.267153 1.74857 88 84 83 
-0.00400621 -0.257906 1.70503 29 29 21 
-0.0435394 -0.250615 1.70613 28 25 20 
-0.224484 -0.252032 1.80585 111 109 110 
-0.189801 -0.237725 1.76509 95 85 84 
-0.109021 -0.214892 1.72042 91 88 83 
-0.212768 -0.217589 1.80426 97 88 89 
-0.165328 -0.203027 1.73338 105 104 100 
-0.182956 -0.202846 1.75462 96 95 90 
-0.0554421 -0.181777 1.68519 102 98 95 
0.0550423 -0.1874 1.75079 94 93 89 
-0.154117 -0.166731 1.69883 98 97 95 
0.00804066 -0.073717 1.65625 108 107 105 
0.0323002 -0.0775813 1.68836 102 98 95 
0.0666193 -0.0340769 1.67417 129 126 117 
0.046521 0.0153415 1.64872 3 2 0 
0.0955739 0.0171555 1.6786 1 1 1 
-0.192585 0.0187892 1.66702 15 14 12 
-0.084006 0.0246207 1.63054 2 0 1 
0.0505147 0.0258649 1.65587 2 1 0 
-0.178272 0.0378976 1.6617 3 2 0 
0.0168029 0.0368634 1.63355 10 6 5 
0.00821604 0.241295 1.6135 100 99 95 
0.0275202 0.253746 1.62508 82 81 79 
-0.210898 0.302737 1.67628 90 88 89 
-0.232081 0.363847 1.69891 119 118 116 
0.00181317 0.368676 1.61098 78 77 75 
0.0407709 0.396183 1.62348 10 10 10 
0.0872741 0.489196 1.66138 105 102 93 
0.0542016 0.516645 1.62366 77 70 64 
-0.198857 0.541215 1.63293 73 72 70 
-0.259611 0.599549 1.69703 23 23 25 
0.379103 0.844405 2.32854 76 75 71 
0.0828036 0.588341 1.64065 33 32 30 
-0.244768 0.626212 1.68818 84 85 80 
-0.153681 0.647572 1.5858 84 83 81 
-0.289075 0.705533 1.71086 9 9 1 
0.0325052 0.665377 1.58566 30 28 29 
0.127485 0.710164 1.67084 87 86 82 
-0.122703 0.773607 1.50772 103 102 98 
-0.421883 0.755372 1.33743 108 104 101 
-0.119331 -0.611797 1.88427 128 130 142 
-0.011102 -0.437859 1.814 110 109 105 
0.0078054 -0.385854 1.79905 120 116 113 
-0.105211 -0.135925 1.68139 97 96 94 
-0.248507 0.0691764 1.72703 70 70 70 
-0.238576 0.205401 1.71721 14 11 6 
-0.114618 0.212507 1.63505 17 16 14 
-0.254016 0.581485 1.70873 0 0 16 
-0.0423448 0.597094 1.57154 61 59 60 
-0.224202 0.777686 1.44484 82 80 67 
-0.0552116 -0.862755 1.90639 189 197 210 
-0.190073 -0.22445 1.76245 50 40 39 
-0.0788415 -0.136443 1.67638 106 107 101 
-0.00174659 0.120925 1.62708 72 72 72 
-0.265418 0.560088 1.72007 14 12 15 
-0.0623576 -0.869979 1.90635 25 24 56 
-0.0627489 -0.756802 1.86456 24 22 23 
-0.206114 -0.345156 1.79309 56 59 66 
-0.0630173 -0.753246 1.91198 219 218 236 
-0.0733855 -0.62258 1.8359 28 25 20 
-0.0602192 -0.35637 1.74187 8 5 0 
-0.0722344 -0.340963 1.73792 116 113 108 
-0.0828304 -0.332524 1.73805 29 25 22 
-0.0608584 -0.329268 1.73352 33 29 26 
-0.106584 -0.327885 1.73865 68 67 63 
-0.0621793 -0.282795 1.71318 10 7 0 
-0.0733119 -0.276532 1.7142 25 22 17 
-0.124884 -0.275304 1.72072 95 91 88 
-0.0410553 -0.2001 1.6842 100 97 92 
-0.141069 -0.169778 1.68596 35 34 30 
-0.134092 -0.149683 1.67949 28 26 27 
-0.0287504 -0.11649 1.65319 112 111 107 
-0.107416 -0.110114 1.66357 15 14 12 
-0.0794864 -0.102929 1.65757 13 12 10 
-0.032784 -0.0949878 1.64878 104 103 101 
-0.157926 -0.0640427 1.64467 82 81 79 
-0.0568201 0.0050117 1.61893 90 89 87 
-0.110951 0.00527028 1.62068 71 69 72 
-0.149569 0.0154963 1.63058 3 0 0 
-0.133228 0.0261255 1.62621 57 55 56 
-0.167811 0.0364534 1.63654 102 101 99 
-0.134816 0.0987833 1.63432 70 69 67 
-0.177198 0.111495 1.65199 29 27 28 
-0.237364 0.144213 1.7013 7 6 4 
-0.185481 0.148761 1.65364 77 75 76 
-0.223262 0.155292 1.68418 15 14 12 
-0.0536546 0.153919 1.62199 1 0 0 
-0.171293 0.205027 1.64163 3 1 2 
-0.192342 0.227533 1.6534 80 78 79 
-0.227028 0.237085 1.68049 85 83 84 
-0.16365 0.338261 1.63019 5 3 4 
-0.167629 0.533128 1.62157 60 59 57 
-0.175665 0.553255 1.62112 95 95 95 
-0.201005 0.627845 1.62221 73 72 70 
-0.178305 0.644211 1.60625 103 99 98 
-0.182732 0.688848 1.59491 80 79 77 
-0.133335 0.687845 1.57556 70 68 69 
-0.123502 0.732033 1.56861 97 94 89 
-0.0595955 -0.876238 1.91118 216 216 242 
-0.159414 0.733851 1.57846 71 67 64 
