ply                 
format ascii 1.0    
element vertex 1260
property float x    
property float y    
property float z    
property uchar red  
property uchar green
property uchar blue 
end_header          
3.94286 4.22427 26.2749 90 90 92 
-0.062188 0.253879 1.60573 1 0 0 
2.90615 3.55106 20.8808 42 42 34 
-0.145959 0.2801 1.61785 5 3 4 
-0.150898 0.30143 1.61968 1 1 1 
-0.169757 0.378481 1.62312 92 88 87 
-0.145683 0.378128 1.61141 77 76 74 
-0.00195338 0.382424 1.60324 86 85 81 
-0.128737 0.4774 1.59962 92 91 89 
-0.0847811 0.540218 1.58785 80 80 78 
-0.078729 0.545466 1.58586 93 95 92 
-0.0587594 0.559927 1.58074 91 89 90 
-0.0786765 0.566877 1.57637 71 70 68 
0.515137 0.809071 2.14655 89 89 81 
-0.0766015 0.589572 1.57269 72 70 71 
0.586071 0.821406 2.07051 86 85 80 
0.52177 0.848211 2.12324 71 66 62 
-0.109586 0.672658 1.5616 112 106 106 
-0.0893015 0.724729 1.55242 111 108 101 
-0.0678074 0.729875 1.52757 91 90 85 
-0.0667568 0.730774 1.52726 5 4 0 
-0.0415098 0.735592 1.52959 87 86 84 
-0.0565077 0.737093 1.52731 90 86 85 
-0.0834881 0.760892 1.5242 70 66 63 
-0.0850285 0.765178 1.5222 93 89 86 
-0.0914988 0.773536 1.502 97 96 94 
-0.0503564 -0.102226 1.64612 128 127 123 
-0.0681169 -0.055939 1.62412 115 112 105 
-0.222971 -0.0119839 1.66125 120 119 117 
-0.0968224 0.0887558 1.61891 73 72 68 
-0.111299 0.111259 1.61981 88 88 88 
-0.143453 0.242922 1.6199 83 82 80 
-0.0562283 -0.807674 1.88999 125 130 149 
-0.0725014 -0.68426 1.84903 118 115 108 
-0.0410865 -0.241496 1.6909 105 102 97 
-0.108407 -0.169008 1.6762 112 108 105 
-0.0859185 0.0125883 1.61058 106 105 103 
-0.0965441 0.0887452 1.61935 90 89 85 
-0.0842168 0.104856 1.61735 98 96 97 
-0.156885 0.14101 1.63299 96 92 91 
-0.116164 0.219909 1.61449 71 69 70 
4.03231 3.9494 27.6394 136 141 145 
5.55264 3.94251 27.3409 54 60 72 
5.1126 4.32108 28.6833 64 65 70 
5.58322 4.24164 26.6484 25 28 37 
5.09079 4.3101 28.5793 48 49 54 
4.83964 4.49121 28.6835 49 50 55 
4.76971 4.31226 27.6601 113 116 123 
-0.0630703 -0.88821 1.92859 9 14 44 
-0.0475815 -0.876691 1.92003 212 217 239 
-0.0589906 -0.885638 1.93977 210 217 236 
-0.0504431 -0.88094 1.93557 57 61 90 
-0.0777452 -0.881419 1.94117 49 51 74 
-0.0613016 -0.870874 1.93668 46 52 76 
-0.0617126 -0.8585 1.9282 169 175 201 
-0.0978028 -0.787613 1.92158 95 89 103 
-0.0569655 -0.773336 1.89115 32 27 24 
-0.0731856 -0.771138 1.88809 52 51 49 
-0.0476576 -0.774182 1.89845 113 109 106 
-0.0827897 -0.773027 1.89943 29 27 28 
-0.0344641 -0.774728 1.90674 37 33 32 
-0.0826783 -0.719259 1.8966 33 29 26 
-0.0964175 -0.715745 1.92315 214 211 220 
-0.0791791 -0.682526 1.88564 111 108 101 
-0.0520091 -0.68441 1.88969 19 12 6 
-0.100467 -0.686744 1.9168 29 28 36 
-0.0739233 -0.654636 1.87836 46 41 35 
-0.0465579 -0.650237 1.88031 42 37 33 
-0.0882664 -0.630673 1.87119 127 124 119 
-0.0716282 -0.628077 1.86719 108 104 101 
-0.112686 -0.630767 1.89603 100 99 107 
-0.0218573 -0.562393 1.84956 6 4 5 
-0.0423638 -0.552116 1.84093 27 25 26 
-0.0983961 -0.542288 1.83243 16 12 9 
-0.109328 -0.532504 1.83593 105 104 100 
-0.0943907 -0.532044 1.83999 36 35 33 
-0.105267 -0.521478 1.83557 31 27 24 
-0.0599784 -0.514593 1.8224 38 34 31 
-0.0687871 -0.513959 1.829 29 24 20 
-0.0927376 -0.513748 1.83294 30 27 22 
-0.0384699 -0.508748 1.82614 102 101 97 
-0.11315 -0.509118 1.83619 43 40 35 
-0.0199759 -0.507519 1.83976 99 98 96 
-0.0725352 -0.501637 1.82245 37 33 30 
-0.0588648 -0.501117 1.82006 34 31 22 
-0.062699 -0.495314 1.81021 80 76 73 
0.00141499 -0.508924 1.8559 83 82 80 
-0.150671 -0.515706 1.89269 39 39 51 
-0.0399675 -0.491592 1.81394 36 32 29 
-0.0309248 -0.492121 1.82915 112 108 109 
-0.0633207 -0.487704 1.81899 92 91 89 
-0.0730156 -0.488312 1.82206 114 113 111 
-0.00434557 -0.494106 1.84364 84 80 79 
-0.099359 -0.488388 1.82339 111 107 104 
-0.0153827 -0.490658 1.83413 22 18 17 
-0.0544207 -0.475912 1.81727 131 128 123 
-0.000914252 -0.48164 1.84378 17 13 10 
-0.0227812 -0.473646 1.82281 135 131 128 
-0.0103766 -0.478739 1.83861 16 12 9 
-0.155637 -0.488209 1.88696 37 33 32 
-0.067835 -0.465246 1.80704 95 93 94 
-0.0166092 -0.462781 1.81975 113 109 106 
-0.093237 -0.455218 1.81265 86 85 81 
-0.0296662 -0.453519 1.81184 89 85 82 
-0.128582 -0.455686 1.82472 9 10 5 
-0.0483896 -0.450229 1.80529 103 100 95 
-0.076639 -0.446905 1.80637 76 76 74 
-0.00396658 -0.449405 1.82587 118 114 111 
-0.0346579 -0.441963 1.80404 47 44 37 
-0.00148963 -0.448981 1.83705 119 115 112 
-0.098035 -0.434492 1.80421 15 11 8 
-0.148589 -0.442014 1.83853 90 86 85 
-0.00560929 -0.436556 1.81843 88 87 83 
-0.114372 -0.433368 1.8085 20 16 13 
-0.0525228 -0.430336 1.79498 104 100 97 
-0.01693 -0.43179 1.81505 111 110 106 
-0.119525 -0.4312 1.81889 69 64 58 
-0.146005 -0.432946 1.83236 27 23 20 
-0.127212 -0.426267 1.80721 48 46 34 
0.02153 -0.433777 1.84077 102 98 97 
-0.113672 -0.422178 1.79972 44 41 36 
0.00178167 -0.427443 1.82645 127 123 122 
-0.0704109 -0.416855 1.79934 35 34 30 
-0.13489 -0.41934 1.81561 53 49 40 
-0.0529203 -0.41206 1.79047 29 24 20 
-0.0101389 -0.414852 1.80929 130 129 125 
-0.083016 -0.410064 1.79486 100 96 93 
-0.113829 -0.40568 1.79432 31 28 21 
0.0288015 -0.417052 1.84251 75 71 72 
-0.100159 -0.401944 1.79312 46 43 38 
0.00689039 -0.408409 1.82027 124 123 121 
-0.14346 -0.409333 1.82748 18 13 10 
-0.0340884 -0.399974 1.78868 29 30 25 
-0.0143272 -0.398719 1.79555 106 105 103 
-0.0546341 -0.393404 1.77622 43 36 30 
-0.144587 -0.399441 1.80766 35 30 27 
-0.0744723 -0.394923 1.79027 18 15 8 
-0.122875 -0.394296 1.79738 121 116 113 
-0.0638158 -0.391656 1.78515 100 97 92 
-0.173671 -0.406165 1.85908 77 74 67 
0.0190692 -0.400425 1.82695 102 101 99 
-0.158457 -0.40187 1.8411 21 17 14 
-0.0244899 -0.388257 1.78881 17 12 9 
-0.0563185 -0.382105 1.77227 115 111 102 
0.00214375 -0.387188 1.80467 122 118 117 
-0.133226 -0.381981 1.78825 42 37 33 
-0.0435658 -0.379967 1.77659 110 107 100 
-0.0873025 -0.380572 1.79169 121 117 114 
-0.0227403 -0.373974 1.77881 42 38 35 
0.028836 -0.38415 1.82709 22 23 18 
0.0218674 -0.381708 1.81773 94 93 91 
-0.147598 -0.377333 1.8064 17 14 9 
-0.0427564 -0.367612 1.77133 27 24 19 
-0.0679384 -0.367663 1.77731 34 33 28 
-0.00116172 -0.371844 1.79531 18 14 11 
-0.105426 -0.369122 1.78502 41 38 31 
0.0189562 -0.371238 1.80936 127 126 122 
-0.186176 -0.380296 1.86279 30 26 23 
0.0141891 -0.366042 1.79981 40 36 37 
-0.0132006 -0.359562 1.78042 112 111 109 
-0.0265002 -0.358119 1.77631 18 13 7 
-0.180117 -0.373957 1.85532 117 112 109 
-0.0642081 -0.353805 1.77114 49 47 35 
-0.151084 -0.358829 1.79818 110 107 102 
-0.139744 -0.355873 1.78547 24 20 11 
-0.176804 -0.365551 1.83912 24 20 19 
-0.152245 -0.346066 1.78716 26 21 17 
-0.00260459 -0.346028 1.78664 105 104 102 
-0.0442278 -0.339036 1.75854 51 48 41 
-0.0227073 -0.341028 1.77032 116 115 111 
-0.0628839 -0.336562 1.76427 133 130 123 
-0.0141046 -0.335757 1.76806 82 81 79 
-0.108367 -0.334547 1.76516 130 129 125 
-0.133564 -0.335292 1.77617 33 29 26 
-0.0295074 -0.330378 1.76153 95 91 90 
-0.0480289 -0.327831 1.75559 43 40 35 
-0.141174 -0.328157 1.76756 29 26 21 
-0.018932 -0.325531 1.76305 96 95 91 
-0.122394 -0.322884 1.76803 107 106 104 
-0.212455 -0.330384 1.80819 53 51 62 
-0.188063 -0.324579 1.78085 50 49 45 
-0.0440576 -0.318108 1.75474 50 47 38 
-0.107298 -0.319835 1.76965 99 98 96 
-0.0350734 -0.313571 1.74935 34 31 24 
-0.22209 -0.324946 1.82084 28 30 43 
-0.159413 -0.314637 1.78349 63 62 60 
-0.0722435 -0.30931 1.75329 28 25 18 
-0.204781 -0.315042 1.79429 21 18 11 
-0.02141 -0.308029 1.75819 80 79 77 
-0.124907 -0.308607 1.76666 40 39 35 
-0.0864877 -0.305824 1.75319 21 18 9 
0.0226009 -0.302799 1.74632 34 34 24 
-0.120975 -0.301571 1.75784 100 95 92 
-0.19458 -0.303068 1.78613 110 110 100 
-0.0193254 -0.297258 1.75215 69 68 66 
-0.0721621 -0.295864 1.75477 41 36 30 
-0.137697 -0.297231 1.76459 95 94 90 
0.044217 -0.298113 1.76614 86 85 80 
-0.125333 -0.290336 1.75234 114 113 109 
0.0295111 -0.291035 1.75529 6 5 3 
0.0227328 -0.287498 1.74619 35 33 34 
-0.0437814 -0.285528 1.74366 28 25 20 
-0.061737 -0.28103 1.74057 30 27 20 
-0.085673 -0.279595 1.74957 24 21 16 
-0.0243936 -0.278506 1.74325 68 67 62 
0.0472036 -0.28211 1.76351 100 100 98 
-0.19498 -0.284341 1.78114 14 10 7 
-0.0362905 -0.275466 1.7345 19 16 11 
-0.102461 -0.271087 1.74616 82 83 78 
-0.0595823 -0.26914 1.74239 47 42 38 
-0.232583 -0.279862 1.83236 203 207 218 
-0.0730745 -0.264682 1.73908 27 24 19 
0.0288237 -0.265978 1.75242 82 81 79 
-0.0533076 -0.260519 1.73774 20 16 13 
-0.133624 -0.261412 1.74705 33 32 27 
-0.118869 -0.260942 1.74689 112 111 106 
-0.172756 -0.260115 1.74662 15 14 12 
-0.108243 -0.259525 1.74294 7 6 1 
-0.14904 -0.259871 1.75586 92 88 85 
-0.00972709 -0.257369 1.7409 63 62 58 
-0.203456 -0.264162 1.79494 18 10 7 
-0.179442 -0.257593 1.75666 117 116 112 
0.042215 -0.25798 1.76393 97 87 86 
-0.20995 -0.264111 1.80862 93 85 82 
0.0286579 -0.246934 1.75417 28 14 13 
-0.136849 -0.245491 1.74883 25 21 18 
-0.0203098 -0.242717 1.72874 96 95 93 
-0.0649399 -0.238953 1.72909 96 91 88 
0.0191737 -0.241319 1.74575 59 45 45 
-0.219921 -0.249422 1.81955 31 19 21 
-0.0397312 -0.233596 1.72397 99 96 91 
-0.150384 -0.233697 1.74163 36 35 30 
-0.135074 -0.232436 1.73904 88 87 83 
-0.087704 -0.231556 1.73233 97 96 92 
-0.0508711 -0.228263 1.72587 86 82 81 
0.049579 -0.233287 1.77042 99 91 89 
0.0193748 -0.230588 1.75466 40 26 23 
0.01594 -0.227803 1.74406 113 100 94 
-0.0234057 -0.224012 1.7204 14 9 6 
-0.010587 -0.222722 1.72238 102 101 97 
-0.11225 -0.222292 1.72735 68 69 64 
0.0271308 -0.221824 1.74865 115 101 101 
-0.0902783 -0.217651 1.72783 25 24 22 
-0.159381 -0.218108 1.73883 91 88 81 
-0.0450153 -0.214416 1.72337 41 38 33 
-0.14614 -0.21436 1.73208 83 82 80 
0.0371099 -0.215799 1.76004 111 100 98 
-0.0075032 -0.210757 1.72534 83 78 74 
-0.098022 -0.207791 1.72695 44 43 39 
-0.0461216 -0.203484 1.71273 111 108 103 
-0.086948 -0.201983 1.72291 108 107 105 
-0.159311 -0.203101 1.73699 23 20 15 
-0.139239 -0.197274 1.72512 2 1 0 
-0.109288 -0.196859 1.7263 79 75 74 
0.0545003 -0.201206 1.76566 53 52 48 
0.0654728 -0.202224 1.78338 94 93 89 
-0.0180112 -0.192047 1.70825 23 19 16 
-0.163955 -0.194067 1.73287 133 127 127 
-0.0918472 -0.19222 1.71651 4 0 0 
-0.202003 -0.199412 1.78429 26 25 23 
0.0319264 -0.195445 1.74638 86 84 85 
-0.153785 -0.191829 1.73653 85 84 82 
0.0213216 -0.189169 1.73832 98 97 93 
-0.216086 -0.195415 1.80464 10 10 8 
-0.109104 -0.184756 1.7157 83 82 80 
-0.00259133 -0.18393 1.71625 117 113 110 
-0.0186748 -0.181369 1.70493 95 94 90 
-0.185741 -0.18126 1.76162 103 102 100 
-0.0729689 -0.174446 1.70629 23 19 18 
-0.0465417 -0.174064 1.70569 25 21 18 
0.0350665 -0.176453 1.74075 73 72 70 
-0.24901 -0.186035 1.85426 105 105 107 
-0.233422 -0.181386 1.82125 116 115 113 
0.00388721 -0.166473 1.71541 101 97 96 
-0.0498921 -0.163347 1.70294 89 86 81 
-0.113221 -0.16314 1.71336 80 79 77 
-0.215589 -0.169452 1.79007 89 88 83 
0.0467597 -0.165763 1.75041 100 99 97 
0.0617737 -0.164722 1.75781 93 92 90 
-0.00351236 -0.156337 1.70602 80 79 75 
-0.0343152 -0.15197 1.6944 53 50 45 
-0.153687 -0.153645 1.71916 104 103 101 
-0.0744155 -0.152246 1.70501 38 37 35 
0.076258 -0.159121 1.77133 127 126 122 
-0.21312 -0.158589 1.77576 15 14 12 
0.0153508 -0.152419 1.72365 87 86 84 
0.00817759 -0.147941 1.71352 77 77 69 
-0.183212 -0.147035 1.73157 118 118 116 
-0.0315326 -0.141782 1.6892 114 109 103 
0.0752873 -0.149155 1.76742 144 144 142 
-0.0131946 -0.141116 1.69716 17 16 12 
-0.163187 -0.142884 1.71833 23 22 20 
-0.0882071 -0.141084 1.70411 23 22 20 
-0.152411 -0.140001 1.71226 101 100 98 
-0.263099 -0.149713 1.84701 171 171 181 
0.0265151 -0.139391 1.72627 6 5 3 
0.0657642 -0.141358 1.75449 17 15 16 
-0.141237 -0.136774 1.71069 41 40 38 
-0.165432 -0.133951 1.70615 98 97 95 
0.0879954 -0.135539 1.76328 100 99 95 
-0.234688 -0.136489 1.80032 27 25 26 
-0.0209036 -0.127111 1.68731 41 40 35 
0.0150758 -0.129103 1.71404 105 103 104 
-0.0421687 -0.125559 1.68982 3 2 0 
-0.0543099 -0.126035 1.69247 2 1 0 
0.0335658 -0.128471 1.7256 89 88 86 
-0.14217 -0.125374 1.70835 19 18 16 
-0.187691 -0.12231 1.72544 94 93 91 
-0.154883 -0.119535 1.71106 23 22 20 
-0.00949001 -0.117695 1.68732 91 90 85 
0.0970411 -0.121912 1.77059 89 87 88 
0.0367929 -0.116004 1.72181 29 25 24 
-0.0399059 -0.11256 1.6849 23 22 18 
-0.0566374 -0.110367 1.67551 110 108 109 
0.0799056 -0.116685 1.75866 93 92 90 
-0.151752 -0.11121 1.70164 5 4 2 
0.0251065 -0.112975 1.71772 30 29 25 
-0.00106272 -0.108822 1.69111 108 106 107 
-0.00837063 -0.102823 1.6813 28 26 27 
-0.27505 -0.112976 1.84914 55 53 66 
-0.12733 -0.101882 1.69623 109 108 106 
-0.189035 -0.102505 1.71703 16 16 16 
-0.175145 -0.101312 1.70272 114 113 111 
-0.0198103 -0.0983938 1.68432 136 134 135 
0.0585749 -0.10122 1.7384 111 110 108 
-0.147549 -0.0980058 1.70456 29 24 21 
-0.000415129 -0.0965852 1.68421 88 86 87 
0.0914053 -0.102424 1.76214 105 104 102 
-0.102254 -0.0954188 1.68342 122 122 122 
-0.245438 -0.100315 1.79735 15 14 12 
0.0208786 -0.0946543 1.70411 84 82 83 
-0.167647 -0.0929519 1.69113 64 60 57 
0.04164 -0.0936647 1.72226 38 37 35 
-0.0254781 -0.0900241 1.67369 5 4 2 
-0.0627909 -0.0893823 1.67386 10 8 9 
-0.0619899 -0.0900893 1.68545 2 0 3 
-0.0396884 -0.0878724 1.67088 74 70 67 
-0.00137123 -0.083734 1.6758 15 14 12 
0.0750425 -0.0863806 1.74016 20 18 19 
-0.080709 -0.0822204 1.67291 43 38 35 
0.0732732 -0.0857905 1.72856 34 32 33 
0.0340747 -0.0817025 1.69595 97 96 92 
-0.0973165 -0.0805394 1.67319 26 27 22 
-0.19134 -0.0814502 1.70629 28 26 27 
-0.137662 -0.078272 1.68266 18 15 10 
0.0587018 -0.0794883 1.72015 19 18 16 
-0.054367 -0.0758645 1.66887 10 7 0 
0.110695 -0.0787946 1.76455 59 56 51 
0.0933228 -0.0771584 1.74651 101 101 101 
-0.115701 -0.0710119 1.67687 22 19 12 
-0.159411 -0.0705126 1.68092 96 95 93 
0.040758 -0.0716307 1.69959 108 107 105 
-0.102832 -0.068194 1.67704 11 10 6 
0.0159168 -0.0670758 1.67467 93 92 88 
0.00702359 -0.0657839 1.66836 29 28 26 
-0.254916 -0.0696241 1.78772 92 92 90 
-0.0278381 -0.064068 1.6535 130 126 125 
-0.126222 -0.0610126 1.67592 21 17 16 
-0.0460076 -0.0608806 1.66379 110 107 102 
-0.0882621 -0.058465 1.66626 9 4 0 
-0.243156 -0.0607227 1.76492 31 28 21 
-0.139019 -0.0549756 1.66898 121 120 116 
0.0552168 -0.0550243 1.69999 105 105 103 
0.0777626 -0.0504437 1.71594 14 13 11 
-0.0976858 -0.0472439 1.66356 20 20 10 
0.0234871 -0.0477246 1.67157 39 38 33 
-0.117426 -0.0460765 1.66278 31 32 24 
-0.149724 -0.0452331 1.67432 102 98 97 
0.0596496 -0.0463263 1.70466 15 15 15 
0.040287 -0.0449144 1.67577 42 41 39 
0.0982996 -0.0450704 1.72227 1 0 0 
0.107108 -0.0457036 1.73236 28 27 23 
-0.235576 -0.0448362 1.74321 38 33 27 
-0.0895169 -0.0409301 1.65643 26 23 14 
-0.280141 -0.0413494 1.80404 17 13 10 
-0.133526 -0.0355608 1.66046 40 37 32 
-0.090723 -0.0306253 1.64718 37 33 21 
-0.0611787 -0.0308709 1.65031 45 41 30 
-0.231672 -0.0307061 1.71964 115 114 110 
0.00764299 -0.0283954 1.65343 104 103 101 
0.0433205 -0.0284398 1.66643 111 110 106 
0.0905527 -0.0284433 1.70854 17 16 12 
0.0664793 -0.0256193 1.68565 21 21 9 
-0.263529 -0.0253942 1.75092 35 32 25 
-0.105828 -0.01741 1.64555 117 113 110 
-0.0111978 -0.0145216 1.64181 113 112 108 
-0.191193 -0.0140148 1.67116 59 58 54 
-0.228312 -0.0124583 1.70439 120 119 117 
0.0727341 -0.0121449 1.68309 80 79 77 
-0.211664 -0.0105939 1.69281 24 20 17 
0.114946 0.00198069 1.7322 90 89 87 
-0.154403 0.00444212 1.66118 18 17 13 
-0.0248565 0.00424494 1.64754 101 99 100 
-0.180702 0.00502579 1.676 101 100 96 
0.0762824 0.00639644 1.68851 8 7 5 
-0.236901 0.00664825 1.72285 105 104 102 
0.0898247 0.00647604 1.70686 4 2 3 
0.144062 0.00694135 1.7853 12 10 11 
0.127679 0.00936696 1.74671 1 0 0 
0.137073 0.0114127 1.7702 93 91 92 
0.0328192 0.0141165 1.66496 3 2 0 
-0.212467 0.0146935 1.69505 97 96 94 
0.0727193 0.0150537 1.6949 1 0 2 
0.107279 0.0152804 1.72402 105 105 105 
-0.238877 0.0174499 1.724 94 93 89 
0.0947211 0.019805 1.71019 33 33 33 
0.131257 0.021444 1.75796 110 108 109 
-0.0275171 0.0220504 1.65119 20 16 15 
-0.0982207 0.0247134 1.65169 85 83 84 
-0.00356001 0.0244897 1.64856 11 9 10 
0.0694243 0.0268803 1.6884 3 1 2 
0.0317359 0.0335486 1.66533 7 6 4 
-0.109952 0.0346877 1.65129 71 71 71 
0.0589388 0.0351087 1.67922 8 4 3 
-0.0476439 0.0356536 1.64818 90 89 87 
-0.13881 0.0370213 1.65907 2 0 1 
0.0778463 0.0374311 1.69489 77 77 77 
-0.273908 0.0412509 1.77764 21 19 22 
-0.149096 0.0381228 1.66366 73 69 66 
0.0485295 0.0392614 1.66958 82 80 81 
0.105907 0.0408556 1.7231 107 106 102 
0.0928729 0.0408418 1.70715 91 90 86 
0.124091 0.0430884 1.74673 11 7 8 
-0.238945 0.0433468 1.71866 99 97 98 
-0.204693 0.0441309 1.69467 11 9 10 
-0.15975 0.0433289 1.66493 6 5 3 
-0.13006 0.0456747 1.65314 88 86 87 
-0.0123108 0.047144 1.65101 83 81 82 
0.000246692 0.0496093 1.65352 124 123 121 
0.0683352 0.0511494 1.68841 79 78 76 
-0.0326331 0.0536407 1.65061 50 46 47 
-0.052553 0.0556224 1.64638 63 59 58 
-0.187779 0.0575713 1.68231 58 57 53 
0.024366 0.0590792 1.66171 90 89 87 
0.0515713 0.0610489 1.66973 93 92 90 
0.0879369 0.0634604 1.69556 94 93 91 
0.103737 0.070717 1.71323 100 99 97 
-0.0432017 0.0742511 1.64931 65 65 65 
-0.161207 0.0779462 1.67598 80 80 78 
0.109727 0.0804439 1.72893 89 89 87 
-0.234988 0.0830147 1.73345 88 87 85 
0.0504831 0.0809268 1.66217 0 0 0 
0.0927421 0.08359 1.70376 83 82 80 
0.0084848 0.0835393 1.65096 118 114 111 
0.0616487 0.0859074 1.67912 77 76 74 
-0.00491031 0.0885677 1.65845 69 67 68 
0.0806669 0.0932231 1.6917 87 86 84 
-0.252326 0.0994984 1.75934 6 4 5 
0.0174087 0.0945542 1.65402 83 82 78 
0.0510485 0.0968527 1.6716 74 74 76 
0.0740888 0.0998622 1.68438 26 25 21 
0.108338 0.102683 1.71806 13 9 10 
0.0319474 0.0996837 1.65922 114 113 111 
0.0595358 0.102216 1.67649 97 97 95 
-0.246048 0.108302 1.74267 83 83 83 
-0.0570487 0.102308 1.65416 90 88 89 
-0.227445 0.110149 1.72949 8 4 5 
0.0739066 0.108783 1.69067 95 94 92 
0.0414465 0.108199 1.66883 8 7 5 
0.0952288 0.110346 1.70025 15 15 13 
-0.239313 0.11588 1.73434 10 10 10 
-0.179566 0.113656 1.68896 1 0 0 
0.0702592 0.114586 1.68205 92 88 89 
-0.0699978 0.112378 1.64912 86 86 86 
-0.124412 0.117851 1.66414 78 78 78 
-0.220265 0.121823 1.7137 68 66 67 
-0.233876 0.122979 1.72924 106 106 106 
0.114946 0.132603 1.72732 89 83 83 
-0.189889 0.129189 1.68403 10 8 9 
0.0483767 0.127911 1.66591 82 81 79 
0.0872393 0.134013 1.69817 101 99 100 
-0.155894 0.132703 1.67033 3 3 3 
0.041512 0.135638 1.66166 80 79 77 
0.100949 0.141136 1.71281 27 25 26 
-0.000331927 0.136453 1.64515 29 27 28 
0.0661673 0.139097 1.68172 5 5 3 
-0.180029 0.143956 1.68232 75 74 72 
-0.129807 0.142762 1.65984 69 68 66 
-0.229064 0.149126 1.72489 105 104 102 
0.0497239 0.146771 1.67144 85 84 82 
0.0792988 0.148382 1.68235 87 86 82 
0.01446 0.147285 1.65067 68 67 65 
0.0647961 0.151305 1.67908 91 90 88 
-0.0692985 0.14953 1.65091 3 0 0 
-0.240654 0.157786 1.73609 7 5 6 
0.00917297 0.154337 1.64332 110 109 107 
-0.248573 0.169196 1.74841 32 31 29 
-0.0739979 0.160156 1.64884 81 80 78 
0.115246 0.171026 1.72359 42 41 39 
0.122286 0.180152 1.7342 84 80 81 
-0.0940056 0.171194 1.65118 72 70 73 
-0.205685 0.179055 1.70199 18 17 15 
0.0954659 0.179352 1.70071 31 30 28 
0.0795817 0.179583 1.68438 85 84 82 
0.0504774 0.178093 1.66234 85 84 82 
-0.155191 0.183915 1.66519 76 74 77 
-0.180498 0.195574 1.68374 16 12 11 
0.0885508 0.197313 1.68898 80 79 77 
-0.239948 0.202329 1.72021 4 0 0 
-0.171476 0.196831 1.6709 8 4 1 
-0.0045859 0.194924 1.65087 1 0 0 
-0.202417 0.205863 1.68684 14 12 13 
0.112274 0.214796 1.71781 15 14 10 
-0.203942 0.221199 1.69407 17 13 14 
0.0766131 0.221541 1.68145 83 79 78 
-0.246345 0.231276 1.73486 3 0 0 
-0.189381 0.224204 1.68608 8 8 8 
-0.254178 0.234615 1.74352 4 0 0 
0.00143713 0.223469 1.64079 91 90 88 
0.106448 0.235202 1.71224 38 37 35 
0.0891732 0.235515 1.69079 1 0 0 
-0.271049 0.24816 1.77763 93 92 90 
-0.230235 0.242086 1.71634 76 75 73 
0.10058 0.244005 1.70564 89 88 86 
-0.017899 0.238935 1.646 82 80 81 
-0.00137667 0.239986 1.63545 85 84 80 
-0.133469 0.247912 1.65537 70 69 67 
0.0337039 0.24705 1.6473 72 71 69 
-0.0497121 0.247561 1.64002 73 73 73 
0.052245 0.25693 1.66137 84 83 81 
0.104697 0.266443 1.70905 30 29 25 
-0.184279 0.263099 1.67689 1 0 2 
-0.167468 0.261959 1.66623 6 4 5 
0.0457302 0.264418 1.65603 66 65 63 
-0.176961 0.267726 1.6692 3 3 3 
0.0951248 0.273791 1.69161 83 82 78 
0.0800113 0.279 1.67929 86 84 85 
-0.148797 0.274719 1.65508 87 87 89 
0.0477179 0.275637 1.65299 109 109 107 
0.0905322 0.280954 1.68286 88 87 83 
-0.0599598 0.274439 1.63624 2 0 1 
-0.167698 0.28137 1.66388 12 11 9 
0.111758 0.291509 1.7089 31 30 26 
-0.210046 0.29202 1.69466 7 6 4 
-0.00237139 0.282139 1.6356 9 8 6 
0.0283988 0.284256 1.63936 14 13 11 
-0.236913 0.299105 1.71942 78 76 79 
0.0875458 0.293207 1.68486 93 92 88 
-0.156081 0.29235 1.65333 86 84 85 
0.0163873 0.291934 1.64524 5 3 6 
0.0978937 0.302062 1.69622 24 20 17 
0.0526282 0.2975 1.64787 1 0 0 
0.0267496 0.299967 1.6393 11 10 8 
-0.215018 0.319897 1.69572 7 3 0 
-0.202318 0.32017 1.68575 67 65 66 
-0.0571736 0.310096 1.63309 14 13 11 
-0.130348 0.313597 1.64656 4 3 0 
0.0527613 0.317375 1.65356 5 4 2 
-0.144792 0.316138 1.6438 0 1 0 
-0.0398014 0.315095 1.63457 66 66 66 
-0.273661 0.346533 1.77342 64 62 63 
0.0515984 0.328898 1.6508 67 66 64 
-0.131465 0.329463 1.64081 3 0 0 
0.103814 0.351367 1.69606 53 49 46 
0.0716916 0.345902 1.66992 10 9 7 
-0.218128 0.350873 1.6921 66 65 63 
-0.0391596 0.339107 1.63476 9 8 6 
0.0950471 0.355185 1.68264 101 97 94 
-0.259551 0.375381 1.75266 99 98 96 
0.0334481 0.349419 1.63466 12 11 9 
0.0674528 0.360312 1.66147 4 3 1 
-0.155593 0.359781 1.64584 4 0 0 
0.0410211 0.368971 1.64579 0 1 0 
0.0879883 0.377258 1.67858 96 92 89 
0.0987571 0.387435 1.68987 6 2 1 
0.113847 0.394123 1.70664 29 26 21 
-0.0318135 0.377143 1.62979 70 68 69 
0.0533681 0.393131 1.64782 13 12 8 
0.0959563 0.409014 1.68137 19 18 16 
-0.0346863 0.4005 1.63003 69 68 66 
0.0070512 0.398708 1.62404 86 82 81 
-0.0238447 0.408699 1.62247 81 77 78 
0.0702765 0.420733 1.65703 95 94 90 
-0.200342 0.427504 1.66852 86 85 83 
0.0851769 0.431921 1.67445 19 18 16 
-0.0963922 0.428448 1.62584 81 80 78 
0.0324544 0.444172 1.6371 78 77 75 
0.0904913 0.456881 1.6758 121 117 114 
0.0644106 0.467535 1.65139 20 19 17 
0.0855479 0.479278 1.669 114 110 107 
0.0988475 0.486578 1.68503 14 15 9 
0.0443979 0.478819 1.63341 97 96 91 
-0.0550666 0.480336 1.62007 3 1 2 
0.0228669 0.485188 1.62477 96 95 91 
-0.119747 0.490587 1.6201 79 75 74 
-0.00391902 0.492658 1.61768 62 61 59 
0.0368191 0.501338 1.62896 12 11 9 
0.0406888 0.513786 1.63303 73 69 66 
-0.0899198 0.514954 1.61795 68 67 65 
-0.270212 0.554765 1.72202 1 0 0 
0.0350451 0.527444 1.63042 24 23 19 
-0.276011 0.564048 1.72975 12 14 13 
-0.24673 0.55271 1.68725 111 107 106 
-0.0458404 0.533485 1.61489 102 101 99 
-0.211297 0.549185 1.65794 3 3 3 
-0.267576 0.575648 1.73024 98 98 98 
-0.271437 0.584545 1.74014 78 77 82 
0.00297331 0.542347 1.6136 77 76 74 
-0.0345201 0.547618 1.61587 3 2 0 
-0.242545 0.575835 1.69464 101 100 116 
-0.267951 0.590603 1.72807 23 22 30 
-0.28419 0.598039 1.74511 96 95 93 
-0.270719 0.596907 1.74026 88 85 92 
0.0940512 0.573432 1.67477 84 80 79 
0.350544 0.83482 2.39426 77 78 64 
-0.0052832 0.554434 1.62054 66 65 63 
0.336021 0.841982 2.39558 59 58 53 
0.0548402 0.565962 1.6394 96 95 93 
-0.0581524 0.555576 1.60806 105 103 104 
-0.0280606 0.55881 1.60376 85 83 84 
-0.198764 0.575195 1.64547 84 82 83 
-0.0426019 0.562398 1.61069 73 72 70 
-0.265079 0.612648 1.7264 80 80 82 
-0.276198 0.62092 1.74257 57 56 54 
-0.253083 0.610492 1.70997 105 105 107 
-0.219822 0.594338 1.65697 98 100 97 
-0.202194 0.586561 1.6376 105 104 102 
-0.00521224 0.577194 1.60927 74 72 75 
-0.263901 0.623616 1.72637 116 116 116 
-0.0716062 0.573665 1.59505 82 78 77 
-0.0575839 0.575583 1.59825 73 71 72 
0.0350331 0.58436 1.62136 83 82 80 
-0.274837 0.635091 1.73113 28 5 0 
-0.278564 0.644236 1.73457 145 129 113 
-0.10124 0.590907 1.59861 84 83 81 
-0.0870178 0.591571 1.59884 93 92 90 
-0.164455 0.597687 1.61171 82 80 81 
-0.259413 0.647165 1.718 96 97 91 
-0.263139 0.654765 1.72743 84 83 81 
-0.0962115 0.606712 1.60191 60 59 57 
-0.0734954 0.613859 1.59543 79 77 78 
-0.249656 0.66197 1.70564 0 0 7 
-0.145028 0.628084 1.60497 93 89 88 
-0.0364421 0.626087 1.59849 80 76 75 
-0.0953289 0.626767 1.59234 80 80 78 
-0.263894 0.697806 1.73096 95 93 94 
-0.0456769 0.646701 1.59558 76 74 75 
-0.14675 0.656476 1.60947 88 87 85 
-0.201064 0.668944 1.63071 3 2 0 
-0.107249 0.658953 1.59192 80 79 77 
-0.195303 0.679784 1.62176 90 90 88 
-0.188644 0.676674 1.61142 82 78 77 
-0.0525406 0.665194 1.58566 72 71 69 
0.0534431 0.691025 1.62493 104 103 101 
-0.194786 0.715082 1.61424 106 105 103 
-0.16223 0.72157 1.59346 80 74 74 
-0.13543 0.718929 1.58145 91 90 88 
-0.195423 0.734989 1.60679 105 103 104 
-0.138105 0.734598 1.58983 95 91 88 
-0.161519 0.735802 1.58774 108 104 101 
-0.122475 0.732841 1.58148 86 81 77 
-0.233024 0.744647 1.604 109 105 96 
-0.220303 0.741353 1.59011 125 122 117 
-0.0858929 0.734259 1.57264 107 104 99 
-0.206385 0.744333 1.5859 10 6 3 
-0.135036 0.7392 1.56392 95 92 87 
-0.147355 0.737387 1.55471 86 82 79 
-0.0682304 0.737488 1.5431 91 90 85 
-0.335472 0.777002 1.61512 78 77 73 
-0.209175 0.763874 1.58181 70 69 67 
-0.0569065 0.747246 1.54778 90 86 85 
-0.115509 0.752071 1.54465 97 93 90 
-0.283134 0.764875 1.55539 94 93 89 
-0.18675 0.778431 1.55429 101 98 93 
-0.20455 0.780897 1.55078 12 9 4 
-0.270116 0.780805 1.54453 103 105 94 
-0.231765 0.788519 1.5477 104 104 94 
-0.140478 0.777964 1.52635 10 11 5 
-0.190173 0.793554 1.52245 110 110 98 
-0.198546 0.791402 1.49232 30 26 14 
-0.278735 0.80187 1.49593 37 35 22 
-0.160366 0.798713 1.48869 50 40 30 
-0.25535 0.797688 1.4465 33 29 18 
-0.20974 0.797147 1.42276 31 29 16 
-0.093017 -0.577863 1.84999 21 19 20 
-0.000401779 -0.53426 1.86949 103 101 102 
-0.00910961 -0.424932 1.81536 120 115 112 
-0.193376 -0.258591 1.77342 8 3 0 
-0.0977298 -0.179874 1.71618 28 25 20 
-0.0639469 -0.162467 1.70493 98 97 95 
-0.198287 -0.117269 1.73777 22 21 19 
-0.224865 -0.100876 1.76721 103 102 100 
-0.0850365 -0.0949152 1.68763 97 95 96 
-0.0305502 -0.0807338 1.66463 121 120 118 
-0.16735 -0.0807649 1.68908 39 38 34 
-0.0630256 -0.0692846 1.66282 81 77 66 
0.10746 -0.0719647 1.75281 138 134 131 
-0.121224 -0.0550063 1.66584 105 101 98 
-0.0794203 -0.046764 1.65838 114 111 106 
-0.114817 -0.0299255 1.65141 35 31 20 
-0.125604 0.0249746 1.65663 10 8 9 
-0.112646 0.0247025 1.64646 5 1 2 
0.0592786 0.114058 1.67369 79 78 76 
-0.274202 0.131551 1.79274 91 89 92 
-0.0643283 0.228658 1.63756 64 63 61 
0.0890973 0.338769 1.68041 96 92 91 
-0.063691 0.359129 1.62877 12 11 9 
-0.233309 0.585005 1.67286 4 3 8 
-0.256438 0.753422 1.6027 81 82 68 
-0.40713 0.776009 1.35209 97 94 85 
-0.0586173 -0.82557 1.92413 76 80 92 
-0.0705946 -0.818439 1.92399 76 82 98 
-0.0249615 -0.799603 1.91298 45 48 63 
-0.0736644 -0.701082 1.89293 118 115 108 
-0.0517607 -0.493063 1.822 57 54 49 
-0.178533 -0.385029 1.84949 104 100 97 
-0.00507441 -0.344419 1.77537 95 94 90 
-0.0236557 -0.338157 1.75539 114 113 109 
-0.0577564 -0.313676 1.75533 106 105 101 
0.0365755 -0.269715 1.76729 88 84 83 
-0.00503107 -0.260399 1.7237 29 29 21 
-0.0448862 -0.253017 1.72489 28 25 20 
-0.227162 -0.254196 1.82515 111 109 110 
-0.192258 -0.239841 1.78424 95 85 84 
-0.110864 -0.21693 1.73934 91 88 83 
-0.215325 -0.219485 1.82353 97 88 89 
-0.167608 -0.204905 1.75241 105 104 100 
-0.185345 -0.20469 1.77373 96 95 90 
-0.0568588 -0.183607 1.70388 102 98 95 
0.0546195 -0.189317 1.76946 94 93 89 
-0.15633 -0.168342 1.71774 98 97 95 
0.00721307 -0.0747037 1.67468 108 107 105 
0.0317119 -0.0786062 1.70685 102 98 95 
0.0663381 -0.0347712 1.69253 129 126 117 
0.0460851 0.015074 1.66702 3 2 0 
0.0955816 0.0168675 1.6969 1 1 1 
-0.195015 0.0187605 1.68578 15 14 12 
-0.0855671 0.0245411 1.64905 2 0 1 
0.0501297 0.0256845 1.67419 2 1 0 
-0.180574 0.0380171 1.68043 3 2 0 
0.0161162 0.0368015 1.65186 10 6 5 
0.00760657 0.24299 1.63171 100 99 95 
0.0270999 0.255525 1.64328 82 81 79 
-0.21322 0.305109 1.69499 90 88 89 
-0.234486 0.366732 1.7177 119 118 116 
0.00125443 0.37147 1.62915 78 77 75 
0.0405836 0.399167 1.64161 10 10 10 
0.0876003 0.49289 1.67952 105 102 93 
0.0542326 0.520646 1.64174 77 70 64 
-0.200952 0.545636 1.65144 73 72 70 
-0.262047 0.604421 1.71578 23 23 25 
0.382408 0.849622 2.34729 76 75 71 
0.0831555 0.5929 1.65871 33 32 30 
-0.247076 0.631314 1.7069 84 85 80 
-0.155378 0.652932 1.60407 84 83 81 
-0.291638 0.711294 1.72969 9 9 1 
0.0324331 0.670719 1.60359 30 28 29 
0.128345 0.715663 1.68887 87 86 82 
-0.124146 0.780167 1.5256 103 102 98 
-0.426318 0.762138 1.35473 108 104 101 
-0.121344 -0.616838 1.90375 128 130 142 
-0.0122001 -0.441699 1.83304 110 109 105 
0.00688563 -0.389307 1.818 120 116 113 
-0.107014 -0.13733 1.70015 97 96 94 
-0.251248 0.0696239 1.746 70 70 70 
-0.241136 0.206966 1.7361 14 11 6 
-0.116273 0.21406 1.65356 17 16 14 
-0.2564 0.586194 1.72754 0 0 16 
-0.0431405 0.601939 1.58959 61 59 60 
-0.226653 0.784454 1.46257 82 80 67 
-0.0569016 -0.86975 1.9258 189 197 210 
-0.192526 -0.226458 1.78159 50 40 39 
-0.0804293 -0.137878 1.69508 106 107 101 
-0.0025271 0.121596 1.64538 72 72 72 
-0.267891 0.564609 1.73892 14 12 15 
-0.0641097 -0.877026 1.92578 25 24 56 
-0.0644661 -0.763062 1.88388 24 22 23 
-0.208748 -0.348109 1.81238 56 59 66 
-0.0665669 -0.745776 1.899 219 218 236 
-0.0768942 -0.61602 1.82266 28 25 20 
-0.0638708 -0.352465 1.72854 8 5 0 
-0.0757454 -0.337208 1.72453 116 113 108 
-0.0862118 -0.328851 1.72461 29 25 22 
-0.0645006 -0.325658 1.72018 33 29 26 
-0.109683 -0.324231 1.7251 68 67 63 
-0.0658174 -0.279686 1.69984 10 7 0 
-0.0768126 -0.273483 1.7008 25 22 17 
-0.127755 -0.272207 1.70707 95 91 88 
-0.0449441 -0.19797 1.67096 100 97 92 
-0.143718 -0.167891 1.67224 35 34 30 
-0.136823 -0.148047 1.6658 28 26 27 
-0.0327971 -0.115372 1.64004 112 111 107 
-0.110479 -0.108989 1.65 15 14 12 
-0.082902 -0.101923 1.64414 13 12 10 
-0.0367774 -0.0941298 1.63561 104 103 101 
-0.160345 -0.063438 1.63092 82 81 79 
-0.0605184 0.00463223 1.60567 90 89 87 
-0.113964 0.00493631 1.60715 71 69 72 
-0.152055 0.0150667 1.61685 3 0 0 
-0.135926 0.0255421 1.61256 57 55 56 
-0.17003 0.0357704 1.62272 102 101 99 
-0.137418 0.0972655 1.62061 70 69 67 
-0.179207 0.109864 1.63807 29 27 28 
-0.238494 0.14228 1.68711 7 6 4 
-0.187349 0.146659 1.63967 77 75 76 
-0.224587 0.153182 1.67004 15 14 12 
-0.0572629 0.151625 1.60866 1 0 0 
-0.173319 0.202167 1.62771 3 1 2 
-0.194055 0.22442 1.63937 80 78 79 
-0.228241 0.233934 1.6663 85 83 84 
-0.165689 0.33363 1.61626 5 3 4 
-0.169475 0.525892 1.60756 60 59 57 
-0.177391 0.545749 1.60707 95 95 95 
-0.202334 0.61935 1.60803 73 72 70 
-0.179947 0.635405 1.59219 103 99 98 
-0.184298 0.679368 1.58085 80 79 77 
-0.135593 0.678286 1.56177 70 68 69 
-0.125866 0.721834 1.55487 97 94 89 
-0.0632902 -0.86752 1.89826 216 216 242 
-0.161283 0.723662 1.56453 71 67 64 
-0.0638829 -0.817875 1.89632 195 195 221 
-0.0647494 -0.661483 1.8487 29 24 18 
-0.0593733 -0.554455 1.81111 114 110 107 
-0.0398671 -0.390679 1.74988 29 26 21 
-0.0582001 -0.341072 1.73431 43 40 31 
-0.115717 -0.330492 1.73854 11 10 6 
-0.107109 -0.29942 1.72443 117 113 110 
-0.0426262 -0.293011 1.7121 102 99 94 
-0.0311967 -0.255587 1.69926 52 48 45 
-0.1424 -0.255491 1.71419 37 34 29 
-0.091769 -0.239811 1.70427 15 14 10 
-0.126809 -0.236025 1.70628 13 12 8 
-0.12696 -0.191463 1.68975 84 83 81 
-0.155772 -0.188812 1.69289 90 86 83 
-0.0729032 -0.18416 1.67942 85 82 77 
-0.120096 -0.178342 1.68474 2 0 1 
-0.140106 -0.169239 1.68428 29 26 21 
-0.0714106 -0.110082 1.65724 6 5 3 
-0.0662576 -0.10212 1.65198 8 7 5 
-0.149617 -0.0980924 1.66261 25 23 24 
-0.106747 -0.0771319 1.64502 33 32 28 
-0.0490094 -0.047352 1.62174 29 29 21 
-0.146347 -0.0442414 1.63205 102 98 97 
-0.22539 0.0065405 1.67547 1 0 0 
0.0123755 0.00978081 1.62645 10 6 7 
-0.178834 0.0256059 1.64224 6 4 5 
-0.230143 0.0273938 1.68216 2 1 0 
-0.240966 0.0386538 1.69476 3 0 0 
0.0375547 0.0480901 1.63687 14 13 9 
-0.113215 0.0682397 1.62709 2 0 3 
-0.151619 0.08421 1.63906 0 1 3 
-0.0633184 0.0907696 1.62196 86 84 85 
0.0439273 0.0980615 1.6391 99 98 94 
-0.188318 0.14184 1.6535 85 84 82 
-0.104109 0.140237 1.62328 78 78 78 
-0.14632 0.149977 1.63135 67 66 64 
-0.194922 0.178338 1.65596 1 0 0 
-0.0679321 0.211687 1.61431 1 0 0 
-0.0278011 0.225284 1.61553 39 39 39 
-0.130469 0.248662 1.61745 81 80 78 
-0.0522125 0.287021 1.60653 92 88 89 
0.0394297 0.305613 1.62199 84 83 81 
-0.141086 0.332192 1.61565 6 2 0 
0.0205618 0.332312 1.61054 3 2 0 
-0.214372 0.371439 1.65923 7 6 4 
-0.0861507 0.469254 1.59525 86 85 83 
-0.0673737 0.516043 1.59398 86 85 83 
0.514296 0.808485 2.14366 89 89 81 
0.487912 0.821239 2.15812 74 73 69 
-0.0454387 0.597162 1.57647 100 98 99 
0.518948 0.838424 2.12405 66 65 61 
-0.190175 0.62978 1.60662 81 80 76 
0.00717509 0.647103 1.58764 87 86 84 
-0.15972 0.650911 1.587 86 85 83 
-0.0892253 0.644744 1.57211 96 96 94 
0.593674 0.852379 1.83525 66 65 70 
-0.00438373 0.727183 1.56598 133 130 125 
-0.0139915 0.766614 1.53191 78 78 76 
0.0284449 0.774266 1.54042 118 118 108 
-0.0722008 0.765941 1.52291 93 92 87 
0.010173 0.782263 1.51441 94 95 87 
-0.0929751 0.774471 1.49542 29 30 25 
-0.169194 0.78104 1.50417 10 9 5 
-0.0398492 0.790857 1.47862 107 109 98 
-0.0499933 -0.35277 1.73637 109 106 101 
-0.139333 -0.0860346 1.65291 129 126 119 
0.00839761 0.422134 1.59869 84 80 79 
-0.0542778 -0.830889 1.89617 64 74 86 
-0.0820857 -0.256124 1.70391 18 15 10 
-0.281613 0.0737628 1.81698 63 63 61 
-0.136286 0.35477 1.61317 71 70 68 
0.0432511 0.796606 1.50685 91 91 79 
-0.129475 0.784233 1.30765 94 85 76 
-0.0870621 -0.381021 1.75086 39 36 31 
-0.0500298 0.709165 1.55702 87 85 86 
-0.0506487 -0.801233 1.89112 207 212 231 
-0.0837202 -0.857937 1.88708 218 226 245 
-0.0862435 -0.800228 1.77511 98 103 123 
-0.0759607 -0.598769 1.81722 35 34 32 
-0.0921539 -0.556134 1.80238 32 28 25 
-0.110633 -0.492971 1.78388 32 29 24 
-0.147014 -0.452621 1.80487 26 22 23 
-0.123234 -0.357431 1.7368 21 18 13 
-0.134707 -0.34679 1.73421 40 37 30 
-0.0996854 -0.34707 1.73159 16 13 8 
-0.0816028 -0.310202 1.71376 25 22 13 
0.0615498 -0.275305 1.74136 189 188 194 
-0.189106 -0.23511 1.72295 44 36 33 
-0.101221 -0.226422 1.68791 82 81 79 
-0.0384822 -0.213566 1.67279 84 80 77 
-0.0839595 -0.210069 1.68012 115 114 112 
-0.111204 -0.190316 1.67475 91 87 88 
-0.0449589 -0.186525 1.66839 79 75 72 
-0.173054 -0.1863 1.69356 80 75 72 
-0.141901 -0.183102 1.67487 58 54 51 
-0.150248 -0.175264 1.67326 87 83 82 
-0.192235 -0.172224 1.70782 37 36 32 
-0.0245528 -0.163304 1.65742 94 90 87 
-0.0718287 -0.150278 1.65616 6 5 3 
-0.15419 -0.148481 1.6655 121 117 116 
-0.242896 -0.12641 1.75178 1 0 0 
-0.166359 -0.115114 1.65781 25 21 18 
-0.246802 -0.110066 1.74899 122 121 119 
0.0747751 -0.0942385 1.70635 101 99 100 
-0.0934776 -0.0746762 1.62321 114 113 109 
-0.0814498 -0.0703672 1.62552 43 40 31 
-0.210426 -0.0625522 1.66622 21 18 11 
-0.0489169 -0.0606614 1.61678 53 50 45 
-0.0939204 -0.0528385 1.61819 97 93 90 
-0.142803 -0.0287511 1.61068 23 22 18 
-0.0217564 -0.02872 1.6034 124 123 121 
-0.0837017 0.0231217 1.60245 17 16 14 
-0.214207 0.0315827 1.65069 105 104 102 
-0.0251658 0.0353672 1.60522 111 109 110 
-0.0769757 0.0460818 1.60182 78 77 75 
-0.0237522 0.0473512 1.60803 13 11 12 
0.00487284 0.0481647 1.6131 94 92 93 
-0.187521 0.0812497 1.64287 79 77 78 
-0.125887 0.11385 1.61311 77 77 77 
0.00755032 0.13207 1.61076 13 12 10 
-0.213134 0.141211 1.65965 1 0 0 
0.0299178 0.152842 1.61839 15 13 14 
-0.0664437 0.177349 1.60322 84 83 81 
-0.247846 0.20069 1.68818 14 11 6 
-0.200851 0.209871 1.64322 86 84 85 
-0.217617 0.224353 1.66075 2 1 0 
-0.211772 0.226504 1.65306 93 92 90 
-0.185388 0.38371 1.6236 73 72 70 
-0.106902 0.409781 1.59262 80 78 79 
0.0553366 0.426894 1.61833 2 1 0 
-0.545189 0.839627 3.01788 69 70 65 
-0.227621 0.440939 1.65326 62 62 62 
0.00507859 0.431365 1.5904 83 81 82 
-0.200365 0.458211 1.62904 13 12 10 
-0.210055 0.533127 1.61414 17 17 15 
-0.259472 0.5643 1.68079 2 1 15 
-0.24408 0.577048 1.66076 0 2 11 
-0.147822 0.558237 1.58475 84 83 81 
-0.0876363 0.557489 1.57494 97 95 96 
-0.23925 0.585581 1.65084 2 0 3 
0.502504 0.799075 2.12257 87 86 81 
-0.248502 0.611147 1.66562 64 63 61 
-0.2567 0.627842 1.67612 105 105 103 
-0.27916 0.655685 1.68914 100 99 97 
-0.211909 0.726293 1.5902 9 5 2 
-0.116734 0.738567 1.52575 117 113 110 
-0.208644 0.786233 1.40291 103 99 88 
-0.13821 0.785852 1.37124 121 111 101 
-0.0612906 0.193889 1.60381 88 87 85 
-0.293699 0.775403 1.52332 94 91 86 
-0.0571101 -0.461144 1.76573 122 118 115 
-0.123517 -0.0681777 1.6286 122 119 114 
-0.012431 0.0938457 1.61718 72 72 72 
-0.267132 0.621603 1.6873 110 88 38 
-0.178955 0.69171 1.57406 64 63 61 
-0.0315044 0.721391 1.55343 91 90 88 
-0.342344 0.759707 1.59915 68 64 63 
-0.255068 0.751646 1.5474 16 17 9 
-0.0344682 -0.240514 1.68306 99 95 92 
-0.0820148 -0.854933 1.88609 186 181 211 
-0.0529832 -0.85521 1.88203 78 85 103 
-0.0615239 -0.841345 1.88259 100 105 124 
-0.0603717 -0.753319 1.8455 45 44 42 
-0.0870784 -0.680621 1.84457 127 124 119 
-0.075565 -0.680436 1.84154 97 94 85 
-0.0775649 -0.615484 1.82145 40 36 33 
-0.10032 -0.593253 1.81637 47 42 38 
-0.0632771 -0.521153 1.78947 18 17 15 
-0.0974418 -0.515176 1.78791 37 33 32 
-0.127484 -0.50607 1.80631 29 28 26 
-0.0579296 -0.502385 1.78076 30 26 23 
-0.0996422 -0.491732 1.78237 42 37 33 
-0.0773147 -0.492406 1.78146 22 16 16 
-0.0959518 -0.448988 1.76541 23 19 18 
-0.117008 -0.421614 1.76131 23 20 15 
-0.0969986 -0.415968 1.75614 32 28 25 
-0.0490245 -0.417701 1.75046 39 36 31 
-0.0600073 -0.414406 1.74924 17 13 10 
-0.0566671 -0.40265 1.74658 113 109 108 
-0.0988107 -0.392441 1.74803 29 25 22 
-0.0657323 -0.387958 1.74073 36 31 27 
-0.126077 -0.379977 1.74515 39 35 32 
-0.0709924 -0.376067 1.7382 29 26 21 
-0.140386 -0.37154 1.74845 17 13 10 
-0.0900298 -0.367835 1.73671 114 111 106 
-0.0960241 -0.355906 1.73428 20 17 12 
-0.155934 -0.351202 1.76216 47 44 39 
-0.0776599 -0.35 1.72903 110 107 100 
-0.1483 -0.345048 1.74598 30 26 17 
-0.0925277 -0.336525 1.72689 118 114 111 
-0.119293 -0.327698 1.72604 6 2 0 
-0.0502038 -0.330638 1.72022 39 35 32 
-0.0679458 -0.306635 1.71387 31 25 25 
-0.0495599 -0.307281 1.71105 49 48 44 
-0.151573 -0.298513 1.72572 27 26 24 
-0.140087 -0.290451 1.71576 23 20 15 
-0.0511467 -0.29387 1.70491 105 101 98 
-0.0722466 -0.289017 1.70514 33 30 25 
-0.0459074 -0.277948 1.70112 21 17 14 
-0.12771 -0.272433 1.70715 84 83 81 
-0.106114 -0.273042 1.70311 27 24 19 
-0.144645 -0.270827 1.70701 93 92 87 
-0.0827312 -0.260469 1.69795 30 26 23 
-0.148416 -0.25342 1.70384 31 27 24 
-0.202481 -0.255103 1.7388 19 9 8 
-0.179096 -0.250048 1.70883 95 94 89 
-0.149794 -0.243818 1.70036 26 22 19 
-0.140394 -0.240369 1.6981 18 14 13 
-0.0952645 -0.237829 1.69296 14 13 11 
-0.130369 -0.233989 1.69379 35 31 30 
-0.0679953 -0.232562 1.68743 82 78 77 
-0.190135 -0.230739 1.72387 42 30 30 
-0.153696 -0.226498 1.69556 44 41 36 
-0.22193 -0.233186 1.76561 4 3 1 
-0.0902485 -0.224845 1.68585 98 94 93 
-0.0593527 -0.221917 1.68408 97 96 94 
-0.0784344 -0.218893 1.68122 74 73 71 
-0.11054 -0.215919 1.68576 88 87 85 
-0.0967463 -0.217115 1.68606 87 86 82 
-0.0502745 -0.21819 1.67975 26 22 21 
-0.197112 -0.212496 1.73288 105 93 93 
-0.146968 -0.208241 1.68656 90 89 87 
-0.209778 -0.212107 1.75113 76 66 67 
-0.16595 -0.199555 1.6892 33 30 25 
-0.231268 -0.20549 1.77843 122 119 112 
-0.0519556 -0.200299 1.67281 9 5 2 
-0.0666623 -0.197219 1.67403 34 30 29 
-0.139688 -0.191671 1.68126 30 26 23 
-0.127464 -0.186904 1.67799 101 95 95 
-0.15342 -0.185196 1.68058 101 97 96 
-0.21314 -0.189522 1.75077 24 23 21 
-0.182175 -0.175332 1.70567 61 60 58 
-0.033059 -0.176482 1.66401 101 98 93 
-0.158848 -0.167899 1.67679 82 81 79 
-0.132276 -0.16745 1.67194 102 100 101 
-0.0757425 -0.167031 1.66018 111 110 108 
-0.107449 -0.164762 1.66795 102 98 95 
-0.193185 -0.1639 1.70882 19 18 14 
-0.0502098 -0.164877 1.6622 25 21 20 
-0.114824 -0.158163 1.66584 97 95 96 
-0.0598027 -0.155182 1.65905 112 111 109 
-0.121475 -0.150766 1.66546 24 23 21 
-0.0987356 -0.151072 1.66421 22 21 19 
-0.180767 -0.148704 1.68101 106 104 105 
-0.0733842 -0.150194 1.65681 11 9 10 
-0.166717 -0.136803 1.66581 26 22 19 
-0.156827 -0.13728 1.66603 18 14 13 
-0.134178 -0.136746 1.6624 110 108 109 
-0.108104 -0.132553 1.65684 28 27 25 
-0.179121 -0.128493 1.67079 23 22 20 
-0.168603 -0.125227 1.66052 93 89 88 
-0.142808 -0.121269 1.65991 8 7 5 
-0.250773 -0.125012 1.76733 31 30 28 
-0.0950009 -0.111431 1.64991 112 110 111 
-0.163569 -0.109376 1.65633 80 79 77 
-0.0425061 -0.109535 1.64374 19 18 16 
-0.14199 -0.106522 1.65259 119 118 116 
-0.128006 -0.0989491 1.65001 112 111 109 
-0.14793 -0.0943393 1.64963 54 51 44 
-0.24208 -0.0967955 1.74121 12 11 9 
-0.0679587 -0.0925212 1.63925 82 80 81 
-0.125638 -0.0878673 1.64473 42 39 30 
-0.233086 -0.0892707 1.72328 104 102 103 
-0.121879 -0.0798061 1.63962 25 21 18 
-0.214587 -0.0755397 1.6842 115 114 112 
-0.159423 -0.0742312 1.63885 119 116 109 
-0.0914043 -0.0640045 1.62597 27 24 15 
-0.0806864 -0.063981 1.62586 41 38 33 
-0.247213 -0.0602945 1.71854 20 17 12 
-0.090399 -0.0564575 1.61895 17 14 9 
-0.114401 -0.0460744 1.62152 64 61 52 
-0.0792272 -0.0467028 1.61652 23 20 15 
-0.0956611 -0.045552 1.61784 60 57 48 
-0.124713 -0.0444908 1.62103 105 102 97 
-0.112087 -0.0367293 1.61175 38 35 30 
-0.143727 -0.0325811 1.61548 99 98 94 
-0.238055 -0.0257476 1.6745 7 5 6 
-0.244954 -0.0242372 1.68499 76 73 68 
-0.106709 -0.0237548 1.60649 112 111 106 
-0.105597 -0.0130312 1.60013 102 101 99 
-0.180158 0.00503716 1.63122 89 85 82 
-0.139232 0.0046265 1.61436 98 94 93 
-0.23314 0.00640405 1.67305 85 84 82 
-0.163459 0.0086226 1.62292 104 100 97 
-0.285272 0.010577 1.75088 7 6 4 
0.0196736 0.0205118 1.62252 17 16 14 
-0.0638817 0.0216534 1.60509 72 71 69 
-0.179948 0.0252312 1.6305 9 7 8 
-0.232503 0.0270975 1.67129 4 3 1 
-0.276707 0.0319156 1.73292 10 8 9 
-0.110393 0.0339636 1.6084 66 64 65 
-0.243706 0.0384145 1.68155 5 3 4 
-0.254381 0.0395435 1.69653 16 16 18 
-0.233646 0.0450252 1.66827 94 93 91 
-0.285662 0.0519623 1.75451 78 78 78 
-0.271745 0.0518885 1.72546 65 64 62 
-0.220013 0.0551136 1.65677 63 61 62 
-0.231607 0.0802149 1.68379 79 77 78 
-0.0588044 0.103843 1.61416 82 80 81 
-0.224754 0.106277 1.67389 12 12 12 
0.0356267 0.10917 1.62808 98 96 97 
-0.215634 0.111029 1.66827 78 76 77 
0.0140602 0.114535 1.61958 3 2 0 
-0.27898 0.122911 1.76678 98 98 98 
-0.240607 0.119893 1.68938 16 16 16 
-0.222737 0.120699 1.67018 1 0 0 
-0.188 0.177587 1.63996 69 67 68 
-0.196646 0.179388 1.64519 12 10 11 
-0.0210106 0.217872 1.61072 15 13 14 
-0.221201 0.217889 1.66337 79 75 72 
-0.180363 0.218016 1.63575 88 87 85 
-0.266565 0.235955 1.72697 2 1 0 
-0.201241 0.310816 1.64082 90 89 87 
-0.214813 0.329091 1.65149 78 77 75 
-0.25507 0.361754 1.70268 88 87 82 
-0.184619 0.490468 1.61948 81 80 78 
-0.202042 0.49703 1.62956 79 78 76 
-0.249782 0.512388 1.65931 27 27 27 
-0.266699 0.539798 1.68146 13 9 8 
-0.244232 0.557357 1.65935 0 0 9 
-0.250494 0.562117 1.67203 71 69 83 
-0.258039 0.57596 1.68382 102 101 117 
-0.271571 0.603799 1.69952 56 55 51 
-0.257629 0.611474 1.68201 111 109 114 
-0.251449 0.636694 1.67456 59 60 62 
-0.239899 0.636803 1.65731 79 80 84 
-0.166159 0.624845 1.58553 89 88 86 
-0.240228 0.659732 1.66161 98 96 107 
-0.262384 0.675397 1.6911 54 54 54 
-0.184223 0.649919 1.59179 68 66 67 
-0.243938 0.681682 1.6649 84 84 92 
-0.237297 0.679595 1.65478 93 92 98 
-0.133038 0.655973 1.5693 111 109 110 
-0.0828878 0.67331 1.55697 84 80 81 
-0.239497 0.698077 1.65623 13 17 2 
-0.22758 0.729802 1.57886 96 93 86 
-0.113691 0.738189 1.52618 92 88 85 
-0.487129 0.7957 1.65841 138 133 129 
-0.096914 -0.561988 1.80454 44 40 39 
-0.143785 -0.372231 1.75803 44 41 36 
-0.107576 -0.31858 1.72113 87 83 80 
-0.153419 -0.318077 1.73767 83 82 78 
-0.188198 -0.153933 1.69669 20 19 15 
0.0111499 -0.124295 1.66899 80 78 79 
-0.195834 -0.118501 1.68961 114 113 111 
-0.111405 -0.0935982 1.64431 14 13 11 
-0.138813 -0.0898322 1.64575 115 112 107 
-0.117715 -0.0719858 1.6326 113 110 101 
-0.249376 -0.0374601 1.70266 46 43 38 
-0.19315 0.124704 1.64525 12 10 11 
-0.232192 0.355917 1.67189 104 103 99 
-0.102229 0.377031 1.60542 134 132 133 
-0.252507 0.580422 1.67158 115 115 125 
-0.246426 0.588691 1.6644 10 10 12 
-0.0684239 -0.81091 1.8827 210 217 236 
-0.0752261 -0.752697 1.84775 43 39 36 
-0.0645129 -0.428268 1.76004 102 98 95 
-0.0779124 -0.369296 1.73572 6 3 0 
-0.0300258 -0.329614 1.72161 104 100 97 
-0.0396086 -0.153267 1.65471 99 95 92 
-0.168124 -0.0793448 1.64425 98 97 93 
-0.130992 -0.0746047 1.63754 33 30 25 
-0.208831 0.0261152 1.64957 12 11 9 
-0.189116 0.0371091 1.63655 17 15 16 
-0.150728 0.0368852 1.61724 6 2 1 
-0.240205 0.106377 1.6911 1 0 0 
-0.274886 0.113186 1.75192 0 0 0 
-0.117108 0.20775 1.61023 9 7 8 
-0.0836533 0.343584 1.60648 114 106 104 
-0.230119 0.534941 1.63327 8 8 8 
-0.143431 0.617856 1.58164 102 101 99 
-0.191901 0.722046 1.58241 86 85 83 
-0.104425 0.758094 1.52196 72 68 69 
-0.0888812 -0.749044 1.84656 47 45 48 
-0.0638288 -0.266618 1.69688 103 100 93 
-0.0683348 -0.855363 1.88239 27 27 55 
-0.0526137 0.0740186 1.6091 62 60 61 
-0.0207497 -0.446973 1.83292 130 126 125 
-0.111135 -0.356305 1.79576 21 20 16 
0.0391523 -0.289961 1.77558 22 23 18 
0.0521498 -0.247639 1.78902 104 94 95 
-0.118703 -0.23632 1.75352 21 17 14 
-0.107639 -0.214138 1.74074 99 98 94 
-0.0170546 -0.208706 1.7296 79 76 71 
0.0755186 -0.211801 1.80077 98 94 91 
0.088826 -0.189058 1.80378 95 94 92 
-0.142365 -0.18506 1.73764 33 29 26 
0.0224212 -0.179398 1.7496 94 93 91 
-0.0208673 -0.169766 1.7157 99 95 92 
-0.0207323 -0.158342 1.70977 23 19 16 
-0.0333513 -0.0707736 1.67711 107 103 100 
-0.134487 -0.0702779 1.68897 113 109 106 
0.0716178 -0.0675998 1.73484 96 95 93 
0.111684 -0.0628612 1.76229 20 16 13 
-0.114152 -0.0621368 1.68436 42 39 30 
0.0249254 -0.0288636 1.67344 90 90 92 
0.0613688 0.00171388 1.69592 84 82 83 
-0.00384944 0.00425232 1.66806 85 84 82 
-0.131269 0.0155068 1.66806 75 75 73 
0.0633501 0.057403 1.69713 59 58 56 
0.00136922 0.065293 1.66883 86 86 86 
0.0353757 0.0753427 1.6804 73 72 70 
-0.0236693 0.0840479 1.66989 70 68 69 
0.0297831 0.083923 1.67328 102 99 94 
-0.111388 0.101949 1.67185 70 68 69 
-0.044767 0.10078 1.66679 67 65 66 
0.0779265 0.128538 1.70407 14 12 13 
-0.129437 0.19679 1.66994 12 10 11 
0.0378696 0.198212 1.67125 10 6 5 
0.13655 0.242478 1.79278 11 7 4 
-0.00227579 0.233881 1.66309 54 52 53 
0.080637 0.249863 1.69598 82 81 79 
0.00692211 0.294523 1.65128 92 91 89 
0.0358213 0.304156 1.66226 20 16 15 
0.0760521 0.406487 1.68358 15 9 9 
0.028461 0.435426 1.65221 97 93 92 
-0.145918 0.59571 1.63199 66 65 63 
0.0531263 0.593268 1.6546 85 86 81 
0.0185654 0.594975 1.63564 86 85 81 
-0.129664 0.663929 1.62289 80 78 79 
0.109689 0.677654 1.70178 121 119 120 
0.0105275 0.677762 1.62458 88 86 87 
0.0336055 0.684916 1.63393 89 87 88 
-0.0529783 0.694259 1.60532 86 84 85 
-0.0524671 0.70986 1.60293 84 82 83 
-0.00353139 0.725947 1.61172 73 71 72 
0.0718316 0.755623 1.61267 120 116 105 
0.0105061 0.75324 1.58504 113 112 107 
-0.0409504 0.756492 1.57183 5 4 0 
0.103656 0.766497 1.6353 93 89 86 
0.0865431 0.778739 1.6228 104 105 100 
0.121011 0.792347 1.64823 97 94 87 
0.0993675 0.796595 1.62825 106 105 101 
-0.044464 0.791081 1.56607 91 90 85 
0.0175104 0.792496 1.57879 17 16 14 
0.10823 0.688948 1.68958 107 106 104 
0.0964811 0.707506 1.66824 106 105 103 
-0.0504622 0.752272 1.5742 103 102 100 
-0.0553612 -0.832421 1.95531 150 155 174 
-0.0160431 0.19445 1.66697 75 71 72 
0.0304312 0.278053 1.66066 83 82 80 
-0.00380785 0.735909 1.60905 90 86 87 
0.0218709 -0.254828 1.76406 101 89 89 
-0.065344 -0.869469 1.9594 11 11 45 
0.00305117 -0.494576 1.86392 89 85 82 
0.0121483 -0.381174 1.82269 32 31 29 
-0.0553371 -0.378672 1.79282 43 40 35 
0.0294831 -0.330364 1.76649 99 99 89 
-0.0446857 -0.270091 1.74893 19 18 14 
-0.0926333 -0.268694 1.7577 111 110 108 
