ply                 
format ascii 1.0    
element vertex 1260
property float x    
property float y    
property float z    
property uchar red  
property uchar green
property uchar blue 
end_header          
-0.0975952 -0.786976 1.91846 95 89 103 
-0.0567982 -0.772677 1.88804 32 27 24 
-0.0730062 -0.770488 1.88498 52 51 49 
-0.0474969 -0.77352 1.89533 113 109 106 
-0.0826011 -0.772384 1.89632 29 27 28 
-0.0343132 -0.774062 1.9036 37 33 32 
-0.0825112 -0.718655 1.89348 33 29 26 
-0.0962392 -0.715159 1.92002 214 211 220 
-0.0790301 -0.681944 1.88253 111 108 101 
-0.0518812 -0.683815 1.88656 19 12 6 
-0.100297 -0.68618 1.91367 29 28 36 
-0.0737901 -0.65407 1.87524 46 41 35 
-0.0464489 -0.649661 1.87718 42 37 33 
-0.0881313 -0.63013 1.86808 127 124 119 
-0.0715081 -0.627527 1.86408 108 104 101 
-0.11253 -0.630244 1.89291 100 99 107 
-0.0218069 -0.561866 1.84644 6 4 5 
-0.0423006 -0.551605 1.83783 27 25 26 
-0.0982896 -0.541808 1.82934 16 12 9 
-0.109216 -0.532038 1.83284 105 104 100 
-0.0942912 -0.531572 1.83689 36 35 33 
-0.105163 -0.521019 1.83248 31 27 24 
-0.0599165 -0.514115 1.81931 38 34 31 
-0.0687173 -0.513487 1.8259 29 24 20 
-0.0926471 -0.513288 1.82985 30 27 22 
-0.0384286 -0.508266 1.82304 102 101 97 
-0.113044 -0.508673 1.8331 43 40 35 
-0.01995 -0.507033 1.83664 99 98 96 
-0.0724675 -0.501176 1.81936 37 33 30 
-0.0588094 -0.500649 1.81696 34 31 22 
-0.0626433 -0.49485 1.80713 80 76 73 
0.00142442 -0.50843 1.85275 83 82 80 
-0.150529 -0.515286 1.88956 39 39 51 
-0.0399329 -0.491122 1.81085 36 32 29 
-0.0308965 -0.491649 1.82604 112 108 109 
-0.0632667 -0.487249 1.8159 92 91 89 
-0.0729528 -0.487862 1.81897 114 113 111 
-0.00433835 -0.493625 1.8405 84 80 79 
-0.0992733 -0.48795 1.82031 111 107 104 
-0.0153681 -0.490182 1.831 22 18 17 
-0.0543793 -0.475462 1.81417 131 128 123 
-0.000915 -0.481168 1.84064 17 13 10 
-0.022768 -0.473185 1.81969 135 131 128 
-0.0103709 -0.478271 1.83548 16 12 9 
-0.155501 -0.487811 1.88383 37 33 32 
-0.067787 -0.464809 1.80395 95 93 94 
-0.0166062 -0.462325 1.81664 113 109 106 
-0.0931703 -0.454802 1.80956 86 85 81 
-0.029656 -0.453075 1.80874 89 85 82 
-0.128484 -0.455288 1.82163 9 10 5 
-0.0483647 -0.449795 1.8022 103 100 95 
-0.0765904 -0.446487 1.80329 76 76 74 
-0.00397948 -0.448956 1.82275 118 114 111 
-0.0346487 -0.441529 1.80095 47 44 37 
-0.00150375 -0.448533 1.83391 119 115 112 
-0.0979727 -0.434093 1.80114 15 11 8 
-0.148479 -0.441638 1.83544 90 86 85 
-0.00562662 -0.436117 1.81531 88 87 83 
-0.114296 -0.432978 1.80542 20 16 13 
-0.052503 -0.429918 1.7919 104 100 97 
-0.0169396 -0.431359 1.81194 111 110 106 
-0.119445 -0.430817 1.81581 69 64 58 
-0.145901 -0.432576 1.82927 27 23 20 
-0.127127 -0.425888 1.80414 48 46 34 
0.0214898 -0.433333 1.83762 102 98 97 
-0.113602 -0.421795 1.79665 44 41 36 
0.00175492 -0.42701 1.82332 127 123 122 
-0.0703803 -0.416458 1.79626 35 34 30 
-0.134801 -0.418973 1.81253 53 49 40 
-0.0529078 -0.411657 1.78739 29 24 20 
-0.0101619 -0.414432 1.80618 130 129 125 
-0.0829771 -0.409677 1.79178 100 96 93 
-0.113765 -0.40531 1.79126 31 28 21 
0.0287483 -0.416619 1.83935 75 71 72 
-0.100108 -0.401571 1.79005 46 43 38 
0.00685071 -0.407988 1.81714 124 123 121 
-0.143367 -0.408979 1.82439 18 13 10 
-0.0340978 -0.399573 1.78559 29 30 25 
-0.0143543 -0.398311 1.79245 106 105 103 
-0.0546286 -0.393015 1.77315 43 36 30 
-0.144497 -0.399092 1.80459 35 30 27 
-0.0744473 -0.394544 1.7872 18 15 8 
-0.122807 -0.39394 1.79431 121 116 113 
-0.063802 -0.391274 1.78208 100 97 92 
-0.173553 -0.405833 1.85597 77 74 67 
0.0190162 -0.400007 1.82381 102 101 99 
-0.158354 -0.401532 1.838 21 17 14 
-0.0245126 -0.387862 1.78572 17 12 9 
-0.0563163 -0.381726 1.7692 115 111 102 
0.00209808 -0.386785 1.80155 122 118 117 
-0.133154 -0.381638 1.78518 42 37 33 
-0.0435756 -0.379584 1.77351 110 107 100 
-0.0872717 -0.380211 1.78861 121 117 114 
-0.0227713 -0.373589 1.77572 42 38 35 
0.0287676 -0.383741 1.82394 22 23 18 
0.0218032 -0.381303 1.81459 94 93 91 
-0.147514 -0.377004 1.80333 17 14 9 
-0.0427724 -0.367239 1.76825 27 24 19 
-0.067931 -0.367302 1.77424 34 33 28 
-0.00121156 -0.371453 1.7922 18 14 11 
-0.105384 -0.368777 1.78195 41 38 31 
0.0188894 -0.370842 1.80623 127 126 122 
-0.186058 -0.379992 1.85967 30 26 23 
0.0141235 -0.365651 1.79669 40 36 37 
-0.0132459 -0.359185 1.77733 112 111 109 
-0.0265344 -0.357748 1.77322 18 13 7 
-0.180006 -0.373653 1.85221 117 112 109 
-0.06421 -0.353453 1.76807 49 47 35 
-0.151005 -0.358515 1.79511 110 107 102 
-0.139677 -0.355555 1.78241 24 20 11 
-0.176699 -0.36525 1.83602 24 20 19 
-0.152171 -0.345762 1.7841 26 21 17 
-0.00266441 -0.345659 1.78354 105 104 102 
-0.0442549 -0.338687 1.75547 51 48 41 
-0.0227523 -0.34067 1.76723 116 115 111 
-0.0628945 -0.336224 1.76121 133 130 123 
-0.0141599 -0.335399 1.76497 82 81 79 
-0.108337 -0.33423 1.76211 130 129 125 
-0.133511 -0.334987 1.77312 33 29 26 
-0.0295512 -0.33003 1.75846 95 91 90 
-0.0480572 -0.327492 1.75253 43 40 35 
-0.141117 -0.32786 1.76451 29 26 21 
-0.0189874 -0.325183 1.75997 96 95 91 
-0.122355 -0.322584 1.76497 107 106 104 
-0.212334 -0.330122 1.80512 53 51 62 
-0.187966 -0.324308 1.77781 50 49 45 
-0.0440935 -0.317776 1.75168 50 47 38 
-0.107274 -0.319531 1.76659 99 98 96 
-0.0351199 -0.313239 1.74629 34 31 24 
-0.221963 -0.324695 1.81777 28 30 43 
-0.159345 -0.314362 1.78043 63 62 60 
-0.0722571 -0.308998 1.75023 28 25 18 
-0.204672 -0.314788 1.79123 21 18 11 
-0.0214706 -0.307697 1.75511 80 79 77 
-0.124872 -0.30832 1.7636 40 39 35 
-0.0864896 -0.305521 1.75013 21 18 9 
0.0224957 -0.302451 1.74324 34 34 24 
-0.120947 -0.301288 1.75479 100 95 92 
-0.194485 -0.302818 1.78308 110 110 100 
-0.0193928 -0.296934 1.74908 69 68 66 
-0.0721809 -0.295564 1.75171 41 36 30 
-0.137655 -0.296959 1.76154 95 94 90 
0.044092 -0.297763 1.76304 86 85 80 
-0.125305 -0.290063 1.74929 114 113 109 
0.0293957 -0.290696 1.75219 6 5 3 
0.0226213 -0.287164 1.74311 35 33 34 
-0.0438315 -0.285224 1.7406 28 25 20 
-0.0617724 -0.280737 1.73752 30 27 20 
-0.0856862 -0.279315 1.74652 24 21 16 
-0.0244646 -0.2782 1.74018 68 67 62 
0.047069 -0.281773 1.76041 100 100 98 
-0.194892 -0.284107 1.77809 14 10 7 
-0.0363525 -0.275167 1.73145 19 16 11 
-0.102462 -0.270821 1.74311 82 83 78 
-0.0596243 -0.268857 1.73933 47 42 38 
-0.232464 -0.279654 1.82927 203 207 218 
-0.0731059 -0.264408 1.73603 27 24 19 
0.0286985 -0.265662 1.74932 82 81 79 
-0.0533592 -0.260241 1.73469 20 16 13 
-0.133601 -0.261168 1.74401 33 32 27 
-0.118859 -0.260692 1.74385 112 111 106 
-0.172697 -0.259889 1.74359 15 14 12 
-0.108244 -0.259271 1.7399 7 6 1 
-0.149003 -0.259636 1.75281 92 88 85 
-0.00982073 -0.257075 1.73782 63 62 58 
-0.203368 -0.263951 1.79187 18 10 7 
-0.179378 -0.257373 1.75362 117 116 112 
0.0420752 -0.257667 1.76082 97 87 86 
-0.209856 -0.263904 1.80554 93 85 82 
0.0285253 -0.246635 1.75107 28 14 13 
-0.136829 -0.245262 1.74578 25 21 18 
-0.0204005 -0.24244 1.72568 96 95 93 
-0.0649898 -0.238698 1.72604 96 91 88 
0.0190468 -0.241029 1.74266 59 45 45 
-0.219824 -0.249233 1.81645 31 19 21 
-0.0398075 -0.233335 1.72091 99 96 91 
-0.150356 -0.233484 1.73859 36 35 30 
-0.13506 -0.232217 1.736 88 87 83 
-0.0877354 -0.231317 1.72929 97 96 92 
-0.0509389 -0.228012 1.72282 86 82 81 
0.049423 -0.232993 1.7673 99 91 89 
0.0192443 -0.230308 1.75156 40 26 23 
0.0158104 -0.227526 1.74097 113 100 94 
-0.0235018 -0.223752 1.71735 14 9 6 
-0.0106957 -0.222458 1.71933 102 101 97 
-0.112262 -0.222072 1.72432 68 69 64 
0.0269887 -0.221548 1.74556 115 101 101 
-0.0903129 -0.217426 1.72478 25 24 22 
-0.159351 -0.217912 1.7358 91 88 81 
-0.0450944 -0.214174 1.72032 41 38 33 
-0.146124 -0.214161 1.72905 83 82 80 
0.0369572 -0.215526 1.75693 111 100 98 
-0.0076193 -0.210504 1.72227 83 78 74 
-0.0980533 -0.207578 1.72391 44 43 39 
-0.0462049 -0.203253 1.70969 111 108 103 
-0.0869923 -0.20177 1.71986 108 107 105 
-0.159287 -0.202919 1.73395 23 20 15 
-0.139235 -0.197087 1.72209 2 1 0 
-0.109313 -0.196661 1.72326 79 75 74 
0.0543259 -0.20094 1.76253 53 52 48 
0.0652909 -0.201954 1.78024 94 93 89 
-0.0181264 -0.191814 1.70521 23 19 16 
-0.16393 -0.193894 1.72983 133 127 127 
-0.0918911 -0.192018 1.71348 4 0 0 
-0.201941 -0.199254 1.78121 26 25 23 
0.0317688 -0.195191 1.74328 86 84 85 
-0.15377 -0.191654 1.73349 85 84 82 
0.0211706 -0.188924 1.73523 98 97 93 
-0.216013 -0.195269 1.80154 10 10 8 
-0.109135 -0.184568 1.71266 83 82 80 
-0.00272392 -0.183699 1.71318 117 113 110 
-0.018794 -0.181146 1.70189 95 94 90 
-0.1857 -0.181111 1.75856 103 102 100 
-0.0730385 -0.174252 1.70325 23 19 18 
-0.0466368 -0.173859 1.70265 25 21 18 
0.0348974 -0.176215 1.73765 73 72 70 
-0.248913 -0.185915 1.85113 105 105 107 
-0.23334 -0.18126 1.81815 116 115 113 
0.0037412 -0.166256 1.71235 101 97 96 
-0.0499885 -0.163153 1.6999 89 86 81 
-0.113256 -0.162973 1.71032 80 79 77 
-0.215526 -0.169327 1.78699 89 88 83 
0.0465762 -0.165531 1.74729 100 99 97 
0.0615764 -0.164486 1.75469 93 92 90 
-0.00365625 -0.156131 1.70296 80 79 75 
-0.034432 -0.15178 1.69136 53 50 45 
-0.153687 -0.153504 1.71613 104 103 101 
-0.0744926 -0.152073 1.70198 38 37 35 
0.0760466 -0.158885 1.76818 127 126 122 
-0.213063 -0.158472 1.77269 15 14 12 
0.0151889 -0.152211 1.72057 87 86 84 
0.00801973 -0.147739 1.71046 77 77 69 
-0.183188 -0.146913 1.72853 118 118 116 
-0.0316567 -0.1416 1.68616 114 109 103 
0.075072 -0.148928 1.76427 144 144 142 
-0.0133361 -0.140929 1.69412 17 16 12 
-0.163183 -0.142757 1.7153 23 22 20 
-0.0882754 -0.140928 1.70108 23 22 20 
-0.152419 -0.139872 1.70923 101 100 98 
-0.263003 -0.149628 1.84388 171 171 181 
0.0263374 -0.13919 1.72318 6 5 3 
0.0655531 -0.141141 1.75136 17 15 16 
-0.141256 -0.136643 1.70766 41 40 38 
-0.165429 -0.133832 1.70313 98 97 95 
0.0877618 -0.135319 1.76013 100 99 95 
-0.234621 -0.136402 1.79723 27 25 26 
-0.0210441 -0.126939 1.68428 41 40 35 
0.0149036 -0.128916 1.71096 105 103 104 
-0.0422888 -0.125397 1.68679 3 2 0 
-0.0544177 -0.125878 1.68944 2 1 0 
0.0333767 -0.128278 1.72251 89 88 86 
-0.142193 -0.125254 1.70532 19 18 16 
-0.187671 -0.122212 1.72241 94 93 91 
-0.154896 -0.119426 1.70803 23 22 20 
-0.00964555 -0.117528 1.68428 91 90 85 
0.0967943 -0.121701 1.76743 89 87 88 
0.0365952 -0.115821 1.71872 29 25 24 
-0.0400338 -0.11241 1.68187 23 22 18 
-0.0567506 -0.110226 1.6725 110 108 109 
0.0796713 -0.116486 1.75552 93 92 90 
-0.151771 -0.111107 1.69862 5 4 2 
0.0249184 -0.112799 1.71463 30 29 25 
-0.00122978 -0.10866 1.68806 108 106 107 
-0.0085339 -0.102669 1.67827 28 26 27 
-0.274958 -0.112928 1.84601 55 53 66 
-0.127377 -0.101778 1.69321 109 108 106 
-0.189022 -0.102426 1.714 16 16 16 
-0.175145 -0.101228 1.6997 114 113 111 
-0.0199638 -0.0982491 1.68129 136 134 135 
0.058352 -0.101043 1.73528 111 110 108 
-0.147577 -0.0979135 1.70153 29 24 21 
-0.000588459 -0.0964345 1.68117 88 86 87 
0.0911545 -0.102234 1.75899 105 104 102 
-0.102328 -0.09531 1.68041 122 122 122 
-0.245375 -0.100263 1.79426 15 14 12 
0.0206857 -0.0944976 1.70104 84 82 83 
-0.167659 -0.0928721 1.68812 64 60 57 
0.0414285 -0.0935013 1.71916 38 37 35 
-0.0256303 -0.0898894 1.67066 5 4 2 
-0.0629064 -0.0892632 1.67084 10 8 9 
-0.0621051 -0.0899696 1.68242 2 0 3 
-0.0398276 -0.0877454 1.66786 74 70 67 
-0.00154973 -0.0835959 1.67277 15 14 12 
0.0747978 -0.0862113 1.73704 20 18 19 
-0.0808098 -0.0821155 1.66989 43 38 35 
0.0730283 -0.0856221 1.72545 34 32 33 
0.0338625 -0.0815528 1.69288 97 96 92 
-0.0974017 -0.0804428 1.67018 26 27 22 
-0.191333 -0.0813912 1.70327 28 26 27 
-0.137709 -0.0781939 1.67964 18 15 10 
0.0584675 -0.0793316 1.71705 19 18 16 
-0.0544967 -0.0757551 1.66586 10 7 0 
0.110416 -0.0786189 1.76139 59 56 51 
0.0930573 -0.0769907 1.74337 101 101 101 
-0.115772 -0.0709319 1.67385 22 19 12 
-0.159439 -0.0704506 1.67791 96 95 93 
0.0405356 -0.0714882 1.69652 108 107 105 
-0.102916 -0.0681117 1.67402 11 10 6 
0.0157142 -0.0669471 1.67163 93 92 88 
0.00682863 -0.06566 1.66533 29 28 26 
-0.254856 -0.0696035 1.78463 92 92 90 
-0.0280003 -0.0639594 1.6505 130 126 125 
-0.126286 -0.0609465 1.6729 21 17 16 
-0.0461519 -0.0607825 1.66078 110 107 102 
-0.0883653 -0.0583861 1.66325 9 4 0 
-0.243109 -0.060705 1.76185 31 28 21 
-0.139074 -0.0549203 1.66597 121 120 116 
0.0549732 -0.0548923 1.69691 105 105 103 
0.0774969 -0.0503074 1.71284 14 13 11 
-0.0977842 -0.0471797 1.66056 20 20 10 
0.0232686 -0.047612 1.66853 39 38 33 
-0.117505 -0.0460213 1.65978 31 32 24 
-0.149771 -0.0451916 1.67132 102 98 97 
0.0593986 -0.046201 1.70157 15 15 15 
0.040051 -0.044798 1.67271 42 41 39 
0.0980124 -0.0449313 1.71915 1 0 0 
0.106814 -0.0455603 1.72924 28 27 23 
-0.235542 -0.0448299 1.74015 38 33 27 
-0.0896263 -0.0408689 1.65343 26 23 14 
-0.280069 -0.0413644 1.80093 17 13 10 
-0.133594 -0.0355223 1.65746 40 37 32 
-0.0908359 -0.0305747 1.64419 37 33 21 
-0.0613209 -0.0308084 1.6473 45 41 30 
-0.231647 -0.0307113 1.7166 115 114 110 
0.00743064 -0.0283082 1.65041 104 103 101 
0.0430736 -0.0283385 1.66339 111 110 106 
0.0902642 -0.0283233 1.70543 17 16 12 
0.0662104 -0.0255116 1.68258 21 21 9 
-0.263476 -0.025417 1.74786 35 32 25 
-0.105931 -0.0173785 1.64256 117 113 110 
-0.0113979 -0.0144558 1.6388 113 112 108 
-0.191212 -0.0140203 1.66816 59 58 54 
-0.228296 -0.0124796 1.70136 120 119 117 
0.072453 -0.0120482 1.68002 80 79 77 
-0.211665 -0.0106106 1.68979 24 20 17 
0.114625 0.00208068 1.72906 90 89 87 
-0.154465 0.00443284 1.65818 18 17 13 
-0.0250497 0.00428648 1.64452 101 99 100 
-0.180738 0.00500585 1.67299 101 100 96 
0.0759909 0.0064762 1.68543 8 7 5 
-0.236884 0.00660547 1.7198 105 104 102 
0.0895223 0.00656134 1.70375 4 2 3 
0.143719 0.00704884 1.7821 12 10 11 
0.127344 0.009465 1.74355 1 0 0 
0.136732 0.0115129 1.76702 93 91 92 
0.0325653 0.014171 1.66191 3 2 0 
-0.212477 0.014652 1.69202 97 96 94 
0.0724287 0.0151236 1.69181 1 0 2 
0.106958 0.0153642 1.7209 105 105 105 
-0.238863 0.017396 1.72095 94 93 89 
0.0944087 0.0198791 1.70708 33 33 33 
0.130915 0.0215319 1.75479 110 108 109 
-0.0277144 0.022073 1.64817 20 16 15 
-0.0983476 0.0247057 1.64868 85 83 84 
-0.00378292 0.0245191 1.64554 11 9 10 
0.0691312 0.0269369 1.68532 3 1 2 
0.0314752 0.033583 1.66228 7 6 4 
-0.110071 0.0346653 1.64828 71 71 71 
0.0586517 0.0351527 1.67615 8 4 3 
-0.0478264 0.0356545 1.64516 90 89 87 
-0.138901 0.0369855 1.65606 2 0 1 
0.0775413 0.0374806 1.69179 77 77 77 
-0.273871 0.0411624 1.77454 21 19 22 
-0.149177 0.038082 1.66065 73 69 66 
0.0482499 0.0392968 1.66651 82 80 81 
0.105576 0.0409136 1.71996 107 106 102 
0.0925531 0.0408942 1.70403 91 90 86 
0.123746 0.0431522 1.74357 11 7 8 
-0.23894 0.0432678 1.7156 99 97 98 
-0.204721 0.0440636 1.69163 11 9 10 
-0.159822 0.0432789 1.66191 6 5 3 
-0.130163 0.0456334 1.65013 88 86 87 
-0.0125337 0.047147 1.64798 83 81 82 
1.02446e-05 0.0496148 1.65048 124 123 121 
0.0680332 0.0511812 1.68533 79 78 76 
-0.032838 0.0536291 1.64759 50 46 47 
-0.0527387 0.0556009 1.64336 63 59 58 
-0.187828 0.0574968 1.67928 58 57 53 
0.024102 0.0590847 1.65866 90 89 87 
0.0512797 0.0610634 1.66666 93 92 90 
0.087611 0.0634878 1.69245 94 93 91 
0.103395 0.0707441 1.7101 100 99 97 
-0.0434041 0.0742143 1.64628 65 65 65 
-0.161291 0.0778613 1.67294 80 80 78 
0.109377 0.0804644 1.72578 89 89 87 
-0.235002 0.0828995 1.73037 88 87 85 
0.0501835 0.0809202 1.65911 0 0 0 
0.0924044 0.0835994 1.70065 83 82 80 
0.0082259 0.0835132 1.64792 118 114 111 
0.061338 0.085901 1.67604 77 76 74 
-0.00515678 0.0885315 1.65541 69 67 68 
0.0803355 0.0932174 1.6886 87 86 84 
-0.25233 0.0993621 1.75623 6 4 5 
0.0171366 0.0945203 1.65097 83 82 78 
0.0507431 0.0968305 1.66853 74 74 76 
0.0737603 0.0998468 1.68129 26 25 21 
0.107979 0.102681 1.71492 13 9 10 
0.0316588 0.0996505 1.65616 114 113 111 
0.0592201 0.102192 1.67341 97 97 95 
-0.24606 0.108158 1.73957 83 83 83 
-0.0572479 0.102237 1.65113 90 88 89 
-0.227476 0.110009 1.72641 8 4 5 
0.0735755 0.108758 1.68757 95 94 92 
0.0411458 0.108161 1.66575 8 7 5 
0.0948769 0.110329 1.69713 15 15 13 
-0.239334 0.115731 1.73125 10 10 10 
-0.179645 0.113529 1.68591 1 0 0 
0.0699283 0.114554 1.67896 92 88 89 
-0.0701881 0.112291 1.64609 86 86 86 
-0.124549 0.117739 1.6611 78 78 78 
-0.220307 0.121674 1.71062 68 66 67 
-0.233906 0.122824 1.72616 106 106 106 
0.11457 0.132573 1.72416 89 83 83 
-0.189964 0.129041 1.68099 10 8 9 
0.0480605 0.127855 1.66283 82 81 79 
0.0868854 0.133969 1.69506 101 99 100 
-0.156004 0.132565 1.66729 3 3 3 
0.0411992 0.135572 1.65859 80 79 77 
0.10058 0.141091 1.70967 27 25 26 
-0.00060382 0.136368 1.64211 29 27 28 
0.0658304 0.139038 1.67862 5 5 3 
-0.180119 0.143798 1.67927 75 74 72 
-0.129948 0.142622 1.6568 69 68 66 
-0.229108 0.148947 1.7218 105 104 102 
0.0493993 0.146697 1.66836 85 84 82 
0.0789447 0.148319 1.67925 87 86 82 
0.014169 0.147195 1.64761 68 67 65 
0.0644552 0.151233 1.67598 91 90 88 
-0.0695041 0.149406 1.64787 3 0 0 
-0.24069 0.157595 1.73299 7 5 6 
0.00888375 0.154237 1.64028 110 109 107 
-0.248606 0.168992 1.74529 32 31 29 
-0.074203 0.160018 1.6458 81 80 78 
0.114852 0.170957 1.72043 42 41 39 
0.121883 0.180078 1.73102 84 80 81 
-0.0941944 0.171038 1.64814 72 70 73 
-0.205763 0.178853 1.69892 18 17 15 
0.0950851 0.179265 1.69758 31 30 28 
0.0792147 0.179488 1.68127 85 84 82 
0.0501379 0.177986 1.65927 85 84 82 
-0.155322 0.183723 1.66214 76 74 77 
-0.180607 0.195363 1.68067 16 12 11 
0.088168 0.197203 1.68586 80 79 77 
-0.240001 0.202092 1.71712 4 0 0 
-0.171595 0.19662 1.66784 8 4 1 
-0.0048765 0.194777 1.64781 1 0 0 
-0.202508 0.205633 1.68377 14 12 13 
0.111865 0.214681 1.71465 15 14 10 
-0.204038 0.220954 1.69099 17 13 14 
0.0762314 0.2214 1.67834 83 79 78 
-0.246403 0.231009 1.73174 3 0 0 
-0.189492 0.22396 1.68301 8 8 8 
-0.25423 0.234343 1.74039 4 0 0 
0.00112765 0.223292 1.63774 91 90 88 
0.106034 0.235062 1.70909 38 37 35 
0.0887741 0.235366 1.68766 1 0 0 
-0.27109 0.247872 1.77447 93 92 90 
-0.230312 0.241812 1.71323 76 75 73 
0.100168 0.243853 1.70249 89 88 86 
-0.018194 0.238735 1.64294 82 80 81 
-0.00169051 0.23979 1.6324 85 84 80 
-0.133647 0.247659 1.65232 70 69 67 
0.0333518 0.246861 1.64423 72 71 69 
-0.0499778 0.247339 1.63697 73 73 73 
0.0518713 0.25674 1.65827 84 83 81 
0.104272 0.26627 1.70589 30 29 25 
-0.18441 0.262814 1.67382 1 0 2 
-0.167616 0.26168 1.66317 6 4 5 
0.0453595 0.264217 1.65295 66 65 63 
-0.177101 0.267438 1.66613 3 3 3 
0.0947039 0.273604 1.68847 83 82 78 
0.079602 0.2788 1.67616 86 84 85 
-0.148969 0.274433 1.65202 87 87 89 
0.0473401 0.275423 1.6499 109 109 107 
0.0901117 0.280756 1.67973 88 87 83 
-0.0602259 0.274183 1.63319 2 0 1 
-0.167854 0.28107 1.66081 12 11 9 
0.111316 0.291312 1.70574 31 30 26 
-0.210162 0.291698 1.69157 7 6 4 
-0.00270117 0.281897 1.63254 9 8 6 
0.0280361 0.284024 1.63629 14 13 11 
-0.237005 0.298769 1.7163 78 76 79 
0.0871237 0.292995 1.68173 93 92 88 
-0.156253 0.292041 1.65027 86 84 85 
0.0160349 0.291691 1.64216 5 3 6 
0.0974589 0.301847 1.69308 24 20 17 
0.0522356 0.297265 1.64478 1 0 0 
0.0263823 0.299718 1.63622 11 10 8 
-0.21514 0.319544 1.69261 7 3 0 
-0.202452 0.319819 1.68266 67 65 66 
-0.0574571 0.309802 1.63004 14 13 11 
-0.130555 0.313273 1.6435 4 3 0 
0.0523611 0.317118 1.65047 5 4 2 
-0.144986 0.315806 1.64074 0 1 0 
-0.0401051 0.314802 1.63152 66 66 66 
-0.273736 0.346144 1.77024 64 62 63 
0.0511944 0.328629 1.6477 67 66 64 
-0.131677 0.329121 1.63775 3 0 0 
0.103352 0.351101 1.6929 53 49 46 
0.071262 0.345625 1.6668 10 9 7 
-0.218258 0.350485 1.68899 66 65 63 
-0.0394735 0.338788 1.6317 9 8 6 
0.0945912 0.354909 1.67949 101 97 94 
-0.25965 0.374963 1.74949 99 98 96 
0.0330529 0.349117 1.63158 12 11 9 
0.0670205 0.360017 1.65835 4 3 1 
-0.155792 0.359397 1.64278 4 0 0 
0.0406111 0.368653 1.6427 0 1 0 
0.08753 0.376956 1.67544 96 92 89 
0.0982849 0.387128 1.68671 6 2 1 
0.113359 0.393818 1.70346 29 26 21 
-0.032151 0.376784 1.62672 70 68 69 
0.0529354 0.392792 1.64472 13 12 8 
0.0954769 0.40868 1.67822 19 18 16 
-0.03503 0.400114 1.62696 69 68 66 
0.00666285 0.398339 1.62097 86 82 81 
-0.0242041 0.408306 1.61941 81 77 78 
0.0698159 0.420371 1.65392 95 94 90 
-0.20052 0.427034 1.66542 86 85 83 
0.0846983 0.431556 1.67131 19 18 16 
-0.0966813 0.428006 1.62278 81 80 78 
0.0320218 0.443765 1.634 78 77 75 
0.0899969 0.456491 1.67265 121 117 114 
0.0639361 0.467117 1.64827 20 19 17 
0.0850485 0.47886 1.66586 114 110 107 
0.0983334 0.486161 1.68186 14 15 9 
0.0439378 0.478376 1.63031 97 96 91 
-0.0554212 0.479849 1.617 3 1 2 
0.0224264 0.484727 1.62168 96 95 91 
-0.120036 0.490064 1.61703 79 75 74 
-0.00433428 0.492177 1.6146 62 61 59 
0.0363575 0.500866 1.62587 12 11 9 
0.0402184 0.513302 1.62992 73 69 66 
-0.0902504 0.514414 1.61488 68 67 65 
-0.270365 0.554141 1.71884 1 0 0 
0.0345748 0.526942 1.62732 24 23 19 
-0.276162 0.563413 1.72656 12 14 13 
-0.246905 0.552087 1.68411 111 107 106 
-0.0462267 0.53294 1.61182 102 101 99 
-0.211509 0.54857 1.65483 3 3 3 
-0.26774 0.575003 1.72704 98 98 98 
-0.271601 0.583892 1.73693 78 77 82 
0.00252999 0.541811 1.61052 77 76 74 
-0.0349243 0.547061 1.61278 3 2 0 
-0.242734 0.575188 1.69148 101 100 116 
-0.268119 0.589941 1.72487 23 22 30 
-0.284345 0.597368 1.74189 96 95 93 
-0.270888 0.596241 1.73705 88 85 92 
0.0935047 0.572913 1.67159 84 80 79 
0.349805 0.834398 2.39035 77 78 64 
-0.00572166 0.553882 1.61745 66 65 63 
0.33529 0.841549 2.39167 59 58 53 
0.0543338 0.565426 1.63627 96 95 93 
-0.0585346 0.554998 1.60499 105 103 104 
-0.0284774 0.558239 1.60069 85 83 84 
-0.198998 0.574551 1.64237 84 82 83 
-0.0430036 0.56182 1.60761 73 72 70 
-0.265258 0.611962 1.7232 80 80 82 
-0.276369 0.620225 1.73935 57 56 54 
-0.253274 0.609807 1.70678 105 105 107 
-0.220042 0.593668 1.65385 98 100 97 
-0.20243 0.5859 1.6345 105 104 102 
-0.00566112 0.576612 1.60619 74 72 75 
-0.264086 0.622918 1.72316 116 116 116 
-0.0719817 0.573057 1.59199 82 78 77 
-0.0579754 0.574979 1.59519 73 71 72 
0.0345385 0.583789 1.61826 83 82 80 
-0.275015 0.634377 1.72792 28 5 0 
-0.278741 0.643511 1.73135 145 129 113 
-0.101589 0.590268 1.59555 84 83 81 
-0.087383 0.590937 1.59577 93 92 90 
-0.164737 0.597019 1.60864 82 80 81 
-0.259611 0.646438 1.7148 96 97 91 
-0.263336 0.654032 1.72422 84 83 81 
-0.0965722 0.606057 1.59884 60 59 57 
-0.0738846 0.613202 1.59237 79 77 78 
-0.249869 0.661225 1.70244 0 0 7 
-0.145343 0.627385 1.6019 93 89 88 
-0.0368772 0.625432 1.59541 80 76 75 
-0.0956991 0.626086 1.58928 80 80 78 
-0.264106 0.697023 1.72773 95 93 94 
-0.0461101 0.646017 1.59251 76 74 75 
-0.147073 0.655744 1.60639 88 87 85 
-0.201332 0.668184 1.6276 3 2 0 
-0.107618 0.658229 1.58885 80 79 77 
-0.195581 0.67901 1.61866 90 90 88 
-0.188929 0.675903 1.60833 82 78 77 
-0.0529744 0.664481 1.5826 72 71 69 
0.0528851 0.690339 1.6218 104 103 101 
-0.195078 0.714262 1.61115 106 105 103 
-0.162562 0.720748 1.59038 80 74 74 
-0.135791 0.718116 1.57838 91 90 88 
-0.195722 0.734142 1.6037 105 103 104 
-0.13847 0.733768 1.58676 95 91 88 
-0.161858 0.734961 1.58467 108 104 101 
-0.122856 0.732016 1.57841 86 81 77 
-0.233285 0.743772 1.60091 109 105 96 
-0.220577 0.740482 1.58704 125 122 117 
-0.0863173 0.733444 1.56959 107 104 99 
-0.206676 0.743463 1.58283 10 6 3 
-0.135406 0.738356 1.56088 95 92 87 
-0.147711 0.736537 1.55168 86 82 79 
-0.0686783 0.736666 1.54009 91 90 85 
-0.335629 0.776051 1.61202 78 77 73 
-0.20947 0.762977 1.57875 70 69 67 
-0.057371 0.746418 1.54475 90 86 85 
-0.115908 0.751211 1.54163 97 93 90 
-0.283344 0.763935 1.55236 94 93 89 
-0.187076 0.777513 1.55126 101 98 93 
-0.204856 0.779967 1.54775 12 9 4 
-0.270346 0.779846 1.54152 103 105 94 
-0.232043 0.787567 1.54468 104 104 94 
-0.140858 0.777055 1.52335 10 11 5 
-0.190501 0.792603 1.51946 110 110 98 
-0.198865 0.790437 1.48937 30 26 14 
-0.278961 0.80086 1.49298 37 35 22 
-0.160733 0.797754 1.48574 50 40 30 
-0.255602 0.796673 1.44362 33 29 18 
-0.210047 0.796142 1.41991 31 29 16 
-0.0929 -0.577357 1.84689 21 19 20 
-0.000379091 -0.533751 1.86634 103 101 102 
-0.00912885 -0.424504 1.81224 120 115 112 
-0.193299 -0.258377 1.77037 8 3 0 
-0.097773 -0.179686 1.71314 28 25 20 
-0.0640299 -0.162281 1.7019 98 97 95 
-0.19826 -0.117181 1.73472 22 21 19 
-0.224819 -0.100815 1.76413 103 102 100 
-0.0851271 -0.0948002 1.6846 97 95 96 
-0.0307019 -0.0806101 1.66162 121 120 118 
-0.167367 -0.0806965 1.68607 39 38 34 
-0.0631498 -0.069185 1.65981 81 77 66 
0.10718 -0.0717965 1.74966 138 134 131 
-0.121296 -0.0549439 1.66284 105 101 98 
-0.0795373 -0.046693 1.65538 114 111 106 
-0.114906 -0.0298851 1.64842 35 31 20 
-0.125703 0.024956 1.65363 10 8 9 
-0.112759 0.0246889 1.64346 5 1 2 
0.058958 0.114022 1.67061 79 78 76 
-0.274198 0.131378 1.78959 91 89 92 
-0.0645715 0.22845 1.63452 64 63 61 
0.0886541 0.338509 1.67727 96 92 91 
-0.0639874 0.358778 1.62572 12 11 9 
-0.233511 0.584345 1.66972 4 3 8 
-0.256676 0.752527 1.59961 81 82 68 
-0.407179 0.774918 1.34936 97 94 85 
-0.0584254 -0.824886 1.921 76 80 92 
-0.0703962 -0.817766 1.92086 76 82 98 
-0.0248079 -0.798916 1.90983 45 48 63 
-0.073512 -0.700486 1.88981 118 115 108 
-0.0517145 -0.492598 1.8189 57 54 49 
-0.178419 -0.384715 1.84639 104 100 97 
-0.00513384 -0.34405 1.77227 95 94 90 
-0.0237024 -0.337799 1.75232 114 113 109 
-0.0577814 -0.313354 1.75227 106 105 101 
0.0364463 -0.269394 1.76418 88 84 83 
-0.00512969 -0.260099 1.72064 29 29 21 
-0.0449498 -0.25274 1.72184 28 25 20 
-0.227058 -0.254007 1.82206 111 109 110 
-0.192189 -0.239644 1.78118 95 85 84 
-0.110879 -0.216715 1.73629 91 88 83 
-0.215243 -0.21932 1.82042 97 88 89 
-0.167575 -0.204726 1.74936 105 104 100 
-0.185296 -0.20452 1.77066 96 95 90 
-0.0569404 -0.183397 1.70085 102 98 95 
0.0544407 -0.189061 1.76633 94 93 89 
-0.156322 -0.168189 1.71471 98 97 95 
0.00702221 -0.074571 1.67164 108 107 105 
0.031502 -0.0784607 1.70377 102 98 95 
0.0660741 -0.0346545 1.68945 129 126 117 
0.0458177 0.0151328 1.66397 3 2 0 
0.0952676 0.0169445 1.6938 1 1 1 
-0.195043 0.0187216 1.68276 15 14 12 
-0.0857068 0.0245384 1.64604 2 0 1 
0.0498547 0.0257344 1.67113 2 1 0 
-0.180624 0.0379647 1.6774 3 2 0 
0.0158685 0.0368262 1.64883 10 6 5 
0.00728171 0.242794 1.62866 100 99 95 
0.0267508 0.255324 1.64021 82 81 79 
-0.213338 0.304772 1.69189 90 88 89 
-0.234606 0.366325 1.71456 119 118 116 
0.000883873 0.37113 1.62608 78 77 75 
0.0401612 0.398814 1.63852 10 10 10 
0.0870946 0.49246 1.67636 105 102 93 
0.0537459 0.520163 1.63862 77 70 64 
-0.201173 0.545027 1.64833 73 72 70 
-0.262226 0.603741 1.7126 23 23 25 
0.381625 0.849181 2.3434 76 75 71 
0.0826102 0.59235 1.65555 33 32 30 
-0.247281 0.630606 1.70371 84 85 80 
-0.155691 0.6522 1.60099 84 83 81 
-0.291826 0.710485 1.72646 9 9 1 
0.031904 0.670041 1.6005 30 28 29 
0.127705 0.715001 1.68566 87 86 82 
-0.124547 0.779261 1.5226 103 102 98 
-0.426337 0.76106 1.35201 108 104 101 
-0.121186 -0.616332 1.90062 128 130 142 
-0.0122081 -0.441262 1.82991 110 109 105 
0.00683797 -0.388902 1.81487 120 116 113 
-0.107066 -0.137184 1.69712 97 96 94 
-0.251241 0.0695159 1.74291 70 70 70 
-0.24119 0.206726 1.73299 14 11 6 
-0.116456 0.21385 1.65051 17 16 14 
-0.256579 0.585542 1.72434 0 0 16 
-0.0435592 0.601308 1.58653 61 59 60 
-0.226935 0.783474 1.45967 82 80 67 
-0.0566935 -0.869034 1.92267 189 197 210 
-0.192461 -0.226273 1.77852 50 40 39 
-0.080507 -0.13772 1.69206 106 107 101 
-0.00279072 0.121526 1.64234 72 72 72 
-0.26805 0.56398 1.73571 14 12 15 
-0.063893 -0.876308 1.92265 25 24 56 
-0.0642973 -0.762411 1.88077 24 22 23 
-0.208623 -0.347833 1.80932 56 59 66 
-0.0660999 -0.747396 1.90113 219 218 236 
-0.0765074 -0.617315 1.82458 28 25 20 
-0.0635656 -0.353167 1.73024 8 5 0 
-0.0754714 -0.337882 1.72621 116 113 108 
-0.0859627 -0.329511 1.72629 29 25 22 
-0.0642078 -0.326302 1.72186 33 29 26 
-0.109484 -0.324889 1.72678 68 67 63 
-0.065547 -0.280232 1.70147 10 7 0 
-0.0765673 -0.27402 1.70243 25 22 17 
-0.127615 -0.272761 1.7087 95 91 88 
-0.0446647 -0.198336 1.67253 100 97 92 
-0.143652 -0.168234 1.67379 35 34 30 
-0.136751 -0.148347 1.66734 28 26 27 
-0.032528 -0.115562 1.64154 112 111 107 
-0.11037 -0.109198 1.65151 15 14 12 
-0.0827396 -0.102106 1.64565 13 12 10 
-0.036525 -0.0942783 1.63711 104 103 101 
-0.160353 -0.0635755 1.63237 82 81 79 
-0.060355 0.00467238 1.6071 90 89 87 
-0.113907 0.00495396 1.60856 71 69 72 
-0.152077 0.0150878 1.61828 3 0 0 
-0.13592 0.0255909 1.61398 57 55 56 
-0.170095 0.0358245 1.62416 102 101 99 
-0.137442 0.0974566 1.62207 70 69 67 
-0.179319 0.110062 1.63956 29 27 28 
-0.238738 0.142522 1.68872 7 6 4 
-0.18749 0.146928 1.64117 77 75 76 
-0.224806 0.153451 1.67161 15 14 12 
-0.0571472 0.151962 1.61012 1 0 0 
-0.173455 0.202552 1.62919 3 1 2 
-0.19424 0.224843 1.64088 80 78 79 
-0.228499 0.234365 1.66787 85 83 84 
-0.16586 0.334283 1.61774 5 3 4 
-0.169727 0.526934 1.60904 60 59 57 
-0.177666 0.546827 1.60855 95 95 95 
-0.202687 0.620566 1.60951 73 72 70 
-0.180262 0.636659 1.59365 103 99 98 
-0.184638 0.680702 1.58228 80 79 77 
-0.135837 0.679635 1.56317 70 68 69 
-0.126108 0.723274 1.55626 97 94 89 
-0.0627709 -0.869396 1.90036 216 216 242 
-0.161595 0.72509 1.56593 71 67 64 
-0.063738 -0.818087 1.89513 195 195 221 
-0.0646679 -0.661606 1.84744 29 24 18 
-0.0593346 -0.554523 1.80979 114 110 107 
-0.0398949 -0.390678 1.74847 29 26 21 
-0.0582495 -0.341065 1.73287 43 40 31 
-0.115772 -0.330507 1.7371 11 10 6 
-0.107176 -0.299423 1.72297 117 113 110 
-0.0426956 -0.292986 1.71064 102 99 94 
-0.0312819 -0.255552 1.69779 52 48 45 
-0.142485 -0.255501 1.71271 37 34 29 
-0.0918599 -0.239799 1.70278 15 14 10 
-0.126901 -0.236026 1.7048 13 12 8 
-0.127069 -0.19146 1.68824 84 83 81 
-0.155881 -0.18882 1.69139 90 86 83 
-0.0730173 -0.184133 1.67791 85 82 77 
-0.12021 -0.178334 1.68323 2 0 1 
-0.140223 -0.169239 1.68277 29 26 21 
-0.071555 -0.110052 1.65571 6 5 3 
-0.0664058 -0.102088 1.65044 8 7 5 
-0.14976 -0.0980934 1.66107 25 23 24 
-0.106902 -0.0771153 1.64346 33 32 28 
-0.0491827 -0.047313 1.62017 29 29 21 
-0.14651 -0.0442414 1.63048 102 98 97 
-0.22557 0.00650536 1.67392 1 0 0 
0.012174 0.00983934 1.6249 10 6 7 
-0.179022 0.0255876 1.64066 6 4 5 
-0.230332 0.0273564 1.68063 2 1 0 
-0.241161 0.0386125 1.69324 3 0 0 
0.0373378 0.0481568 1.63533 14 13 9 
-0.113427 0.0682432 1.62551 2 0 3 
-0.151833 0.0841979 1.63749 0 1 3 
-0.0635456 0.0907907 1.62038 86 84 85 
0.0436904 0.0981284 1.63757 99 98 94 
-0.188552 0.141811 1.65193 85 84 82 
-0.104351 0.140237 1.6217 78 78 78 
-0.14656 0.14996 1.62976 67 66 64 
-0.195171 0.178304 1.6544 1 0 0 
-0.0682078 0.211692 1.61272 1 0 0 
-0.028087 0.225306 1.61395 39 39 39 
-0.130751 0.248638 1.61585 81 80 78 
-0.052521 0.287022 1.60493 92 88 89 
0.0391061 0.30566 1.62043 84 83 81 
-0.1414 0.332153 1.61404 6 2 0 
0.0202271 0.332343 1.60897 3 2 0 
-0.214697 0.371386 1.65765 7 6 4 
-0.0865282 0.46921 1.59363 86 85 83 
-0.0677732 0.516 1.59237 86 85 83 
0.514212 0.809328 2.14317 89 89 81 
0.48781 0.82209 2.15765 74 73 69 
-0.0458754 0.597103 1.57484 100 98 99 
0.518841 0.83927 2.12351 66 65 61 
-0.1906 0.62967 1.60498 81 80 76 
0.00671139 0.647073 1.58603 87 86 84 
-0.160157 0.650795 1.58535 86 85 83 
-0.0896735 0.644651 1.57046 96 96 94 
0.593383 0.852971 1.8342 66 65 70 
-0.0048808 0.727114 1.56435 133 130 125 
-0.0145064 0.766496 1.53025 78 78 76 
0.0279198 0.774181 1.53877 118 118 108 
-0.0727025 0.765782 1.52123 93 92 87 
0.00964447 0.782138 1.51274 94 95 87 
-0.093475 0.77427 1.49372 29 30 25 
-0.169673 0.780806 1.50245 10 9 5 
-0.040372 0.790663 1.47692 107 109 98 
-0.0500375 -0.352762 1.73494 109 106 101 
-0.139481 -0.0860309 1.65136 129 126 119 
0.00802621 0.422142 1.59709 84 80 79 
-0.0541253 -0.831101 1.89498 64 74 86 
-0.0821702 -0.256108 1.70242 18 15 10 
-0.281852 0.0737176 1.81562 63 63 61 
-0.13661 0.354728 1.61156 71 70 68 
0.0427086 0.796488 1.50519 91 91 79 
-0.129959 0.783809 1.30586 94 85 76 
-0.0870965 -0.381036 1.74944 39 36 31 
-0.0505122 0.709065 1.55537 87 85 86 
-0.0505071 -0.80143 1.88993 207 212 231 
-0.0833789 -0.858516 1.88654 218 226 245 
-0.0859433 -0.800616 1.7743 98 103 123 
-0.0757234 -0.599099 1.81652 35 34 32 
-0.0919445 -0.556428 1.80165 32 28 25 
-0.110461 -0.49322 1.78309 32 29 24 
-0.146875 -0.452878 1.80413 26 22 23 
-0.123123 -0.357586 1.73591 21 18 13 
-0.134606 -0.346941 1.73331 40 37 30 
-0.099569 -0.34721 1.7307 16 13 8 
-0.081495 -0.31031 1.71283 25 22 13 
0.0617243 -0.275366 1.74055 189 188 194 
-0.18907 -0.235227 1.72202 44 36 33 
-0.101156 -0.226492 1.68693 82 81 79 
-0.0384015 -0.213604 1.6718 84 80 77 
-0.0838962 -0.210124 1.67913 115 114 112 
-0.111159 -0.190371 1.67374 91 87 88 
-0.044892 -0.186554 1.66739 79 75 72 
-0.173031 -0.186382 1.69257 80 75 72 
-0.141869 -0.183166 1.67386 58 54 51 
-0.150223 -0.175327 1.67224 87 83 82 
-0.192225 -0.172312 1.70686 37 36 32 
-0.0244896 -0.163315 1.65641 94 90 87 
-0.0717879 -0.150301 1.65513 6 5 3 
-0.154176 -0.148535 1.66446 121 117 116 
-0.242925 -0.126509 1.7509 1 0 0 
-0.166362 -0.11516 1.65675 25 21 18 
-0.246839 -0.110157 1.74811 122 121 119 
0.0748745 -0.0941976 1.70548 101 99 100 
-0.0934778 -0.0746776 1.62211 114 113 109 
-0.0814478 -0.0703633 1.62443 43 40 31 
-0.210462 -0.062599 1.66518 21 18 11 
-0.0489107 -0.0606418 1.61569 53 50 45 
-0.0939298 -0.0528337 1.61708 97 93 90 
-0.142835 -0.0287583 1.60955 23 22 18 
-0.0217574 -0.0286806 1.6023 124 123 121 
-0.0837397 0.02315 1.60132 17 16 14 
-0.214279 0.0315639 1.64961 105 104 102 
-0.0251917 0.0354219 1.60412 111 109 110 
-0.0770209 0.0461183 1.6007 78 77 75 
-0.0237815 0.0474098 1.60694 13 11 12 
0.00485387 0.0482355 1.61203 94 92 93 
-0.187605 0.0812554 1.64178 79 77 78 
-0.125969 0.113885 1.61199 77 77 77 
0.00749967 0.132166 1.60969 13 12 10 
-0.213249 0.141228 1.65859 1 0 0 
0.0298696 0.152955 1.61735 15 13 14 
-0.0665359 0.177422 1.6021 84 83 81 
-0.247997 0.200721 1.68718 14 11 6 
-0.200988 0.209909 1.64214 86 84 85 
-0.217765 0.224395 1.6597 2 1 0 
-0.211919 0.226546 1.65199 93 92 90 
-0.185587 0.383793 1.62249 73 72 70 
-0.107096 0.409887 1.59149 80 78 79 
0.0551942 0.427106 1.6173 2 1 0 
-0.54652 0.841714 3.0227 69 70 65 
-0.227855 0.44104 1.6522 62 62 62 
0.00490711 0.431531 1.5893 83 81 82 
-0.200597 0.458311 1.62794 13 12 10 
-0.210317 0.533229 1.61301 17 17 15 
-0.259766 0.564452 1.67977 2 1 15 
-0.244372 0.577191 1.65971 0 2 11 
-0.148082 0.558349 1.58359 84 83 81 
-0.0878841 0.557623 1.57378 97 95 96 
-0.239543 0.58572 1.64977 2 0 3 
0.503045 0.800377 2.12318 87 86 81 
-0.248809 0.611304 1.66458 64 63 61 
-0.257017 0.628013 1.6751 105 105 103 
-0.279496 0.655869 1.68814 100 99 97 
-0.212246 0.726413 1.58903 9 5 2 
-0.117063 0.738662 1.52451 117 113 110 
-0.208995 0.786115 1.40148 103 99 88 
-0.138571 0.785734 1.3698 121 111 101 
-0.0613877 0.193969 1.6027 88 87 85 
-0.294055 0.775401 1.52203 94 91 86 
-0.0569238 -0.461348 1.76492 122 118 115 
-0.123527 -0.0681892 1.6275 122 119 114 
-0.0124719 0.0939229 1.61611 72 72 72 
-0.267451 0.621778 1.68629 110 88 38 
-0.179272 0.691821 1.57287 64 63 61 
-0.0318065 0.721568 1.55226 91 90 88 
-0.342716 0.759779 1.59797 68 64 63 
-0.255416 0.751693 1.54615 16 17 9 
-0.0343732 -0.240564 1.68209 99 95 92 
-0.0802717 -0.8582 1.89056 186 181 211 
-0.0511302 -0.858467 1.88648 78 85 103 
-0.059707 -0.844555 1.88705 100 105 124 
-0.0585625 -0.756192 1.84984 45 44 42 
-0.08539 -0.683237 1.84893 127 124 119 
-0.0738325 -0.683046 1.84589 97 94 85 
-0.0758513 -0.61785 1.82575 40 36 33 
-0.0986963 -0.595543 1.82065 47 42 38 
-0.0615261 -0.523153 1.79368 18 17 15 
-0.0958192 -0.517167 1.79212 37 33 32 
-0.125984 -0.508043 1.81058 29 28 26 
-0.056161 -0.504311 1.78495 30 26 23 
-0.0980327 -0.493635 1.78656 42 37 33 
-0.0756215 -0.494302 1.78564 22 16 16 
-0.0943346 -0.450726 1.76955 23 19 18 
-0.115476 -0.423257 1.76544 23 20 15 
-0.0953916 -0.417581 1.76026 32 28 25 
-0.0472369 -0.419299 1.75456 39 36 31 
-0.0582608 -0.415996 1.75333 17 13 10 
-0.0549108 -0.404194 1.75066 113 109 108 
-0.0972145 -0.393964 1.75212 29 25 22 
-0.0640118 -0.38945 1.74479 36 31 27 
-0.124585 -0.381464 1.74923 39 35 32 
-0.069294 -0.377515 1.74226 29 26 21 
-0.138951 -0.373001 1.75254 17 13 10 
-0.0884039 -0.36926 1.74077 114 111 106 
-0.0944232 -0.357288 1.73833 20 17 12 
-0.15457 -0.352596 1.76631 47 44 39 
-0.0759905 -0.351351 1.73306 110 107 100 
-0.146902 -0.346412 1.75007 30 26 17 
-0.0909168 -0.337831 1.73092 118 114 111 
-0.117784 -0.328982 1.73007 6 2 0 
-0.0484355 -0.331903 1.72422 39 35 32 
-0.0662478 -0.307816 1.71786 31 25 25 
-0.0477929 -0.308456 1.71503 49 48 44 
-0.150194 -0.2997 1.72975 27 26 24 
-0.138663 -0.291601 1.71975 23 20 15 
-0.0493873 -0.294994 1.70887 105 101 98 
-0.0705667 -0.290132 1.7091 33 30 25 
-0.0441321 -0.279009 1.70506 21 17 14 
-0.126242 -0.273509 1.71112 84 83 81 
-0.104564 -0.27411 1.70707 27 24 19 
-0.143241 -0.271904 1.71098 93 92 87 
-0.081096 -0.26148 1.70189 30 26 23 
-0.147029 -0.254432 1.7078 31 27 24 
-0.201312 -0.256148 1.74289 19 9 8 
-0.177827 -0.25106 1.71281 95 94 89 
-0.148414 -0.244794 1.70431 26 22 19 
-0.138979 -0.241328 1.70205 18 14 13 
-0.0936806 -0.238758 1.69689 14 13 11 
-0.128917 -0.234918 1.69772 35 31 30 
-0.06631 -0.233459 1.69134 82 78 77 
-0.188921 -0.231684 1.7279 42 30 30 
-0.152334 -0.227409 1.6995 44 41 36 
-0.220854 -0.234158 1.76979 4 3 1 
-0.0886474 -0.225722 1.68975 98 94 93 
-0.0576375 -0.222769 1.68798 97 96 94 
-0.0767896 -0.219742 1.68511 74 73 71 
-0.109017 -0.21677 1.68967 88 87 85 
-0.0951716 -0.217965 1.68997 87 86 82 
-0.0485256 -0.219024 1.68363 26 22 21 
-0.195933 -0.213375 1.73695 105 93 93 
-0.145583 -0.209079 1.69048 90 89 87 
-0.208657 -0.212992 1.75528 76 66 67 
-0.164639 -0.200369 1.69312 33 30 25 
-0.230243 -0.206361 1.78267 122 119 112 
-0.0502157 -0.201065 1.67667 9 5 2 
-0.0649779 -0.19798 1.6779 34 30 29 
-0.138278 -0.192442 1.68516 30 26 23 
-0.126009 -0.187651 1.68188 101 95 95 
-0.152064 -0.185948 1.68447 101 97 96 
-0.212039 -0.190321 1.75492 24 23 21 
-0.180941 -0.176061 1.70965 61 60 58 
-0.0312538 -0.177148 1.66784 101 98 93 
-0.157515 -0.168587 1.68068 82 81 79 
-0.130843 -0.168125 1.67581 102 100 101 
-0.0740956 -0.167679 1.664 111 110 108 
-0.105923 -0.165415 1.6718 102 98 95 
-0.191997 -0.16459 1.71282 19 18 14 
-0.0484704 -0.165506 1.66603 25 21 20 
-0.113326 -0.158795 1.66969 97 95 96 
-0.0581004 -0.155778 1.66288 112 111 109 
-0.120004 -0.151372 1.66931 24 23 21 
-0.0971801 -0.151669 1.66805 22 21 19 
-0.179525 -0.149328 1.68491 106 104 105 
-0.0717325 -0.150777 1.66062 11 9 10 
-0.16542 -0.137376 1.66966 26 22 19 
-0.155493 -0.13785 1.66988 18 14 13 
-0.132757 -0.137303 1.66624 110 108 109 
-0.106586 -0.133084 1.66066 28 27 25 
-0.177874 -0.129039 1.67466 23 22 20 
-0.167314 -0.125755 1.66436 93 89 88 
-0.141423 -0.121771 1.66374 8 7 5 
-0.249843 -0.125581 1.77155 31 30 28 
-0.0934383 -0.111874 1.65371 112 110 111 
-0.162264 -0.109841 1.66016 80 79 77 
-0.0407487 -0.109948 1.64752 19 18 16 
-0.140604 -0.106967 1.6564 119 118 116 
-0.12657 -0.0993588 1.65381 112 111 109 
-0.146569 -0.09474 1.65343 54 51 44 
-0.241114 -0.0972499 1.74535 12 11 9 
-0.0662982 -0.0928798 1.64302 82 80 81 
-0.124195 -0.0882333 1.64852 42 39 30 
-0.232079 -0.0896915 1.72735 104 102 103 
-0.120422 -0.0801393 1.6434 25 21 18 
-0.213497 -0.0758981 1.68814 115 114 112 
-0.158106 -0.0745592 1.64262 119 116 109 
-0.0898341 -0.0642634 1.6297 27 24 15 
-0.0790766 -0.0642352 1.62958 41 38 33 
-0.246267 -0.0606091 1.7226 20 17 12 
-0.0888247 -0.0566868 1.62265 17 14 9 
-0.112919 -0.0462744 1.62523 64 61 52 
-0.077614 -0.0468898 1.62021 23 20 15 
-0.0941092 -0.0457417 1.62154 60 57 48 
-0.123269 -0.0446891 1.62474 105 102 97 
-0.110596 -0.0368921 1.61543 38 35 30 
-0.142355 -0.0327417 1.61918 99 98 94 
-0.237065 -0.0259238 1.67841 7 5 6 
-0.243996 -0.0244107 1.68894 76 73 68 
-0.1052 -0.0238654 1.61015 112 111 106 
-0.104085 -0.0131 1.60377 102 101 99 
-0.178941 0.00500541 1.63498 89 85 82 
-0.137855 0.00461094 1.61806 98 94 93 
-0.232141 0.00635446 1.67696 85 84 82 
-0.162177 0.00861194 1.62665 104 100 97 
-0.284512 0.0105207 1.75507 7 6 4 
0.0216257 0.0206259 1.62625 17 16 14 
-0.0622292 0.021736 1.60876 72 71 69 
-0.178736 0.0252776 1.63426 9 7 8 
-0.231508 0.0271285 1.6752 4 3 1 
-0.275912 0.0319464 1.73705 10 8 9 
-0.108916 0.0340737 1.61209 66 64 65 
-0.242762 0.0384847 1.6855 5 3 4 
-0.253485 0.0396135 1.70054 16 16 18 
-0.23266 0.0451253 1.67218 94 93 91 
-0.284918 0.0520678 1.75873 78 78 78 
-0.270934 0.0519995 1.72957 65 64 62 
-0.218973 0.0552588 1.66063 63 61 62 
-0.230632 0.0804534 1.68776 79 77 78 
-0.0571616 0.104246 1.61788 82 80 81 
-0.223758 0.106621 1.67783 12 12 12 
0.037609 0.109635 1.63185 98 96 97 
-0.214602 0.111395 1.67219 78 76 77 
0.0159648 0.115011 1.62331 3 2 0 
-0.278242 0.123299 1.77107 98 98 98 
-0.239683 0.120283 1.69339 16 16 16 
-0.221735 0.1211 1.67412 1 0 0 
-0.186872 0.178225 1.6438 69 67 68 
-0.195554 0.180029 1.64905 12 10 11 
-0.0192627 0.218736 1.61445 15 13 14 
-0.220223 0.218672 1.66731 79 75 72 
-0.179218 0.218816 1.63958 88 87 85 
-0.265797 0.236795 1.73114 2 1 0 
-0.200207 0.311975 1.6447 90 89 87 
-0.213842 0.330319 1.65541 78 77 75 
-0.254289 0.363101 1.7068 88 87 82 
-0.183573 0.492351 1.62332 81 80 78 
-0.201069 0.498934 1.63344 79 78 76 
-0.249011 0.514339 1.6633 27 27 27 
-0.266013 0.541858 1.68554 13 9 8 
-0.243454 0.559494 1.66336 0 0 9 
-0.249748 0.564273 1.67609 71 69 83 
-0.257333 0.578172 1.68793 102 101 117 
-0.270934 0.606123 1.7037 56 55 51 
-0.256933 0.613832 1.68612 111 109 114 
-0.250734 0.639157 1.67864 59 60 62 
-0.239131 0.639267 1.66134 79 80 84 
-0.165074 0.627271 1.58927 89 88 86 
-0.239471 0.662291 1.66565 98 96 107 
-0.261732 0.678019 1.69526 54 54 54 
-0.183217 0.652442 1.59557 68 66 67 
-0.243204 0.684331 1.66896 84 84 92 
-0.236533 0.682236 1.6588 93 92 98 
-0.131832 0.658534 1.57299 111 109 110 
-0.0814959 0.675955 1.56061 84 80 81 
-0.238748 0.700793 1.66027 13 17 2 
-0.226761 0.732629 1.58261 96 93 86 
-0.112424 0.741074 1.52972 92 88 85 
-0.487379 0.798687 1.66243 138 133 129 
-0.095282 -0.564157 1.80879 44 40 39 
-0.142367 -0.373698 1.76216 44 41 36 
-0.106024 -0.319824 1.72514 87 83 80 
-0.152046 -0.319341 1.74174 83 82 78 
-0.186989 -0.154582 1.70065 20 19 15 
0.0131 -0.124743 1.67285 80 78 79 
-0.194661 -0.119016 1.69355 114 113 111 
-0.109907 -0.09398 1.6481 14 13 11 
-0.137418 -0.0902115 1.64954 115 112 107 
-0.116242 -0.072287 1.63635 113 110 101 
-0.248439 -0.037687 1.70667 46 43 38 
-0.192026 0.125132 1.6491 12 10 11 
-0.231306 0.357246 1.6759 104 103 99 
-0.10083 0.378491 1.60917 134 132 133 
-0.251775 0.582653 1.67564 115 115 125 
-0.24567 0.590956 1.66844 10 10 12 
-0.066642 -0.814011 1.88716 210 217 236 
-0.0734731 -0.755575 1.85211 43 39 36 
-0.062783 -0.429915 1.76416 102 98 95 
-0.0762408 -0.370722 1.73977 6 3 0 
-0.0281837 -0.330867 1.72562 104 100 97 
-0.0378312 -0.153846 1.65852 99 95 92 
-0.16684 -0.0796964 1.64804 98 97 93 
-0.129569 -0.0749218 1.6413 33 30 25 
-0.207736 0.0261525 1.6534 12 11 9 
-0.187945 0.0371975 1.64034 17 15 16 
-0.149406 0.0369892 1.62096 6 2 1 
-0.239275 0.106715 1.69511 1 0 0 
-0.274121 0.113538 1.75615 0 0 0 
-0.115712 0.208535 1.61396 9 7 8 
-0.0821747 0.344918 1.61023 114 106 104 
-0.229268 0.536987 1.63718 8 8 8 
-0.142257 0.620262 1.58537 102 101 99 
-0.190945 0.724857 1.58617 86 85 83 
-0.10313 0.761062 1.52549 72 68 69 
-0.0871796 -0.751913 1.85091 47 45 48 
-0.0621213 -0.267643 1.70081 103 100 93 
-0.0665391 -0.858626 1.88685 27 27 55 
-0.0509372 0.0743084 1.61279 62 60 61 
-0.0207614 -0.445117 1.82449 130 126 125 
-0.110838 -0.354847 1.78764 21 20 16 
0.0388391 -0.288722 1.76741 22 23 18 
0.0517741 -0.246581 1.78086 104 94 95 
-0.11843 -0.235341 1.74565 21 17 14 
-0.107417 -0.213242 1.73291 99 98 94 
-0.0171834 -0.207804 1.7217 79 76 71 
0.075043 -0.210889 1.79262 98 94 91 
0.0882925 -0.188236 1.79564 95 94 92 
-0.142026 -0.184291 1.7299 33 29 26 
0.0221302 -0.178613 1.74164 94 93 91 
-0.0209977 -0.169021 1.70787 99 95 92 
-0.0208683 -0.157641 1.70198 23 19 16 
-0.033476 -0.0704247 1.6695 107 103 100 
-0.134228 -0.0699527 1.68145 113 109 106 
0.0710939 -0.0672507 1.72701 96 95 93 
0.111011 -0.0625267 1.75438 20 16 13 
-0.113972 -0.0618389 1.67684 42 39 30 
0.0245571 -0.0286712 1.66584 90 90 92 
0.0608523 0.00179162 1.68827 84 82 83 
-0.00411874 0.00430973 1.66054 85 84 82 
-0.131061 0.015501 1.66069 75 75 73 
0.0628078 0.0572673 1.68955 59 58 56 
0.00105673 0.0651158 1.66138 86 86 86 
0.0349311 0.0751333 1.67291 73 72 70 
-0.0238937 0.0837969 1.66248 70 68 69 
0.0293555 0.0836793 1.66582 102 99 94 
-0.111293 0.101622 1.66456 70 68 69 
-0.044919 0.100464 1.65944 67 65 66 
0.0773071 0.128141 1.69656 14 12 13 
-0.129322 0.196119 1.66279 12 10 11 
0.0373702 0.197548 1.66393 10 6 5 
0.135711 0.241723 1.78524 11 7 4 
-0.00263971 0.233084 1.65587 54 52 53 
0.0799666 0.249032 1.68865 82 81 79 
0.00649942 0.29351 1.64415 92 91 89 
0.0352904 0.303118 1.65509 20 16 15 
0.0753451 0.405127 1.67648 15 9 9 
0.027908 0.433947 1.64523 97 93 92 
-0.145937 0.593731 1.62541 66 65 63 
0.0524314 0.591309 1.6478 85 86 81 
0.0179866 0.59299 1.6289 86 85 81 
-0.129769 0.661743 1.61639 80 78 79 
0.108788 0.675516 1.69499 121 119 120 
0.00994381 0.675526 1.61797 88 86 87 
0.0329419 0.68267 1.62729 89 87 88 
-0.053354 0.691957 1.59882 86 84 85 
-0.0528512 0.707511 1.59645 84 82 83 
-0.00408706 0.723561 1.6052 73 71 72 
0.071008 0.753153 1.60613 120 116 105 
0.009888 0.750741 1.57859 113 112 107 
-0.0413952 0.75397 1.56545 5 4 0 
0.102728 0.76403 1.62871 93 89 86 
0.085665 0.776221 1.61626 104 105 100 
0.120021 0.789832 1.64164 97 94 87 
0.0984422 0.794038 1.62172 106 105 101 
-0.0449116 0.788456 1.55974 91 90 85 
0.0168528 0.789879 1.57239 17 16 14 
0.107327 0.686764 1.68282 107 106 104 
0.0956049 0.705243 1.66153 106 105 103 
-0.0508725 0.749766 1.56782 103 102 100 
-0.0550771 -0.828967 1.94617 150 155 174 
-0.0163403 0.193794 1.6597 75 71 72 
0.0299292 0.277103 1.65346 83 82 80 
-0.00436669 0.733491 1.60255 90 86 87 
0.0216116 -0.253736 1.75597 101 89 89 
-0.0650057 -0.865853 1.95022 11 11 45 
0.00262372 -0.492857 1.85647 89 85 82 
0.0116473 -0.379834 1.81542 32 31 29 
-0.055618 -0.377339 1.78564 43 40 35 
0.0288918 -0.329173 1.75936 99 99 89 
-0.0450447 -0.269121 1.74194 19 18 14 
-0.0928293 -0.267743 1.75073 111 110 108 
0.00760309 -0.222934 1.73724 8 7 3 
-0.125664 -0.21327 1.73528 97 96 94 
-0.0655943 -0.124987 1.69805 105 104 102 
-0.0439049 0.0241225 1.65153 1 0 0 
0.0105187 0.0251492 1.66008 1 0 0 
-0.0204051 0.0366342 1.65292 100 98 99 
0.0375837 0.0571584 1.67212 7 6 4 
0.0202247 0.0831268 1.66055 80 76 73 
-0.0605506 0.177625 1.65299 76 72 73 
-0.0482757 0.285037 1.64331 74 72 73 
0.0532309 0.286262 1.66284 94 92 93 
0.0368605 0.287537 1.65423 4 2 5 
-0.035255 0.415236 1.63586 83 82 80 
-0.0271872 0.572924 1.61683 118 118 118 
0.0604821 0.687793 1.63352 105 104 102 
0.0152775 -0.427189 1.83769 124 120 119 
0.106802 0.385761 1.70297 5 1 0 
0.107565 0.704376 1.66994 93 91 92 
0.0495948 0.750348 1.59135 114 110 101 
0.0158202 0.117377 1.66252 17 17 15 
0.0384546 0.337786 1.65078 80 79 77 
-0.101648 0.387943 1.64694 134 133 129 
-0.060581 0.746342 1.56085 127 126 124 
0.0410954 0.347033 1.65514 4 3 1 
-0.144289 -0.152576 1.70069 119 119 119 
-0.1183 -0.111076 1.68367 30 29 27 
-0.0734993 -0.0301343 1.63558 8 1 0 
-0.0925891 0.0362857 1.63462 3 1 2 
0.005429 0.0370585 1.63814 89 87 88 
0.0525212 0.165667 1.6522 65 63 64 
-0.033833 0.47266 1.61392 81 77 78 
-0.015205 -0.111714 1.66786 45 44 42 
-0.115466 -0.164858 1.69975 96 92 89 
-0.108485 0.211608 1.63721 12 11 9 
-0.0554994 -0.794115 1.93859 55 53 54 
-0.0602835 -0.203022 1.69803 5 4 2 
-0.0593324 -0.733123 1.90798 196 194 208 
-0.132639 -0.096041 1.66851 89 88 84 
-0.111925 0.0245207 1.62712 0 0 0 
-0.0948214 0.0325435 1.6235 0 0 0 
-0.134009 0.0333206 1.63307 87 86 81 
-0.105064 0.0980532 1.633 75 74 72 
-0.13214 0.244709 1.63021 98 98 98 
-0.187528 0.266376 1.64105 14 12 13 
-0.143026 0.310587 1.61593 0 1 0 
-0.184444 0.672796 1.58551 83 82 80 
-0.0690979 -0.724565 1.89349 28 26 29 
-0.0593474 -0.721546 1.88846 226 226 234 
-0.127191 0.0500484 1.61345 88 87 85 
-0.134507 0.241374 1.61476 71 69 70 
-0.177713 0.258257 1.63073 12 11 9 
-0.156508 0.285723 1.61815 74 73 71 
-0.11355 0.64853 1.57016 76 72 73 
-0.17402 -0.0983058 1.65691 95 94 92 
-0.147113 -0.483566 1.83185 33 29 26 
