ply                 
format ascii 1.0    
element vertex 1267
property float x    
property float y    
property float z    
property uchar red  
property uchar green
property uchar blue 
end_header          
-0.216699 -0.195762 1.80668 10 10 8 
-0.109461 -0.185071 1.71746 83 82 80 
-0.00265146 -0.184252 1.7179 117 113 110 
-0.0187846 -0.181681 1.70658 95 94 90 
-0.186289 -0.181564 1.76355 103 102 100 
-0.0732278 -0.174733 1.70799 23 19 18 
-0.0467273 -0.174352 1.70736 25 21 18 
0.0351225 -0.17676 1.74241 73 72 70 
-0.249689 -0.186357 1.85644 105 105 107 
-0.234074 -0.181692 1.82334 116 115 113 
0.00384617 -0.166746 1.71705 101 97 96 
-0.0500871 -0.163604 1.70461 89 86 81 
-0.113587 -0.163391 1.71511 80 79 77 
-0.216204 -0.169721 1.79208 89 88 83 
0.0468534 -0.166042 1.75208 100 99 97 
0.0619119 -0.165001 1.75948 93 92 90 
-0.00357715 -0.156579 1.70764 80 79 75 
-0.0344704 -0.152195 1.69603 53 50 45 
-0.154162 -0.153866 1.72096 104 103 101 
-0.0746762 -0.152469 1.70671 38 37 35 
0.0764433 -0.159389 1.77302 127 126 122 
-0.213733 -0.158825 1.77772 15 14 12 
0.0153468 -0.152655 1.72529 87 86 84 
0.00814947 -0.148162 1.71515 77 77 69 
-0.183763 -0.147236 1.73341 118 118 116 
-0.0316815 -0.141978 1.69081 114 109 103 
0.0754675 -0.149393 1.76908 144 144 142 
-0.013289 -0.141313 1.69877 17 16 12 
-0.163688 -0.143073 1.72012 23 22 20 
-0.0885053 -0.141274 1.7058 23 22 20 
-0.152885 -0.140182 1.71403 101 100 98 
-0.263813 -0.149927 1.84915 171 171 181 
0.0265444 -0.139591 1.7279 6 5 3 
0.0659135 -0.141572 1.75614 17 15 16 
-0.141679 -0.136947 1.71245 41 40 38 
-0.165944 -0.134112 1.70791 98 97 95 
0.0882093 -0.13574 1.76492 100 99 95 
-0.235345 -0.136663 1.80234 27 25 26 
-0.0210224 -0.127266 1.68891 41 40 35 
0.0150686 -0.129271 1.71565 105 103 104 
-0.0423448 -0.125708 1.69143 3 2 0 
-0.0545182 -0.126184 1.6941 2 1 0 
0.0336143 -0.128641 1.72721 89 88 86 
-0.142614 -0.125514 1.7101 19 18 16 
-0.188253 -0.122438 1.72726 94 93 91 
-0.155361 -0.119657 1.71282 23 22 20 
-0.00957655 -0.117825 1.6889 91 90 85 
0.0972842 -0.122077 1.77224 89 87 88 
0.0368498 -0.11614 1.72341 29 25 24 
-0.0400766 -0.112673 1.6865 23 22 18 
-0.0568589 -0.11047 1.67711 110 108 109 
0.0800975 -0.116833 1.7603 93 92 90 
-0.152224 -0.111307 1.70337 5 4 2 
0.0251296 -0.113099 1.71932 30 29 25 
-0.00112361 -0.108929 1.69268 108 106 107 
-0.0084558 -0.102911 1.68286 28 26 27 
-0.275789 -0.113085 1.85128 55 53 66 
-0.127736 -0.101956 1.69793 109 108 106 
-0.189602 -0.102576 1.71882 16 16 16 
-0.17568 -0.101379 1.70446 114 113 111 
-0.0199249 -0.0984682 1.68589 136 134 135 
0.0587 -0.101319 1.74001 111 110 108 
-0.148006 -0.0980673 1.70629 29 24 21 
-0.000476103 -0.0966573 1.68577 88 86 87 
0.0916304 -0.102534 1.76376 105 104 102 
-0.102596 -0.0954749 1.68506 122 122 122 
-0.246119 -0.100383 1.79935 15 14 12 
0.0208853 -0.094726 1.70568 84 82 83 
-0.168167 -0.0929944 1.69285 64 60 57 
0.0417121 -0.0937388 1.72385 38 37 35 
-0.0256127 -0.0900729 1.67523 5 4 2 
-0.0630276 -0.089425 1.67544 10 8 9 
-0.0622186 -0.0901359 1.68706 2 0 3 
-0.039863 -0.0879131 1.67244 74 70 67 
-0.00143812 -0.0837687 1.67733 15 14 12 
0.0752146 -0.0864416 1.74176 20 18 19 
-0.0809948 -0.0822408 1.6745 43 38 35 
0.0734349 -0.0858479 1.73013 34 32 33 
0.0341146 -0.081739 1.69749 97 96 92 
-0.0976478 -0.080553 1.6748 26 27 22 
-0.191915 -0.0814594 1.70805 28 26 27 
-0.1381 -0.0782753 1.68431 18 15 10 
0.05882 -0.0795251 1.72171 19 18 16 
-0.0545816 -0.0758697 1.67043 10 7 0 
0.110975 -0.0788426 1.76616 59 56 51 
0.0935472 -0.077197 1.74809 101 101 101 
-0.11608 -0.0709971 1.67849 22 19 12 
-0.159909 -0.0704912 1.68259 96 95 93 
0.040819 -0.0716409 1.70113 108 107 105 
-0.103174 -0.0681731 1.67865 11 10 6 
0.0158978 -0.0670662 1.67617 93 92 88 
0.00697734 -0.0657687 1.66986 29 28 26 
-0.255623 -0.0696039 1.78969 92 92 90 
-0.0279866 -0.0640414 1.655 130 126 125 
-0.126629 -0.0609683 1.67754 21 17 16 
-0.0461999 -0.0608446 1.66533 110 107 102 
-0.088569 -0.0584171 1.66784 9 4 0 
-0.24384 -0.0606756 1.76683 31 28 21 
-0.139464 -0.0549116 1.67059 121 120 116 
0.0553179 -0.0549906 1.70151 105 105 103 
0.0779322 -0.0504027 1.71747 14 13 11 
-0.0980185 -0.0471632 1.66514 20 20 10 
0.0234889 -0.0476623 1.67306 39 38 33 
-0.117813 -0.0459899 1.66437 31 32 24 
-0.150194 -0.0451416 1.67597 102 98 97 
0.0597654 -0.0462699 1.70618 15 15 15 
0.0403364 -0.0448473 1.67724 42 41 39 
0.0985288 -0.0450187 1.72379 1 0 0 
0.107365 -0.045656 1.7339 28 27 23 
-0.236248 -0.0447424 1.74505 38 33 27 
-0.08983 -0.0408319 1.65797 26 23 14 
-0.280902 -0.0412489 1.80603 17 13 10 
-0.133958 -0.0354423 1.66205 40 37 32 
-0.0910429 -0.030497 1.6487 37 33 21 
-0.0614161 -0.0307477 1.65181 45 41 30 
-0.232343 -0.03057 1.72142 115 114 110 
0.00759472 -0.0282753 1.65488 104 103 101 
0.043375 -0.0283267 1.66788 111 110 106 
0.0907546 -0.028343 1.71003 17 16 12 
0.0666057 -0.0255045 1.68711 21 21 9 
-0.264269 -0.0252438 1.75278 35 32 25 
-0.106189 -0.0172429 1.64708 117 113 110 
-0.0113018 -0.0143592 1.64324 113 112 108 
-0.191774 -0.0138306 1.6728 59 58 54 
-0.228977 -0.0122698 1.70612 120 119 117 
0.0728766 -0.0119941 1.68454 80 79 77 
-0.21229 -0.0104008 1.69451 24 20 17 
0.115228 0.00215589 1.73372 90 89 87 
-0.154885 0.00467342 1.66276 18 17 13 
-0.0249923 0.0044595 1.64899 101 99 100 
-0.181248 0.00526005 1.67763 101 100 96 
0.0764394 0.00659594 1.68997 8 7 5 
-0.237576 0.00688742 1.72462 105 104 102 
0.0900266 0.00667089 1.70834 4 2 3 
0.144447 0.00711729 1.7869 12 10 11 
0.128002 0.00955785 1.74824 1 0 0 
0.137432 0.011604 1.77177 93 91 92 
0.0328485 0.0143467 1.6664 3 2 0 
-0.213089 0.0149556 1.69673 97 96 94 
0.0728707 0.015276 1.69637 1 0 2 
0.107538 0.0154937 1.72553 105 105 105 
-0.239555 0.0177186 1.72576 94 93 89 
0.0949384 0.0200343 1.71167 33 33 33 
0.131595 0.0216648 1.7595 110 108 109 
-0.0276563 0.0223131 1.65265 20 16 15 
-0.0985512 0.0249934 1.6532 85 83 84 
-0.00363574 0.0247558 1.64999 11 9 10 
0.0695643 0.0271359 1.68986 3 1 2 
0.0317643 0.0338312 1.66676 7 6 4 
-0.110314 0.0349964 1.6528 71 71 71 
0.0590474 0.0353894 1.68066 8 4 3 
-0.0478374 0.0359565 1.64964 90 89 87 
-0.139246 0.0373392 1.66062 2 0 1 
0.0780128 0.0377126 1.69634 77 77 77 
-0.274647 0.0415801 1.77951 21 19 22 
-0.149557 0.0384444 1.66523 73 69 66 
0.0486054 0.0395562 1.671 82 80 81 
0.106162 0.0411375 1.72459 107 106 102 
0.0930851 0.0411281 1.70861 91 90 86 
0.124406 0.0433697 1.74825 11 7 8 
-0.239621 0.0436865 1.72039 99 97 98 
-0.205288 0.0444717 1.69633 11 9 10 
-0.160238 0.043666 1.66649 6 5 3 
-0.130473 0.0460157 1.65466 88 86 87 
-0.0124064 0.047472 1.65245 83 81 82 
0.000186288 0.0499416 1.65494 124 123 121 
0.0684745 0.05147 1.68986 79 78 76 
-0.0327828 0.0539893 1.65206 50 46 47 
-0.0527584 0.0559799 1.64783 63 59 58 
-0.188332 0.0579477 1.68392 58 57 53 
0.0243755 0.059432 1.66314 90 89 87 
0.0516572 0.0614014 1.67114 93 92 90 
0.0881328 0.0638097 1.697 94 93 91 
0.103984 0.0710804 1.7147 100 99 97 
-0.0433781 0.0746567 1.65076 65 65 65 
-0.161687 0.0783744 1.67755 80 80 78 
0.109998 0.0808292 1.73041 89 89 87 
-0.235637 0.0834575 1.73519 88 87 85 
0.0505641 0.0813336 1.66357 0 0 0 
0.0929566 0.0839906 1.70521 83 82 80 
0.00844871 0.0839615 1.65236 118 114 111 
0.0617689 0.0863231 1.68054 77 76 74 
-0.0049784 0.0890034 1.65987 69 67 68 
0.0808439 0.0936529 1.69313 87 86 84 
-0.253004 0.0999827 1.76112 6 4 5 
0.0173991 0.0950036 1.65542 83 82 78 
0.051137 0.0972997 1.67301 74 74 76 
0.0742452 0.100312 1.6858 26 25 21 
0.108602 0.103129 1.71951 13 9 10 
0.0319794 0.100143 1.66062 114 113 111 
0.0596499 0.102675 1.6779 97 97 95 
-0.246715 0.108811 1.7444 83 83 83 
-0.0572568 0.102788 1.65561 90 88 89 
-0.228069 0.110662 1.73119 8 4 5 
0.074067 0.109255 1.6921 95 94 92 
0.0415092 0.108678 1.67023 8 7 5 
0.0954497 0.110817 1.70167 15 15 13 
-0.239965 0.116409 1.73605 10 10 10 
-0.180083 0.11418 1.69056 1 0 0 
0.0704059 0.115076 1.68346 92 88 89 
-0.0702418 0.112888 1.65056 86 86 86 
-0.124794 0.118381 1.66564 78 78 78 
-0.220876 0.122369 1.71535 68 66 67 
-0.234515 0.123527 1.73094 106 106 106 
0.115235 0.133125 1.72878 89 83 83 
-0.190433 0.129755 1.68561 10 8 9 
0.0484583 0.128441 1.66729 82 81 79 
0.0874406 0.134548 1.6996 101 99 100 
-0.156353 0.133276 1.67185 3 3 3 
0.0415742 0.136191 1.66304 80 79 77 
0.101194 0.141685 1.71425 27 25 26 
-0.000389098 0.137017 1.64653 29 27 28 
0.0663044 0.139651 1.68312 5 5 3 
-0.180545 0.144559 1.68388 75 74 72 
-0.130201 0.143359 1.66132 69 68 66 
-0.229687 0.149742 1.72656 105 104 102 
0.0498135 0.147349 1.67283 85 84 82 
0.0794724 0.148959 1.68374 87 86 82 
0.0144457 0.147874 1.65204 68 67 65 
0.0649299 0.151892 1.68047 91 90 88 
-0.069535 0.150138 1.65234 3 0 0 
-0.2413 0.158424 1.73778 7 5 6 
0.00914154 0.154946 1.64468 110 109 107 
-0.249231 0.169862 1.75011 32 31 29 
-0.0742467 0.160792 1.65026 81 80 78 
0.115536 0.171648 1.72503 42 41 39 
0.122599 0.180794 1.73565 84 80 81 
-0.0943049 0.171861 1.65261 72 70 73 
-0.206252 0.179748 1.70358 18 17 15 
0.0956925 0.180002 1.70211 31 30 28 
0.079759 0.18024 1.68576 85 84 82 
0.0505671 0.178754 1.66371 85 84 82 
-0.155643 0.184621 1.66668 76 74 77 
-0.181005 0.19631 1.68527 16 12 11 
0.0887559 0.198013 1.69037 80 79 77 
-0.240592 0.203084 1.72184 4 0 0 
-0.171967 0.197571 1.67239 8 4 1 
-0.00464573 0.195639 1.65224 1 0 0 
-0.202979 0.206627 1.68838 14 12 13 
0.112557 0.215532 1.71923 15 14 10 
-0.204502 0.222001 1.69561 17 13 14 
0.0767851 0.222307 1.68282 83 79 78 
-0.246992 0.232102 1.7365 3 0 0 
-0.189905 0.225013 1.6876 8 8 8 
-0.25484 0.235448 1.74518 4 0 0 
0.00139105 0.224258 1.64212 91 90 88 
0.106714 0.235992 1.71364 38 37 35 
0.0893833 0.236312 1.69216 1 0 0 
-0.271733 0.249022 1.77935 93 92 90 
-0.230847 0.24294 1.71792 76 75 73 
0.100827 0.244818 1.70702 89 88 86 
-0.0179917 0.239765 1.64734 82 80 81 
-0.00143183 0.240817 1.63676 85 84 80 
-0.13386 0.248778 1.65679 70 69 67 
0.0337479 0.247893 1.64862 72 71 69 
-0.0498905 0.248418 1.64137 73 73 73 
0.0523456 0.257793 1.66269 84 83 81 
0.104959 0.267313 1.71044 30 29 25 
-0.184788 0.264007 1.67837 1 0 2 
-0.167939 0.262863 1.66768 6 4 5 
0.0458119 0.265302 1.65735 66 65 63 
-0.177454 0.268645 1.67065 3 3 3 
0.0953541 0.274685 1.69297 83 82 78 
0.0801956 0.279911 1.68063 86 84 85 
-0.149223 0.275656 1.65649 87 87 89 
0.0478039 0.276548 1.6543 109 109 107 
0.0907453 0.281867 1.68419 88 87 83 
-0.0601638 0.275366 1.63757 2 0 1 
-0.168168 0.282323 1.66531 12 11 9 
0.11204 0.29244 1.71027 31 30 26 
-0.210607 0.292998 1.69616 7 6 4 
-0.00242397 0.283079 1.6369 9 8 6 
0.0284285 0.285195 1.64065 14 13 11 
-0.237529 0.300099 1.72098 78 76 79 
0.0877534 0.294151 1.6862 93 92 88 
-0.156524 0.29333 1.65473 86 84 85 
0.0163896 0.292894 1.64654 5 3 6 
0.0981346 0.303025 1.69758 24 20 17 
0.0527265 0.298467 1.64915 1 0 0 
0.0267765 0.300946 1.64058 11 10 8 
-0.215586 0.320945 1.69721 7 3 0 
-0.202859 0.32122 1.68723 67 65 66 
-0.0573676 0.311113 1.6344 14 13 11 
-0.130724 0.314627 1.64792 4 3 0 
0.0528644 0.31839 1.65485 5 4 2 
-0.145208 0.317178 1.64517 0 1 0 
-0.0399488 0.316121 1.63588 66 66 66 
-0.274332 0.347636 1.77508 64 62 63 
0.0516986 0.329944 1.65208 67 66 64 
-0.131845 0.330535 1.64216 3 0 0 
0.104074 0.352452 1.6974 53 49 46 
0.0718548 0.346983 1.67123 10 9 7 
-0.218701 0.351997 1.69357 66 65 63 
-0.0393024 0.340193 1.63606 9 8 6 
0.0952785 0.356284 1.68395 101 97 94 
-0.260191 0.376555 1.75425 99 98 96 
0.0334945 0.35052 1.63591 12 11 9 
0.067602 0.361431 1.66275 4 3 1 
-0.156028 0.360928 1.6472 4 0 0 
0.0410947 0.370118 1.64706 0 1 0 
0.0882011 0.378414 1.67988 96 92 89 
0.0990031 0.38861 1.69118 6 2 1 
0.114142 0.395311 1.70798 29 26 21 
-0.0319356 0.378322 1.63105 70 68 69 
0.0534768 0.394335 1.64908 13 12 8 
0.0961933 0.410245 1.68267 19 18 16 
-0.034813 0.401736 1.63128 69 68 66 
0.0070285 0.399935 1.62526 86 82 81 
-0.0239468 0.409953 1.6237 81 77 78 
0.0704367 0.422002 1.6583 95 94 90 
-0.200868 0.428812 1.6699 86 85 83 
0.0853843 0.43321 1.67573 19 18 16 
-0.0966759 0.429759 1.6271 81 80 78 
0.0325084 0.445505 1.63832 78 77 75 
0.0907146 0.458229 1.67707 121 117 114 
0.0645568 0.468919 1.65263 20 19 17 
0.0857573 0.480683 1.67026 114 110 107 
0.0990998 0.487996 1.6863 14 15 9 
0.0444838 0.480233 1.63461 97 96 91 
-0.055241 0.481769 1.62129 3 1 2 
0.022894 0.486621 1.62596 96 95 91 
-0.120084 0.492045 1.62133 79 75 74 
-0.00396338 0.494112 1.61886 62 61 59 
0.0368854 0.502807 1.63015 12 11 9 
0.0407683 0.515284 1.63422 73 69 66 
-0.0901794 0.516468 1.61916 68 67 65 
-0.270855 0.556354 1.72344 1 0 0 
0.0351102 0.528977 1.63161 24 23 19 
-0.276664 0.565658 1.7312 12 14 13 
-0.247336 0.554303 1.68861 111 107 106 
-0.0459879 0.53504 1.61608 102 101 99 
-0.211833 0.550775 1.65924 3 3 3 
-0.268205 0.577284 1.73167 98 98 98 
-0.272068 0.586197 1.74159 78 77 82 
0.00294968 0.54392 1.61476 77 76 74 
-0.034637 0.549203 1.61703 3 2 0 
-0.243133 0.577477 1.696 101 100 116 
-0.268578 0.592273 1.72949 23 22 30 
-0.284846 0.599721 1.74656 96 95 93 
-0.271346 0.598587 1.7417 88 85 92 
0.0942935 0.575059 1.676 84 80 79 
0.351806 0.836883 2.39666 77 78 64 
-0.00532296 0.556033 1.62171 66 65 63 
0.33725 0.844067 2.398 59 58 53 
0.0549638 0.567581 1.64058 96 95 93 
-0.0583319 0.557184 1.60922 105 103 104 
-0.028166 0.560425 1.6049 85 83 84 
-0.19927 0.576844 1.64673 84 82 83 
-0.0427399 0.564022 1.61185 73 72 70 
-0.265695 0.614363 1.7278 80 80 82 
-0.276831 0.622651 1.74401 57 56 54 
-0.253681 0.61221 1.71135 105 105 107 
-0.220371 0.596028 1.65825 98 100 97 
-0.202711 0.588237 1.63884 105 104 102 
-0.00525491 0.57885 1.61041 74 72 75 
-0.264513 0.625359 1.72777 116 116 116 
-0.071824 0.575318 1.59618 82 78 77 
-0.0577645 0.577239 1.59938 73 71 72 
0.035099 0.586027 1.62251 83 82 80 
-0.27547 0.636857 1.73254 28 5 0 
-0.279202 0.64602 1.73597 145 129 113 
-0.101528 0.592598 1.59975 84 83 81 
-0.0872698 0.593265 1.59998 93 92 90 
-0.164892 0.599393 1.61289 82 80 81 
-0.260014 0.64896 1.71938 96 97 91 
-0.263741 0.656573 1.72881 84 83 81 
-0.0964827 0.608441 1.60305 60 59 57 
-0.0737125 0.615603 1.59655 79 77 78 
-0.250238 0.663801 1.70698 0 0 7 
-0.145415 0.629858 1.60612 93 89 88 
-0.0365635 0.627858 1.5996 80 76 75 
-0.0956001 0.628542 1.59346 80 80 78 
-0.264488 0.699706 1.73233 95 93 94 
-0.0458203 0.648521 1.59668 76 74 75 
-0.147134 0.658316 1.61063 88 87 85 
-0.201567 0.670804 1.6319 3 2 0 
-0.107545 0.660801 1.59302 80 79 77 
-0.195795 0.68167 1.62293 90 90 88 
-0.189126 0.678555 1.61257 82 78 77 
-0.052704 0.667058 1.58674 72 71 69 
0.0535685 0.692942 1.62605 104 103 101 
-0.195275 0.717046 1.61539 106 105 103 
-0.162651 0.723556 1.59456 80 74 74 
-0.135792 0.720911 1.58252 91 90 88 
-0.195914 0.736998 1.60791 105 103 104 
-0.138467 0.736614 1.59092 95 91 88 
-0.161939 0.737819 1.58882 108 104 101 
-0.122803 0.734855 1.58254 86 81 77 
-0.233604 0.746671 1.60511 109 105 96 
-0.220861 0.743377 1.5912 125 122 117 
-0.0861366 0.73628 1.57369 107 104 99 
-0.206912 0.746366 1.58698 10 6 3 
-0.135403 0.741233 1.56496 95 92 87 
-0.147757 0.739415 1.55573 86 82 79 
-0.0684456 0.739524 1.54409 91 90 85 
-0.336274 0.779076 1.61623 78 77 73 
-0.209706 0.765948 1.58288 70 69 67 
-0.0570901 0.749304 1.54877 90 86 85 
-0.115837 0.754136 1.54564 97 93 90 
-0.283853 0.766945 1.5564 94 93 89 
-0.18724 0.780545 1.5553 101 98 93 
-0.205084 0.783012 1.55178 12 9 4 
-0.270807 0.782915 1.54553 103 105 94 
-0.232362 0.790645 1.54869 104 104 94 
-0.140872 0.780089 1.5273 10 11 5 
-0.190686 0.795707 1.5234 110 110 98 
-0.199095 0.793551 1.49321 30 26 14 
-0.279467 0.804029 1.49683 37 35 22 
-0.160825 0.800887 1.48957 50 40 30 
-0.256054 0.799848 1.4473 33 29 18 
-0.210351 0.799318 1.42351 31 29 16 
-0.0933124 -0.579373 1.85219 21 19 20 
-0.000415511 -0.535628 1.87161 103 101 102 
-0.00916314 -0.425968 1.81733 120 115 112 
-0.193954 -0.259122 1.77543 8 3 0 
-0.0980535 -0.180177 1.71794 28 25 20 
-0.0641797 -0.162722 1.70663 98 97 95 
-0.198872 -0.117383 1.73962 22 21 19 
-0.225505 -0.100945 1.76912 103 102 100 
-0.0853282 -0.0949729 1.68927 97 95 96 
-0.0307022 -0.0807548 1.66616 121 120 118 
-0.167868 -0.0807729 1.69079 39 38 34 
-0.0632662 -0.0692697 1.66438 81 77 66 
0.107727 -0.0719921 1.7544 138 134 131 
-0.121622 -0.0549445 1.66744 105 101 98 
-0.0797054 -0.0466836 1.65993 114 111 106 
-0.115201 -0.0297926 1.65296 35 31 20 
-0.126007 0.0252584 1.65818 10 8 9 
-0.113019 0.0249854 1.64797 5 1 2 
0.059392 0.114549 1.6751 79 78 76 
-0.274911 0.132115 1.79457 91 89 92 
-0.0645488 0.22947 1.63891 64 63 61 
0.0893105 0.339828 1.68173 96 92 91 
-0.0638982 0.360268 1.63006 12 11 9 
-0.233883 0.586668 1.67416 4 3 8 
-0.257072 0.755466 1.60381 81 82 68 
-0.408222 0.778091 1.35269 97 94 85 
-0.0588064 -0.827851 1.92653 76 80 92 
-0.0708185 -0.820695 1.92638 76 82 98 
-0.0250554 -0.801787 1.91527 45 48 63 
-0.0738975 -0.702975 1.89525 118 115 108 
-0.0519402 -0.494305 1.82406 57 54 49 
-0.179049 -0.385949 1.85171 104 100 97 
-0.0051286 -0.345211 1.77721 95 94 90 
-0.0237706 -0.338931 1.75722 114 113 109 
-0.0579647 -0.314376 1.75719 106 105 101 
0.0366408 -0.270292 1.76905 88 84 83 
-0.00510216 -0.26094 1.7254 29 29 21 
-0.0450667 -0.253535 1.72663 28 25 20 
-0.227809 -0.254717 1.82729 111 109 110 
-0.192823 -0.240316 1.78625 95 85 84 
-0.111217 -0.217341 1.74118 91 88 83 
-0.215931 -0.219904 1.82563 97 88 89 
-0.168114 -0.205278 1.75432 105 104 100 
-0.18589 -0.205062 1.77569 96 95 90 
-0.0570754 -0.183921 1.70556 102 98 95 
0.0547422 -0.189666 1.77117 94 93 89 
-0.156816 -0.168606 1.71954 98 97 95 
0.0071695 -0.074714 1.67619 108 107 105 
0.0317507 -0.0786352 1.70841 102 98 95 
0.0664671 -0.0346825 1.69401 129 126 117 
0.0461512 0.0153046 1.66845 3 2 0 
0.0957949 0.017091 1.69835 1 1 1 
-0.195593 0.0190327 1.68744 15 14 12 
-0.0858645 0.0248193 1.65055 2 0 1 
0.0502111 0.025942 1.67563 2 1 0 
-0.181112 0.0383402 1.68204 3 2 0 
0.016096 0.0370974 1.65327 10 6 5 
0.00757382 0.24383 1.63301 100 99 95 
0.0271252 0.256391 1.64458 82 81 79 
-0.213787 0.306119 1.69649 90 88 89 
-0.235083 0.367889 1.71921 119 118 116 
0.00121647 0.372629 1.63039 78 77 75 
0.0406566 0.400388 1.64286 10 10 10 
0.0878214 0.494325 1.68079 105 102 93 
0.0543527 0.522161 1.64295 77 70 64 
-0.201466 0.547219 1.65273 73 72 70 
-0.262663 0.60612 1.71717 23 23 25 
0.383727 0.851728 2.3496 76 75 71 
0.0833638 0.594578 1.65991 33 32 30 
-0.247657 0.633075 1.70826 84 85 80 
-0.155787 0.654762 1.6052 84 83 81 
-0.292296 0.713223 1.73106 9 9 1 
0.0324924 0.672593 1.60469 30 28 29 
0.128695 0.717622 1.6901 87 86 82 
-0.124501 0.782296 1.52655 103 102 98 
-0.427454 0.764189 1.35535 108 104 101 
-0.1217 -0.618479 1.90613 128 130 142 
-0.0122556 -0.442785 1.83505 110 109 105 
0.00688177 -0.390236 1.81993 120 116 113 
-0.107366 -0.137506 1.70184 97 96 94 
-0.251936 0.0700309 1.74777 70 70 70 
-0.241772 0.207729 1.73775 14 11 6 
-0.116624 0.21484 1.65499 17 16 14 
-0.257002 0.587856 1.72897 0 0 16 
-0.0432861 0.603658 1.5907 61 59 60 
-0.227285 0.78659 1.46341 82 80 67 
-0.0570908 -0.872167 1.9282 189 197 210 
-0.19309 -0.226893 1.78358 50 40 39 
-0.0807101 -0.138058 1.69675 106 107 101 
-0.00259195 0.122121 1.64676 72 72 72 
-0.268518 0.566219 1.74037 14 12 15 
-0.0643211 -0.879467 1.92819 25 24 56 
-0.0646852 -0.765143 1.88617 24 22 23 
-0.209366 -0.348914 1.81454 56 59 66 
-0.0669703 -0.746455 1.89811 219 218 236 
-0.0773478 -0.616393 1.82138 28 25 20 
-0.0643354 -0.35251 1.72701 8 5 0 
-0.0762223 -0.337234 1.72295 116 113 108 
-0.0866967 -0.32887 1.72301 29 25 22 
-0.0649677 -0.325676 1.71863 33 29 26 
-0.110187 -0.32424 1.72345 68 67 63 
-0.0662939 -0.279654 1.69821 10 7 0 
-0.0772972 -0.273445 1.69915 25 22 17 
-0.128276 -0.272163 1.70533 95 91 88 
-0.0454092 -0.197871 1.66931 100 97 92 
-0.144252 -0.167763 1.67038 35 34 30 
-0.137353 -0.147906 1.66394 28 26 27 
-0.0332616 -0.11521 1.63834 112 111 107 
-0.110997 -0.108822 1.64816 15 14 12 
-0.0834033 -0.101751 1.64234 13 12 10 
-0.0372453 -0.093954 1.6339 104 103 101 
-0.160892 -0.0632417 1.6289 82 81 79 
-0.0610127 0.00486664 1.60384 90 89 87 
-0.114492 0.00516726 1.60518 71 69 72 
-0.152593 0.015297 1.61486 3 0 0 
-0.136457 0.0257786 1.61059 57 55 56 
-0.170569 0.0360068 1.62074 102 101 99 
-0.137932 0.0975351 1.61875 70 69 67 
-0.179729 0.110136 1.63623 29 27 28 
-0.239019 0.142578 1.68547 7 6 4 
-0.187867 0.146952 1.63785 77 75 76 
-0.225109 0.153484 1.66833 15 14 12 
-0.0577193 0.15194 1.60699 1 0 0 
-0.173828 0.202492 1.62591 3 1 2 
-0.194564 0.224762 1.63761 80 78 79 
-0.228755 0.234295 1.66465 85 83 84 
-0.166178 0.334039 1.61455 5 3 4 
-0.16994 0.526447 1.60597 60 59 57 
-0.177857 0.546317 1.60548 95 95 95 
-0.202804 0.61998 1.60647 73 72 70 
-0.180409 0.636027 1.59061 103 99 98 
-0.184761 0.680004 1.57924 80 79 77 
-0.136036 0.678909 1.56016 70 68 69 
-0.126299 0.72249 1.55329 97 94 89 
-0.0637142 -0.868279 1.89723 216 216 242 
-0.161734 0.724315 1.56292 71 67 64 
-0.0639676 -0.817246 1.89223 195 195 221 
-0.0648391 -0.660976 1.84482 29 24 18 
-0.0594724 -0.554017 1.80736 114 110 107 
-0.0399877 -0.390327 1.74631 29 26 21 
-0.0583153 -0.340744 1.73081 43 40 31 
-0.115806 -0.330172 1.73509 11 10 6 
-0.107206 -0.299111 1.72101 117 113 110 
-0.0427537 -0.2927 1.70864 102 99 94 
-0.031331 -0.25529 1.69584 52 48 45 
-0.142487 -0.2552 1.71084 37 34 29 
-0.0918768 -0.239524 1.7009 15 14 10 
-0.126903 -0.23574 1.70295 13 12 8 
-0.127059 -0.191193 1.68646 84 83 81 
-0.15586 -0.188544 1.68963 90 86 83 
-0.0730251 -0.183889 1.6761 85 82 77 
-0.120199 -0.178075 1.68146 2 0 1 
-0.140202 -0.168976 1.68102 29 26 21 
-0.0715374 -0.109833 1.654 6 5 3 
-0.066388 -0.101872 1.64874 8 7 5 
-0.149717 -0.0978481 1.65943 25 23 24 
-0.106867 -0.0768896 1.64184 33 32 28 
-0.0491551 -0.0471126 1.61856 29 29 21 
-0.14646 -0.0440053 1.62894 102 98 97 
-0.225461 0.00675344 1.67242 1 0 0 
0.0122207 0.0100035 1.62326 10 6 7 
-0.178931 0.0258225 1.63919 6 4 5 
-0.230209 0.0276007 1.67914 2 1 0 
-0.241024 0.0388554 1.69174 3 0 0 
0.0374034 0.0483015 1.63369 14 13 9 
-0.113332 0.0684511 1.62405 2 0 3 
-0.151721 0.0844161 1.63605 0 1 3 
-0.0634476 0.0909777 1.61891 86 84 85 
0.0437825 0.0982629 1.63597 99 98 94 
-0.188404 0.142035 1.65055 85 84 82 
-0.104225 0.140438 1.6203 78 78 78 
-0.146423 0.150175 1.62839 67 66 64 
-0.195004 0.178528 1.65305 1 0 0 
-0.0680541 0.211882 1.61136 1 0 0 
-0.0279279 0.225478 1.61256 39 39 39 
-0.130577 0.248856 1.61457 81 80 78 
-0.0523341 0.287215 1.60364 92 88 89 
0.0393052 0.305803 1.61905 84 83 81 
-0.141189 0.332386 1.61285 6 2 0 
0.0204374 0.332506 1.60764 3 2 0 
-0.214445 0.371627 1.65649 7 6 4 
-0.0862593 0.469465 1.59254 86 85 83 
-0.0674799 0.516262 1.59131 86 85 83 
0.514596 0.808737 2.14085 89 89 81 
0.488224 0.821501 2.15535 74 73 69 
-0.0455467 0.597402 1.57385 100 98 99 
0.519249 0.838695 2.12126 66 65 61 
-0.190267 0.630021 1.6041 81 80 76 
0.00707905 0.647357 1.58503 87 86 84 
-0.15982 0.651162 1.58449 86 85 83 
-0.0893318 0.644998 1.56956 96 96 94 
0.593791 0.852658 1.83239 66 65 70 
-0.0044818 0.727468 1.56345 133 130 125 
-0.0141034 0.766918 1.52942 78 78 76 
0.0283413 0.774573 1.53791 118 118 108 
-0.0723214 0.766244 1.52046 93 92 87 
0.0100554 0.782576 1.51192 94 95 87 
-0.0931106 0.774779 1.49299 29 30 25 
-0.16933 0.781346 1.50179 10 9 5 
-0.0399884 0.791176 1.47618 107 109 98 
-0.050112 -0.352435 1.73285 109 106 101 
-0.13944 -0.0857915 1.64974 129 126 119 
0.00827962 0.422337 1.59588 84 80 79 
-0.05437 -0.830246 1.89206 64 74 86 
-0.0821986 -0.255829 1.70052 18 15 10 
-0.281606 0.0739299 1.81396 63 63 61 
-0.136389 0.354966 1.61038 71 70 68 
0.0431336 0.796925 1.50436 91 91 79 
-0.129709 0.784559 1.30527 94 85 76 
-0.0871609 -0.380677 1.74733 39 36 31 
-0.050137 0.709443 1.5545 87 85 86 
-0.0507419 -0.800616 1.88705 207 212 231 
-0.0844444 -0.85609 1.88069 218 226 245 
-0.0870101 -0.798472 1.76902 98 103 123 
-0.0766741 -0.597518 1.81134 35 34 32 
-0.092836 -0.554969 1.79661 32 28 25 
-0.111279 -0.491933 1.77824 32 29 24 
-0.147578 -0.451675 1.79929 26 22 23 
-0.123854 -0.356645 1.73144 21 18 13 
-0.135308 -0.346022 1.72888 40 37 30 
-0.100345 -0.346302 1.72625 16 13 8 
-0.0822937 -0.309496 1.70848 25 22 13 
0.0606501 -0.274674 1.73597 189 188 194 
-0.189605 -0.234538 1.71783 44 36 33 
-0.101875 -0.225855 1.6828 82 81 79 
-0.0392413 -0.213017 1.66768 84 80 77 
-0.0846416 -0.209527 1.67503 115 114 112 
-0.111842 -0.189805 1.66972 91 87 88 
-0.0457028 -0.18602 1.66333 79 75 72 
-0.173586 -0.1858 1.68854 80 75 72 
-0.14249 -0.182603 1.66988 58 54 51 
-0.150824 -0.174776 1.66828 87 83 82 
-0.192728 -0.171752 1.70282 37 36 32 
-0.0253289 -0.162835 1.65239 94 90 87 
-0.0725287 -0.149828 1.65118 6 5 3 
-0.154759 -0.148035 1.66057 121 117 116 
-0.243284 -0.126024 1.74681 1 0 0 
-0.166908 -0.114718 1.65294 25 21 18 
-0.247185 -0.109703 1.74405 122 121 119 
0.0738965 -0.0938972 1.70126 101 99 100 
-0.0941456 -0.0743338 1.6184 114 113 109 
-0.0821333 -0.0700324 1.6207 43 40 31 
-0.210897 -0.062237 1.66145 21 18 11 
-0.0496515 -0.0603397 1.61197 53 50 45 
-0.0945856 -0.0525273 1.61342 97 93 90 
-0.143396 -0.0284714 1.60598 23 22 18 
-0.0225305 -0.0284427 1.59863 124 123 121 
-0.0843731 0.0233281 1.59779 17 16 14 
-0.214668 0.0317689 1.64606 105 104 102 
-0.0259163 0.0355536 1.60053 111 109 110 
-0.0776516 0.0462567 1.59719 78 77 75 
-0.0244998 0.0475204 1.60336 13 11 12 
0.00408769 0.0483303 1.6084 94 92 93 
-0.188015 0.0813718 1.6383 79 77 78 
-0.126475 0.113936 1.60858 77 77 77 
0.00678488 0.132128 1.60617 13 12 10 
-0.213577 0.141255 1.65515 1 0 0 
0.0291326 0.152871 1.6138 15 13 14 
-0.0671019 0.177358 1.59875 84 83 81 
-0.248223 0.200661 1.68375 14 11 6 
-0.201309 0.209841 1.63883 86 84 85 
-0.218042 0.224304 1.65637 2 1 0 
-0.212208 0.226454 1.64868 93 92 90 
-0.185848 0.383513 1.61945 73 72 70 
-0.107464 0.409565 1.5885 80 78 79 
0.0546076 0.426649 1.61408 2 1 0 
-0.544677 0.839095 3.01378 69 70 65 
-0.22801 0.440692 1.64918 62 62 62 
0.00439236 0.431124 1.58622 83 81 82 
-0.200794 0.457954 1.625 13 12 10 
-0.210471 0.532819 1.61022 17 17 15 
-0.2598 0.563966 1.67686 2 1 15 
-0.244432 0.576709 1.65686 0 2 11 
-0.148315 0.557916 1.58085 84 83 81 
-0.0881968 0.557167 1.57101 97 95 96 
-0.239611 0.585239 1.64696 2 0 3 
0.501861 0.79857 2.1181 87 86 81 
-0.248843 0.610788 1.66176 64 63 61 
-0.257026 0.627474 1.67228 105 105 103 
-0.279455 0.655302 1.68534 100 99 97 
-0.212309 0.72589 1.58654 9 5 2 
-0.117255 0.738161 1.52211 117 113 110 
-0.209138 0.785818 1.39951 103 99 88 
-0.138787 0.785436 1.36782 121 111 101 
-0.0619513 0.193879 1.59935 88 87 85 
-0.294053 0.774985 1.51984 94 91 86 
-0.0578509 -0.460165 1.76013 122 118 115 
-0.124136 -0.0678457 1.62381 122 119 114 
-0.0131761 0.093951 1.61254 72 72 72 
-0.267443 0.621237 1.68344 110 88 38 
-0.179399 0.691321 1.57035 64 63 61 
-0.0320927 0.720986 1.54969 91 90 88 
-0.342619 0.759288 1.5956 68 64 63 
-0.255448 0.751236 1.54384 16 17 9 
-0.035235 -0.239922 1.67789 99 95 92 
-0.0798831 -0.85852 1.88987 186 181 211 
-0.0506866 -0.858845 1.8859 78 85 103 
-0.0592789 -0.844904 1.88643 100 105 124 
-0.0582595 -0.756293 1.84884 45 44 42 
-0.0851261 -0.683251 1.84781 127 124 119 
-0.0735573 -0.683071 1.8448 97 94 85 
-0.0756417 -0.617764 1.82445 40 36 33 
-0.098542 -0.595388 1.81919 47 42 38 
-0.0613903 -0.522963 1.79216 18 17 15 
-0.0957483 -0.516907 1.7904 37 33 32 
-0.125882 -0.507806 1.80892 29 28 26 
-0.0560448 -0.5041 1.78337 30 26 23 
-0.0979798 -0.493355 1.78479 42 37 33 
-0.0755357 -0.494058 1.78397 22 16 16 
-0.0943295 -0.450404 1.76764 23 19 18 
-0.115507 -0.422899 1.7634 23 20 15 
-0.095414 -0.417239 1.75827 32 28 25 
-0.0472032 -0.419017 1.75276 39 36 31 
-0.0582513 -0.415693 1.75147 17 13 10 
-0.054903 -0.403892 1.74879 113 109 108 
-0.0972641 -0.393605 1.75005 29 25 22 
-0.0640393 -0.389121 1.74283 36 31 27 
-0.124674 -0.381064 1.74701 39 35 32 
-0.0693369 -0.377176 1.74024 29 26 21 
-0.139039 -0.372598 1.75029 17 13 10 
-0.0884787 -0.368892 1.73864 114 111 106 
-0.0945118 -0.356911 1.73616 20 17 12 
-0.154614 -0.352225 1.76413 47 44 39 
-0.0760726 -0.350989 1.73094 110 107 100 
-0.146998 -0.346008 1.74777 30 26 17 
-0.0910241 -0.33745 1.7287 118 114 111 
-0.117922 -0.32857 1.72771 6 2 0 
-0.048503 -0.331567 1.72217 39 35 32 
-0.066363 -0.307452 1.71566 31 25 25 
-0.0478896 -0.308111 1.71291 49 48 44 
-0.150351 -0.299272 1.72726 27 26 24 
-0.138846 -0.291167 1.71722 23 20 15 
-0.0495077 -0.29464 1.70669 105 101 98 
-0.0707181 -0.289754 1.70681 33 30 25 
-0.0442544 -0.278662 1.70289 21 17 14 
-0.126443 -0.273082 1.70857 84 83 81 
-0.104759 -0.273698 1.70459 27 24 19 
-0.143453 -0.271461 1.70835 93 92 87 
-0.0812815 -0.261093 1.69949 30 26 23 
-0.14725 -0.253994 1.70514 31 27 24 
-0.20143 -0.255738 1.74034 19 9 8 
-0.178041 -0.250608 1.71007 95 94 89 
-0.148645 -0.244356 1.70161 26 22 19 
-0.139211 -0.240898 1.69937 18 14 13 
-0.0938936 -0.238365 1.69439 14 13 11 
-0.129157 -0.234495 1.69506 35 31 30 
-0.0665089 -0.233088 1.68893 82 78 77 
-0.189079 -0.231272 1.72527 42 30 30 
-0.152579 -0.226975 1.69675 44 41 36 
-0.220878 -0.233807 1.76746 4 3 1 
-0.0888789 -0.225331 1.68722 98 94 93 
-0.0578341 -0.22241 1.6856 97 96 94 
-0.077023 -0.21936 1.6826 74 73 71 
-0.109266 -0.216367 1.68704 88 87 85 
-0.0954066 -0.217575 1.68741 87 86 82 
-0.0487252 -0.21867 1.68126 26 22 21 
-0.196056 -0.212991 1.73439 105 93 93 
-0.145851 -0.208652 1.68768 90 89 87 
-0.20872 -0.212634 1.75284 76 66 67 
-0.164903 -0.19994 1.69028 33 30 25 
-0.230218 -0.206046 1.78046 122 119 112 
-0.0504401 -0.200711 1.67424 9 5 2 
-0.0652177 -0.197615 1.6754 34 30 29 
-0.138557 -0.192029 1.68236 30 26 23 
-0.126292 -0.187248 1.67911 101 95 95 
-0.15235 -0.18553 1.68161 101 97 96 
-0.212097 -0.189977 1.75248 24 23 21 
-0.181142 -0.175672 1.7069 61 60 58 
-0.0314761 -0.176817 1.66546 101 98 93 
-0.157811 -0.168177 1.67777 82 81 79 
-0.131145 -0.167729 1.67298 102 100 101 
-0.0743926 -0.167312 1.66135 111 110 108 
-0.106221 -0.165035 1.66905 102 98 95 
-0.192186 -0.16421 1.71006 19 18 14 
-0.0487245 -0.165167 1.66354 25 21 20 
-0.113637 -0.158413 1.66689 97 95 96 
-0.0583781 -0.155434 1.66031 112 111 109 
-0.120319 -0.150992 1.66648 24 23 21 
-0.0974811 -0.151305 1.66532 22 21 19 
-0.179804 -0.148932 1.68195 106 104 105 
-0.0720351 -0.150423 1.65797 11 9 10 
-0.165746 -0.136981 1.66663 26 22 19 
-0.155817 -0.137461 1.6669 18 14 13 
-0.133086 -0.136926 1.66333 110 108 109 
-0.106918 -0.132722 1.65782 28 27 25 
-0.178182 -0.128654 1.67163 23 22 20 
-0.167656 -0.125367 1.66128 93 89 88 
-0.14176 -0.121403 1.66078 8 7 5 
-0.249828 -0.125285 1.7692 31 30 28 
-0.0937787 -0.111536 1.65089 112 110 111 
-0.162615 -0.109471 1.65707 80 79 77 
-0.041049 -0.109642 1.64494 19 18 16 
-0.140962 -0.106608 1.65338 119 118 116 
-0.126929 -0.0990151 1.65084 112 111 109 
-0.146936 -0.0943903 1.65037 54 51 44 
-0.241173 -0.0969476 1.74277 12 11 9 
-0.0666459 -0.0925692 1.64027 82 80 81 
-0.124569 -0.0878992 1.64552 42 39 30 
-0.232195 -0.0893807 1.72463 104 102 103 
-0.120811 -0.0798125 1.64038 25 21 18 
-0.213738 -0.0755721 1.68511 115 114 112 
-0.158508 -0.0742199 1.63943 119 116 109 
-0.0902492 -0.0639609 1.62673 27 24 15 
-0.0794819 -0.0639381 1.62667 41 38 33 
-0.246385 -0.060316 1.71979 20 17 12 
-0.0892629 -0.0563891 1.61963 17 14 9 
-0.113361 -0.045981 1.62212 64 61 52 
-0.0780488 -0.046608 1.61724 23 20 15 
-0.0945527 -0.0454548 1.6185 60 57 48 
-0.123717 -0.0443932 1.62158 105 102 97 
-0.11107 -0.0366065 1.61226 38 35 30 
-0.142825 -0.0324518 1.61588 99 98 94 
-0.237315 -0.0256433 1.67524 7 5 6 
-0.244208 -0.0241355 1.68584 76 73 68 
-0.105687 -0.0235972 1.60697 112 111 106 
-0.104592 -0.0128446 1.60056 102 101 99 
-0.179344 0.00524478 1.63166 89 85 82 
-0.138317 0.00484531 1.61479 98 94 93 
-0.232387 0.00659307 1.67381 85 84 82 
-0.16261 0.00884419 1.62334 104 100 97 
-0.284495 0.0107465 1.75253 7 6 4 
0.021395 0.0208023 1.62392 17 16 14 
-0.0626724 0.0219316 1.60581 72 71 69 
-0.179135 0.0254876 1.63095 9 7 8 
-0.231753 0.027341 1.67205 4 3 1 
-0.275945 0.0321558 1.73436 10 8 9 
-0.10938 0.034261 1.60893 66 64 65 
-0.242966 0.0386843 1.68241 5 3 4 
-0.253636 0.0398132 1.69755 16 16 18 
-0.232908 0.0453151 1.66899 94 93 91 
-0.284877 0.0522629 1.75624 78 78 78 
-0.270985 0.0521901 1.72682 65 64 62 
-0.219261 0.0554326 1.6574 63 61 62 
-0.230821 0.0806014 1.68474 79 77 78 
-0.0575386 0.104342 1.61506 82 80 81 
-0.223972 0.106733 1.67476 12 12 12 
0.0374666 0.109745 1.6297 98 96 97 
-0.214836 0.111498 1.6691 78 76 77 
0.0157363 0.11511 1.62096 3 2 0 
-0.278144 0.123451 1.76876 98 98 98 
-0.239837 0.120388 1.69041 16 16 16 
-0.221959 0.121193 1.67102 1 0 0 
-0.187189 0.178222 1.64059 69 67 68 
-0.19585 0.180028 1.64585 12 10 11 
-0.0195647 0.218718 1.61186 15 13 14 
-0.220438 0.218637 1.6642 79 75 72 
-0.179538 0.218755 1.63639 88 87 85 
-0.265788 0.236823 1.7285 2 1 0 
-0.200476 0.311786 1.64151 90 89 87 
-0.214065 0.330121 1.65227 78 77 75 
-0.254322 0.362965 1.704 88 87 82 
-0.183866 0.491863 1.62008 81 80 78 
-0.20132 0.498454 1.63022 79 78 76 
-0.249137 0.513904 1.66018 27 27 27 
-0.266052 0.541462 1.68259 13 9 8 
-0.243571 0.559005 1.66028 0 0 9 
-0.249821 0.563822 1.6731 71 69 83 
-0.257361 0.577748 1.68503 102 101 117 
-0.2709 0.605726 1.70092 56 55 51 
-0.256956 0.613361 1.68322 111 109 114 
-0.250777 0.638628 1.6757 59 60 62 
-0.239235 0.63867 1.65827 79 80 84 
-0.165448 0.626475 1.5859 89 88 86 
-0.239555 0.661684 1.66264 98 96 107 
-0.261709 0.677514 1.69245 54 54 54 
-0.183557 0.651604 1.59218 68 66 67 
-0.24327 0.683708 1.66597 84 84 92 
-0.236634 0.681574 1.65574 93 92 98 
-0.132255 0.657676 1.56966 111 109 110 
-0.08194 0.675122 1.55745 84 80 81 
-0.238838 0.700112 1.65722 13 17 2 
-0.227094 0.731531 1.57899 96 93 86 
-0.112975 0.739926 1.52623 92 88 85 
-0.487127 0.797882 1.65911 138 133 129 
-0.0951593 -0.563959 1.80723 44 40 39 
-0.142423 -0.373318 1.75998 44 41 36 
-0.106167 -0.31942 1.72281 87 83 80 
-0.152166 -0.318927 1.73934 83 82 78 
-0.187216 -0.154197 1.6978 20 19 15 
0.013005 -0.124494 1.67079 80 78 79 
-0.194902 -0.118656 1.69062 114 113 111 
-0.110276 -0.0936467 1.64516 14 13 11 
-0.137794 -0.0898687 1.64648 115 112 107 
-0.116652 -0.0719663 1.6333 113 110 101 
-0.248598 -0.0374054 1.70372 46 43 38 
-0.19234 0.125206 1.6459 12 10 11 
-0.231447 0.357053 1.67288 104 103 99 
-0.101195 0.378207 1.60615 134 132 133 
-0.251842 0.582177 1.67265 115 115 125 
-0.24576 0.590446 1.66541 10 10 12 
-0.0662217 -0.814326 1.88652 210 217 236 
-0.0731937 -0.75565 1.85105 43 39 36 
-0.0627417 -0.429634 1.76237 102 98 95 
-0.0763026 -0.370368 1.7377 6 3 0 
-0.028206 -0.330565 1.7237 104 100 97 
-0.0380955 -0.153516 1.65603 99 95 92 
-0.167224 -0.0793508 1.64485 98 97 93 
-0.129968 -0.0745951 1.63822 33 30 25 
-0.208062 0.0263644 1.65014 12 11 9 
-0.188318 0.0373914 1.63704 17 15 16 
-0.149849 0.0371782 1.61767 6 2 1 
-0.239428 0.106836 1.69214 1 0 0 
-0.274072 0.113687 1.75369 0 0 0 
-0.116119 0.20848 1.61084 9 7 8 
-0.0825332 0.344699 1.6073 114 106 104 
-0.229481 0.536441 1.63391 8 8 8 
-0.142649 0.619496 1.58206 102 101 99 
-0.191292 0.723844 1.5827 86 85 83 
-0.103687 0.759881 1.52203 72 68 69 
-0.0869326 -0.751945 1.84977 47 45 48 
-0.0622862 -0.267272 1.6985 103 100 93 
-0.0661333 -0.858961 1.88618 27 27 55 
-0.0513358 0.0744388 1.60996 62 60 61 
-0.0208509 -0.445662 1.82576 130 126 125 
-0.111037 -0.355203 1.78898 21 20 16 
0.038895 -0.289069 1.7686 22 23 18 
0.0518788 -0.246883 1.78213 104 94 95 
-0.118599 -0.235509 1.74699 21 17 14 
-0.107563 -0.213379 1.73421 99 98 94 
-0.0171896 -0.207983 1.72287 79 76 71 
0.0752088 -0.211159 1.79394 98 94 91 
0.0884931 -0.188483 1.79699 95 94 92 
-0.142216 -0.184365 1.73126 33 29 26 
0.0222081 -0.178782 1.74287 94 93 91 
-0.0209956 -0.169137 1.70904 99 95 92 
-0.0208627 -0.157739 1.70313 23 19 16 
-0.0334586 -0.0703753 1.67065 107 103 100 
-0.134369 -0.069843 1.68276 113 109 106 
0.0713012 -0.0672788 1.72826 96 95 93 
0.111298 -0.0625808 1.7557 20 16 13 
-0.114077 -0.0617279 1.67812 42 39 30 
0.0246847 -0.0285939 1.66696 90 90 92 
0.0610632 0.00188843 1.68946 84 82 83 
-0.00402058 0.00445823 1.6617 85 84 82 
-0.131164 0.015749 1.66201 75 75 73 
0.0630533 0.0574528 1.6908 59 58 56 
0.00119539 0.0653587 1.6626 86 86 86 
0.0351343 0.075369 1.67414 73 72 70 
-0.023785 0.0840869 1.66375 70 68 69 
0.0295512 0.0839338 1.66704 102 99 94 
-0.111322 0.101999 1.66595 70 68 69 
-0.0448375 0.100796 1.66073 67 65 66 
0.0776191 0.128436 1.69789 14 12 13 
-0.129339 0.196676 1.66429 12 10 11 
0.0376399 0.197993 1.66525 10 6 5 
0.136233 0.242186 1.78696 11 7 4 
-0.00242121 0.23362 1.65723 54 52 53 
0.0803474 0.249542 1.69006 82 81 79 
0.00676011 0.29415 1.64552 92 91 89 
0.0356099 0.303756 1.65648 20 16 15 
0.0758003 0.405939 1.678 15 9 9 
0.0282812 0.434843 1.64672 97 93 92 
-0.14582 0.595095 1.62719 66 65 63 
0.0529357 0.592516 1.64942 85 86 81 
0.0184197 0.594219 1.63049 86 85 81 
-0.129593 0.663242 1.61818 80 78 79 
0.109469 0.676888 1.69681 121 119 120 
0.0104008 0.676938 1.6196 88 86 87 
0.0334502 0.684085 1.62895 89 87 88 
-0.0530178 0.693451 1.60048 86 84 85 
-0.0525074 0.709039 1.59811 84 82 83 
-0.00363732 0.725087 1.60686 73 71 72 
0.0716166 0.75469 1.60774 120 116 105 
0.010367 0.752307 1.58016 113 112 107 
-0.0410187 0.755581 1.56704 5 4 0 
0.103414 0.765581 1.63038 93 89 86 
0.0863193 0.777805 1.61791 104 105 100 
0.120762 0.791437 1.64337 97 94 87 
0.0991338 0.795658 1.6234 106 105 101 
-0.0445275 0.790148 1.56135 91 90 85 
0.0173628 0.791527 1.57397 17 16 14 
0.108005 0.688158 1.68461 107 106 104 
0.0962604 0.706678 1.66327 106 105 103 
-0.0505157 0.751378 1.56942 103 102 100 
-0.0553571 -0.830009 1.94745 150 155 174 
-0.0161636 0.194268 1.66105 75 71 72 
0.0302249 0.277697 1.65483 83 82 80 
-0.00391353 0.735039 1.6042 90 86 87 
0.0216552 -0.254019 1.75717 101 89 89 
-0.0653161 -0.866928 1.95148 11 11 45 
0.00230719 -0.493742 1.85859 89 85 82 
0.0113916 -0.380498 1.81749 32 31 29 
-0.0560195 -0.377938 1.78767 43 40 35 
0.0286655 -0.329729 1.76128 99 99 89 
-0.0453872 -0.269505 1.7439 19 18 14 
-0.0932585 -0.268096 1.75275 111 110 108 
0.00738716 -0.223264 1.73918 8 7 3 
-0.126134 -0.213491 1.73732 97 96 94 
-0.0659167 -0.125064 1.69999 105 104 102 
-0.0441232 0.0243433 1.6534 1 0 0 
0.010413 0.0253342 1.66194 1 0 0 
-0.0205688 0.0368647 1.65479 100 98 99 
0.0375586 0.057389 1.67402 7 6 4 
0.0201741 0.0834252 1.66245 80 76 73 
-0.0607098 0.178176 1.65499 76 72 73 
-0.0483514 0.285814 1.64535 74 72 73 
0.0533752 0.286977 1.66487 94 92 93 
0.0369667 0.288265 1.65624 4 2 5 
-0.0352299 0.416296 1.63795 83 82 80 
-0.0270606 0.574345 1.61895 118 118 118 
0.0608783 0.689441 1.63572 105 104 102 
0.0150137 -0.427954 1.8398 124 120 119 
0.107148 0.386668 1.70518 5 1 0 
0.108099 0.706046 1.67225 93 91 92 
0.0499809 0.752149 1.59345 114 110 101 
0.0157833 0.11775 1.66445 17 17 15 
0.0385934 0.338626 1.65281 80 79 77 
-0.101772 0.388985 1.6491 134 133 129 
-0.0604533 0.748195 1.56293 127 126 124 
0.0412482 0.347891 1.65719 4 3 1 
-0.143822 -0.152459 1.7005 119 119 119 
-0.117811 -0.110941 1.68347 30 29 27 
-0.0729854 -0.0299554 1.63536 8 1 0 
-0.0920568 0.0365219 1.63449 3 1 2 
0.00603245 0.0372408 1.63787 89 87 88 
0.0532376 0.165916 1.65201 65 63 64 
-0.0330625 0.473273 1.61409 81 77 78 
-0.0146654 -0.111625 1.66751 45 44 42 
-0.114986 -0.16476 1.69951 96 92 89 
-0.107879 0.211996 1.63726 12 11 9 
-0.0551753 -0.794332 1.93801 55 53 54 
-0.0595756 -0.202887 1.69711 5 4 2 
-0.0589672 -0.733282 1.90734 196 194 208 
-0.133012 -0.0959348 1.67026 89 88 84 
-0.112173 0.0247767 1.6287 0 0 0 
-0.0950918 0.0328032 1.62519 0 0 0 
-0.134211 0.0335961 1.63453 87 86 81 
-0.105267 0.0984029 1.63468 75 74 72 
-0.132141 0.245248 1.63166 98 98 98 
-0.187564 0.266927 1.64205 14 12 13 
-0.142997 0.311161 1.61713 0 1 0 
-0.1842 0.673598 1.58595 83 82 80 
-0.0693839 -0.726681 1.89881 28 26 29 
-0.0595972 -0.723681 1.89381 226 226 234 
-0.127599 0.050315 1.61462 88 87 85 
-0.134815 0.241816 1.6158 71 69 70 
-0.178065 0.258717 1.63146 12 11 9 
-0.156821 0.286195 1.61898 74 73 71 
-0.11357 0.649202 1.57092 76 72 73 
-0.174557 -0.0981678 1.65802 95 94 92 
-0.144981 -0.485731 1.83818 33 29 26 
-0.110359 -0.395689 1.76375 31 23 20 
-0.216612 -0.138244 1.7405 92 90 91 
-0.275688 -0.0592764 1.76652 90 90 90 
-0.180534 -0.0139683 1.63095 51 50 46 
-0.190273 0.0155217 1.64681 83 82 80 
-0.233837 0.0174218 1.68018 81 80 78 
-0.169882 0.241401 1.63337 72 71 69 
-0.243182 0.540684 1.65216 96 92 91 
-0.15468 0.543013 1.60454 73 71 72 
-0.236524 0.571894 1.65659 117 116 130 
-0.21661 0.581694 1.62273 93 92 90 
-0.136733 -0.0533561 1.63281 105 102 97 
-0.130588 0.325114 1.61315 85 81 78 
-0.266808 0.578566 1.69706 89 84 88 
-0.24489 0.654654 1.66752 80 81 85 
-0.158121 0.638839 1.58899 83 81 82 
-0.0776506 -0.770445 1.89578 43 41 42 
-0.114467 -0.489429 1.81301 31 27 18 
-0.156209 -0.448957 1.84711 30 25 19 
-0.131933 -0.430434 1.80035 28 29 24 
-0.149783 -0.414271 1.81908 78 74 73 
-0.107512 -0.378325 1.7627 27 24 19 
-0.131949 -0.339159 1.75345 114 110 101 
-0.189006 -0.344068 1.82415 18 14 11 
-0.119483 -0.338068 1.749 113 109 108 
-0.196889 -0.302289 1.76299 87 84 77 
-0.181632 -0.320822 1.94976 120 118 123 
-0.1283 -0.255651 1.7179 30 29 27 
-0.205849 -0.23936 1.77234 89 75 75 
-0.150758 -0.219318 1.70977 96 93 86 
-0.223222 -0.17967 1.77569 93 92 87 
-0.240046 -0.176347 1.80012 15 14 10 
-0.190223 -0.150762 1.72152 87 86 84 
-0.178825 -0.129661 1.69465 1 0 0 
-0.221085 -0.130166 1.75006 82 81 79 
-0.213318 -0.0905027 1.72041 89 88 86 
-0.267589 -0.0821995 1.77999 41 40 38 
-0.258248 -0.0699381 1.75936 20 17 10 
-0.217147 -0.0537367 1.69308 36 35 31 
-0.227534 -0.0468716 1.69658 21 17 8 
-0.232885 -0.0372075 1.69739 19 16 11 
-0.290215 0.0169557 1.79782 12 10 11 
-0.272868 0.0199461 1.74534 92 92 92 
-0.279312 0.0229926 1.75482 118 118 116 
-0.130399 0.0364974 1.62724 0 0 0 
-0.23704 0.0493056 1.68838 24 23 21 
-0.278024 0.0560118 1.75299 74 72 73 
-0.265361 0.0877026 1.74469 91 90 88 
0.0175382 0.0905258 1.63504 73 69 66 
-0.281793 0.0990174 1.85936 13 12 10 
-0.270495 0.0943986 1.76178 3 2 0 
-0.265815 0.101885 1.75142 83 82 80 
-0.270758 0.103622 1.7692 77 77 77 
-0.264013 0.146569 1.74301 84 83 81 
-0.275794 0.175425 1.77237 85 81 80 
-0.200878 0.181652 1.6629 11 9 10 
-0.285513 0.215277 1.81673 25 21 18 
-0.159805 0.219692 1.63387 3 1 2 
-0.0548095 0.243896 1.62029 61 60 58 
-0.220184 0.247247 1.67247 73 71 72 
-0.235361 0.363667 1.68833 118 117 113 
-0.231129 0.380945 1.68105 93 94 88 
-0.263628 0.563266 1.69327 96 96 104 
-0.30052 0.585652 1.75984 79 77 78 
-0.261729 0.597183 1.69118 1 1 3 
-0.248908 0.601552 1.67496 61 60 65 
-0.160232 0.591458 1.59253 82 80 81 
-0.236363 0.604005 1.65615 81 81 81 
-0.243138 0.635047 1.66537 64 65 67 
-0.236979 0.653149 1.65728 79 81 80 
-0.235165 0.662237 1.6531 91 91 101 
-0.383954 0.79792 1.76874 99 97 84 
-0.367773 0.766186 1.6275 62 61 59 
-0.334366 0.75705 1.58268 55 54 52 
-0.296173 0.752139 1.53634 79 79 77 
-0.270766 0.787931 1.46786 89 82 74 
-0.0186547 -0.784995 1.8901 86 81 88 
-0.0824213 -0.0300497 1.62499 72 68 59 
-0.225832 0.775748 1.44479 89 90 76 
-0.163668 -0.21441 1.71706 76 73 66 
-0.220569 -0.157521 1.76173 93 92 90 
-0.0460935 -0.0754849 1.64758 22 18 17 
-0.219056 -0.0357355 1.6737 86 83 78 
-0.253287 0.652313 1.67874 79 81 80 
-0.180997 -0.222252 1.73999 26 22 19 
-0.231325 0.561851 1.65078 122 123 128 
-0.258488 0.74174 1.576 71 71 61 
-0.0561042 -0.889105 1.91504 25 27 65 
-0.0528185 -0.847779 1.91075 11 11 45 
-0.0634486 -0.81205 1.91365 204 211 230 
-0.171706 0.0163368 1.63791 84 83 81 
-0.048551 -0.720148 1.88302 37 33 34 
-0.439299 0.57446 2.07371 41 42 28 
-0.0857559 -0.619332 1.84966 24 20 11 
-0.158985 -0.428695 1.83709 35 31 28 
-0.132404 -0.401449 1.78697 12 7 3 
-0.18618 -0.235216 1.75262 82 68 68 
-0.2425 -0.104129 1.76979 76 74 75 
-0.20746 -0.0109964 1.65835 22 19 12 
-0.195295 0.00488112 1.65982 18 17 15 
-0.149693 0.0427979 1.63503 13 9 8 
-0.251643 0.123571 1.72587 79 81 80 
-0.280429 0.180581 1.79299 29 25 22 
-0.181348 0.212204 1.65207 4 2 3 
-0.254372 0.593368 1.68654 22 23 28 
-0.234079 0.63696 1.65958 59 61 60 
-0.237119 0.599844 1.66445 93 93 91 
-0.302109 0.786763 1.60863 69 68 66 
-0.0530602 -0.898678 1.91396 27 38 58 
-0.0558851 -0.846494 1.9113 225 224 255 
-0.0723797 -0.767276 1.87891 52 48 49 
-0.0860115 -0.766218 1.90178 47 45 46 
-0.0610881 -0.714917 1.87392 9 5 4 
-0.0912387 -0.636557 1.85723 126 122 113 
-0.0693968 -0.453363 1.79128 81 79 80 
-0.118435 -0.442173 1.79693 29 28 24 
-0.154001 -0.444238 1.89814 19 18 16 
-0.122245 -0.430523 1.79237 28 27 25 
-0.0316342 -0.428922 1.77933 102 100 103 
-0.0509283 -0.383549 1.76171 26 22 19 
-0.0459713 -0.360398 1.75565 16 15 13 
-0.198884 -0.309587 1.8714 1 0 0 
-0.215493 -0.24427 1.90647 96 95 93 
-0.218432 -0.23599 1.87287 114 113 111 
-0.107302 -0.232111 1.71439 11 10 8 
-0.147668 -0.214035 1.71069 103 102 98 
-0.227362 -0.174158 1.79021 90 89 85 
-0.20448 -0.170105 1.75227 103 102 100 
-0.222803 -0.168258 1.78054 9 8 6 
-0.0507159 -0.161445 1.68417 91 90 88 
-0.220744 -0.136259 1.76299 19 15 12 
-0.248127 -0.13588 1.87106 91 90 88 
-0.031084 -0.142185 1.67544 86 83 78 
-0.258019 -0.120939 1.80981 78 77 75 
-0.156457 -0.109859 1.67744 20 19 15 
-0.022948 -0.110842 1.66668 112 111 109 
-0.268026 -0.0894375 1.79846 24 20 17 
-0.266429 -0.0874497 1.81792 88 87 85 
-0.216916 -0.0870715 1.7323 95 94 90 
-0.272135 -0.0731286 1.7996 90 90 90 
-0.212967 -0.0741025 1.71725 31 30 28 
-0.260311 -0.0672332 1.9172 3 1 2 
-0.214329 -0.0622005 1.71368 29 25 22 
-0.263607 -0.0566795 1.76345 112 107 101 
-0.260713 -0.0509071 1.75126 102 99 94 
-0.136627 -0.0542038 1.64425 1 0 0 
-0.197983 -0.0500165 1.67867 43 40 35 
-0.21565 -0.0366884 1.69278 122 119 114 
-0.211368 -0.0288365 1.67861 39 36 31 
-0.157314 -0.027571 1.64065 35 34 30 
-0.272596 0.0104568 1.75799 87 85 86 
-0.2939 0.016856 1.87138 0 2 1 
-0.21162 0.0165742 1.68049 69 67 68 
-0.284404 0.022354 1.7936 82 81 79 
-0.289339 0.0232964 1.81288 19 19 17 
-0.291117 0.0263673 1.86401 90 88 89 
-0.2933 0.0263783 1.82956 94 92 93 
-0.228394 0.0277047 1.69129 3 0 0 
-0.289567 0.0342223 1.81627 1 1 1 
-0.286356 0.0400859 1.91525 1 0 0 
-0.249061 0.0406175 1.71955 80 74 74 
-0.266213 0.0421562 1.74476 13 11 12 
-0.278772 0.0435852 1.76997 4 4 4 
-0.293013 0.0609844 1.8658 68 64 63 
-0.278111 0.0889764 1.80636 2 2 2 
-0.276308 0.0961296 1.81381 5 3 4 
-0.281297 0.109495 1.89363 85 84 82 
-0.282755 0.106576 1.84456 88 86 87 
-0.284088 0.111658 1.85807 81 81 81 
-0.259115 0.115743 1.74825 71 67 66 
-0.276147 0.119465 1.80361 85 83 84 
0.0126296 0.131531 1.63899 74 74 74 
-0.278689 0.150487 1.8916 8 7 5 
-0.283363 0.151802 1.8353 86 85 83 
-0.242965 0.14604 1.7211 89 89 89 
-0.224116 0.162702 1.69718 9 7 8 
-0.281775 0.197516 1.83832 71 67 64 
-0.27513 0.217374 1.78535 7 3 0 
-0.279022 0.279969 1.88353 89 81 78 
-0.260785 0.269977 1.74122 69 67 68 
-0.279744 0.32172 1.78111 14 10 9 
-0.0677012 0.358321 1.62476 106 97 98 
-0.254917 0.349597 1.7245 69 68 66 
-0.217612 0.380793 1.67999 91 90 88 
-0.277114 0.434718 1.76661 89 88 84 
-0.248749 0.455462 1.68216 14 12 15 
-0.279925 0.50488 1.77486 83 82 80 
-0.256844 0.516305 1.6903 88 88 88 
1.11125 0.858519 1.66536 87 86 81 
-0.290865 0.560204 1.8471 72 71 69 
0.848664 0.869705 1.88946 59 58 53 
-0.287614 0.553482 1.80715 107 106 104 
-0.285204 0.550339 1.7794 90 89 87 
-0.0292751 0.837948 2.59029 59 55 52 
-0.114409 0.840711 2.65298 98 97 92 
-0.0605652 0.842497 2.60524 68 67 62 
-0.0942973 0.850432 2.65353 71 68 63 
-0.296138 0.572752 1.81719 79 78 76 
-0.284828 0.560728 1.76153 100 98 99 
-0.0945255 0.866703 2.64196 70 69 64 
-0.107019 0.862592 2.63314 71 70 65 
-0.0918187 0.881238 2.59276 72 69 62 
-0.17916 0.576013 1.61536 73 73 71 
-0.13103 0.876877 2.60243 63 61 64 
-0.235851 0.584946 1.67906 11 10 24 
-0.144079 0.881037 2.59142 109 108 104 
-0.25113 0.609734 1.69181 17 17 19 
-0.261537 0.626786 1.70368 82 71 51 
-0.252329 0.643267 1.69205 87 87 87 
-0.228468 0.677199 1.66226 75 75 85 
-0.237168 0.682249 1.67757 70 70 72 
-0.348826 0.824598 2.11799 154 157 140 
-0.348067 0.788025 1.73068 94 93 89 
-0.376022 0.793678 1.62524 29 28 24 
-0.397606 0.804466 1.65686 96 92 83 
