ply                 
format ascii 1.0    
element vertex 107
property float x    
property float y    
property float z    
property uchar red  
property uchar green
property uchar blue 
end_header          
-0.0796314 -0.873561 1.90663 217 223 255 
-0.049134 -0.87083 1.90148 57 61 90 
-0.0539711 -0.49521 1.79586 55 52 47 
-0.0732941 -0.357207 1.74946 113 110 105 
-0.0791882 -0.355523 1.75019 28 24 21 
-0.0889249 -0.343315 1.74657 125 124 119 
-0.0910217 -0.340037 1.74676 103 104 99 
-0.0952431 -0.339259 1.74707 94 94 94 
-0.0427177 -0.337227 1.73812 51 48 41 
-0.115467 -0.334699 1.74709 11 10 6 
-0.037262 -0.322406 1.73188 126 123 118 
-0.10916 -0.281282 1.72491 3 0 0 
-0.038502 -0.254474 1.7085 37 34 29 
-0.0400038 -0.251831 1.70757 117 114 109 
-0.0836688 -0.239136 1.70968 21 20 15 
-0.0980181 -0.192802 1.69445 114 110 107 
-0.0282725 -0.185591 1.68436 119 115 114 
-0.0751873 -0.177287 1.68717 35 30 27 
-0.139884 -0.161116 1.69049 25 24 20 
-0.0944063 -0.1612 1.68459 73 72 70 
-0.0510842 -0.15071 1.67548 39 36 31 
-0.0483179 -0.13978 1.67125 20 17 10 
-0.0650112 -0.135669 1.67101 8 4 1 
-0.124647 -0.124288 1.67736 2 1 0 
-0.125402 -0.123122 1.67812 163 162 160 
-0.160642 -0.111928 1.67703 96 95 93 
-0.0550268 -0.110475 1.66372 110 108 109 
-0.13785 -0.10905 1.67186 129 123 125 
-0.144244 -0.0969527 1.67097 29 24 21 
-0.0439408 -0.0942945 1.65548 35 32 27 
-0.0762359 -0.0872175 1.65726 131 127 126 
-0.115762 -0.0857397 1.66101 29 28 24 
-0.0633511 -0.0539256 1.63573 92 89 80 
-0.138901 -0.0443443 1.64059 109 104 100 
-0.224654 -0.0126309 1.67583 120 119 117 
-0.173415 -0.0125426 1.6384 107 106 101 
-0.0961226 0.000634013 1.62716 5 1 2 
-0.0931307 0.0131144 1.62589 98 96 97 
-0.159237 0.0247795 1.64044 1 0 0 
-0.11895 0.0305613 1.62875 7 5 6 
-0.0571489 0.0362979 1.62381 85 84 82 
-0.143135 0.0490253 1.63503 69 69 69 
-0.116146 0.0929732 1.63695 11 9 10 
-0.0840529 0.101635 1.63197 98 96 97 
-0.151323 0.108121 1.64622 116 116 116 
-0.114208 0.109963 1.63536 96 96 96 
-0.0495581 0.115963 1.63324 85 85 85 
-0.000597832 0.131486 1.63433 87 87 87 
0.00240716 0.164298 1.62822 21 21 21 
0.00967024 0.16586 1.62751 9 9 7 
3.21025 3.27684 22.8935 46 51 57 
3.23626 3.3171 22.9908 154 159 163 
4.66437 3.31282 22.8205 19 23 34 
-0.0483075 0.228037 1.62569 81 80 78 
3.2363 3.43443 22.9726 12 15 22 
4.11483 3.58754 23.8386 20 20 28 
3.23943 3.46938 22.9858 160 163 172 
4.79473 3.46654 22.5865 65 69 80 
-0.143912 0.246445 1.63448 83 82 80 
3.25331 3.58605 22.3853 90 90 92 
-0.0613174 0.257636 1.62003 1 0 0 
2.47938 3.12416 18.4296 42 42 34 
-0.146533 0.284176 1.63236 5 3 4 
-0.15158 0.305827 1.63422 1 1 1 
-0.170826 0.384042 1.63775 92 88 87 
-0.146303 0.383751 1.62599 77 76 74 
-0.000247427 0.388192 1.61741 86 85 81 
-0.129103 0.484635 1.61424 92 91 89 
-0.0844308 0.548507 1.60239 80 80 78 
-0.0782769 0.553847 1.60037 93 95 92 
-0.0579782 0.568558 1.59519 91 89 90 
-0.0781956 0.575642 1.59088 71 70 68 
0.51795 0.816561 2.15664 89 89 81 
-0.0760885 0.598713 1.58719 72 70 71 
0.58968 0.829071 2.08 86 85 80 
0.524731 0.856163 2.13336 71 66 62 
-0.10962 0.683172 1.57623 112 106 106 
-0.0890084 0.73612 1.56701 111 108 101 
-0.0670575 0.741492 1.542 91 90 85 
-0.0659894 0.742407 1.54168 5 4 0 
-0.0403613 0.747263 1.54393 87 86 84 
-0.0555845 0.748817 1.5417 90 86 85 
-0.0829995 0.773037 1.53869 70 66 63 
-0.0845585 0.777405 1.53669 93 89 86 
-0.0910451 0.786036 1.51644 97 96 94 
-0.0491835 -0.104049 1.66021 128 127 123 
-0.0671569 -0.0570498 1.63825 115 112 105 
-0.224766 -0.0125663 1.67561 120 119 117 
-0.0964306 0.0898865 1.6332 73 72 68 
-0.111168 0.112728 1.63415 88 88 88 
-0.143965 0.246416 1.63439 83 82 80 
-0.0556771 -0.81934 1.90372 125 130 149 
-0.072109 -0.694379 1.86291 118 115 108 
-0.0398707 -0.24543 1.70494 105 102 97 
-0.108243 -0.171911 1.69043 112 108 105 
-0.085241 0.0125468 1.62477 106 105 103 
-0.0961499 0.0898752 1.63364 90 89 85 
-0.0836266 0.10625 1.63162 98 96 97 
-0.157592 0.142879 1.64744 96 92 91 
-0.116181 0.223081 1.62891 71 69 70 
3.29438 3.32082 23.3397 136 141 145 
4.59436 3.32575 23.1529 54 60 72 
4.17815 3.61342 24.0773 64 65 70 
4.64328 3.59572 22.6653 25 28 37 
4.16304 3.60664 24.0059 48 49 54 
3.9478 3.7555 24.0729 49 50 55 
3.91947 3.62985 23.3679 113 116 123 
