ply                 
format ascii 1.0    
element vertex 1228
property float x    
property float y    
property float z    
property uchar red  
property uchar green
property uchar blue 
end_header          
-0.166251 -0.222147 1.68287 252 253 255 
-0.31736 -0.254409 1.6545 79 80 84 
-0.257549 -0.212134 1.64614 83 82 87 
-0.241096 -0.264237 1.68422 99 98 103 
-0.241449 -0.213607 1.6518 98 96 101 
-0.144948 -0.19191 1.66743 76 75 80 
-0.153486 -0.191892 1.6676 32 33 37 
0.434778 -0.616159 1.80185 159 157 158 
-0.171256 -0.19181 1.66139 208 209 213 
-0.130044 -0.270152 1.72401 91 92 96 
0.437782 -0.620361 1.80269 190 192 191 
-0.314789 -0.25539 1.65635 97 98 102 
-0.178455 -0.221095 1.68028 104 103 108 
-0.0532661 -0.196397 1.70321 69 73 76 
-0.183815 -0.242638 1.69164 245 246 250 
-0.179863 -0.269179 1.70983 100 101 105 
-0.137049 -0.201365 1.67522 228 228 230 
-0.123451 -0.218563 1.69225 101 96 100 
-0.202179 -0.19922 1.65948 135 136 140 
0.368749 -0.590272 1.78724 170 175 171 
-0.155185 -0.24258 1.70043 225 226 230 
-0.210141 -0.260844 1.69382 85 86 90 
-0.325762 -0.649189 1.89141 22 31 28 
-0.151419 -0.264317 1.71498 235 236 240 
-0.0545094 -0.229627 1.7252 76 77 81 
-0.529037 -0.219074 1.66175 151 147 146 
-0.134558 -0.273905 1.72465 228 229 233 
0.302152 -0.577068 1.77325 193 199 199 
-0.232709 -0.212587 1.6545 71 70 75 
-0.321056 -0.21724 1.63385 124 125 130 
-0.132366 -0.275038 1.72738 96 97 101 
-0.295965 -0.219086 1.64188 149 152 157 
-0.186707 -0.260952 1.70318 82 83 87 
0.411901 -0.635045 1.80584 213 214 216 
-0.325025 -0.218183 1.63576 121 122 127 
0.291807 -0.563941 1.76544 101 105 108 
-0.308614 -0.219347 1.63913 113 116 121 
-0.0982977 -0.259872 1.72735 106 106 108 
-0.293212 -0.252965 1.65836 62 63 67 
-0.270038 -0.249696 1.66428 81 82 86 
0.455032 -0.645288 1.80976 90 101 97 
0.55866 -0.553543 1.76776 191 177 164 
-0.0739897 -0.233308 1.7207 99 99 101 
-0.33446 -0.220394 1.63208 40 39 45 
0.336339 -0.646107 1.79902 204 204 204 
-0.348713 0.0126407 1.54678 120 113 147 
-0.0535224 -0.215943 1.71465 81 85 88 
-0.133334 -0.261213 1.71813 105 106 110 
-0.0236035 -0.21548 1.7223 51 52 56 
-0.057768 -0.248687 1.7096 96 96 98 
-0.275647 -0.290867 1.69041 214 215 220 
-0.270982 -0.292764 1.69303 224 225 230 
-0.126013 -0.182972 1.66901 60 60 62 
-0.261681 -0.233343 1.65774 119 120 124 
-0.0171309 -0.215217 1.72575 213 213 215 
-0.0705964 -0.243812 1.72783 119 119 121 
0.422194 -0.667734 1.81728 40 50 49 
0.342832 -0.662931 1.80445 206 207 209 
0.522507 -0.491444 1.73529 76 76 68 
-0.308035 -0.227581 1.64325 93 96 101 
-0.115597 -0.237934 1.70779 56 57 61 
-0.136154 -0.237026 1.70195 119 120 124 
-0.278472 -0.229358 1.65008 33 34 39 
-0.0604276 -0.241979 1.73011 75 75 77 
-0.153527 -0.205763 1.67702 219 218 223 
-0.303494 -0.29991 1.68539 104 105 110 
0.484961 -0.541979 1.76086 110 65 0 
-0.332513 0.0191464 1.54972 109 99 134 
-0.0542296 -0.262317 1.74852 77 76 81 
-0.319402 -0.230252 1.64275 81 82 87 
-0.327604 -0.231623 1.64056 39 40 45 
-0.329603 -0.234353 1.64221 34 35 40 
-0.232565 -0.194887 1.64486 39 38 43 
-0.309801 -0.276162 1.66694 212 213 218 
-0.169967 -0.18921 1.6595 177 178 182 
-0.324187 -0.229112 1.6405 232 233 238 
0.528387 -0.527436 1.75439 191 183 170 
0.374827 -0.570802 1.77862 48 50 49 
0.417769 -0.578459 1.78428 209 218 215 
-0.29558 -0.296147 1.68891 221 222 227 
-0.251305 -0.256452 1.67557 240 241 245 
0.431412 -0.606406 1.79661 210 210 210 
-0.144953 -0.184047 1.66574 66 67 71 
-0.305252 -0.240776 1.65116 236 237 239 
-0.13862 -0.190434 1.66908 119 119 121 
0.432343 -0.622288 1.80299 146 148 147 
0.428674 -0.624147 1.8031 178 178 178 
-0.253546 -0.234876 1.66172 224 225 229 
-0.144603 -0.191968 1.66757 90 89 94 
-0.290496 -0.227346 1.64496 85 85 97 
-0.208942 -0.191498 1.65108 57 58 62 
-0.0826647 -0.19871 1.69461 217 217 219 
-0.194372 -0.193967 1.65758 79 80 84 
0.343674 -0.630749 1.79718 4 4 6 
-0.211631 -0.194122 1.65196 220 221 225 
-0.238577 -0.193526 1.64074 27 26 31 
-0.204412 -0.196333 1.65595 42 43 47 
-0.111708 -0.203046 1.68849 77 62 67 
-0.241645 -0.198772 1.6423 218 217 222 
-0.214193 -0.217091 1.66728 225 224 229 
-0.186198 -0.195103 1.65969 196 197 201 
-0.259963 -0.270392 1.68315 221 222 226 
-0.0579036 -0.241094 1.73207 220 220 222 
-0.307461 -0.25485 1.65546 85 86 90 
-0.328696 -0.228821 1.6387 210 211 216 
-0.0603815 -0.204501 1.70664 53 54 59 
-0.179361 -0.224346 1.68226 106 105 110 
-0.0808713 -0.199789 1.69669 91 91 93 
0.390986 -0.608421 1.79536 93 97 96 
-0.0538075 -0.191335 1.70057 76 80 83 
-0.181391 -0.245778 1.69441 235 236 240 
0.340208 -0.645923 1.79844 106 107 109 
-0.253595 -0.244132 1.66705 106 107 111 
-0.0964346 -0.269817 1.73586 95 95 97 
-0.154486 -0.266315 1.71517 59 60 64 
-0.282728 -0.236139 1.65355 127 128 132 
-0.0553824 -0.241106 1.73186 54 55 59 
-0.252465 -0.269582 1.68295 111 112 117 
-0.268759 -0.268679 1.67778 61 62 66 
-0.32387 -0.301356 1.67986 98 99 101 
-0.0865384 -0.242444 1.77635 130 130 132 
-0.124892 -0.168237 1.6597 245 245 247 
-0.334194 -0.220446 1.63235 40 39 45 
0.484908 -0.541887 1.76168 110 65 0 
0.412398 -0.544968 1.76749 184 186 185 
-0.322077 -0.232001 1.64332 234 235 240 
-0.305162 -0.238143 1.65034 136 137 141 
-0.0187691 -0.197645 1.71334 186 230 194 
-0.13443 -0.274006 1.72429 228 229 233 
-0.302575 -0.275022 1.67035 66 67 71 
-0.0717628 -0.238102 1.72339 121 121 123 
-0.125788 -0.261633 1.71805 236 237 241 
-0.178219 -0.221508 1.68028 91 90 95 
-0.317266 -0.254539 1.65371 52 53 57 
-0.278251 -0.229071 1.6508 93 94 99 
-0.255656 -0.230038 1.65706 214 215 219 
-0.578533 -0.538464 1.87793 117 113 101 
-0.0962956 -0.265889 1.73329 89 89 91 
-0.310662 -0.254208 1.65566 69 70 74 
-0.171518 -0.211436 1.67313 64 63 68 
-0.0576528 -0.203581 1.70604 228 229 234 
0.477957 -0.703854 1.83359 182 184 183 
0.533742 -0.471532 1.72889 77 76 71 
0.472307 -0.692908 1.82858 182 178 175 
0.342693 -0.362199 1.67959 165 166 196 
0.348433 -0.675429 1.81023 210 210 210 
0.396101 -0.521113 1.76007 6 8 7 
-0.327872 -0.231728 1.64033 18 19 24 
0.361296 -0.663657 1.80591 54 54 54 
0.468158 -0.668648 1.82016 46 47 51 
0.419801 -0.535681 1.76483 229 235 233 
-0.186811 -0.195243 1.6584 57 58 62 
0.404154 -0.539485 1.76711 120 126 124 
0.36299 -0.655937 1.80545 186 186 188 
0.41278 -0.545655 1.76979 184 186 185 
0.419676 -0.653918 1.81457 232 236 237 
0.349268 -0.551751 1.76938 194 194 192 
0.413143 -0.65049 1.81114 97 101 102 
0.372769 -0.554906 1.77218 210 211 213 
-0.118945 -0.178493 1.66915 34 33 38 
0.356534 -0.642257 1.80125 167 168 170 
-0.0829261 -0.195753 1.69462 120 120 122 
0.455321 -0.645847 1.81242 104 116 112 
-0.305688 -0.241509 1.652 224 225 227 
-0.332081 -0.232779 1.64068 207 208 213 
0.447642 -0.643234 1.81186 130 130 130 
-0.251245 -0.234818 1.66026 45 46 50 
0.296743 -0.561578 1.76405 99 103 104 
0.291306 -0.564127 1.76501 116 120 123 
0.328689 -0.629472 1.79361 215 217 216 
-0.0632628 -0.193131 1.69834 113 114 119 
-0.159971 -0.189569 1.66035 213 214 218 
0.439603 -0.623837 1.80339 200 202 201 
-0.291584 -0.226767 1.64731 98 98 110 
-0.212242 -0.194736 1.65381 220 221 225 
-0.219376 -0.193968 1.64801 43 44 48 
-0.223887 -0.193757 1.64694 69 59 67 
-0.189243 -0.196584 1.66117 135 136 140 
-0.19908 -0.196272 1.65899 87 88 92 
-0.280837 -0.226059 1.64912 211 211 223 
-0.209374 -0.1969 1.65515 56 57 61 
0.435248 -0.61499 1.80102 200 198 199 
-0.255559 -0.218012 1.64829 224 223 228 
-0.229974 -0.201358 1.65106 134 132 137 
-0.529748 -0.205597 1.64832 161 147 147 
0.343518 -0.653903 1.80308 154 158 159 
0.475317 -0.540638 1.76197 123 90 0 
-0.515478 -0.214828 1.66517 161 149 149 
-0.323222 -0.641127 1.891 60 70 72 
-0.214597 -0.198545 1.65297 29 30 34 
-0.249336 -0.194713 1.63839 88 87 92 
-0.28355 -0.225739 1.64672 105 105 117 
-0.321777 -0.220956 1.63451 217 218 223 
-0.251493 -0.219717 1.65318 223 222 227 
-0.329429 -0.227517 1.63918 213 214 219 
0.413026 -0.572822 1.78017 66 68 67 
-0.0779485 -0.193639 1.69358 132 132 134 
0.486388 -0.709712 1.83679 90 92 89 
0.528355 -0.496236 1.73804 36 40 26 
-0.509613 -0.178133 1.63595 158 142 143 
0.33676 -0.656781 1.80202 129 130 132 
-0.608995 -0.534841 1.86919 210 186 186 
-0.643207 -0.4207 1.79148 255 180 188 
-0.577377 -0.412001 1.79507 183 85 110 
-0.379416 -0.0083148 1.55192 19 0 34 
0.354682 -0.648883 1.80149 122 122 124 
-0.0970806 -0.267077 1.73386 76 76 78 
-0.327879 -0.625804 1.88306 161 164 169 
-0.0966594 -0.270283 1.73459 116 116 118 
0.466947 -0.526441 1.75444 135 100 0 
-0.0551352 -0.19723 1.704 143 147 150 
-0.333559 0.0347493 1.5333 111 104 138 
-0.556124 -0.38235 1.78371 231 233 209 
-0.679981 -0.414317 1.77891 188 61 52 
-0.192513 -0.25801 1.69797 55 56 60 
0.431814 -0.610924 1.79771 51 51 51 
-0.579706 -0.538272 1.8766 75 79 65 
0.348978 -0.676034 1.81028 225 225 225 
0.41225 -0.674366 1.81882 32 34 31 
0.369218 -0.669521 1.81047 187 187 187 
0.475567 -0.673946 1.82431 229 230 234 
0.361443 -0.663906 1.80598 39 39 39 
0.520829 -0.467306 1.72317 184 182 185 
0.524065 -0.449422 1.71754 40 38 23 
0.401321 -0.531924 1.76384 61 63 60 
0.369769 -0.545825 1.76753 219 219 221 
0.39598 -0.533877 1.7619 215 217 214 
0.359884 -0.648611 1.80424 212 213 215 
0.401355 -0.651579 1.81182 0 2 1 
0.456251 -0.64624 1.81086 72 78 76 
-0.295821 -0.672024 1.90753 64 69 72 
0.448002 -0.641814 1.80999 164 164 164 
-0.273063 -0.295345 1.6934 48 49 54 
0.393116 -0.635547 1.80425 49 53 52 
0.412516 -0.545 1.76789 207 209 208 
-0.276856 -0.289431 1.6883 147 148 153 
0.394684 -0.62645 1.80076 196 200 199 
0.419942 -0.550919 1.77037 42 44 43 
-0.220964 -0.193384 1.648 65 66 70 
0.406849 -0.621984 1.79942 176 174 177 
-0.211876 -0.195141 1.65226 215 216 220 
0.326956 -0.189535 1.57069 147 145 159 
0.404014 -0.621518 1.80118 177 177 177 
-0.219004 -0.19888 1.65393 26 27 31 
0.427085 -0.545795 1.77103 248 250 249 
0.324983 -0.612341 1.78789 48 52 53 
0.435924 -0.613355 1.80049 229 227 228 
0.33095 -0.63922 1.79712 197 199 198 
-0.165591 -0.214362 1.67841 82 81 86 
0.284544 -0.560688 1.76284 207 207 207 
-0.311361 -0.630394 1.88747 68 76 78 
0.303348 -0.56448 1.76625 230 236 236 
0.597549 -0.606738 1.79774 223 223 225 
0.418065 -0.578127 1.78604 238 244 242 
-0.527856 -0.221233 1.65996 193 194 196 
0.437963 -0.586229 1.78677 66 72 70 
-0.280378 -0.225995 1.64986 212 212 224 
0.229998 -0.227822 1.59113 124 139 162 
-0.566186 -0.243762 1.68992 227 224 207 
-0.634856 -0.44249 1.80627 250 198 202 
-0.162406 -0.203638 1.67107 71 70 75 
-0.269238 -0.635272 1.89754 115 116 120 
-0.319062 -0.659174 1.89493 161 162 164 
0.355798 -0.36747 1.68222 54 62 99 
-0.579345 -0.411827 1.79819 189 84 114 
-0.643238 -0.420595 1.79194 255 156 168 
0.532701 -0.430442 1.71233 130 127 122 
-0.677171 -0.457701 1.80979 194 53 33 
0.357994 -0.376033 1.68712 17 22 41 
-0.569997 -0.241513 1.69972 59 124 68 
-0.317784 -0.229795 1.64377 235 236 241 
0.536463 -0.427151 1.70882 151 146 143 
0.349623 -0.676255 1.80878 227 229 228 
-0.566286 -0.243816 1.68994 227 224 207 
-0.756281 -0.269271 1.66892 83 26 0 
0.475101 -0.674439 1.82342 184 185 189 
0.460214 -0.670807 1.82262 187 191 192 
0.412325 -0.664986 1.81647 120 126 126 
0.265697 0.0988727 1.6066 15 30 27 
0.342718 -0.362191 1.67733 161 162 193 
0.813389 -0.227115 1.71406 141 141 129 
-0.580242 -0.41258 1.79797 195 75 103 
0.383993 -0.615261 1.79781 20 22 21 
-0.243066 -0.204374 1.64622 67 66 71 
0.390801 -0.593774 1.79059 218 222 221 
-0.18945 -0.196122 1.66067 32 33 37 
0.299746 -0.570373 1.76826 38 39 41 
0.381435 -0.575942 1.78434 231 231 231 
-0.194372 -0.187959 1.65343 55 56 60 
0.305184 -0.559706 1.76401 28 38 39 
0.371267 -0.555378 1.774 222 222 224 
0.541364 -0.555416 1.77051 230 223 213 
0.356141 -0.546538 1.76687 111 112 107 
-0.119478 -0.179443 1.66612 151 149 154 
0.347361 -0.53921 1.76259 87 89 88 
0.391857 -0.540606 1.76666 201 205 204 
0.42395 -0.538862 1.76472 67 71 70 
0.343445 -0.531088 1.76108 169 169 171 
-0.584929 -0.538741 1.87444 26 29 10 
0.416656 -0.530031 1.76117 217 217 219 
-0.514558 -0.16138 1.62027 136 136 136 
0.354295 -0.526489 1.76111 180 180 182 
0.350149 -0.677493 1.811 210 214 213 
0.395729 -0.676225 1.81734 158 157 153 
0.466062 -0.475091 1.72695 216 181 55 
0.531334 -0.491042 1.73018 28 29 23 
0.46671 -0.669353 1.82366 76 77 81 
0.363482 -0.659539 1.8092 204 204 204 
0.333378 -0.654441 1.80098 232 228 227 
0.353266 -0.651458 1.79727 28 34 34 
-0.360237 -0.309926 1.68035 124 125 130 
0.528845 -0.528508 1.75171 219 214 210 
0.331035 -0.645858 1.79839 15 17 14 
0.356133 -0.535867 1.75484 17 21 20 
0.346853 -0.540255 1.75785 0 3 4 
0.402101 -0.630535 1.80212 29 29 29 
-0.576132 -0.427095 1.80715 193 27 49 
-0.514743 -0.223951 1.66828 184 184 182 
-0.852854 -0.00360397 1.49103 75 74 72 
0.381201 -0.574852 1.78378 222 222 222 
0.435071 -0.613771 1.80301 199 197 198 
-0.310272 -0.631908 1.89019 51 61 62 
-0.848163 0.0182514 1.47739 65 65 63 
0.384174 -0.596209 1.79083 64 75 71 
0.390266 -0.59421 1.79064 218 222 221 
-0.324833 -0.628126 1.88529 186 189 198 
0.343204 -0.362985 1.67771 153 153 187 
-0.33321 -0.642345 1.88611 194 197 204 
0.23062 -0.234432 1.59074 28 46 70 
-0.27409 -0.294799 1.69369 146 147 152 
-0.565667 -0.244243 1.68867 226 223 208 
0.250532 -0.551379 1.75934 127 145 185 
-0.186092 -0.189541 1.66186 68 69 73 
0.266478 0.0987554 1.60603 0 21 13 
-0.32858 -0.231884 1.64199 70 71 76 
-0.192241 -0.186778 1.65276 83 84 88 
0.339337 -0.30552 1.63503 44 62 86 
0.809165 -0.440711 1.83895 117 123 113 
0.34963 -0.677224 1.81389 201 201 201 
0.353349 -0.675505 1.80913 223 225 224 
0.33804 -0.662573 1.80495 40 46 46 
0.413305 -0.665164 1.811 212 216 217 
0.301699 -0.563102 1.76699 228 233 236 
-0.28269 -0.680526 1.9143 178 179 183 
0.418923 -0.650866 1.81605 229 233 234 
0.534648 -0.467936 1.72488 185 183 186 
-0.307063 -0.632022 1.88566 16 30 30 
-0.590465 -0.418711 1.79767 241 217 213 
-0.576604 -0.42631 1.81027 206 24 49 
-0.569527 -0.431007 1.8107 254 206 206 
-0.566383 -0.244243 1.6913 227 224 207 
-0.719732 -0.553902 1.87275 48 55 47 
-0.609602 -0.43699 1.80797 248 206 208 
0.537699 -0.311494 1.68547 147 141 141 
-0.27414 -0.293888 1.69646 109 110 115 
-0.584114 -0.483266 1.83549 206 46 82 
-0.00399699 -0.163391 1.69328 92 163 95 
-0.60743 -0.514454 1.85632 131 79 91 
-0.316026 -0.664711 1.89738 30 34 35 
0.112812 -0.268562 1.61981 199 200 205 
-0.0707744 -0.208919 1.70614 238 238 240 
-0.123567 -0.237815 1.70277 247 248 252 
0.450306 -0.651481 1.81556 24 24 22 
-0.109329 -0.228262 1.70286 91 93 92 
0.329623 -0.626664 1.79225 154 156 155 
-0.217925 -0.227962 1.67254 208 207 212 
-0.135603 -0.216586 1.68716 108 107 112 
0.318008 -0.609835 1.78784 106 107 111 
-0.0938145 -0.242457 1.71778 67 67 69 
-0.0247889 -0.247372 1.74645 228 229 233 
-0.109466 -0.212808 1.69483 120 108 112 
0.368464 -0.58927 1.78607 157 162 158 
-0.160496 -0.253818 1.70582 68 69 73 
0.57417 -0.577852 1.78382 158 156 143 
0.570904 -0.167588 1.58681 79 75 74 
-0.168741 -0.262803 1.70955 102 103 107 
0.346355 -0.550929 1.76469 172 171 169 
-0.121043 -0.195376 1.67912 44 39 43 
-0.340167 -0.302903 1.67765 100 100 102 
-0.29054 -0.287607 1.68399 212 213 218 
-0.136546 -0.248493 1.71019 242 243 247 
0.493807 -0.737107 1.84883 162 164 163 
0.485259 -0.552572 1.7673 99 65 0 
-0.0839801 -0.229799 1.7135 87 82 88 
0.00104265 -0.208398 1.72927 65 65 67 
0.332567 -0.589488 1.78146 190 196 196 
-0.119759 -0.24975 1.71433 229 230 234 
0.463467 -0.697144 1.83315 151 147 144 
-0.20299 -0.24662 1.69004 226 227 231 
0.405626 -0.514686 1.75148 0 4 4 
-0.3122 -0.298586 1.68208 78 83 87 
-0.221049 -0.254925 1.6881 51 52 56 
-0.219071 -0.210774 1.66176 202 203 207 
0.546881 -0.568817 1.77593 219 218 190 
-0.230125 -0.262824 1.68883 70 69 74 
0.437787 -0.620246 1.80235 190 192 191 
0.0122126 -0.158074 1.69324 215 236 219 
-0.195964 -0.226631 1.67979 91 90 95 
0.336407 -0.645579 1.79777 204 204 204 
-0.00248925 -0.194708 1.71864 199 228 197 
-0.240315 -0.241565 1.67111 82 81 86 
0.482536 -0.66934 1.82276 131 137 135 
0.423409 -0.538047 1.76189 67 71 70 
0.488262 -0.726414 1.84247 152 154 153 
0.422228 -0.547765 1.76744 34 36 35 
0.438839 -0.571713 1.77998 216 220 219 
0.472753 -0.693252 1.82966 182 178 175 
0.127869 -0.296993 1.63703 210 219 236 
0.431408 -0.606247 1.79611 210 210 210 
0.382605 -0.614114 1.79586 36 38 37 
0.390373 -0.607863 1.79354 93 97 96 
-0.282349 -0.246839 1.65776 102 103 107 
0.656367 -0.646348 1.82341 179 171 152 
-0.713725 -0.245214 1.66165 113 106 34 
0.567888 -0.177572 1.60023 242 238 237 
-0.107494 -0.268918 1.73049 98 98 100 
0.446979 -0.641237 1.80667 180 180 180 
-0.233431 -0.228618 1.66521 67 66 71 
0.537821 -0.444419 1.71691 157 156 152 
0.540084 -0.511402 1.74494 63 64 66 
-0.118914 -0.271328 1.72928 236 237 241 
0.47244 -0.534087 1.75652 132 97 0 
0.581419 -0.611338 1.79779 56 59 52 
-0.227385 -0.218245 1.66338 85 84 89 
0.52051 -0.485682 1.73433 200 197 182 
0.367075 -0.538725 1.7655 65 65 67 
0.403812 -0.620736 1.7992 179 179 179 
0.330973 -0.653427 1.79933 200 196 195 
0.363111 -0.656017 1.80572 186 186 188 
0.404683 -0.549015 1.76979 223 225 224 
0.413434 -0.650549 1.81148 97 101 102 
0.342623 -0.630549 1.7966 66 66 68 
0.38486 -0.590684 1.78831 116 120 119 
0.344679 -0.694625 1.81432 109 115 115 
0.487124 -0.710215 1.83835 90 92 89 
-0.307992 -0.630004 1.88091 21 33 33 
0.277987 -0.294055 1.63354 65 75 110 
-0.717736 -0.549865 1.86393 73 89 88 
0.475937 -0.524359 1.75099 139 98 10 
0.422645 -0.661454 1.81673 212 213 215 
0.460138 -0.669891 1.82108 204 208 209 
0.348389 -0.675404 1.80844 225 225 225 
0.388206 -0.515603 1.75219 222 224 221 
0.369247 -0.669505 1.81046 187 187 187 
-0.0150476 -0.184542 1.70502 196 217 200 
0.474645 -0.647638 1.81468 222 226 225 
0.393058 -0.635234 1.80344 49 53 52 
0.466672 -0.632613 1.80586 172 170 171 
0.603551 -0.632347 1.81087 213 211 196 
0.429414 -0.55412 1.77203 234 236 235 
-0.515123 -0.198288 1.65099 184 179 185 
0.457428 -0.61216 1.80063 197 199 198 
0.413709 -0.570316 1.77808 213 215 214 
0.0111136 -0.175724 1.71526 201 231 203 
0.371155 -0.229219 1.5965 194 153 87 
0.3699 -0.22043 1.5919 167 136 82 
0.416142 -0.235844 1.61641 186 153 76 
0.382996 -0.255134 1.61169 171 140 76 
0.413026 -0.293056 1.66601 197 161 85 
-0.68022 -0.414574 1.77809 191 61 63 
-0.64316 -0.420452 1.79131 255 156 168 
0.106023 -0.0792136 1.63656 255 208 206 
0.407493 -0.204983 1.60702 77 46 0 
-0.503743 -0.160779 1.62604 122 97 119 
0.345702 -0.656538 1.79818 36 40 41 
0.378364 -0.293073 1.62711 178 193 226 
0.356081 -0.642574 1.79947 186 186 188 
0.464974 -0.642338 1.80961 64 76 72 
0.390358 -0.626108 1.797 9 13 12 
0.595242 -0.625096 1.80929 205 198 192 
0.440498 -0.612959 1.79457 1 3 2 
0.541451 -0.41676 1.71441 188 184 181 
0.648878 -0.599692 1.80333 67 37 0 
0.52005 -0.453451 1.71542 188 187 182 
0.299085 -0.569447 1.76525 38 39 41 
-0.59195 -0.533445 1.87312 182 164 162 
0.524353 -0.511381 1.7434 203 196 186 
0.39323 -0.52622 1.75957 198 202 203 
0.412565 -0.520759 1.75626 225 229 228 
0.366333 -0.377681 1.68546 155 148 200 
0.405336 -0.672617 1.81773 200 202 199 
0.473985 -0.673877 1.82029 166 167 171 
0.527011 -0.439651 1.71573 177 173 162 
0.311427 -0.551417 1.76419 218 220 219 
0.378228 -0.565162 1.7773 220 220 218 
0.812011 -0.410983 1.81006 126 129 112 
-0.531467 -0.198077 1.64414 89 92 83 
0.232251 -0.259492 1.61136 56 70 96 
-0.649431 -0.43897 1.80269 186 107 126 
0.637201 -0.0195887 1.66512 102 103 95 
0.843274 -0.478572 1.81076 99 102 95 
-0.579112 -0.407965 1.79007 223 171 183 
-0.597448 -0.416404 1.79768 182 54 77 
0.616341 -0.640708 1.81666 216 221 214 
-0.676348 -0.456929 1.80651 194 53 33 
-0.605135 -0.523163 1.86208 234 191 200 
-0.610358 -0.437162 1.80852 248 206 208 
-0.681394 -0.404954 1.77718 53 146 115 
0.667669 -0.0184081 1.67247 110 100 91 
0.489837 -0.436701 1.70643 104 71 4 
-0.554328 -0.392085 1.7893 207 184 52 
0.479914 -0.553428 1.76617 121 80 1 
-0.218433 -0.238869 1.67681 62 60 65 
-0.0763471 -0.266277 1.74256 52 51 49 
0.436722 -0.76912 1.84116 165 164 162 
-0.0878529 -0.257701 1.72328 238 238 240 
-0.0801494 -0.244044 1.72465 218 218 218 
-0.151167 -0.253404 1.70775 241 241 241 
-0.0937004 -0.247681 1.72139 31 31 31 
0.522523 -0.428592 1.71073 166 163 154 
-0.0864346 -0.235822 1.71713 103 101 102 
0.50329 -0.744472 1.84582 16 20 19 
0.521384 -0.743827 1.84121 201 203 202 
-0.08158 -0.218798 1.70884 228 228 230 
0.565458 -0.728474 1.83764 217 198 103 
0.461275 -0.494032 1.74008 87 56 0 
-0.0120789 -0.226531 1.74089 47 47 49 
0.488406 -0.725962 1.84116 156 156 154 
-0.06716 -0.229763 1.72235 235 233 238 
-0.154582 -0.277003 1.72091 218 220 217 
0.449042 -0.490512 1.74297 222 192 78 
-0.190786 -0.23356 1.68472 87 86 92 
0.554543 -0.704689 1.83312 218 199 97 
0.530906 -0.51342 1.74478 41 47 47 
-0.0199475 -0.215763 1.73029 73 71 74 
-0.0571034 -0.218504 1.72131 227 225 226 
0.471041 -0.514688 1.7468 40 4 0 
0.0738474 -0.224292 1.68277 210 212 207 
0.454721 -0.498637 1.74808 124 93 0 
0.414604 -0.520533 1.75967 226 230 231 
-0.135719 -0.221478 1.69256 91 91 91 
0.545507 -0.523588 1.74989 170 174 160 
0.463299 -0.696881 1.82967 185 183 184 
-0.589572 -0.538486 1.876 204 206 205 
-0.605134 -0.541118 1.87167 204 208 209 
-0.253792 -0.227991 1.64328 232 230 233 
0.365272 -0.535783 1.7674 203 207 208 
0.541551 -0.53743 1.75726 75 76 80 
-0.100153 -0.212926 1.69758 227 227 229 
-0.078646 -0.20886 1.70646 224 222 227 
0.310935 -0.597831 1.78328 148 146 149 
0.4033 -0.548498 1.77694 143 145 144 
0.431226 -0.555454 1.77099 144 148 149 
-0.619553 -0.540002 1.86548 60 64 65 
0.484005 -0.564544 1.77161 211 183 83 
0.355568 -0.569596 1.78015 125 129 128 
-0.0725857 -0.196991 1.70248 237 239 238 
0.520823 -0.608933 1.80419 58 17 0 
0.439651 -0.572054 1.78044 183 184 186 
0.547778 -0.571326 1.77555 210 208 193 
-0.145621 -0.276764 1.72674 94 92 95 
0.48856 -0.57556 1.78269 56 17 0 
0.501983 -0.578067 1.78424 198 160 97 
0.557994 -0.587297 1.78331 210 209 191 
0.567819 -0.588594 1.78352 76 80 83 
0.495908 -0.590152 1.79019 87 51 0 
0.443944 -0.660633 1.8151 194 195 197 
0.526306 -0.636634 1.80989 195 172 102 
0.504517 -0.603613 1.79489 213 190 84 
-0.118965 -0.185642 1.67969 29 24 28 
0.458385 -0.611253 1.80006 201 202 197 
0.594834 -0.626855 1.80327 211 211 211 
0.585148 -0.617944 1.79695 213 214 206 
-0.193717 -0.215674 1.67061 240 241 246 
-0.0640639 -0.260045 1.74366 128 128 130 
0.387089 -0.515148 1.76155 122 126 125 
0.50572 -0.78882 1.85674 121 121 123 
0.40597 -0.512953 1.75622 26 30 33 
-0.692624 -0.504384 1.83581 193 212 216 
-0.00716071 -0.589151 1.68067 183 174 167 
0.547914 -0.672689 1.82612 214 191 95 
0.479274 -0.531254 1.7545 102 61 0 
-0.497741 -0.28398 1.73017 135 135 133 
0.526531 -0.651717 1.82137 68 30 0 
0.274544 -0.414087 1.71199 30 22 59 
0.466677 -0.501976 1.74936 97 56 0 
0.574706 -0.751132 1.84912 64 32 0 
0.504097 -0.591581 1.7944 103 62 0 
0.511018 -0.62196 1.80291 83 53 0 
0.494298 -0.562288 1.7669 90 57 0 
0.559137 -0.72185 1.83371 78 42 0 
-0.287069 0.0428686 1.55512 154 149 179 
0.549152 -0.694233 1.83371 207 185 66 
0.544459 -0.684249 1.82993 217 189 80 
0.529525 -0.540788 1.75463 27 26 0 
0.500866 -0.778421 1.849 172 172 172 
0.331574 -0.586152 1.78182 196 198 197 
-0.63862 -0.543599 1.86953 127 131 130 
0.583361 -0.591078 1.78423 185 186 181 
0.451729 -0.597936 1.79417 198 202 201 
0.372285 -0.603283 1.79122 198 200 199 
-0.126703 -0.229339 1.69522 234 234 236 
0.375515 -0.679933 1.81132 180 181 183 
0.625646 -0.630162 1.80342 206 207 202 
0.642258 -0.639364 1.81362 163 163 153 
0.66026 -0.648548 1.82392 198 198 196 
0.638084 -0.658128 1.81472 165 164 144 
0.545293 -0.661441 1.82254 70 29 0 
-0.170334 -0.253267 1.70101 125 125 127 
0.516796 -0.631933 1.80916 66 31 0 
0.524777 -0.622445 1.80465 95 60 0 
-0.0870424 -0.269373 1.73781 106 96 97 
-0.202963 -0.235326 1.67939 104 104 104 
0.558667 -0.691149 1.82724 94 49 0 
-0.260293 -0.255675 1.67192 92 95 100 
-0.0883031 -0.208673 1.7001 49 49 51 
0.458556 -0.514799 1.75222 91 48 0 
-0.121446 -0.206232 1.68226 113 109 110 
0.321484 -0.58795 1.78311 5 7 4 
0.578173 -0.735151 1.84965 198 173 81 
0.527333 -0.755955 1.84718 205 206 208 
-0.0164472 -0.175302 1.70043 211 242 211 
0.377415 -0.561722 1.78165 92 97 93 
0.321375 -0.566129 1.77122 190 190 188 
0.0194485 -0.155874 1.69847 181 219 180 
0.534741 -0.668529 1.82431 124 86 15 
-0.691316 -0.503724 1.82206 213 234 237 
0.530462 -0.666091 1.80957 86 50 0 
0.45566 -0.470092 1.72652 138 153 182 
0.519905 -0.778814 1.85029 18 23 17 
-0.590264 -0.412417 1.80168 255 188 197 
-0.654805 -0.54083 1.86556 68 85 93 
0.561107 -0.705389 1.82976 127 93 0 
-0.119342 -0.270392 1.73478 224 224 222 
-0.578059 -0.42682 1.80989 164 56 71 
0.344807 -0.692815 1.81466 232 236 237 
0.690193 -0.685867 1.83949 212 199 182 
0.326899 -0.574389 1.77518 46 47 49 
0.554403 -0.682375 1.82365 113 81 0 
0.290488 -0.572919 1.76786 188 190 189 
0.523874 -0.449432 1.72588 36 36 26 
0.387091 -0.581507 1.78684 208 212 213 
0.362146 -0.581882 1.7866 198 202 201 
0.40044 -0.66301 1.8084 148 152 151 
0.521725 -0.464847 1.73203 193 192 187 
0.553412 -0.561119 1.77048 18 20 6 
0.284248 -0.55981 1.76798 216 218 217 
0.350405 -0.561905 1.76965 78 79 81 
0.422196 -0.588181 1.78945 159 163 162 
0.633569 -0.634086 1.81033 166 165 163 
-0.27797 -0.229466 1.63922 225 224 229 
0.396395 -0.512021 1.75118 205 207 206 
0.314696 -0.551399 1.76331 191 192 194 
0.354167 -0.633144 1.80144 167 167 169 
0.401578 -0.632533 1.80821 15 17 16 
0.541806 -0.479379 1.73994 12 6 0 
0.336968 -0.596551 1.786 191 193 192 
-0.314774 -0.232902 1.63334 229 230 234 
-0.236184 -0.222018 1.64968 91 86 90 
-0.601441 -0.533138 1.8779 197 180 186 
0.613835 -0.620121 1.80334 214 218 204 
-0.579344 -0.538276 1.88033 62 66 52 
0.345424 -0.618794 1.78956 167 167 169 
0.603371 -0.613091 1.79187 212 209 202 
0.510465 -0.603261 1.80315 47 9 0 
-0.62656 -0.542363 1.87437 204 206 205 
0.343262 -0.360121 1.68687 153 157 184 
0.579396 -0.760623 1.85038 82 49 0 
0.864975 -0.692006 1.90811 99 75 47 
0.534763 -0.452339 1.72287 84 80 71 
0.313851 -0.603935 1.7905 137 141 140 
0.851896 -0.481982 1.80598 116 121 115 
0.475934 -0.441764 1.70954 209 183 106 
0.565305 -0.55689 1.77451 6 8 0 
-0.209174 -0.243056 1.67609 101 99 100 
-0.566613 -0.430754 1.81274 255 170 172 
0.400789 -0.288698 1.62468 211 174 104 
0.53589 -0.439405 1.71897 167 163 160 
0.670563 -0.292954 1.76715 126 138 134 
0.553021 -0.53667 1.75749 9 10 0 
0.388199 -0.641034 1.80687 147 149 148 
0.407064 -0.558837 1.77701 159 160 164 
0.528137 -0.775387 1.85654 10 12 11 
-0.276847 -0.278244 1.68127 97 96 101 
0.32282 -0.619694 1.79065 185 185 187 
-0.659115 -0.424111 1.79041 255 196 203 
-0.0110117 -0.186433 1.72072 196 234 195 
0.51594 -0.731945 1.84268 215 217 216 
0.336819 -0.623316 1.79953 166 167 169 
0.470142 -0.634838 1.8048 140 141 143 
0.506767 -0.763762 1.84821 164 168 167 
-0.268858 -0.635672 1.89632 159 165 165 
-0.60923 -0.513592 1.85459 98 37 52 
0.401544 -0.67316 1.81725 1 1 1 
0.498603 -0.69866 1.83049 209 207 212 
0.425839 -0.487921 1.73956 216 190 105 
0.49323 -0.687582 1.82625 217 221 220 
0.373283 -0.593269 1.79557 24 26 25 
0.426092 -0.596318 1.79536 215 219 218 
0.305566 -0.585825 1.7744 193 195 192 
0.419666 -0.671382 1.82084 42 42 42 
0.843802 -0.601425 1.88762 170 186 176 
0.484944 -0.668188 1.82655 223 224 226 
0.341638 -0.608472 1.79352 204 209 205 
0.644759 -0.653264 1.82119 51 50 46 
0.474338 -0.648321 1.81038 210 210 212 
0.296641 -0.561824 1.76885 27 33 33 
-0.544244 -0.538811 1.88905 166 157 116 
0.356166 -0.555893 1.77529 0 1 0 
0.603814 -0.635241 1.80558 160 159 141 
0.610519 -0.628005 1.80903 88 88 86 
-0.144777 -0.259656 1.7185 90 90 92 
0.431479 -0.561985 1.78049 194 195 197 
0.886838 -0.52853 1.80765 30 10 0 
-0.631545 -0.420168 1.79304 255 204 216 
-0.550623 -0.543075 1.8816 32 24 0 
-0.645227 -0.443739 1.80747 255 194 204 
0.529537 -0.418457 1.70773 27 24 15 
0.576085 -0.600142 1.7914 207 204 195 
-0.0557845 -0.2025 1.71266 151 152 156 
-0.56308 -0.550787 1.89481 114 112 99 
-0.70347 -0.549866 1.85549 179 187 190 
-0.603636 -0.41407 1.7994 255 170 176 
-0.617841 -0.418787 1.79227 249 193 196 
0.485799 -0.462047 1.71535 212 185 106 
-0.644507 -0.420276 1.79319 251 161 170 
-0.618883 -0.439355 1.80713 243 198 201 
-0.611856 -0.437647 1.81379 252 183 188 
0.666417 -0.639352 1.81584 199 194 172 
0.569334 -0.722277 1.8335 115 81 0 
-0.595952 -0.436262 1.81286 255 181 186 
0.570757 -0.739706 1.84485 201 174 61 
0.49142 -0.480448 1.72783 201 170 88 
0.474996 -0.439605 1.72233 215 191 119 
0.390259 -0.525581 1.76401 47 51 50 
0.512381 -0.78676 1.84048 0 3 4 
0.418379 -0.540947 1.77393 222 227 223 
0.424823 -0.570328 1.77613 25 35 34 
0.569281 -0.566882 1.77504 4 6 0 
0.514055 -0.77353 1.85746 205 207 204 
0.52024 -0.768146 1.84704 191 193 188 
0.382135 -0.622218 1.79997 127 126 131 
0.325314 -0.611229 1.79553 0 3 3 
0.510622 -0.721199 1.83888 202 202 202 
0.542204 -0.505047 1.7533 192 191 186 
0.317731 -0.574766 1.76881 4 5 9 
0.621208 -0.647902 1.80028 229 232 225 
0.449569 -0.650666 1.81409 0 1 2 
0.399395 -0.685333 1.81636 204 208 207 
0.53837 -0.528897 1.75084 118 122 121 
0.374695 -0.677368 1.82121 203 202 198 
0.428915 -0.674475 1.81217 196 197 199 
0.58596 -0.601607 1.79116 98 98 96 
-0.318539 -0.659609 1.89156 181 185 188 
0.446816 -0.587425 1.78556 120 124 125 
-0.659131 -0.444677 1.8063 253 218 224 
-0.595456 -0.435232 1.80849 255 198 205 
-0.661384 -0.423635 1.79528 255 197 211 
0.129204 -0.295258 1.62344 54 69 88 
-0.579937 -0.411498 1.79954 188 56 80 
-0.876582 -0.417738 1.7333 24 24 12 
0.473315 -0.65626 1.81569 205 205 205 
0.52329 -0.648111 1.81167 66 29 0 
-0.699281 -0.501206 1.82841 23 95 119 
0.456713 -0.453046 1.71274 158 182 220 
0.0724762 -0.218058 1.69164 51 53 50 
-0.595363 -0.516564 1.8529 239 225 224 
0.524004 -0.497091 1.74805 239 237 225 
0.500239 -0.754747 1.8492 5 9 8 
0.356646 -0.546221 1.77058 184 186 181 
0.0376006 -0.209896 1.67809 28 28 28 
0.309769 -0.565871 1.77103 7 8 10 
-0.656677 -0.445717 1.79887 255 192 203 
0.0992386 -0.438916 1.71465 208 210 209 
0.425596 -0.578126 1.78941 10 15 11 
0.459505 -0.658764 1.81534 0 4 0 
0.0317276 -0.154736 1.69682 217 215 216 
0.555152 -0.534432 1.76911 22 22 10 
0.385345 -0.593193 1.79361 44 45 47 
0.410693 -0.680952 1.82397 178 179 181 
0.365108 -0.65669 1.81424 206 202 201 
0.623646 -0.64734 1.81077 234 237 230 
0.464708 -0.642733 1.80795 15 21 21 
0.858518 -0.489807 1.80245 146 157 141 
-0.611591 -0.53656 1.87727 225 219 223 
0.486696 -0.542438 1.82608 85 54 0 
0.466462 -0.51991 1.72253 239 204 60 
0.217915 -0.753338 2.09754 5 7 2 
-0.874713 -0.441677 1.74135 27 20 12 
0.496215 -0.289475 1.65789 64 67 76 
-0.6135 -0.420451 1.78382 255 218 220 
-0.00633313 -0.162203 1.70545 111 145 110 
-0.707646 -0.5513 1.87046 179 185 185 
-0.681651 -0.405339 1.77422 65 153 105 
0.103962 -0.452222 1.74862 188 190 189 
0.324749 -0.486075 1.7403 129 147 183 
0.146305 -0.342077 1.64902 145 138 130 
0.844964 -0.572825 1.88106 125 130 123 
0.651292 -0.599417 1.81413 60 42 4 
-0.0171814 -0.183765 1.70909 201 207 203 
-0.495148 -0.291174 1.7377 136 94 134 
-0.518912 -0.221766 1.67692 193 194 196 
-0.719335 -0.228627 1.64717 81 83 80 
0.912062 -0.231802 1.62307 199 199 199 
0.251314 -0.550122 1.76831 128 138 174 
0.0963972 -0.444889 1.7385 29 31 28 
0.502862 -0.710009 1.83513 226 224 225 
0.900668 -0.513261 1.79374 179 141 92 
0.870765 -0.495698 1.80527 135 139 124 
-0.612392 -0.420978 1.80284 174 103 119 
-0.361694 -0.201834 1.62092 207 208 212 
0.339787 -0.612 1.78197 216 217 219 
0.473203 -0.658669 1.80122 225 223 226 
0.132748 -0.305008 1.64269 96 98 110 
0.43239 -0.625617 1.81925 212 214 211 
0.890221 -0.503317 1.78766 150 151 145 
0.3523 -0.804904 2.08925 207 206 201 
-0.736661 -0.246555 1.64492 234 166 55 
-0.473113 -0.499848 1.92236 210 216 216 
-0.880544 -0.462258 1.76469 19 16 9 
-0.5304 -0.158006 1.61722 28 26 27 
-0.571963 -0.415578 1.80366 254 194 196 
-0.616224 -0.518289 1.86224 239 154 173 
0.87193 -0.483496 1.79558 210 211 216 
-0.322374 -0.675787 1.90066 77 86 93 
-0.522391 -0.441946 1.89059 27 31 30 
0.0968642 -0.436462 1.72668 245 247 246 
-0.745525 -0.232406 1.65784 62 55 27 
0.530247 -0.767231 1.84551 220 225 221 
0.207937 -0.76073 2.09295 202 185 178 
0.505958 -0.741901 1.83628 5 10 4 
-0.352635 -0.1976 1.61079 218 219 223 
-0.60093 -0.511879 1.86907 238 216 218 
-0.371465 -0.66292 1.89539 179 180 182 
0.902029 -0.50207 1.78936 145 150 144 
-0.603654 -0.523447 1.85473 218 160 175 
-0.516159 -0.160131 1.61158 184 185 187 
-0.350833 -0.315125 1.64237 77 78 80 
0.535968 -0.535752 1.76667 44 46 25 
0.461853 -0.462256 1.73508 115 140 170 
-0.325116 -0.624386 1.88148 187 191 194 
0.541456 -0.531509 1.74446 124 125 120 
0.155689 -0.735652 2.08709 31 21 29 
0.235221 -0.262371 1.60115 31 47 72 
0.877536 -0.500163 1.78561 107 112 106 
0.00858804 -0.159116 1.71122 213 212 218 
0.519419 -0.483505 1.72976 189 184 165 
-0.0832594 -0.245658 1.72265 25 25 27 
-0.00946742 -0.230058 1.74081 35 35 37 
0.340332 -0.645832 1.79934 25 31 31 
-0.28045 0.0406775 1.54495 156 141 174 
0.38271 -0.614286 1.79563 36 38 37 
-0.177068 -0.236021 1.6912 236 237 241 
-0.232384 -0.254266 1.68254 57 56 61 
0.47186 -0.693073 1.83165 93 90 85 
0.34154 -0.68883 1.81534 138 137 133 
-0.235977 -0.216341 1.5558 118 119 123 
-0.104327 -0.18717 1.67968 70 71 75 
0.434014 -0.615684 1.79938 137 137 137 
-0.285942 0.0315901 1.55409 32 15 59 
-0.334319 0.00209731 1.56198 9 2 35 
0.417536 -0.654572 1.81188 156 162 162 
0.35894 -0.122558 1.70349 21 23 0 
0.469823 -0.669528 1.82376 49 50 54 
0.329397 -0.627098 1.79336 146 148 147 
0.361207 -0.581667 1.78163 152 151 147 
0.159112 -0.0110424 1.64968 171 148 140 
-0.272319 -0.213032 1.64287 116 117 122 
-0.0185058 -0.228796 1.73472 221 222 226 
0.36811 -0.589564 1.78506 170 175 171 
-0.325251 -0.648849 1.89055 22 31 28 
0.574571 -0.578361 1.78405 178 174 163 
-0.343098 0.0067151 1.55342 115 107 144 
0.455955 -0.646219 1.81274 90 101 97 
0.393799 -0.107287 1.67943 31 35 2 
0.33075 -0.651583 1.80165 80 79 75 
-0.530065 -0.158899 1.60876 73 74 69 
-0.204228 -0.221643 1.67438 150 149 154 
0.654949 0.0542982 1.62428 0 12 19 
0.389622 -0.538119 1.75987 206 210 209 
0.396771 -0.619142 1.79996 0 4 3 
0.343179 -0.630618 1.7965 4 4 6 
0.395573 -0.648629 1.80778 187 187 187 
0.42202 -0.668047 1.81766 34 44 43 
0.656643 -0.64653 1.82401 179 171 152 
-0.33883 -0.64731 1.88973 43 47 50 
0.860744 -0.260947 1.65724 146 148 147 
0.554702 -0.580559 1.78266 197 192 186 
0.592094 -0.194669 1.62914 65 61 60 
-0.341047 0.0289684 1.53051 10 1 46 
0.411913 -0.544485 1.7658 184 186 185 
0.487548 -0.710161 1.83948 103 105 104 
-0.331207 -0.0103121 1.57424 99 94 124 
0.409633 -0.508596 1.75038 91 91 91 
-0.145644 -0.277152 1.72236 138 139 143 
0.409631 -0.224354 1.60853 179 147 86 
0.483444 -0.72991 1.84561 171 173 172 
0.344549 -0.666207 1.80673 180 186 186 
0.460007 -0.670141 1.82139 204 208 209 
0.34526 -0.657133 1.7998 22 26 27 
0.0320415 -0.151484 1.69173 177 173 172 
0.376683 -0.562084 1.77437 185 185 185 
0.614898 -0.642626 1.81712 192 194 181 
0.440442 -0.623633 1.80369 200 202 201 
0.372323 -0.606766 1.78718 4 4 4 
0.390312 -0.608162 1.79157 107 111 110 
0.413245 -0.569907 1.77757 186 188 187 
-0.576196 -0.411399 1.79249 183 85 110 
0.468944 -0.525417 1.75154 214 184 62 
-0.609559 -0.437813 1.80752 242 189 195 
0.861623 -0.691432 1.90703 48 30 10 
0.348501 -0.249381 1.42867 207 174 103 
0.85083 -0.276394 1.69052 151 135 135 
-0.109288 -0.260603 1.72646 84 84 86 
0.380819 -0.600936 1.78959 40 44 43 
0.250111 -0.551721 1.75745 116 131 160 
0.476463 -0.544396 1.76049 111 80 0 
0.434795 -0.336547 1.70464 230 196 106 
0.470815 -0.634193 1.80649 162 160 161 
0.412056 -0.67358 1.81716 32 34 31 
0.361034 -0.663152 1.80388 39 39 39 
-0.566993 -0.428464 1.80721 252 186 190 
0.447132 -0.643334 1.80667 189 189 189 
-0.295406 -0.671637 1.9065 64 69 72 
0.414245 -0.642655 1.80906 217 218 220 
0.403166 -0.6293 1.80137 25 25 25 
0.324222 -0.610754 1.78323 48 52 53 
0.852932 -0.264307 1.67452 161 158 149 
0.283691 -0.56023 1.76085 207 207 207 
0.385762 -0.58246 1.78358 203 203 203 
-0.280567 -0.678954 1.90693 176 177 181 
-0.316338 -0.663321 1.89475 55 59 60 
-0.269293 -0.632303 1.89692 152 157 160 
-0.615321 -0.417489 1.78944 255 200 206 
0.392704 -0.261337 1.62803 189 156 103 
-0.288561 -0.28123 1.67638 99 100 105 
0.243735 -0.0351377 1.69632 0 53 36 
0.816919 -0.403108 1.80799 131 134 115 
0.86074 -0.699279 1.91581 170 145 125 
0.683162 -0.679881 1.84143 58 40 18 
0.861998 -0.494282 1.78961 135 137 132 
0.650979 -0.599737 1.8044 72 41 0 
0.459742 -0.416017 1.6906 203 175 101 
0.574093 -0.183186 1.61738 186 182 181 
0.910847 -0.259163 1.64522 160 161 156 
0.349613 -0.676187 1.80861 227 229 228 
-0.563367 -0.242803 1.68303 227 224 207 
0.355841 -0.642613 1.7994 186 186 188 
0.360628 -0.216286 1.58026 191 153 91 
0.457168 -0.613664 1.8017 207 209 208 
0.538133 -0.414251 1.70385 188 184 181 
0.581088 -0.610981 1.79577 42 45 38 
0.910641 -0.203993 1.61083 151 146 124 
-0.325411 -0.62545 1.877 194 197 204 
0.450967 -0.60085 1.79144 155 157 156 
0.395121 -0.598277 1.78957 33 37 36 
0.839516 -0.478274 1.80422 119 122 115 
0.300923 -0.574644 1.76685 213 217 218 
0.83775 -0.610636 1.87641 153 174 159 
-0.472502 -0.50607 1.92451 175 177 174 
0.295768 -0.562905 1.76495 74 78 81 
0.412269 -0.536304 1.75605 24 28 27 
0.389382 -0.524937 1.75545 58 59 61 
-0.00520991 -0.164183 1.68468 68 116 74 
0.829715 -0.464577 1.82931 82 85 78 
0.268792 -0.794782 2.07994 151 156 149 
0.827066 -0.27745 1.70864 145 152 134 
0.52039 -0.467342 1.71747 162 161 159 
0.400285 -0.672871 1.81893 41 40 36 
0.523185 -0.500128 1.73741 155 153 141 
0.543078 -0.503839 1.74316 37 37 25 
0.444658 -0.659612 1.81879 212 210 213 
0.534823 -0.310409 1.67578 147 143 142 
0.330413 -0.638998 1.79514 151 153 152 
0.392434 -0.634171 1.80172 5 9 8 
0.59479 -0.624782 1.80443 198 192 192 
0.304794 -0.559021 1.75862 0 9 8 
0.594155 -0.610302 1.80155 209 204 198 
0.842557 -0.614368 1.88901 163 184 169 
0.910562 -0.243909 1.63627 148 150 145 
-0.281892 -0.634027 1.8902 58 74 73 
0.849116 -0.545302 1.8431 128 134 120 
-0.33205 -0.640834 1.88174 194 197 204 
-0.334137 -0.684034 1.90239 63 73 74 
0.812314 -0.423651 1.82575 127 115 115 
-0.240151 -0.20321 1.6312 177 176 181 
0.871036 -0.193054 1.60241 169 173 138 
-0.198458 -0.039555 1.56203 78 62 47 
0.826084 -0.464406 1.81767 98 100 95 
0.909745 -0.27091 1.65039 198 198 200 
0.873408 -0.201261 1.61437 192 187 147 
0.847807 -0.486377 1.79827 135 138 127 
0.873794 -0.256229 1.65095 194 197 186 
0.525056 -0.493257 1.72928 15 19 5 
-0.288815 -0.68407 1.91095 196 201 205 
0.769721 0.0742965 1.56296 37 46 45 
0.23434 0.125718 1.58522 175 170 177 
0.56003 -0.165912 1.61388 246 245 243 
-0.11815 -0.211891 1.69983 58 55 62 
-0.238989 -0.219834 1.66248 33 34 38 
-0.0027733 -0.208629 1.74004 131 135 136 
-0.153321 -0.219243 1.67794 249 249 251 
-0.0877538 -0.257751 1.73612 119 107 111 
0.477734 -0.54435 1.76446 46 14 0 
0.508168 -0.786499 1.86282 55 57 56 
-0.280869 0.0426184 1.55207 165 156 187 
0.418206 -0.654479 1.8109 174 178 177 
-0.189598 -0.247846 1.699 47 48 53 
0.515405 -0.77217 1.86123 153 154 149 
-0.28308 -0.250169 1.64885 67 67 69 
-0.0926695 -0.222267 1.72251 53 52 57 
0.0992913 -0.434187 1.72212 172 172 172 
0.0981236 -0.441517 1.73805 170 174 173 
0.522256 -0.739638 1.85318 119 119 117 
-0.25364 -0.235421 1.64952 45 45 47 
0.480486 -0.730877 1.84889 142 143 138 
0.4875 -0.725784 1.83693 164 165 160 
-0.16804 -0.267711 1.71549 90 93 98 
-0.272358 -0.238192 1.65073 228 229 231 
-0.210687 -0.227028 1.68107 205 206 208 
0.471495 -0.528784 1.76688 86 43 0 
0.580138 -0.190042 1.62206 98 94 91 
-0.31058 -0.241683 1.64121 96 99 104 
0.593839 -0.201988 1.64216 172 171 169 
0.505485 -0.706582 1.8412 161 163 162 
-0.159135 -0.220928 1.69244 107 106 111 
0.453538 -0.498999 1.74086 111 72 0 
0.464586 -0.697334 1.83935 146 146 146 
0.466594 -0.694593 1.82715 183 185 182 
-0.161238 -0.192079 1.67801 111 113 112 
0.487597 -0.573619 1.77875 44 2 0 
-0.108582 -0.236051 1.71618 233 233 235 
0.399678 -0.685564 1.82158 202 203 205 
-0.0693956 -0.199276 1.69122 52 51 56 
-0.600755 -0.539845 1.88539 192 197 200 
-0.590135 -0.539692 1.88608 9 9 0 
0.414567 -0.520538 1.76038 222 226 229 
0.527842 -0.518628 1.75476 219 215 203 
0.542996 -0.515666 1.75021 174 176 165 
0.471216 -0.514613 1.74685 73 39 0 
0.405686 -0.513023 1.75607 40 45 48 
0.469647 -0.525 1.75334 230 200 110 
0.348677 -0.674964 1.81738 179 178 173 
0.461517 -0.499774 1.75146 76 43 0 
0.522206 -0.491237 1.73514 48 51 44 
0.448188 -0.490833 1.73674 208 172 60 
0.526416 -0.526627 1.74862 188 185 168 
0.538157 -0.481402 1.73363 166 163 158 
-0.342737 0.0130619 1.54396 135 125 162 
0.520662 -0.470008 1.72912 162 163 157 
0.397767 -0.531229 1.76455 185 187 184 
-0.174642 -0.245443 1.69261 232 233 237 
0.406587 -0.667698 1.8178 175 177 176 
0.364949 -0.535882 1.76395 187 188 190 
0.423022 -0.535756 1.7674 152 161 158 
-0.212149 -0.248132 1.68581 73 74 79 
0.52234 -0.428694 1.70925 166 166 164 
0.538732 -0.426378 1.71703 34 34 24 
0.342756 -0.662735 1.81063 203 205 202 
0.398643 -0.541391 1.77763 123 127 130 
0.533149 -0.541453 1.76359 197 190 171 
0.441848 -0.657082 1.81427 182 182 182 
-0.0796338 -0.243121 1.73855 57 51 53 
0.556492 -0.170379 1.60304 212 211 209 
0.347203 -0.544545 1.76991 174 176 175 
0.33725 -0.656343 1.80149 99 107 109 
-0.115736 -0.248159 1.70278 238 237 242 
0.312644 -0.546715 1.75888 187 189 186 
0.575533 -0.174285 1.60712 225 220 217 
0.330786 -0.651292 1.79661 173 169 170 
0.45188 -0.651479 1.82319 10 12 11 
0.406504 -0.547157 1.77453 194 198 197 
0.359915 -0.650331 1.80672 192 196 197 
0.423464 -0.548335 1.77201 47 51 54 
0.340994 -0.646395 1.80567 0 2 0 
0.614412 -0.641778 1.8174 181 178 163 
0.604167 -0.19665 1.65075 235 233 236 
-0.257681 -0.204795 1.63665 43 44 48 
0.584419 -0.183025 1.61512 87 83 80 
0.413681 -0.635576 1.81622 219 220 222 
-0.136237 -0.18385 1.66086 40 40 42 
0.413633 -0.554099 1.77535 6 8 5 
0.374154 -0.555346 1.77253 175 179 180 
0.538673 -0.553214 1.76841 194 187 169 
0.432338 -0.555224 1.77581 136 140 141 
0.354796 -0.557034 1.77295 67 67 69 
0.387635 -0.62863 1.8014 191 193 192 
0.404257 -0.628465 1.80367 2 11 10 
0.326834 -0.628907 1.80104 101 103 100 
0.591014 -0.623674 1.80356 148 145 126 
0.601952 -0.198267 1.62925 65 63 64 
0.329463 -0.626682 1.79151 179 181 176 
0.347068 -0.626451 1.80045 46 46 48 
0.297202 -0.560916 1.76448 55 59 62 
0.440948 -0.624355 1.81119 221 223 222 
0.555548 -0.559976 1.77332 92 94 91 
-0.206697 -0.260392 1.70798 50 51 55 
-0.225557 -0.202552 1.63618 34 30 31 
0.306725 -0.566198 1.77709 193 195 194 
-0.00042666 -0.306257 1.66171 232 231 229 
0.355152 -0.569669 1.77752 145 145 145 
0.385864 -0.615186 1.79704 21 22 24 
0.605886 -0.61199 1.80531 165 168 151 
-0.10124 -0.259169 1.73722 105 103 106 
-0.293792 0.000650675 1.57503 9 10 30 
0.567136 -0.568156 1.77474 170 167 150 
0.54675 -0.568524 1.77763 203 202 174 
0.299864 -0.573269 1.77607 175 177 174 
0.59023 -0.608751 1.79637 185 179 155 
0.433344 -0.611638 1.8063 41 39 40 
0.459411 -0.611252 1.80709 192 194 189 
0.343849 -0.611595 1.79533 204 202 203 
0.31976 -0.573892 1.76992 0 1 0 
-0.275263 -0.269567 1.68677 232 233 237 
0.583888 -0.190585 1.63252 240 239 235 
0.372986 -0.603263 1.80063 223 225 224 
0.420898 -0.578604 1.78485 144 145 140 
-0.211747 -0.195131 1.64391 220 220 222 
0.0345543 -0.292178 1.64079 255 249 215 
0.5514 -0.576869 1.78097 201 200 182 
0.318416 -0.600551 1.78815 20 20 18 
-0.147813 -0.193453 1.65725 26 26 28 
0.575241 -0.577702 1.78768 141 143 132 
0.387597 -0.581048 1.79268 176 177 179 
0.373086 -0.59482 1.7887 37 39 36 
0.566177 -0.592049 1.79663 60 62 61 
0.568982 -0.590602 1.78487 66 67 69 
0.310253 -0.594366 1.7875 171 171 169 
0.439807 -0.585353 1.78708 17 24 17 
0.320602 -0.588381 1.77979 10 10 8 
-0.0219151 -0.231869 1.74489 67 68 72 
0.63359 -0.633652 1.81516 152 152 150 
-0.0938181 -0.224611 1.70971 69 68 73 
0.537981 -0.452076 1.72196 174 175 167 
0.840022 -0.274862 1.71848 122 123 117 
0.502967 -0.578135 1.78857 198 160 97 
-0.138331 -0.232789 1.69136 111 111 113 
-0.344842 0.0300601 1.53648 131 121 156 
0.475547 -0.647217 1.81065 191 199 201 
-0.348445 0.00631928 1.55208 140 133 167 
0.464182 -0.497452 1.74205 76 35 0 
-0.175302 -0.255363 1.69324 109 110 114 
0.485079 -0.552584 1.76556 94 61 0 
0.499043 -0.590858 1.79195 208 185 92 
0.560967 -0.702374 1.84476 203 178 78 
-0.306314 -0.277014 1.67819 101 102 106 
-0.332298 -0.222227 1.62347 59 62 67 
0.358001 -0.649959 1.8182 84 85 87 
-0.331795 0.0345786 1.5307 117 114 145 
0.572279 -0.165338 1.60036 235 234 230 
-0.349218 -0.0095742 1.57299 131 122 153 
-0.305261 -0.299127 1.69473 74 75 80 
-0.326529 0.00175607 1.56052 135 128 159 
0.563609 -0.558209 1.77977 191 190 188 
-0.335346 -0.304481 1.68482 55 59 62 
0.639318 -0.657686 1.82182 180 175 155 
0.538578 -0.674192 1.82344 203 175 76 
0.548375 -0.67081 1.83288 202 173 95 
0.519934 -0.608984 1.80051 74 38 0 
0.477817 -0.673924 1.82978 197 202 206 
0.475503 -0.662703 1.82944 102 106 115 
0.551399 -0.536323 1.76183 195 196 188 
0.544881 -0.662064 1.82136 65 29 0 
0.501129 -0.754482 1.84726 12 12 14 
0.491347 -0.730535 1.8474 191 196 199 
0.562002 -0.722381 1.84908 83 44 0 
0.662707 -0.649143 1.83196 184 186 181 
0.10851 -0.440949 1.71711 179 183 182 
0.345366 -0.692821 1.82171 224 228 229 
-0.328927 0.0210059 1.55058 118 113 143 
0.652366 -0.648517 1.83028 10 7 0 
-0.0810345 -0.212499 1.69846 62 61 66 
0.422709 -0.588106 1.7937 176 180 181 
-0.124232 -0.1855 1.65916 42 42 44 
-0.259139 -0.222857 1.6685 202 201 206 
-0.190504 -0.187603 1.64255 54 53 58 
0.561906 -0.170839 1.59358 90 89 85 
0.566546 -0.177214 1.61864 56 55 51 
0.502682 -0.779523 1.8585 172 172 172 
0.528983 -0.753152 1.86439 126 131 125 
0.503938 -0.744876 1.84887 49 54 50 
0.509522 -0.717098 1.84045 177 183 181 
0.487673 -0.711554 1.83979 65 74 73 
-0.00909217 -0.212764 1.7318 240 242 241 
0.50044 -0.698322 1.83507 213 217 218 
0.440451 -0.571792 1.791 242 248 248 
-0.133626 -0.224244 1.67564 92 92 90 
0.491759 -0.561839 1.77264 231 203 80 
0.283403 -0.559877 1.76527 193 191 192 
0.364553 -0.585568 1.79098 182 188 188 
-0.169152 -0.230645 1.69423 71 72 74 
0.377003 -0.680576 1.82758 214 215 210 
0.403186 -0.539721 1.76309 61 69 71 
0.392965 -0.674517 1.81077 189 189 189 
0.470106 -0.669461 1.82399 0 1 4 
0.449784 -0.592045 1.79898 231 237 237 
0.585021 -0.590954 1.79095 188 195 188 
0.533438 -0.51584 1.74412 201 203 189 
0.387498 -0.516086 1.76266 140 142 139 
-0.044767 -0.657659 1.7403 208 207 205 
-0.111268 -0.243667 1.72327 82 83 87 
-0.216526 -0.249998 1.67611 91 90 95 
0.524937 -0.508846 1.75064 193 192 172 
0.454417 -0.601346 1.80257 232 233 235 
0.335499 -0.65008 1.81363 54 55 50 
0.0981657 -0.403733 1.69132 213 213 213 
0.456485 -0.646506 1.81603 23 32 31 
0.391168 -0.608227 1.8022 69 73 76 
-0.097198 -0.257152 1.71616 88 83 89 
-0.111411 -0.258996 1.73213 236 236 236 
0.392702 -0.635508 1.81072 62 62 62 
0.600678 -0.63154 1.80814 167 168 154 
0.626486 -0.630273 1.80804 199 198 196 
0.354366 -0.633483 1.80808 212 214 213 
0.384952 -0.615987 1.81483 9 10 12 
0.393191 -0.619144 1.80261 175 179 180 
0.0365976 -0.293107 1.62988 83 68 37 
0.613906 -0.619383 1.8033 189 192 181 
-0.294444 -0.299639 1.6968 84 85 90 
0.597762 -0.627406 1.81713 211 211 211 
-0.655619 -0.549203 1.87267 83 82 80 
0.527584 -0.636943 1.81656 189 171 87 
0.858351 -0.254351 1.6622 142 145 138 
0.502822 -0.60571 1.79342 101 61 0 
0.3603 -0.376979 1.68827 147 146 178 
-0.20088 -0.200799 1.64998 124 120 121 
0.510891 -0.603897 1.80479 72 33 0 
-0.231485 -0.26106 1.69882 122 123 127 
0.81864 -0.44241 1.83784 91 92 87 
-0.699262 -0.504156 1.85071 214 225 229 
-0.619627 -0.536499 1.88296 209 201 198 
-0.379965 -0.00788115 1.55492 14 1 18 
0.478093 -0.525286 1.75956 87 47 0 
-0.693726 -0.552448 1.87223 214 214 214 
-0.53723 -0.0940429 1.56208 80 81 76 
0.483755 -0.542263 1.75588 93 54 0 
0.558397 -0.682569 1.84657 78 41 0 
0.552309 -0.681994 1.83133 216 183 90 
