ply                 
format ascii 1.0    
element vertex 1233
property float x    
property float y    
property float z    
property uchar red  
property uchar green
property uchar blue 
end_header          
-0.689519 -0.499641 1.82539 23 95 119 
0.453705 -0.451883 1.71298 158 182 220 
0.0732265 -0.219446 1.69118 51 53 50 
-0.586557 -0.514783 1.84911 239 225 224 
0.520137 -0.495474 1.74732 239 237 225 
0.496251 -0.750219 1.84574 5 9 8 
0.35449 -0.544058 1.76971 184 186 181 
0.0387058 -0.211338 1.67796 28 28 28 
0.308117 -0.563551 1.76997 7 8 10 
-0.647547 -0.444838 1.79626 255 192 203 
0.099763 -0.437926 1.71493 208 210 209 
0.422629 -0.575636 1.78771 10 15 11 
0.456018 -0.655366 1.81277 0 4 0 
0.0329219 -0.156968 1.6956 217 215 216 
0.550849 -0.532417 1.76778 22 22 10 
0.382822 -0.590514 1.7921 44 45 47 
0.407811 -0.677312 1.82135 178 179 181 
0.362762 -0.653338 1.81195 206 202 201 
0.61849 -0.644026 1.80866 234 237 230 
0.46127 -0.639535 1.80572 15 21 21 
0.850597 -0.488091 1.80029 146 157 141 
-0.602359 -0.534514 1.87275 225 219 223 
0.482772 -0.54026 1.82298 85 54 0 
0.463387 -0.518097 1.72271 239 204 60 
0.216669 -0.747649 2.08535 5 7 2 
-0.864118 -0.440814 1.74087 27 20 12 
0.493004 -0.289706 1.65956 64 67 76 
-0.605039 -0.41981 1.78175 255 218 220 
-0.00470969 -0.164398 1.70398 111 145 110 
-0.69737 -0.549101 1.86628 179 185 185 
-0.6725 -0.404879 1.77235 65 153 105 
0.104435 -0.451102 1.7479 188 190 189 
0.322987 -0.484539 1.74018 129 147 183 
0.146379 -0.341957 1.65076 145 138 130 
0.83618 -0.570184 1.87576 125 130 123 
0.645629 -0.596638 1.81139 60 42 4 
-0.0154416 -0.185696 1.70769 201 207 203 
-0.488139 -0.291973 1.73616 136 94 134 
-0.512055 -0.22321 1.67672 193 194 196 
-0.710849 -0.2299 1.64795 81 83 80 
0.904957 -0.232692 1.62451 199 199 199 
0.250273 -0.547969 1.76733 128 138 174 
0.0969485 -0.443844 1.73807 29 31 28 
0.498894 -0.706013 1.83211 226 224 225 
0.892171 -0.51143 1.79113 179 141 92 
0.862413 -0.494059 1.8022 135 139 124 
-0.603669 -0.420378 1.79997 174 103 119 
-0.356909 -0.203155 1.62254 207 208 212 
0.337814 -0.609197 1.78065 216 217 219 
0.469731 -0.65533 1.79925 225 223 226 
0.132936 -0.305245 1.64439 96 98 110 
0.42923 -0.622566 1.81665 212 214 211 
0.882148 -0.501472 1.78591 150 151 145 
0.349073 -0.798509 2.07741 207 206 201 
-0.728108 -0.247619 1.64592 234 166 55 
-0.465085 -0.498201 1.91592 210 216 216 
-0.869581 -0.46118 1.76358 19 16 9 
-0.523848 -0.159942 1.61827 28 26 27 
-0.563732 -0.415002 1.80088 254 194 196 
-0.607065 -0.516482 1.85813 239 154 173 
0.863678 -0.481991 1.79285 210 211 216 
-0.316652 -0.672011 1.89594 77 86 93 
-0.513906 -0.441077 1.88491 27 31 30 
0.0974095 -0.435499 1.72659 245 247 246 
-0.73664 -0.233687 1.65832 62 55 27 
0.525939 -0.762587 1.8421 220 225 221 
0.206857 -0.75496 2.08098 202 185 178 
0.501974 -0.737569 1.83322 5 10 4 
-0.348005 -0.198917 1.61269 218 219 223 
-0.59186 -0.510142 1.86467 238 216 218 
-0.365186 -0.659342 1.8906 179 180 182 
0.89352 -0.500376 1.78677 145 150 144 
-0.594742 -0.521586 1.85092 218 160 175 
-0.509812 -0.162008 1.61283 184 185 187 
-0.346188 -0.315352 1.64409 77 78 80 
0.531889 -0.53373 1.76542 44 46 25 
0.458667 -0.461002 1.73464 115 140 170 
-0.319469 -0.621283 1.87705 187 191 194 
0.53748 -0.529555 1.74392 124 125 120 
0.155396 -0.730274 2.07529 31 21 29 
0.234533 -0.262883 1.6038 31 47 72 
0.869376 -0.498486 1.78322 107 112 106 
0.0100554 -0.161377 1.70954 213 212 218 
0.515661 -0.481915 1.72927 189 184 165 
-0.0810191 -0.246625 1.72293 25 25 27 
-0.00799101 -0.231196 1.74084 35 35 37 
0.338244 -0.642561 1.79716 25 31 31 
-0.276859 0.0375845 1.54875 156 141 174 
0.380163 -0.61134 1.79364 36 38 37 
-0.173926 -0.237053 1.692 236 237 241 
-0.228702 -0.255121 1.68341 57 56 61 
0.468256 -0.689198 1.82881 93 90 85 
0.339415 -0.68507 1.81275 138 137 133 
-0.232666 -0.217274 1.55864 118 119 123 
-0.101957 -0.188627 1.68082 70 71 75 
0.430907 -0.612705 1.79733 137 137 137 
-0.282265 0.0285236 1.55772 32 15 59 
-0.330171 -0.000772848 1.5654 9 2 35 
0.414581 -0.651164 1.80948 156 162 162 
0.356636 -0.124542 1.7046 21 23 0 
0.466262 -0.665923 1.82113 49 50 54 
0.327486 -0.624102 1.79161 146 148 147 
0.358916 -0.579087 1.77997 152 151 147 
0.158816 -0.0139884 1.65188 171 148 140 
-0.268384 -0.214212 1.64447 116 117 122 
-0.0169382 -0.229937 1.73487 221 222 226 
0.365771 -0.586945 1.7835 170 175 171 
-0.319752 -0.64553 1.88677 22 31 28 
0.570029 -0.575754 1.78239 178 174 163 
-0.338911 0.00384276 1.55697 115 107 144 
0.452577 -0.642888 1.81036 90 101 97 
0.391237 -0.109322 1.68099 31 35 2 
0.328761 -0.648248 1.79942 80 79 75 
-0.523831 -0.160588 1.61097 73 74 69 
-0.200861 -0.222789 1.67548 150 149 154 
0.650151 0.0511086 1.62728 0 12 19 
0.387085 -0.536001 1.75871 206 210 209 
0.394062 -0.616134 1.79789 0 4 3 
0.34106 -0.62751 1.79442 4 4 6 
0.392865 -0.645297 1.80547 187 187 187 
0.41903 -0.664533 1.81528 34 44 43 
0.651042 -0.643123 1.82147 179 171 152 
-0.333174 -0.644016 1.88598 43 47 50 
0.854072 -0.2613 1.65862 146 148 147 
0.550376 -0.577937 1.781 197 192 186 
0.588018 -0.195658 1.63118 65 61 60 
-0.336991 0.0260251 1.53447 10 1 46 
0.409127 -0.542291 1.76453 184 186 185 
0.483749 -0.706079 1.83644 103 105 104 
-0.327031 -0.0131302 1.57745 99 94 124 
0.406953 -0.50683 1.74969 91 91 91 
-0.142744 -0.27782 1.72255 138 139 143 
0.407297 -0.225101 1.61073 179 147 86 
0.479675 -0.725599 1.8424 171 173 172 
0.342405 -0.662705 1.80437 180 186 186 
0.456563 -0.666537 1.81879 204 208 209 
0.343124 -0.65374 1.79757 22 26 27 
0.0330394 -0.153274 1.69282 177 173 172 
0.374243 -0.559711 1.7729 185 185 185 
0.609785 -0.639284 1.8147 192 194 181 
0.437254 -0.620561 1.80154 200 202 201 
0.369911 -0.603915 1.78535 4 4 4 
0.387695 -0.605285 1.78966 107 111 110 
0.410415 -0.567439 1.77603 186 188 187 
-0.568288 -0.410875 1.79107 183 85 110 
0.465619 -0.523412 1.75056 214 184 62 
-0.601175 -0.437018 1.80578 242 189 195 
0.853195 -0.687315 1.90302 48 30 10 
0.347346 -0.249581 1.43282 207 174 103 
0.844115 -0.276707 1.69169 151 135 135 
-0.106765 -0.261434 1.72662 84 84 86 
0.378305 -0.59814 1.78775 40 44 43 
0.24903 -0.549507 1.75627 116 131 160 
0.473033 -0.54219 1.75931 111 80 0 
0.431895 -0.336409 1.70506 230 196 106 
0.467297 -0.630997 1.80426 162 160 161 
0.409151 -0.669961 1.81461 32 34 31 
0.358719 -0.659684 1.80157 39 39 39 
-0.559099 -0.427757 1.8055 252 186 190 
0.443872 -0.640047 1.8044 189 189 189 
-0.290208 -0.668017 1.90238 64 69 72 
0.411329 -0.63938 1.80676 217 218 220 
0.400389 -0.626182 1.79923 25 25 25 
0.322334 -0.607881 1.78143 48 52 53 
0.846186 -0.264664 1.67565 161 158 149 
0.282259 -0.557916 1.75958 207 207 207 
0.383206 -0.579863 1.78189 203 203 203 
-0.275543 -0.675242 1.90277 176 177 181 
-0.310927 -0.659826 1.89085 55 59 60 
-0.264449 -0.629145 1.89307 152 157 160 
-0.606994 -0.416913 1.78806 255 200 206 
0.390465 -0.261803 1.62982 189 156 103 
-0.28433 -0.281833 1.67726 99 100 105 
0.242533 -0.0380216 1.69771 0 53 36 
0.809551 -0.402254 1.80666 131 134 115 
0.85226 -0.695054 1.91162 170 145 125 
0.677186 -0.676074 1.83849 58 40 18 
0.854366 -0.492456 1.7882 135 137 132 
0.645528 -0.596859 1.80235 72 41 0 
0.456711 -0.415101 1.69092 203 175 101 
0.570337 -0.184275 1.61991 186 182 181 
0.903817 -0.25949 1.64674 160 161 156 
0.347414 -0.672574 1.80618 227 229 228 
-0.556314 -0.243892 1.68387 227 224 207 
0.353585 -0.639371 1.79724 186 186 188 
0.358824 -0.217055 1.58287 191 153 91 
0.453804 -0.610696 1.79962 207 209 208 
0.534281 -0.41333 1.704 188 184 181 
0.576434 -0.608016 1.7938 42 45 38 
0.903886 -0.204733 1.613 151 146 124 
-0.319963 -0.622421 1.87352 194 197 204 
0.447703 -0.598033 1.78957 155 157 156 
0.392454 -0.595505 1.78773 33 37 36 
0.831992 -0.476619 1.80266 119 122 115 
0.299332 -0.572223 1.76563 213 217 218 
0.829773 -0.607489 1.8732 153 174 159 
-0.465052 -0.504411 1.92045 175 177 174 
0.294256 -0.560627 1.76392 74 78 81 
0.409511 -0.534202 1.75495 24 28 27 
0.386855 -0.522957 1.75441 58 59 61 
-0.00383458 -0.165841 1.68583 68 116 74 
0.822087 -0.463067 1.82741 82 85 78 
0.26691 -0.789049 2.0722 151 156 149 
0.820294 -0.277754 1.70926 145 152 134 
0.516674 -0.465914 1.71721 162 161 159 
0.397501 -0.669258 1.81635 41 40 36 
0.519361 -0.498369 1.73674 155 153 141 
0.539028 -0.502034 1.74239 37 37 25 
0.441385 -0.65613 1.81627 212 210 213 
0.531085 -0.310452 1.67673 147 143 142 
0.32844 -0.635809 1.79305 151 153 152 
0.389773 -0.631004 1.79956 5 9 8 
0.589952 -0.621656 1.80227 198 192 192 
0.303148 -0.556716 1.7574 0 9 8 
0.589331 -0.607332 1.79949 209 204 198 
0.834431 -0.61116 1.88559 163 184 169 
0.903605 -0.244355 1.63796 148 150 145 
-0.276917 -0.630866 1.88647 58 74 73 
0.841232 -0.54291 1.84068 128 134 120 
-0.326505 -0.637627 1.87815 194 197 204 
-0.328478 -0.680287 1.89829 63 73 74 
0.804871 -0.422587 1.82406 127 115 115 
-0.236567 -0.204441 1.63302 177 176 181 
0.8647 -0.193882 1.60476 169 173 138 
-0.195512 -0.0419976 1.56538 78 62 47 
0.818589 -0.462901 1.81596 98 100 95 
0.902687 -0.271141 1.6518 198 198 200 
0.866952 -0.202047 1.61653 192 187 147 
0.84025 -0.484636 1.79677 135 138 127 
0.867055 -0.256608 1.65243 194 197 186 
0.521251 -0.49157 1.72875 15 19 5 
-0.283678 -0.680293 1.90671 196 201 205 
0.764401 0.0713264 1.5669 37 46 45 
0.233388 0.121892 1.58885 175 170 177 
0.55678 -0.166818 1.61819 246 245 243 
-0.115541 -0.213196 1.70027 58 55 62 
-0.235288 -0.220982 1.66375 33 34 38 
-0.00131809 -0.210049 1.73959 131 135 136 
-0.150429 -0.220399 1.67899 249 249 251 
-0.0853875 -0.258661 1.73572 119 107 111 
0.474521 -0.542201 1.76468 46 14 0 
0.504193 -0.781643 1.85993 55 57 56 
-0.277081 0.0393248 1.55521 165 156 187 
0.415312 -0.651137 1.8089 174 178 177 
-0.18626 -0.248802 1.69941 47 48 53 
0.51135 -0.767468 1.8584 153 154 149 
-0.279037 -0.250986 1.6505 67 67 69 
-0.090271 -0.223531 1.72235 53 52 57 
0.0997527 -0.433191 1.7229 172 172 172 
0.0985897 -0.440456 1.73835 170 174 173 
0.518164 -0.735311 1.85067 119 119 117 
-0.249878 -0.236366 1.6512 45 45 47 
0.476856 -0.726661 1.84648 142 143 138 
0.483871 -0.721672 1.83489 164 165 160 
-0.164874 -0.268497 1.71552 90 93 98 
-0.268405 -0.239125 1.65234 228 229 231 
-0.207195 -0.228153 1.6819 205 206 208 
0.468316 -0.526778 1.76706 86 43 0 
0.57672 -0.190759 1.62629 98 94 91 
-0.3063 -0.242575 1.64298 96 99 104 
0.590179 -0.202667 1.64598 172 171 169 
0.501636 -0.702649 1.83914 161 163 162 
-0.156126 -0.222133 1.69302 107 106 111 
0.450665 -0.497299 1.74177 111 72 0 
0.461157 -0.6935 1.83724 146 146 146 
0.463221 -0.690834 1.82542 183 185 182 
-0.158254 -0.193524 1.67897 111 113 112 
0.484217 -0.571168 1.77852 44 2 0 
-0.106045 -0.237137 1.71631 233 233 235 
0.397016 -0.681921 1.81992 202 203 205 
-0.0673152 -0.200644 1.69201 52 51 56 
-0.591322 -0.537784 1.87963 192 197 200 
-0.58084 -0.53763 1.88032 9 9 0 
0.411958 -0.51863 1.76066 222 226 229 
0.524209 -0.516719 1.75537 219 215 203 
0.539273 -0.513784 1.75106 174 176 165 
0.468167 -0.512761 1.74767 73 39 0 
0.403179 -0.511192 1.75647 40 45 48 
0.466573 -0.523047 1.75393 230 200 110 
0.346549 -0.671444 1.81575 179 178 173 
0.458509 -0.498056 1.75211 76 43 0 
0.518511 -0.489615 1.73519 48 51 44 
0.445381 -0.489212 1.73776 208 172 60 
0.522845 -0.524653 1.74936 188 185 168 
0.534568 -0.479842 1.73495 166 163 158 
-0.338467 0.0101027 1.54735 135 125 162 
0.51724 -0.468558 1.7305 162 163 157 
0.395304 -0.529219 1.76468 185 187 184 
-0.171376 -0.246494 1.69251 232 233 237 
0.403856 -0.664243 1.81626 175 177 176 
0.362809 -0.533837 1.76406 187 188 190 
0.420307 -0.533694 1.76749 152 161 158 
-0.208633 -0.249054 1.68657 73 74 79 
0.518996 -0.427609 1.71114 166 166 164 
0.535198 -0.425307 1.7188 34 34 24 
0.340716 -0.659363 1.80926 203 205 202 
0.396117 -0.539267 1.77743 123 127 130 
0.529431 -0.539321 1.76398 197 190 171 
0.438777 -0.653743 1.81294 182 182 182 
-0.077345 -0.2442 1.73804 57 51 53 
0.553375 -0.17119 1.60768 212 211 209 
0.345206 -0.542413 1.76974 174 176 175 
0.335293 -0.653059 1.8003 99 107 109 
-0.113161 -0.249078 1.70329 238 237 242 
0.31103 -0.544586 1.75895 187 189 186 
0.572254 -0.175067 1.6117 225 220 217 
0.328918 -0.648077 1.79562 173 169 170 
0.448651 -0.648166 1.82164 10 12 11 
0.403794 -0.545185 1.77139 194 198 197 
0.357712 -0.647092 1.80553 192 196 197 
0.420732 -0.546148 1.77198 47 51 54 
0.338982 -0.643199 1.80445 0 2 0 
0.609578 -0.638559 1.81625 181 178 163 
0.600342 -0.197406 1.65435 235 233 236 
-0.25392 -0.206 1.63858 43 44 48 
0.581023 -0.183764 1.61954 87 83 80 
0.410869 -0.632447 1.81482 219 220 222 
-0.133562 -0.18529 1.66234 40 40 42 
0.410977 -0.551854 1.77517 6 8 5 
0.3719 -0.553102 1.77241 175 179 180 
0.534882 -0.550965 1.76868 194 187 169 
0.429503 -0.552964 1.77568 136 140 141 
0.352727 -0.554777 1.77277 67 67 69 
0.385161 -0.625615 1.80041 191 193 192 
0.4016 -0.625442 1.8026 2 11 10 
0.324968 -0.625896 1.79991 101 103 100 
0.586487 -0.620669 1.8027 148 145 126 
0.598328 -0.198927 1.63337 65 63 64 
0.327605 -0.623717 1.79062 179 181 176 
0.345 -0.623463 1.79939 46 46 48 
0.295724 -0.558646 1.76435 55 59 62 
0.437887 -0.62135 1.81005 221 223 222 
0.551562 -0.557652 1.77344 92 94 91 
-0.203144 -0.261256 1.70812 50 51 55 
-0.222113 -0.203755 1.6382 34 30 31 
0.305111 -0.563854 1.77664 193 195 194 
0.000932258 -0.306421 1.66375 232 231 229 
0.353071 -0.567283 1.77721 145 145 145 
0.383418 -0.612313 1.79617 21 22 24 
0.601217 -0.609096 1.80457 165 168 151 
-0.0987227 -0.260078 1.73674 105 103 106 
-0.289809 -0.00236508 1.57778 9 10 30 
0.56305 -0.565752 1.77488 170 167 150 
0.542817 -0.566114 1.77758 203 202 174 
0.298334 -0.570862 1.77571 175 177 174 
0.585765 -0.605911 1.79577 185 179 155 
0.430377 -0.608771 1.8053 41 39 40 
0.45618 -0.608384 1.80612 192 194 189 
0.341825 -0.608766 1.79441 204 202 203 
0.318053 -0.571486 1.76969 0 1 0 
-0.271099 -0.270305 1.68741 232 233 237 
0.580366 -0.191331 1.63653 240 239 235 
0.370647 -0.600501 1.7997 223 225 224 
0.418142 -0.576107 1.78442 144 145 140 
-0.20839 -0.196438 1.64568 220 220 222 
0.0355771 -0.292394 1.6435 255 249 215 
0.547406 -0.574373 1.78083 201 200 182 
0.316672 -0.597852 1.78745 20 20 18 
-0.145037 -0.194789 1.65881 26 26 28 
0.570995 -0.575183 1.7875 141 143 132 
0.385136 -0.578517 1.79202 176 177 179 
0.370793 -0.592166 1.78807 37 39 36 
0.561942 -0.589374 1.79608 60 62 61 
0.564814 -0.587967 1.78467 66 67 69 
0.308585 -0.591728 1.78676 171 171 169 
0.436864 -0.582784 1.78664 17 24 17 
0.318759 -0.585784 1.7781 10 10 8 
-0.0202455 -0.233057 1.74432 67 68 72 
0.62858 -0.630517 1.81412 152 152 150 
-0.0914468 -0.225794 1.70999 69 68 73 
0.534435 -0.450782 1.72354 174 175 167 
0.833711 -0.275027 1.72076 122 123 117 
0.499389 -0.575621 1.78817 198 160 97 
-0.135546 -0.233851 1.69206 111 111 113 
-0.340572 0.0269708 1.53996 131 121 156 
0.472158 -0.643985 1.80953 191 199 201 
-0.344075 0.00336125 1.55527 140 133 167 
0.461197 -0.495763 1.74291 76 35 0 
-0.172142 -0.256211 1.6939 109 110 114 
0.481808 -0.550355 1.76583 94 61 0 
0.495497 -0.588216 1.79146 208 185 92 
0.556504 -0.698461 1.84264 203 178 78 
-0.301887 -0.277664 1.67905 101 102 106 
-0.327905 -0.223253 1.62565 59 62 67 
0.355761 -0.646687 1.81664 84 85 87 
-0.327682 0.0315077 1.53435 117 114 145 
0.569058 -0.166171 1.60507 235 234 230 
-0.344709 -0.0125319 1.57564 131 122 153 
-0.30076 -0.299597 1.69515 74 75 80 
-0.32231 -0.00120493 1.56353 135 128 159 
0.559514 -0.555889 1.77981 191 190 188 
-0.330598 -0.304885 1.68549 55 59 62 
0.634223 -0.654297 1.82059 180 175 155 
0.534486 -0.670644 1.82198 203 175 76 
0.544114 -0.667264 1.83118 202 173 95 
0.516138 -0.606144 1.79978 74 38 0 
0.474305 -0.670365 1.82808 197 202 206 
0.471996 -0.659253 1.82769 102 106 115 
0.547523 -0.534237 1.76231 195 196 188 
0.540725 -0.65864 1.81996 65 29 0 
0.497301 -0.750027 1.84482 12 12 14 
0.48762 -0.726332 1.84508 191 196 199 
0.557516 -0.718249 1.84682 83 44 0 
0.657275 -0.645802 1.83047 184 186 181 
0.108889 -0.439888 1.71802 179 183 182 
0.343267 -0.689108 1.81994 224 228 229 
-0.324717 0.0179065 1.55373 118 113 143 
0.647058 -0.64519 1.82884 10 7 0 
-0.0788215 -0.213761 1.69906 62 61 66 
0.419897 -0.585499 1.79305 176 180 181 
-0.121679 -0.18691 1.66071 42 42 44 
-0.255202 -0.224011 1.66956 202 201 206 
-0.18736 -0.188963 1.64441 54 53 58 
0.558844 -0.171586 1.59853 90 89 85 
0.563231 -0.178038 1.62288 56 55 51 
0.498783 -0.774758 1.8557 172 172 172 
0.524754 -0.748636 1.86156 126 131 125 
0.500073 -0.740517 1.84647 49 54 50 
0.505642 -0.71306 1.83839 177 183 181 
0.484013 -0.707573 1.83768 65 74 73 
-0.00757963 -0.214104 1.73163 240 242 241 
0.496675 -0.694495 1.83318 213 217 218 
0.437457 -0.569344 1.7904 242 248 248 
-0.130945 -0.225325 1.67683 92 92 90 
0.488201 -0.559495 1.77168 231 203 80 
0.282061 -0.557619 1.76515 193 191 192 
0.362327 -0.583 1.79029 182 188 188 
-0.166037 -0.231757 1.69478 71 72 74 
0.374535 -0.67696 1.82567 214 215 210 
0.400683 -0.537632 1.76323 61 69 71 
0.390422 -0.671023 1.80945 189 189 189 
0.466705 -0.665967 1.82245 0 1 4 
0.446669 -0.589382 1.79816 231 237 237 
0.580648 -0.588299 1.79058 188 195 188 
0.529834 -0.513966 1.74505 201 203 189 
0.385133 -0.514223 1.76285 140 142 139 
-0.042819 -0.654598 1.74019 208 207 205 
-0.108674 -0.24471 1.72312 82 83 87 
-0.213017 -0.250864 1.67718 91 90 95 
0.521368 -0.50703 1.75145 193 192 172 
0.451242 -0.598584 1.80165 232 233 235 
0.33351 -0.646823 1.81216 54 55 50 
0.0986452 -0.403005 1.6929 213 213 213 
0.453253 -0.643266 1.81473 23 32 31 
0.388634 -0.605408 1.80118 69 73 76 
-0.0947867 -0.258003 1.71638 88 83 89 
-0.108802 -0.25989 1.73182 236 236 236 
0.390133 -0.632398 1.80945 62 62 62 
0.596041 -0.628448 1.80722 167 168 154 
0.6216 -0.627191 1.80717 199 198 196 
0.352198 -0.630405 1.80683 212 214 213 
0.382431 -0.613061 1.81349 9 10 12 
0.390653 -0.61622 1.80165 175 179 180 
0.0375995 -0.293289 1.63286 83 68 37 
0.609176 -0.616421 1.80258 189 192 181 
-0.290041 -0.300106 1.69716 84 85 90 
0.593087 -0.624332 1.81601 211 211 211 
-0.645587 -0.547057 1.86723 83 82 80 
0.523625 -0.633786 1.81536 189 171 87 
0.85249 -0.25455 1.66578 142 145 138 
0.499234 -0.602921 1.79283 101 61 0 
0.358428 -0.376389 1.69043 147 146 178 
-0.197622 -0.202052 1.65172 124 120 121 
0.507149 -0.601097 1.80392 72 33 0 
-0.227715 -0.261899 1.69919 122 123 127 
0.811402 -0.441117 1.83683 91 92 87 
-0.688824 -0.502598 1.84581 214 225 229 
-0.609956 -0.534487 1.87723 209 201 198 
-0.375295 -0.0107405 1.55801 14 1 18 
0.474894 -0.523321 1.75995 87 47 0 
-0.683182 -0.55027 1.86672 214 214 214 
-0.531157 -0.096183 1.56502 80 81 76 
0.480538 -0.540145 1.75634 93 54 0 
0.553936 -0.678853 1.84445 78 41 0 
0.548032 -0.678342 1.82968 216 183 90 
-0.113639 -0.227074 1.69487 88 86 91 
0.489895 -0.57879 1.78416 195 164 58 
0.549403 -0.670381 1.8419 82 45 0 
-0.507461 -0.184887 1.65054 172 173 177 
0.872046 -0.188032 1.61266 41 42 37 
0.524519 -0.752215 1.85166 205 206 208 
0.130559 -0.304172 1.64374 159 163 175 
-0.26332 -0.240477 1.65843 89 95 95 
-0.12587 -0.19961 1.67064 100 98 101 
-0.326909 -0.0133878 1.57647 123 119 142 
0.569466 -0.722139 1.85553 196 178 68 
0.735228 -0.300469 1.78332 168 158 166 
0.375431 -0.559312 1.78102 101 103 100 
0.35461 -0.638706 1.79884 188 187 183 
0.83747 -0.598722 1.89063 167 185 173 
0.567825 -0.777299 1.87165 186 166 77 
0.509405 -0.619596 1.8095 90 63 0 
0.552559 -0.688452 1.83255 210 178 69 
0.850559 0.0315403 1.50207 188 194 192 
0.762321 -0.276577 1.76545 193 214 205 
-0.141589 -0.254685 1.70239 255 255 255 
0.535175 -0.463629 1.7292 214 211 206 
0.464626 -0.471544 1.72761 206 187 119 
0.537182 -0.50368 1.74461 188 191 184 
0.518802 -0.775176 1.86431 2 4 0 
0.394778 -0.5189 1.76375 1 2 4 
0.401507 -0.670459 1.83307 6 6 6 
0.526769 -0.767437 1.85302 6 15 14 
0.313609 -0.549017 1.7737 220 222 221 
0.303776 -0.556118 1.77129 27 30 39 
0.304175 -0.582263 1.78413 186 186 186 
0.55448 -0.58476 1.78217 214 209 190 
0.383533 -0.588157 1.79007 61 65 66 
0.33534 -0.593871 1.7888 171 171 171 
0.316196 -0.608204 1.79085 53 55 54 
0.397524 -0.611046 1.7955 207 211 212 
0.33513 -0.631226 1.8005 3 2 0 
0.46413 -0.638445 1.80875 3 5 4 
0.638297 -0.63692 1.8167 184 177 169 
0.394842 -0.646822 1.82216 193 195 192 
0.622345 -0.646392 1.82089 236 239 230 
0.361417 -0.660337 1.81227 25 29 32 
0.470569 -0.659536 1.8138 32 37 43 
0.419346 -0.664635 1.8173 0 4 1 
0.481423 -0.664845 1.82186 212 221 220 
0.427738 -0.670647 1.81995 209 213 214 
0.392596 -0.672228 1.81947 186 188 187 
0.37195 -0.672415 1.81685 181 183 178 
0.478373 -0.729814 1.8362 190 196 192 
0.491146 -0.684044 1.8278 206 206 206 
0.511581 -0.727545 1.83988 197 201 202 
-0.155311 -0.215585 1.656 236 235 241 
0.519084 -0.448402 1.72023 36 36 26 
-0.0987151 -0.205395 1.6847 215 213 218 
0.596897 -0.195482 1.64309 70 70 72 
0.400271 -0.660253 1.83024 200 204 203 
0.879279 -0.101831 1.5698 16 18 17 
0.312686 -0.604392 1.77971 124 124 124 
-0.326053 0.0358902 1.54572 128 118 153 
0.899036 0.0260966 1.49513 4 6 3 
0.389073 -0.103737 1.691 135 138 93 
0.475945 -0.705481 1.8307 66 65 63 
-0.331169 0.017249 1.5089 6 0 36 
0.654179 -0.645862 1.82111 187 187 185 
0.541748 -0.691146 1.82823 113 76 0 
0.471812 -0.533191 1.75669 231 207 73 
-0.520217 -0.207727 1.64286 167 152 149 
-0.436586 -0.114153 1.59804 166 151 170 
0.568817 -0.179685 1.59548 84 79 76 
-0.132664 -0.209327 1.66544 225 225 227 
-0.314179 -0.657232 1.89983 169 169 169 
0.525322 -0.63473 1.82494 189 171 87 
-0.300623 -0.25726 1.64688 63 67 70 
0.64103 -0.242169 1.74935 60 62 13 
-0.0253152 -0.245228 1.75194 45 49 52 
0.855581 -0.694153 1.92155 172 152 125 
-1.25839 0.26657 1.52755 34 34 32 
0.430226 -0.568316 1.78278 26 30 29 
-0.321365 -0.645512 1.89525 37 43 41 
-0.5234 -0.161637 1.60325 139 145 133 
-0.258574 -0.27284 1.69253 98 97 103 
0.852485 -0.26206 1.6868 161 163 149 
0.473315 -0.440439 1.71285 207 181 106 
-0.235812 -0.270369 1.67534 105 106 108 
0.859847 -0.259698 1.67082 190 189 187 
-0.523187 -0.0989941 1.55888 155 161 161 
0.910408 -0.230975 1.63345 172 176 175 
0.874326 -0.112416 1.56334 12 18 14 
0.529143 -0.760157 1.86466 179 179 179 
0.250189 -0.549916 1.76836 128 139 161 
0.856761 -0.25242 1.67733 157 160 151 
0.501456 -0.600457 1.81204 110 75 0 
0.559949 -0.726457 1.83791 116 84 0 
0.874843 -0.134455 1.58117 23 22 28 
-0.295274 -0.00303213 1.59563 8 5 26 
0.572539 -0.747806 1.8599 72 36 0 
0.487215 -0.562746 1.76909 124 81 2 
-0.62032 -0.536514 1.85631 223 214 215 
0.329871 -0.182139 1.57826 30 1 0 
-0.30695 -0.627101 1.89007 35 45 46 
-0.154332 -0.211352 1.66639 92 92 94 
0.575736 -0.584398 1.7812 187 186 182 
-0.28196 -0.250432 1.67232 236 238 237 
0.898463 -0.49902 1.79423 158 163 159 
-0.105337 -0.200215 1.67929 51 50 55 
0.895726 -0.509056 1.79643 167 145 124 
0.405678 -0.299193 1.63776 216 183 104 
-0.649614 -0.538473 1.87156 49 83 95 
0.560231 -0.554722 1.76977 3 2 0 
0.793081 0.0676937 1.55182 148 136 138 
0.519992 -0.643759 1.81394 120 86 0 
0.846942 -0.480245 1.81302 116 121 115 
0.547769 -0.69493 1.84641 104 70 0 
0.0222803 -0.307985 1.63879 200 204 205 
-0.28945 -0.222494 1.63435 69 70 75 
0.578684 -0.731449 1.85773 74 38 0 
0.490124 -0.472114 1.72883 221 193 110 
-0.829051 0.0716872 1.45747 36 38 33 
0.887858 -0.495533 1.80299 123 125 120 
0.408254 -0.206356 1.6244 185 154 90 
0.39904 -0.288532 1.63012 211 174 104 
0.513391 -0.628662 1.80903 74 37 0 
0.868792 -0.181538 1.60407 212 197 202 
0.516113 -0.763013 1.8471 174 174 172 
0.57168 -0.721682 1.84249 89 53 0 
0.577853 -0.756943 1.86212 94 60 0 
0.272526 -0.414179 1.70565 39 33 67 
0.361984 -0.53402 1.77592 223 224 226 
0.329647 -0.586608 1.77854 213 215 214 
0.398727 -0.610967 1.80711 227 231 232 
0.472915 -0.645321 1.82253 223 228 231 
0.392524 -0.646368 1.80557 212 214 211 
0.345034 -0.655622 1.81734 1 11 10 
0.347655 -0.67299 1.82668 172 171 166 
-0.166901 -0.215091 1.66577 55 53 56 
0.470088 -0.690521 1.83338 185 188 181 
0.875021 -0.236503 1.65029 20 26 24 
0.344438 -0.538428 1.75931 28 29 31 
0.527751 -0.52981 1.76627 165 162 147 
-0.52686 -0.179554 1.63575 199 204 200 
0.412788 -0.540497 1.78143 113 115 114 
-0.269646 -0.747941 1.97169 145 157 153 
0.483134 -0.715259 1.84518 150 151 155 
0.0887469 -0.430995 1.7475 212 214 213 
0.556473 -0.170649 1.58734 164 158 160 
0.369662 -0.543531 1.78055 188 192 193 
0.535849 -0.526122 1.76136 37 41 40 
0.340677 -0.360696 1.68262 161 161 195 
0.59052 -0.196955 1.65566 230 226 227 
0.543654 -0.691998 1.83857 113 76 0 
0.479711 -0.550335 1.78559 103 68 0 
0.909558 -0.267561 1.65726 173 172 177 
0.388083 -0.280517 1.57926 193 166 99 
0.685899 -0.681588 1.84585 218 209 194 
0.349174 -0.559471 1.78322 108 108 108 
0.121336 -0.134279 1.70118 221 160 157 
-0.626336 -0.540798 1.87699 194 196 195 
0.324604 -0.568313 1.78719 189 189 189 
-0.128858 -0.263784 1.70617 69 70 72 
0.425987 -0.661907 1.82515 197 198 200 
0.457055 -0.661332 1.82454 147 149 148 
0.426161 -0.567105 1.77261 16 20 19 
0.410247 -0.567391 1.77492 107 106 101 
0.640615 -0.657239 1.82912 188 188 180 
0.410097 -0.65807 1.80672 143 147 146 
-0.322867 -0.679627 1.90321 191 196 199 
0.866825 -0.129805 1.57515 64 62 63 
-0.289369 -0.284581 1.69357 211 212 216 
0.451916 -0.469638 1.72848 151 175 213 
0.436244 -0.575367 1.77682 219 219 217 
0.493105 -0.579116 1.79688 207 183 51 
0.851274 -0.196272 1.61823 180 178 153 
0.329831 -0.637474 1.81018 130 130 130 
0.47019 -0.63559 1.81954 225 226 228 
-0.184209 -0.199136 1.65298 148 149 153 
0.504955 -0.760374 1.85668 164 168 167 
0.737257 -0.289226 1.7497 184 192 195 
-0.279625 -0.225292 1.66806 219 220 225 
0.42315 -0.486403 1.73792 212 190 105 
0.446465 -0.489831 1.75843 139 96 17 
0.836562 -0.236304 1.71764 159 163 146 
0.403055 -0.619397 1.79484 217 219 218 
-0.317981 -0.638359 1.88995 15 20 24 
0.581205 -0.190915 1.64958 73 72 68 
0.32052 -0.61685 1.78711 160 161 163 
0.533634 -0.774314 1.85784 174 179 182 
0.319533 -0.616885 1.80258 131 131 131 
0.522368 -0.458085 1.72884 75 76 68 
0.57266 -0.607173 1.79704 220 214 200 
0.579724 -0.608262 1.81326 72 69 60 
0.881879 -0.502502 1.79045 130 131 125 
-0.309805 -0.628072 1.90592 35 45 46 
0.504227 -0.292724 1.6671 58 63 66 
0.396836 -0.507167 1.76662 86 86 86 
-0.0565404 -0.259918 1.76133 213 213 213 
-0.297071 -0.231138 1.63175 224 225 230 
0.857427 -0.183618 1.62695 193 195 173 
0.572361 -0.597541 1.79432 205 206 198 
0.460568 -0.412765 1.70339 210 180 90 
0.561716 -0.72727 1.84815 80 49 0 
-0.172776 -0.189288 1.6465 116 117 121 
0.566536 -0.726036 1.86855 207 179 80 
0.861317 -0.491163 1.80349 134 135 127 
0.394101 -0.272462 1.62635 198 171 104 
0.902558 -0.489095 1.78468 165 169 170 
0.498647 -0.289097 1.65847 193 205 221 
-0.85823 -0.18804 1.60423 10 17 1 
-0.606567 -0.505974 1.86259 255 218 226 
0.480629 -0.447047 1.72195 218 192 107 
0.535826 -0.674969 1.83369 164 130 32 
0.531873 -0.665238 1.83086 131 96 12 
0.454774 -0.663731 1.81421 35 37 36 
0.477102 -0.454075 1.70933 223 199 109 
0.5214 -0.644595 1.8243 136 95 0 
0.809403 -0.223923 1.74664 3 4 0 
0.356028 -0.33281 1.32022 232 195 107 
0.858629 -0.13684 1.561 69 60 65 
0.730947 -0.265969 1.73077 149 149 151 
0.487433 -0.460907 1.72885 219 194 112 
-0.735325 -0.238415 1.65285 179 161 49 
-0.330748 -0.304047 1.66636 106 110 111 
-0.848351 0.0225039 1.48731 46 46 44 
-0.873325 -0.458596 1.76783 49 42 36 
0.386666 -0.264519 1.60429 188 158 98 
0.399324 -0.219242 1.60413 78 40 0 
0.582021 -0.750314 1.85489 217 192 65 
0.428849 -0.344703 1.67946 221 194 105 
-0.848385 -0.00745297 1.49497 35 34 32 
0.571847 -0.735743 1.85102 125 87 16 
0.373197 -0.186361 1.59657 172 134 69 
0.838962 -0.608438 1.89678 156 172 162 
-0.272411 0.0133041 1.53308 7 4 35 
0.409827 -0.509829 1.76934 230 234 235 
0.521961 -0.500113 1.73606 186 188 183 
0.529975 -0.511857 1.75015 189 190 192 
0.370335 -0.604774 1.78888 6 6 6 
0.353611 -0.531504 1.76122 5 15 16 
0.389141 -0.538143 1.76368 232 232 234 
0.34421 -0.542472 1.78268 218 222 221 
0.513514 -0.784248 1.8678 2 7 10 
0.353994 -0.544397 1.76604 184 186 181 
0.405216 -0.54738 1.78801 228 230 227 
0.50742 -0.774004 1.86541 15 15 13 
0.379826 -0.572844 1.77984 226 231 234 
0.575695 -0.578285 1.80615 206 205 200 
0.38536 -0.581159 1.80208 222 223 225 
0.490264 -0.733376 1.83769 197 197 195 
0.530838 -0.45392 1.71393 215 215 215 
0.423264 -0.593855 1.78755 227 227 225 
0.393309 -0.600047 1.80924 200 198 201 
0.375608 -0.60756 1.80912 184 186 185 
0.438291 -0.608115 1.81249 96 106 105 
0.589724 -0.607543 1.80467 209 207 195 
0.373496 -0.613436 1.79201 170 171 173 
0.327447 -0.188434 1.58673 154 161 189 
0.500112 -0.706536 1.82782 165 169 170 
0.385885 -0.637993 1.80098 122 126 125 
0.0983491 -0.442962 1.7481 234 238 237 
0.4111 -0.639195 1.80473 221 225 226 
0.445269 -0.642931 1.80499 204 204 202 
0.473272 -0.691809 1.84486 208 209 203 
0.429322 -0.671576 1.83425 217 218 220 
0.398503 -0.675727 1.81288 220 224 225 
0.409985 -0.679104 1.83366 192 193 195 
0.41299 -0.514045 1.77712 95 100 103 
0.542388 -0.513054 1.76189 175 176 168 
0.870888 -0.10167 1.54488 10 14 17 
-0.272732 -0.635727 1.89919 173 178 181 
-0.314388 -0.637717 1.87649 27 32 36 
-0.530162 -0.177902 1.64684 199 204 200 
0.530624 -0.437175 1.72481 191 190 188 
0.454473 -0.655933 1.80971 0 9 5 
0.521935 -0.427401 1.73723 30 30 22 
0.869111 -0.204835 1.63297 45 46 48 
0.665153 -0.263123 1.75642 29 42 12 
0.325157 -0.572195 1.77695 92 92 94 
-0.290468 -0.668486 1.90857 28 36 38 
0.842951 -0.482382 1.80015 140 146 136 
-0.904315 -0.560756 1.80999 61 66 62 
0.84474 -0.28158 1.70698 142 152 143 
-0.591758 -0.433873 1.81996 255 198 205 
-0.324533 -0.622594 1.89261 135 139 142 
0.449055 -0.490565 1.76826 109 67 7 
-0.712008 -0.547696 1.868 57 68 64 
0.496269 -0.287772 1.6763 64 68 79 
0.878327 -0.259211 1.67335 25 27 26 
0.357009 -0.52495 1.77808 183 183 183 
-0.873713 -0.415685 1.74833 48 47 42 
0.874241 -0.116901 1.57813 236 225 229 
-0.326653 -0.639407 1.87599 193 194 199 
0.49061 -0.478432 1.74037 218 191 102 
0.608213 -0.624775 1.81196 74 74 72 
-0.264867 -0.629441 1.89771 174 178 179 
-0.557939 -0.547792 1.89905 150 147 132 
-0.149269 -0.185395 1.65253 32 33 37 
-0.272887 -0.629808 1.94316 154 160 160 
0.909734 -0.240193 1.64165 142 142 140 
0.868448 0.0274978 1.49242 130 136 134 
-0.863561 -0.439128 1.73938 34 29 23 
-0.371145 -0.657729 1.9073 147 148 150 
-0.864475 -0.203695 1.62519 40 36 33 
0.853055 -0.529304 1.8051 133 135 124 
-0.0033456 -0.186158 1.70988 201 215 202 
0.3566 -0.365799 1.70867 51 54 85 
0.408973 -0.222271 1.62331 200 163 95 
0.393247 -0.275317 1.61547 197 167 97 
0.890341 0.0186788 1.47444 39 44 40 
0.473632 -0.432489 1.71851 217 193 105 
-0.283002 -0.682367 1.91359 157 162 166 
0.412783 -0.237805 1.60889 194 162 87 
0.391716 -0.25687 1.64782 187 157 93 
-0.512382 -0.440865 1.87791 33 39 37 
0.357378 -0.12367 1.69321 178 179 121 
0.321479 -0.48505 1.73774 121 138 168 
0.34328 -0.529481 1.77663 170 170 168 
0.493205 -0.74045 1.85653 7 7 5 
0.509523 -0.782787 1.84484 7 15 17 
0.871973 -0.261399 1.65657 24 26 25 
0.53514 -0.775466 1.86783 205 209 210 
0.471577 -0.653245 1.8055 215 216 218 
0.847838 -0.28115 1.7174 185 195 187 
0.46172 -0.673085 1.81742 106 111 114 
0.108036 -0.271588 1.59921 62 27 0 
-0.189727 -0.189431 1.67688 218 218 218 
0.545787 -0.411909 1.75723 194 195 199 
-0.852849 -0.041886 1.52046 16 19 12 
0.0320402 -0.152193 1.71684 221 221 221 
0.533673 -0.310352 1.68849 151 150 146 
0.312864 -0.603203 1.8045 92 92 92 
0.427322 -0.557827 1.782 34 35 37 
0.310482 -0.587736 1.77647 4 6 5 
0.30711 -0.584001 1.79735 237 237 235 
0.289281 -0.569116 1.77175 233 235 232 
0.356826 -0.569264 1.79293 209 209 209 
0.413925 -0.568536 1.801 107 106 101 
0.880457 -0.203565 1.64204 17 21 22 
0.855238 -0.204756 1.6359 236 234 235 
-0.575485 -0.411422 1.8087 191 51 77 
0.371624 -0.590046 1.80194 12 14 11 
0.389522 -0.591584 1.80495 227 231 232 
0.370625 -0.553401 1.78941 223 224 226 
-0.74069 -0.571863 1.87646 17 32 0 
0.854795 -0.234882 1.65954 157 160 153 
0.825541 -0.59644 1.86194 170 190 178 
0.412214 -0.116833 1.67254 221 181 145 
0.871397 -0.128191 1.5916 66 64 65 
0.855493 -0.19387 1.6305 143 140 121 
0.431515 -0.610444 1.79453 219 219 219 
0.424626 -0.67019 1.81526 202 206 207 
-0.842211 0.0166945 1.47873 25 23 24 
0.466747 -0.66646 1.83682 31 36 40 
-0.145609 -0.191889 1.68139 100 99 104 
0.529334 -0.469974 1.73415 53 50 41 
0.878424 -0.184923 1.62302 27 31 34 
-0.276148 -0.676513 1.90705 185 189 190 
-0.522728 -0.0999664 1.54256 27 29 28 
0.530271 -0.488548 1.7414 76 75 57 
0.389324 -0.523628 1.77478 155 157 156 
0.618703 -0.644122 1.80992 234 237 230 
0.52054 -0.495375 1.74947 209 202 192 
0.614675 -0.639194 1.82942 223 225 214 
-0.321665 -0.657323 1.92771 183 184 186 
-0.631344 -0.44067 1.82206 255 207 218 
0.853186 -0.488051 1.80857 146 157 141 
-0.645098 -0.540047 1.84015 56 68 68 
-0.280173 -0.675065 1.93023 189 190 192 
-0.527514 -0.163991 1.635 147 127 128 
-0.636511 -0.5426 1.86989 44 46 45 
-0.503555 -0.165047 1.60624 164 168 171 
-0.208143 -0.773067 2.11531 143 164 157 
-0.506394 -0.210042 1.6462 176 142 141 
-0.374056 -0.0124332 1.54579 11 1 9 
-0.73404 -0.244493 1.661 234 180 48 
-0.672637 -0.415365 1.77853 184 67 76 
0.812667 -0.403568 1.81618 145 142 125 
0.894596 -0.0945063 1.57009 146 151 145 
-0.514211 -0.212826 1.67762 174 154 153 
-0.853105 -0.000223479 1.50164 31 30 28 
0.401864 -0.133352 1.61701 255 224 179 
-0.592717 -0.418778 1.81152 169 109 121 
0.378213 -0.290539 1.6474 137 153 186 
-0.632724 -0.442925 1.7947 255 192 201 
-0.676492 -0.45566 1.82779 186 60 38 
0.835589 -0.245293 1.68891 141 123 123 
-0.676164 -0.404604 1.78276 59 133 96 
0.354907 -0.386884 1.63002 114 115 146 
-0.559004 0.121267 1.61471 9 15 11 
-0.326763 -0.634645 1.89219 186 190 191 
0.829854 -0.462666 1.84814 89 94 88 
0.811611 -0.411856 1.82796 133 134 116 
-0.614686 -0.506979 1.82715 241 149 164 
-0.162084 -0.204819 1.68942 84 82 85 
-0.0141192 -0.19007 1.68676 203 213 204 
0.492817 -0.0161661 1.68043 108 109 104 
0.554781 -0.0178032 1.68031 106 107 102 
-0.327952 -0.679386 1.88968 40 48 50 
0.807429 -0.233957 1.68563 160 163 152 
-0.590058 -0.425163 1.84456 248 206 218 
0.831498 -0.274092 1.74064 152 161 142 
-0.00323994 -0.173547 1.70445 209 213 214 
-0.457306 -0.43768 1.85852 161 111 162 
0.453296 -0.450981 1.72037 150 176 227 
0.689942 -0.292548 1.74402 211 220 215 
0.0148916 -0.173775 1.64434 203 219 209 
0.841294 -0.542461 1.83844 127 133 123 
-0.162918 -0.200633 1.65671 224 223 228 
-0.775136 -0.220136 1.63906 162 158 121 
0.0285276 -0.154675 1.68118 214 214 214 
-0.573088 -0.428887 1.79614 244 201 210 
0.520851 -0.784478 1.88488 218 219 221 
0.347597 -0.525818 1.76617 193 193 193 
0.540757 -0.527148 1.77271 7 11 10 
0.339372 -0.534208 1.76808 152 152 154 
0.411664 -0.535227 1.7717 10 16 14 
0.512554 -0.497765 1.70279 221 221 211 
0.526378 -0.492401 1.75801 12 12 2 
0.360995 -0.548415 1.77656 2 8 6 
0.515144 -0.739475 1.84194 204 205 207 
0.425915 -0.487949 1.7417 225 188 47 
0.539695 -0.554054 1.78141 239 236 229 
0.483209 -0.731387 1.8709 212 213 208 
0.284578 -0.559918 1.77693 221 221 223 
0.522941 -0.4659 1.74735 198 197 192 
-0.517356 -0.195129 1.67517 200 201 203 
0.553385 -0.576719 1.79055 225 224 222 
0.391226 -0.59154 1.82278 201 207 207 
-0.570772 -0.408848 1.81961 254 224 224 
0.913305 -0.212364 1.63629 205 206 208 
0.439593 -0.611932 1.80095 0 1 0 
0.724163 -0.308461 1.74312 225 203 189 
0.83973 -0.302243 1.72599 183 189 179 
-0.351908 -0.311778 1.66984 98 102 105 
0.335179 -0.621764 1.7973 201 201 199 
0.408962 -0.67779 1.82264 192 193 195 
0.132115 -0.302922 1.66068 150 154 165 
0.834586 -0.28568 1.6825 193 200 192 
-0.713607 -0.247387 1.67013 45 37 0 
0.231479 -0.2621 1.6015 59 74 95 
0.634926 -0.245927 1.73482 42 50 13 
0.858045 -0.175058 1.63733 45 37 35 
0.899005 -0.495189 1.77814 19 19 19 
0.473928 -0.249662 1.63951 216 215 213 
0.854257 -0.261619 1.70063 163 157 141 
0.620075 -0.259048 1.75136 39 42 23 
0.645911 -0.640819 1.84724 169 161 158 
0.801297 -0.259102 1.77179 137 148 131 
-0.475185 -0.501647 1.94246 173 182 177 
-0.731408 -0.571856 1.85485 15 30 9 
0.491797 -0.288733 1.66618 56 59 66 
-0.511044 -0.174771 1.65776 167 141 142 
0.23205 -0.233619 1.61048 35 58 72 
-0.594722 -0.538492 1.90265 46 47 49 
0.841937 -0.117702 1.61397 163 138 142 
0.86732 -0.101155 1.56548 93 96 85 
-0.859749 -0.0376501 1.53433 14 15 10 
-0.508587 -0.216029 1.65779 180 165 162 
-0.551023 -0.381689 1.78853 236 252 239 
-0.537405 0.10434 1.58121 25 29 28 
-0.314738 -0.661387 1.90904 37 41 40 
0.86711 -0.111735 1.57152 91 93 92 
0.492336 -0.289969 1.6314 179 191 207 
0.0904475 -0.433529 1.73573 134 136 135 
-0.686485 -0.414773 1.81711 217 126 131 
-0.608956 -0.43516 1.83126 255 203 203 
-0.595488 -0.432795 1.831 255 208 214 
-0.370979 -0.0108692 1.53066 4 3 11 
0.80842 -0.41195 1.82011 133 134 116 
-0.525301 -0.171805 1.62422 152 135 127 
0.369374 -0.378587 1.68887 79 75 110 
0.00419044 -0.169384 1.68101 207 216 213 
-0.450476 -0.439459 1.83519 165 117 165 
-0.800168 -0.16115 1.66573 34 31 0 
0.805228 -0.428357 1.83597 61 51 50 
-0.492568 -0.291535 1.75145 131 84 128 
0.772151 0.0774593 1.58709 42 43 38 
0.82339 -0.465905 1.82547 96 98 93 
0.661749 -0.265067 1.73659 11 23 11 
0.0551238 -0.292558 1.61141 64 62 50 
-0.547838 -0.157064 1.66913 58 49 10 
0.506449 -0.778791 1.88389 187 187 185 
-0.612532 -0.441244 1.78036 179 46 67 
0.528052 -0.422031 1.71104 12 8 0 
-0.860426 -0.199328 1.60184 209 192 182 
0.670475 -0.235474 1.75654 198 205 110 
0.800692 -0.227601 1.72458 17 17 15 
-0.72121 -0.243733 1.688 55 48 29 
0.833427 -0.583562 1.87849 170 194 180 
0.885891 -0.110257 1.58781 12 16 19 
0.480589 -0.540992 1.43953 237 236 241 
0.809716 -0.391462 1.79223 133 145 125 
0.468521 -0.700063 1.82264 13 15 14 
-0.502115 -0.229289 1.64694 181 185 184 
0.473491 -0.689951 1.82094 218 216 227 
-0.721782 -0.225465 1.67343 66 68 65 
-0.526015 -0.222714 1.68162 165 171 169 
0.0381776 -0.212134 1.66656 17 17 17 
0.841722 0.0319124 1.51018 139 152 135 
-0.618075 -0.438094 1.81894 238 190 202 
-0.647339 -0.44112 1.81847 181 75 95 
-0.833774 0.0127467 1.46347 23 23 23 
0.864708 -0.201524 1.65735 238 238 238 
0.397797 -0.674542 1.84885 202 204 203 
0.804911 -0.438435 1.85214 126 132 118 
0.80511 -0.441461 1.80877 221 220 218 
0.51383 -0.455867 1.69233 213 209 206 
-0.855739 -0.207985 1.60918 36 38 27 
-0.501776 -0.202919 1.62463 204 204 206 
0.398387 -0.655972 1.81178 220 222 221 
0.839971 -0.540631 1.82631 128 131 120 
0.458173 -0.475652 1.70073 226 189 23 
0.521917 -0.479792 1.74385 23 17 0 
0.874505 -0.125742 1.60688 52 48 49 
-0.853388 -0.192765 1.59653 30 26 23 
0.89449 -0.489009 1.76883 174 178 181 
0.877667 -0.497355 1.80918 103 109 97 
-0.598027 -0.521249 1.85976 223 165 179 
0.901857 -0.499474 1.81423 166 165 160 
0.387099 -0.622671 1.73028 120 122 121 
-0.325142 -0.648306 1.92193 28 33 29 
-0.341229 -0.645812 1.9197 40 41 45 
0.396357 -0.516884 1.78967 8 14 12 
-0.528664 -0.150107 1.68006 164 165 167 
-0.300974 -0.628892 1.87825 31 37 33 
0.78854 -0.334116 1.75246 216 193 162 
0.776333 -0.89804 2.06037 196 213 207 
-0.564758 -0.548623 1.91595 126 124 112 
0.627162 -0.261857 1.77379 43 40 31 
0.657955 -0.0247391 1.65911 122 117 111 
-0.318197 -0.682265 1.89458 168 171 178 
-0.518899 -0.162427 1.58888 180 187 179 
0.881661 -0.527397 1.81791 17 1 0 
0.170569 -0.54189 1.91114 192 142 119 
0.265134 -0.792093 2.06771 113 113 101 
-0.88191 -0.445154 1.76836 199 177 156 
0.60236 -0.226843 1.74893 150 153 72 
-0.578516 -0.481595 1.8423 204 40 77 
0.822954 -0.268883 1.70572 129 113 114 
-0.465529 -0.298438 1.80883 160 105 144 
0.619357 0.0375984 1.64131 20 22 21 
-0.863803 0.0151943 1.5077 214 208 208 
-0.548584 0.104682 1.6127 91 93 90 
0.870029 -0.109126 1.58235 74 76 73 
0.152856 -0.709998 2.04866 190 169 184 
-0.46094 -0.424665 1.86126 180 125 182 
0.497024 -0.773327 1.84954 144 144 144 
0.468926 -0.512795 1.75128 73 39 0 
-0.662997 -0.547948 1.86344 217 219 216 
-0.364407 0.0535552 1.6388 131 121 156 
-0.34476 -0.012531 1.57567 131 122 153 
-0.58715 -0.529413 1.86466 76 18 30 
0.488201 -0.559495 1.77168 231 203 80 
-0.319982 -0.645618 1.88772 34 39 35 
0.851357 -0.254937 1.66396 142 145 138 
0.550484 -0.67724 1.82817 78 41 0 
-0.574017 -0.154502 1.86116 172 173 177 
0.564589 -0.775061 1.85618 186 166 77 
0.410549 -0.55199 1.77375 0 1 0 
0.855017 -0.22634 1.64436 236 237 232 
-0.439818 -0.112542 1.60706 166 151 170 
0.527323 -0.631741 1.81383 215 185 63 
-0.673805 -0.54917 1.86379 56 60 63 
-0.6917 -0.552472 1.85981 84 85 87 
-0.708089 -0.547392 1.85726 66 68 63 
0.868365 -0.238734 1.63513 28 34 32 
0.533863 -0.773206 1.85182 161 165 168 
0.612895 -0.631498 1.80556 108 108 110 
0.845241 -0.273132 1.68512 144 141 134 
-0.674585 -0.507729 1.83851 51 82 85 
-0.600715 -0.506719 1.84426 255 220 227 
0.479596 -0.564118 1.77519 113 67 0 
0.907786 -0.26798 1.65248 173 172 177 
0.810316 -0.441688 1.83183 151 152 147 
-0.828988 0.0723329 1.45822 32 34 29 
0.830317 -0.238311 1.70161 159 163 146 
0.347711 -0.620501 1.79514 190 190 192 
0.395334 -0.506966 1.75601 86 86 86 
0.128548 -0.298577 1.63213 209 223 236 
0.229412 -0.229219 1.59033 144 158 193 
-0.732276 -0.575515 1.87802 212 218 204 
0.491121 -0.479453 1.73126 221 197 101 
-0.366407 -0.656333 1.88523 139 140 142 
0.464259 -0.417493 1.7003 203 179 93 
0.395243 -0.617856 1.83732 209 213 214 
0.509913 -0.781358 1.84835 2 7 10 
0.549887 -0.575759 1.78273 223 220 211 
0.398039 -0.658695 1.8142 200 204 203 
-0.289757 -0.668054 1.90363 28 36 38 
-0.702056 -0.553558 1.86607 66 72 68 
0.868056 -0.19184 1.60878 211 213 191 
0.867617 -0.180498 1.60142 232 213 219 
-0.649988 -0.540238 1.85302 44 62 64 
-0.55994 -0.408785 1.79162 255 185 187 
0.837448 -0.607944 1.89024 129 142 133 
0.277233 -0.295535 1.63164 59 69 104 
0.826605 -0.275885 1.72493 146 155 138 
0.331229 -0.636721 1.80047 226 228 227 
0.305778 -0.582828 1.77877 237 237 235 
0.852748 -0.235491 1.65302 157 160 153 
0.396756 -0.609874 1.79838 230 234 235 
0.907001 -0.214622 1.61817 202 204 203 
0.403173 -0.638958 1.80407 8 19 15 
0.865191 -0.255913 1.64645 206 212 202 
0.503203 -0.29301 1.66178 58 63 66 
0.870197 -0.118803 1.57102 224 207 213 
0.846433 -0.251669 1.67363 165 144 143 
-0.619545 -0.439065 1.80241 181 76 93 
0.480624 -0.5436 1.80482 104 72 0 
-0.461288 -0.507824 1.91162 162 173 165 
-0.595794 -0.427947 1.8056 169 106 114 
-0.0982054 -0.202142 1.69185 215 214 219 
0.346997 -0.526066 1.76509 193 193 193 
0.503519 -0.759222 1.8496 199 204 200 
0.872076 -0.207175 1.61792 21 25 26 
0.320193 -0.596882 1.78979 3 5 2 
0.872569 -0.105766 1.55148 0 1 0 
0.83507 -0.303277 1.71329 183 189 179 
0.50775 -0.750618 1.84771 15 26 20 
0.849945 -0.178212 1.61729 45 37 35 
-0.471224 -0.501426 1.92482 173 182 177 
-0.278333 -0.631538 1.89563 63 68 74 
0.864797 -0.202645 1.60905 225 228 199 
0.097641 -0.0817113 1.64726 171 93 93 
0.901878 -0.259513 1.63819 163 166 159 
0.0111875 -0.163324 1.70309 209 218 215 
0.279976 -0.284519 1.62797 78 88 123 
0.84482 -0.264405 1.67364 165 159 145 
-0.491849 -0.285715 1.72252 204 195 200 
0.851978 -0.252053 1.65441 203 205 192 
-0.851717 -0.00318681 1.50121 28 28 26 
-0.506867 -0.200701 1.64082 204 204 206 
0.871384 -0.497 1.79124 103 109 97 
-0.876132 -0.579557 1.83795 28 38 30 
-0.599302 -0.497552 1.84153 254 192 205 
0.355678 -0.360783 1.67459 125 132 178 
-0.575917 -0.481542 1.83371 204 40 77 
0.619702 -0.0206891 1.67844 99 105 95 
0.449488 -0.468665 1.73111 155 179 227 
-0.0748423 -0.250401 1.64382 200 200 202 
-0.0542456 -0.244828 1.75148 54 55 59 
-0.567526 -0.534073 1.8654 80 84 70 
-0.578103 -0.412968 1.79076 255 197 205 
0.47813 -0.711596 1.83233 130 131 133 
-0.669998 -0.403536 1.77044 69 151 113 
-0.289178 -0.665241 1.89255 54 62 64 
-0.314216 -0.652717 1.88542 178 180 179 
0.88635 -0.49889 1.78042 143 150 143 
0.497271 -0.747822 1.83822 90 90 92 
-0.127066 -0.189939 1.67447 33 28 32 
-0.37657 -0.00905681 1.56504 14 1 18 
-0.0186391 -0.213495 1.77169 83 85 84 
-0.14057 -0.244713 1.70336 116 118 117 
-0.236753 -0.251946 1.67647 104 103 111 
0.563252 -0.774212 1.84522 182 162 67 
0.402574 -0.214195 1.61484 195 163 88 
0.574859 -0.729033 1.83814 74 38 0 
0.522101 -0.770411 1.84324 21 23 22 
0.643119 -0.240611 1.76308 35 36 0 
0.018914 -0.176557 1.7163 178 220 182 
0.507572 -0.768255 1.84173 209 210 204 
0.571919 -0.182814 1.62887 241 242 237 
0.509416 -0.762946 1.83416 19 21 18 
0.612068 -0.0177669 1.6916 90 91 86 
0.636265 -0.017884 1.6906 127 120 112 
0.693231 -0.291032 1.75772 214 225 217 
0.666714 -0.263394 1.75428 11 23 11 
0.858807 -0.185978 1.63179 194 192 151 
0.57877 -0.178671 1.62093 236 234 235 
0.568176 -0.743567 1.83713 201 177 69 
-0.320922 -0.629831 1.86701 168 176 179 
0.6774 -0.67712 1.82844 55 47 28 
-0.319359 -0.643075 1.87161 181 185 194 
-0.31374 -0.67405 1.88312 159 168 175 
0.600127 -0.203314 1.65352 86 85 83 
0.5589 -0.69658 1.8264 86 53 0 
0.56037 -0.18036 1.62801 118 116 119 
0.458484 -0.458509 1.72019 145 159 186 
-0.133616 -0.183362 1.67005 45 45 47 
-0.0557864 -0.190872 1.7024 65 66 68 
-0.171324 -0.212924 1.67973 227 228 230 
0.568027 -0.171475 1.61072 72 71 69 
-0.30053 -1.00322 2.04805 173 177 178 
0.52756 -0.41654 1.71563 27 24 15 
0.580374 -0.749481 1.84108 215 185 73 
0.521026 -0.751437 1.8366 218 220 219 
0.510688 -0.7273 1.83216 215 217 216 
0.499361 -0.757829 1.83723 157 159 158 
-0.262757 -0.632366 1.88289 159 165 165 
-0.546035 -0.54778 1.8706 98 94 83 
0.545974 -0.520413 1.75705 6 9 0 
-0.587957 -0.537398 1.85134 38 43 46 
-0.324749 -0.679021 1.87929 41 46 49 
0.400899 -0.2862 1.63553 207 175 102 
-0.27867 -0.681607 1.89119 163 173 175 
0.735506 -0.285932 1.75005 209 210 214 
-0.330662 -0.643692 1.87113 40 45 48 
0.376473 -0.637488 1.69981 181 185 188 
-0.00930417 -0.179692 1.70993 199 221 200 
0.498117 -0.77465 1.83609 167 165 166 
-0.583894 -0.51474 1.84345 238 220 220 
0.728828 -0.307566 1.76114 227 210 194 
0.634706 -0.255552 1.76395 31 31 29 
-0.362953 -0.658786 1.8743 133 137 140 
-0.594525 -0.506168 1.83889 249 222 229 
0.553893 -0.171111 1.60576 240 239 235 
0.596254 -0.196534 1.65181 54 52 53 
0.568489 -0.163961 1.60678 252 251 249 
0.566348 -0.173327 1.62341 255 255 248 
-0.143269 -0.1818 1.67259 117 117 117 
-0.15913 -0.180445 1.67618 100 103 108 
0.501188 -0.785794 1.83673 204 206 205 
-0.136016 -0.207114 1.68771 75 73 76 
0.520105 -0.426466 1.7164 189 188 183 
-0.131485 -0.236878 1.7148 253 252 255 
0.572633 -0.754915 1.83344 196 172 84 
0.583834 -0.180747 1.63054 242 241 239 
0.576035 -0.185452 1.64145 234 233 231 
-0.117652 -0.175101 1.67904 36 36 38 
0.587045 -0.188152 1.63822 28 28 26 
0.596178 -0.189579 1.64296 65 61 58 
-0.238602 -0.186829 1.66067 31 30 35 
-0.249751 -0.200234 1.6463 51 51 51 
-0.170696 -0.193188 1.66852 29 30 35 
0.384438 -0.47777 2.18807 31 32 34 
0.523449 -0.765108 1.83646 96 97 99 
0.373718 -0.722814 1.81684 187 187 189 
-0.226164 -0.194371 1.65321 57 57 57 
0.576637 -0.189963 1.65264 77 73 70 
-0.204054 -0.198593 1.66769 61 61 63 
0.572865 -0.179381 1.63016 63 64 58 
0.451108 -0.505286 1.75121 63 19 0 
-0.140923 -0.250495 1.71359 118 117 122 
-0.0650587 -0.23745 1.72863 54 52 57 
0.489633 -0.737097 1.83045 160 164 163 
0.433295 -0.768627 1.83047 150 150 152 
-0.128218 -0.195524 1.68359 77 77 79 
0.534663 -0.648264 1.81237 93 47 0 
0.580112 -0.170216 1.61283 117 116 114 
0.569676 -0.721196 1.82786 78 44 0 
-0.18857 -0.184548 1.66096 32 31 36 
0.568828 -0.732455 1.82958 204 183 94 
0.481408 -0.665424 1.81052 134 133 131 
-0.131969 -0.180806 1.67829 140 139 145 
-0.216884 -0.192335 1.65603 24 22 27 
0.536973 -0.419419 1.7212 45 42 37 
0.978354 -0.0757109 1.95952 56 56 46 
-0.0767518 -0.192525 1.69874 83 78 84 
-0.119996 -0.239348 1.71164 225 226 228 
-0.2258 -0.233177 1.67288 148 144 145 
-0.224727 -0.215805 1.66964 99 97 102 
-0.0691721 -0.210692 1.71099 98 96 97 
-0.0647516 -0.221 1.71817 120 118 123 
0.558515 -0.728551 1.82804 103 68 0 
0.484075 -0.723946 1.82525 216 218 215 
-0.20121 -0.189466 1.6598 58 57 62 
-0.192253 -0.193332 1.6646 40 40 42 
-0.0925953 -0.212477 1.70406 218 210 208 
0.532705 -0.490226 1.74598 16 16 4 
0.465131 -0.471838 1.72909 222 202 115 
