ply                 
format ascii 1.0    
element vertex 1232
property float x    
property float y    
property float z    
property uchar red  
property uchar green
property uchar blue 
end_header          
0.332109 -0.652685 1.79799 232 228 227 
0.351841 -0.649737 1.79435 28 34 34 
-0.356592 -0.310901 1.68073 124 125 130 
0.52612 -0.527774 1.74981 219 214 210 
0.329788 -0.64418 1.79548 15 17 14 
0.354756 -0.535131 1.7531 17 21 20 
0.34555 -0.539408 1.75572 0 3 4 
0.400231 -0.628922 1.79906 29 29 29 
-0.569916 -0.427265 1.8049 193 27 49 
-0.510045 -0.22549 1.66872 184 184 182 
-0.84766 -0.00609582 1.49457 75 74 72 
0.379542 -0.573726 1.78128 222 222 222 
0.432905 -0.612263 1.79991 199 197 198 
-0.305769 -0.630043 1.88566 51 61 62 
-0.843114 0.0157013 1.48109 65 65 63 
0.382477 -0.594902 1.78813 64 75 71 
0.388508 -0.592922 1.78794 218 222 221 
-0.320224 -0.62632 1.88091 186 189 198 
0.342048 -0.363496 1.67781 153 153 187 
-0.328512 -0.640422 1.88171 194 197 204 
0.230285 -0.235675 1.59268 28 46 70 
-0.270988 -0.295838 1.69367 146 147 152 
-0.560431 -0.245679 1.68872 226 223 208 
0.250055 -0.550257 1.75761 127 145 185 
-0.183749 -0.191197 1.66221 68 69 73 
0.265416 0.0954347 1.60627 0 21 13 
-0.325379 -0.233306 1.643 70 71 76 
-0.189893 -0.188442 1.65331 83 84 88 
0.338304 -0.306384 1.63604 44 62 86 
0.803269 -0.440256 1.83471 117 123 113 
0.348193 -0.675223 1.81051 201 201 201 
0.351895 -0.673542 1.80586 223 225 224 
0.336724 -0.660736 1.80185 40 46 46 
0.411322 -0.663244 1.80762 212 216 217 
0.300746 -0.562085 1.76471 228 233 236 
-0.278301 -0.678122 1.90908 178 179 183 
0.416861 -0.649024 1.81258 229 233 234 
0.531993 -0.467675 1.72366 185 183 186 
-0.302615 -0.630178 1.88125 16 30 30 
-0.584239 -0.418745 1.79535 241 217 213 
-0.570285 -0.426384 1.80781 206 24 49 
-0.563271 -0.431044 1.80824 254 206 206 
-0.561117 -0.24568 1.6913 227 224 207 
-0.711557 -0.552846 1.86895 48 55 47 
-0.603034 -0.437 1.80563 248 206 208 
0.535105 -0.312241 1.68521 147 141 141 
-0.271022 -0.294932 1.69637 109 110 115 
-0.577525 -0.482851 1.8325 206 46 82 
-0.00289875 -0.165213 1.69273 92 163 95 
-0.600443 -0.513738 1.85283 131 79 91 
-0.311416 -0.662542 1.89265 30 34 35 
0.113125 -0.269622 1.62094 199 200 205 
-0.0691578 -0.210545 1.70613 238 238 240 
-0.121523 -0.239215 1.70242 247 248 252 
0.448003 -0.649683 1.81221 24 24 22 
-0.107431 -0.229757 1.70289 91 93 92 
0.328351 -0.625147 1.78948 154 156 155 
-0.215334 -0.229435 1.6731 208 207 212 
-0.133556 -0.218141 1.68747 108 107 112 
0.316831 -0.608459 1.78521 106 107 111 
-0.0919937 -0.243872 1.71753 67 67 69 
-0.0234404 -0.248777 1.74569 228 229 233 
-0.107589 -0.214396 1.69501 120 108 112 
0.366884 -0.588043 1.7835 157 162 158 
-0.158207 -0.255151 1.70578 68 69 73 
0.570967 -0.57666 1.78111 158 156 143 
0.568483 -0.169054 1.58832 79 75 74 
-0.166379 -0.264081 1.70944 102 103 107 
0.344985 -0.550031 1.76261 172 171 169 
-0.119126 -0.197055 1.67959 44 39 43 
-0.336681 -0.303916 1.67807 100 100 102 
-0.28738 -0.288714 1.68429 212 213 218 
-0.134424 -0.249864 1.71008 242 243 247 
0.491049 -0.734505 1.84455 162 164 163 
0.482811 -0.551622 1.76503 99 65 0 
-0.082245 -0.231294 1.71334 87 82 88 
0.00215766 -0.210053 1.72885 65 65 67 
0.331281 -0.588276 1.779 190 196 196 
-0.117751 -0.251114 1.71414 229 230 234 
0.46101 -0.694927 1.82932 151 147 144 
-0.200442 -0.247991 1.69029 226 227 231 
0.403825 -0.514057 1.74967 0 4 4 
-0.308894 -0.299626 1.68243 78 83 87 
-0.218376 -0.256241 1.68836 51 52 56 
-0.216513 -0.212342 1.66252 202 203 207 
0.543924 -0.567714 1.7734 219 218 190 
-0.227384 -0.264089 1.68908 70 69 74 
0.435618 -0.618729 1.79934 190 192 191 
0.0131874 -0.160006 1.69349 215 236 219 
-0.193509 -0.228124 1.68025 91 90 95 
0.335076 -0.6439 1.79483 204 204 204 
-0.00137521 -0.196453 1.71846 199 228 197 
-0.237571 -0.242951 1.67169 82 81 86 
0.479947 -0.667372 1.81919 131 137 135 
0.421451 -0.537229 1.75983 67 71 70 
0.485572 -0.723922 1.83834 152 154 153 
0.421403 -0.54755 1.76825 34 36 35 
0.436716 -0.570612 1.77749 216 220 219 
0.470229 -0.691074 1.82589 182 178 175 
0.128086 -0.297862 1.63769 210 219 236 
0.429306 -0.604853 1.79326 210 210 210 
0.380733 -0.612628 1.79284 36 38 37 
0.388589 -0.606454 1.79072 93 97 96 
-0.279365 -0.248181 1.65855 102 103 107 
0.652321 -0.644513 1.81972 179 171 152 
-0.707685 -0.2467 1.66264 113 106 34 
0.565427 -0.179012 1.60155 242 238 237 
-0.105534 -0.270164 1.72999 98 98 100 
0.444729 -0.639543 1.8035 180 180 180 
-0.230759 -0.230078 1.6659 67 66 71 
0.535141 -0.444282 1.71573 157 156 152 
0.537293 -0.510768 1.74311 63 64 66 
-0.11687 -0.272558 1.7288 236 237 241 
0.470124 -0.533293 1.7545 132 97 0 
0.578105 -0.609859 1.79472 56 59 52 
-0.224763 -0.219769 1.66411 85 84 89 
0.5179 -0.485249 1.73277 200 197 182 
0.365539 -0.537911 1.76343 65 65 67 
0.401911 -0.619214 1.79623 179 179 179 
0.329673 -0.651672 1.79632 200 196 195 
0.361549 -0.654231 1.8026 186 186 188 
0.402849 -0.548109 1.76759 223 225 224 
0.411445 -0.648778 1.80823 97 101 102 
0.341252 -0.629067 1.7939 66 66 68 
0.383145 -0.589437 1.78569 116 120 119 
0.343261 -0.692515 1.81092 109 115 115 
0.484454 -0.70787 1.83436 90 92 89 
-0.303786 -0.628385 1.87711 21 33 33 
0.277259 -0.294937 1.63428 65 75 110 
-0.709947 -0.54903 1.86087 73 89 88 
0.47361 -0.523641 1.74908 139 98 10 
0.420569 -0.659582 1.81335 212 213 215 
0.457741 -0.667929 1.81756 204 208 209 
0.346937 -0.673452 1.80518 225 225 225 
0.386535 -0.514971 1.75039 222 224 221 
0.367629 -0.667599 1.8072 187 187 187 
-0.0138507 -0.186324 1.70505 196 217 200 
0.472126 -0.645852 1.81129 222 226 225 
0.391252 -0.633609 1.8004 49 53 52 
0.464262 -0.630984 1.80272 172 170 171 
0.6 -0.630668 1.80749 213 211 196 
0.427383 -0.553166 1.76975 234 236 235 
-0.510539 -0.199995 1.65204 184 179 185 
0.455104 -0.610704 1.79766 197 199 198 
0.411788 -0.569235 1.77566 213 215 214 
0.0121258 -0.177584 1.71512 201 231 203 
0.36991 -0.230409 1.59787 194 153 87 
0.368671 -0.221662 1.59336 167 136 82 
0.414566 -0.237017 1.61746 186 153 76 
0.381647 -0.256195 1.61277 171 140 76 
0.411335 -0.293941 1.66619 197 161 85 
-0.673451 -0.414893 1.77678 191 61 63 
-0.636594 -0.420714 1.78975 255 156 168 
0.106288 -0.0814835 1.63781 255 208 206 
0.405925 -0.206285 1.6081 77 46 0 
-0.499401 -0.162672 1.62753 122 97 119 
0.344299 -0.654771 1.79519 36 40 41 
0.377019 -0.293929 1.62787 178 193 226 
0.354586 -0.64091 1.7965 186 186 188 
0.462708 -0.64059 1.80517 64 76 72 
0.388588 -0.624569 1.7941 9 13 12 
0.591765 -0.62348 1.80597 205 198 192 
0.438329 -0.611514 1.7917 1 3 2 
0.538744 -0.416813 1.71336 188 184 181 
0.644951 -0.598247 1.80008 67 37 0 
0.517509 -0.453256 1.71425 188 187 182 
0.298068 -0.568398 1.76307 38 39 41 
-0.585229 -0.53271 1.86985 182 164 162 
0.521684 -0.510753 1.7416 203 196 186 
0.391504 -0.525499 1.75761 198 202 203 
0.4107 -0.520078 1.75436 225 229 228 
0.364984 -0.378069 1.68532 155 148 200 
0.403404 -0.670658 1.81431 200 202 199 
0.471477 -0.671882 1.81675 166 167 171 
0.524413 -0.43955 1.7146 177 173 162 
0.310326 -0.550525 1.76215 218 220 219 
0.376585 -0.56413 1.77494 220 220 218 
0.806698 -0.410994 1.80734 126 129 112 
-0.526816 -0.199776 1.64531 89 92 83 
0.231827 -0.260565 1.61255 56 70 96 
-0.642727 -0.439084 1.8009 186 107 126 
0.633845 -0.0221825 1.66591 102 103 95 
0.837721 -0.478043 1.80773 99 102 95 
-0.572294 -0.408475 1.78874 223 171 183 
-0.591219 -0.416686 1.79599 182 54 77 
0.612661 -0.638946 1.81314 216 221 214 
-0.669385 -0.456905 1.80463 194 53 33 
-0.598375 -0.522532 1.85904 234 191 200 
-0.60394 -0.437279 1.80662 248 206 208 
-0.674563 -0.405358 1.77566 53 146 115 
0.664068 -0.0210288 1.67314 110 100 91 
0.487541 -0.436634 1.70548 104 71 4 
-0.548511 -0.392546 1.78776 207 184 52 
0.477495 -0.552483 1.76407 121 80 1 
-0.215651 -0.240432 1.67642 62 60 65 
-0.07434 -0.267876 1.73981 52 51 49 
0.434371 -0.766245 1.83619 165 164 162 
-0.0858289 -0.259292 1.72123 238 238 240 
-0.0781686 -0.245786 1.72236 218 218 218 
-0.148714 -0.254974 1.70629 241 241 241 
-0.0916271 -0.249369 1.71929 31 31 31 
0.520017 -0.428542 1.71024 166 163 154 
-0.084428 -0.23761 1.71505 103 101 102 
0.500241 -0.741767 1.84051 16 20 19 
0.518186 -0.741145 1.83602 201 203 202 
-0.0796323 -0.22072 1.70686 228 228 230 
0.562186 -0.725925 1.8346 217 198 103 
0.459115 -0.493538 1.73885 87 56 0 
-0.0106017 -0.228539 1.73767 47 47 49 
0.485524 -0.723442 1.83609 156 156 154 
-0.0653619 -0.231524 1.72037 235 233 238 
-0.15212 -0.278342 1.71946 218 220 217 
0.447467 -0.490653 1.73925 222 192 78 
-0.188143 -0.235214 1.68394 87 86 92 
0.551057 -0.70237 1.82819 218 199 97 
0.528184 -0.512779 1.7433 41 47 47 
-0.018428 -0.217833 1.72736 73 71 74 
-0.0553042 -0.220498 1.71881 227 225 226 
0.468783 -0.514043 1.74535 40 4 0 
0.0745042 -0.225939 1.6819 210 212 207 
0.452488 -0.498228 1.74552 124 93 0 
0.412728 -0.519845 1.75786 226 230 231 
-0.133428 -0.223288 1.69129 91 91 91 
0.542638 -0.522869 1.74821 170 174 160 
0.460724 -0.694659 1.82518 185 183 184 
-0.582118 -0.537769 1.8706 204 206 205 
-0.597601 -0.540382 1.86651 204 208 209 
-0.251001 -0.22947 1.64407 232 230 233 
0.363775 -0.53498 1.76544 203 207 208 
0.53867 -0.536606 1.75534 75 76 80 
-0.0981026 -0.214847 1.69598 227 227 229 
-0.0767219 -0.210875 1.70443 224 222 227 
0.309877 -0.596548 1.78098 148 146 149 
0.401452 -0.547588 1.77455 143 145 144 
0.429189 -0.554491 1.76884 144 148 149 
-0.611975 -0.539283 1.86059 60 64 65 
0.481527 -0.56351 1.76931 211 183 83 
0.354125 -0.568527 1.77779 125 129 128 
-0.0707151 -0.199111 1.70044 237 239 238 
0.517817 -0.607497 1.80052 58 17 0 
0.437499 -0.570955 1.7779 183 184 186 
0.544726 -0.570231 1.77293 210 208 193 
-0.143133 -0.278193 1.7248 94 92 95 
0.485973 -0.574427 1.77994 56 17 0 
0.499324 -0.576868 1.78172 198 160 97 
0.554804 -0.586067 1.78038 210 209 191 
0.564542 -0.587352 1.78056 76 80 83 
0.493267 -0.588853 1.78745 87 51 0 
0.441617 -0.658761 1.81128 194 195 197 
0.523234 -0.634958 1.80603 195 172 102 
0.50173 -0.602238 1.79167 213 190 84 
-0.116821 -0.187751 1.67841 29 24 28 
0.455979 -0.609814 1.79673 201 202 197 
0.591382 -0.625223 1.80045 211 211 211 
0.581622 -0.616444 1.79343 213 214 206 
-0.191166 -0.217352 1.67038 240 241 246 
-0.0621515 -0.261713 1.74078 128 128 130 
0.385421 -0.514502 1.7597 122 126 125 
0.502582 -0.785667 1.85085 121 121 123 
0.404514 -0.512686 1.75257 26 30 33 
-0.684771 -0.504023 1.83201 193 212 216 
-0.00594054 -0.588156 1.68294 183 174 167 
0.54453 -0.670666 1.82151 214 191 95 
0.476918 -0.530482 1.7528 102 61 0 
-0.492387 -0.285452 1.72831 135 135 133 
0.523379 -0.649886 1.81704 68 30 0 
0.273831 -0.414167 1.71174 30 22 59 
0.464422 -0.501424 1.74779 97 56 0 
0.570903 -0.748335 1.8434 64 32 0 
0.501306 -0.590301 1.79118 103 62 0 
0.508131 -0.620422 1.79938 83 53 0 
0.49176 -0.561278 1.76473 90 57 0 
0.555933 -0.719372 1.83072 78 42 0 
-0.283882 0.0388657 1.55446 154 149 179 
0.545709 -0.692001 1.82878 207 185 66 
0.541087 -0.682117 1.82518 217 189 80 
0.526764 -0.539946 1.75281 27 26 0 
0.49788 -0.77539 1.84375 172 172 172 
0.330341 -0.584955 1.77951 196 198 197 
-0.630808 -0.542848 1.86451 127 131 130 
0.579943 -0.589814 1.78121 185 186 181 
0.44941 -0.596614 1.79109 198 202 201 
0.370678 -0.601935 1.78846 198 200 199 
-0.124478 -0.231079 1.69395 234 234 236 
0.373845 -0.677933 1.80785 180 181 183 
0.621686 -0.628546 1.79949 206 207 202 
0.638043 -0.637644 1.80922 163 163 153 
0.655909 -0.646659 1.81953 198 198 196 
0.633915 -0.65625 1.8103 165 164 144 
0.541955 -0.659525 1.81808 70 29 0 
-0.167773 -0.254808 1.69983 125 125 127 
0.513814 -0.630299 1.80534 66 31 0 
0.521749 -0.620897 1.801 95 60 0 
-0.085046 -0.270828 1.73564 106 96 97 
-0.20027 -0.236934 1.67885 104 104 104 
0.555184 -0.688966 1.82256 94 49 0 
-0.257315 -0.257027 1.67207 92 95 100 
-0.0863298 -0.210653 1.69833 49 49 51 
0.456364 -0.514152 1.7506 91 48 0 
-0.1193 -0.208133 1.68118 113 109 110 
0.320331 -0.58674 1.78077 5 7 4 
0.574323 -0.732492 1.84391 198 173 81 
0.524096 -0.753116 1.842 205 206 208 
-0.0150246 -0.177634 1.69816 211 242 211 
0.375775 -0.560706 1.77918 92 97 93 
0.320239 -0.565087 1.76944 190 190 188 
0.0205805 -0.158409 1.69598 181 219 180 
0.531499 -0.666548 1.81983 124 86 15 
-0.683712 -0.503364 1.81888 213 234 237 
0.527375 -0.664181 1.80571 86 50 0 
0.453605 -0.469763 1.72574 138 153 182 
0.516665 -0.775782 1.84465 18 23 17 
-0.583586 -0.412865 1.79843 255 188 197 
-0.646909 -0.540107 1.86074 68 85 93 
0.557887 -0.703051 1.82679 127 93 0 
-0.117015 -0.27192 1.73242 224 224 222 
-0.571367 -0.427187 1.8062 164 56 71 
0.343479 -0.690696 1.81181 232 236 237 
0.685251 -0.683662 1.83383 212 199 182 
0.32572 -0.573292 1.77311 46 47 49 
0.550983 -0.68028 1.81912 113 81 0 
0.289629 -0.571849 1.76615 188 190 189 
0.521333 -0.449179 1.72525 36 36 26 
0.38536 -0.580333 1.78417 208 212 213 
0.360629 -0.580708 1.78401 198 202 201 
0.398549 -0.661148 1.80496 148 152 151 
0.519107 -0.464561 1.73086 193 192 187 
0.550339 -0.560111 1.768 18 20 6 
0.283428 -0.558836 1.76624 216 218 217 
0.349045 -0.560907 1.76771 78 79 81 
0.420155 -0.586947 1.78662 159 163 162 
0.629471 -0.632418 1.80611 166 165 163 
-0.275058 -0.230912 1.64019 225 224 229 
0.394703 -0.511401 1.74971 205 207 206 
0.313642 -0.550488 1.76168 191 192 194 
0.352698 -0.631542 1.79839 167 167 169 
0.399656 -0.630911 1.80477 15 17 16 
0.538987 -0.478988 1.73848 12 6 0 
0.335681 -0.595268 1.78353 191 193 192 
-0.311684 -0.234294 1.63459 229 230 234 
-0.233448 -0.223588 1.65013 91 86 90 
-0.593834 -0.532475 1.87239 197 180 186 
0.609986 -0.618585 1.79948 214 218 204 
-0.571915 -0.537597 1.87446 62 66 52 
0.344068 -0.617335 1.78697 167 167 169 
0.599721 -0.611638 1.78851 212 209 202 
0.507562 -0.601871 1.79957 47 9 0 
-0.618787 -0.541617 1.86912 204 206 205 
0.34209 -0.360538 1.6871 153 157 184 
0.57554 -0.757735 1.84457 82 49 0 
0.857176 -0.689455 1.8988 99 75 47 
0.532168 -0.452063 1.72233 84 80 71 
0.312747 -0.602592 1.7879 137 141 140 
0.845786 -0.481446 1.80186 116 121 115 
0.473804 -0.44162 1.70925 209 183 106 
0.562093 -0.555906 1.77185 6 8 0 
-0.206474 -0.24457 1.67578 101 99 100 
-0.560023 -0.431045 1.80915 255 170 172 
0.399478 -0.289303 1.62693 211 174 104 
0.533304 -0.439211 1.71856 167 163 160 
0.665989 -0.294244 1.76314 126 138 134 
0.550041 -0.535852 1.75552 9 10 0 
0.38641 -0.639351 1.80352 147 149 148 
0.405197 -0.557845 1.77466 159 160 164 
0.524766 -0.772348 1.85064 10 12 11 
-0.27369 -0.27947 1.68124 97 96 101 
0.321652 -0.618229 1.78806 185 185 187 
-0.651961 -0.424507 1.78748 255 196 203 
-0.00957994 -0.188775 1.71778 196 234 195 
0.512779 -0.72936 1.83745 215 217 216 
0.3355 -0.621799 1.79656 166 167 169 
0.467621 -0.633198 1.80129 140 141 143 
0.503725 -0.760859 1.84302 164 168 167 
-0.264402 -0.63392 1.89025 159 165 165 
-0.601814 -0.513177 1.84967 98 37 52 
0.399614 -0.671174 1.81366 1 1 1 
0.495683 -0.696412 1.82586 209 207 212 
0.424499 -0.487782 1.73783 216 190 105 
0.490386 -0.685444 1.82182 217 221 220 
0.371637 -0.591991 1.7926 24 26 25 
0.423992 -0.595008 1.79231 215 219 218 
0.304574 -0.584649 1.77243 193 195 192 
0.417535 -0.669409 1.81683 42 42 42 
0.836513 -0.599853 1.87941 170 186 176 
0.482164 -0.66621 1.82214 223 224 226 
0.34029 -0.607083 1.79075 204 209 205 
0.640458 -0.651405 1.81649 51 50 46 
0.471752 -0.646558 1.80665 210 210 212 
0.295704 -0.560823 1.76718 27 33 33 
-0.53705 -0.538072 1.88302 166 157 116 
0.354729 -0.55493 1.77311 0 1 0 
0.600045 -0.633581 1.80164 160 159 141 
0.606657 -0.62639 1.80497 88 88 86 
-0.14232 -0.261219 1.71668 90 90 92 
0.429383 -0.560966 1.77792 194 195 197 
0.88042 -0.527605 1.80336 30 10 0 
-0.624661 -0.420539 1.79025 255 204 216 
-0.543486 -0.542296 1.87598 32 24 0 
-0.638077 -0.443913 1.80431 255 194 204 
0.526984 -0.418478 1.70727 27 24 15 
0.572795 -0.598764 1.78868 207 204 195 
-0.0540158 -0.204618 1.71029 151 152 156 
-0.555638 -0.549929 1.88863 114 112 99 
-0.695313 -0.549077 1.85123 179 187 190 
-0.596822 -0.41455 1.79604 255 170 176 
-0.611087 -0.419163 1.7895 249 193 196 
0.483584 -0.461763 1.71492 212 185 106 
-0.637518 -0.420646 1.79042 251 161 170 
-0.611888 -0.439617 1.80365 243 198 201 
-0.604881 -0.437879 1.81028 252 183 188 
0.661944 -0.637623 1.81128 199 194 172 
0.565883 -0.719651 1.83103 115 81 0 
-0.589122 -0.436505 1.80935 255 181 186 
0.567029 -0.737031 1.83935 201 174 61 
0.489093 -0.480047 1.72695 201 170 88 
0.472773 -0.4395 1.72148 215 191 119 
0.388565 -0.524855 1.7621 47 51 50 
0.509672 -0.783092 1.84029 2 7 10 
0.41641 -0.540099 1.77158 222 227 223 
0.422822 -0.569249 1.7738 25 35 34 
0.566306 -0.56595 1.7722 4 6 0 
0.509212 -0.770305 1.84082 205 207 204 
0.517017 -0.765225 1.84156 191 193 188 
0.380419 -0.620701 1.7969 127 126 131 
0.324101 -0.609816 1.79273 0 3 3 
0.507541 -0.718724 1.83388 202 202 202 
0.539307 -0.504468 1.75141 192 191 186 
0.316651 -0.573678 1.76701 4 5 9 
0.617343 -0.646151 1.79655 229 232 225 
0.447187 -0.648878 1.81026 0 1 2 
0.397488 -0.683267 1.81263 204 208 207 
0.53563 -0.528086 1.74949 118 122 121 
0.372983 -0.675343 1.81749 203 202 198 
0.426755 -0.672505 1.80851 196 197 199 
0.582465 -0.600248 1.78787 98 98 96 
-0.313645 -0.657659 1.88587 181 185 188 
0.444583 -0.586201 1.78282 120 124 125 
-0.651799 -0.444902 1.8029 253 218 224 
-0.588642 -0.435526 1.80491 255 198 205 
-0.654231 -0.42398 1.79247 255 197 211 
0.12947 -0.295947 1.62568 54 69 88 
-0.573367 -0.411953 1.79634 188 56 80 
-0.868903 -0.418059 1.73321 24 24 12 
0.470708 -0.654417 1.81175 205 205 205 
0.520242 -0.646339 1.80775 66 29 0 
-0.691492 -0.500873 1.82493 23 95 119 
0.454716 -0.452828 1.71241 158 182 220 
0.0731545 -0.219825 1.69034 51 53 50 
-0.588151 -0.516067 1.84837 239 225 224 
0.521292 -0.49657 1.7464 239 237 225 
0.497201 -0.751936 1.84374 5 9 8 
0.355216 -0.545314 1.76875 184 186 181 
0.0385238 -0.211677 1.67722 28 28 28 
0.308739 -0.564843 1.76916 7 8 10 
-0.649492 -0.445922 1.79581 255 192 203 
0.0997892 -0.438843 1.71467 208 210 209 
0.423519 -0.576967 1.78658 10 15 11 
0.456912 -0.656954 1.81146 0 4 0 
0.0327534 -0.157263 1.6944 217 215 216 
0.55205 -0.533624 1.76665 22 22 10 
0.383611 -0.591893 1.79092 44 45 47 
0.408636 -0.678892 1.81986 178 179 181 
0.3635 -0.654866 1.81064 206 202 201 
0.619761 -0.645512 1.80696 234 237 230 
0.462222 -0.641024 1.80433 15 21 21 
0.852408 -0.489205 1.79846 146 157 141 
-0.603907 -0.535864 1.87183 225 219 223 
0.483778 -0.541531 1.82141 85 54 0 
0.464416 -0.51923 1.7221 239 204 60 
0.217193 -0.749374 2.08121 5 7 2 
-0.866987 -0.441816 1.74117 27 20 12 
0.49411 -0.290177 1.65896 64 67 76 
-0.606918 -0.420795 1.78142 255 218 220 
-0.00496973 -0.164725 1.70277 111 145 110 
-0.699193 -0.550488 1.86553 179 185 185 
-0.674606 -0.40582 1.7721 65 153 105 
0.104504 -0.452092 1.74737 188 190 189 
0.323633 -0.485624 1.73944 129 147 183 
0.146489 -0.342529 1.65074 145 138 130 
0.837713 -0.571553 1.87308 125 130 123 
0.646953 -0.598026 1.80967 60 42 4 
-0.0163964 -0.185477 1.70826 201 207 203 
-0.489749 -0.292601 1.73564 136 94 134 
-0.513855 -0.223601 1.67635 193 194 196 
-0.713401 -0.230246 1.64802 81 83 80 
0.907269 -0.232927 1.62379 199 199 199 
0.250392 -0.549933 1.75883 128 138 174 
0.0969876 -0.444804 1.73762 29 31 28 
0.499879 -0.707646 1.83032 226 224 225 
0.894019 -0.512612 1.78924 179 141 92 
0.864191 -0.495212 1.80024 135 139 124 
-0.605474 -0.4214 1.79941 174 103 119 
-0.358331 -0.203428 1.6223 207 208 212 
0.338506 -0.61061 1.7797 216 217 219 
0.4707 -0.656852 1.7979 225 223 226 
0.132192 -0.305538 1.64276 150 154 165 
0.430113 -0.624022 1.81521 212 214 211 
0.884037 -0.502607 1.78413 150 151 145 
0.349721 -0.800264 2.07304 207 206 201 
-0.730751 -0.247999 1.6461 234 166 55 
-0.466142 -0.499501 1.91439 210 216 216 
-0.872364 -0.462263 1.76374 19 16 9 
-0.525785 -0.160112 1.61799 28 26 27 
-0.565419 -0.415998 1.80033 254 194 196 
-0.608681 -0.517779 1.85733 239 154 173 
0.865488 -0.483106 1.79099 210 211 216 
-0.317365 -0.673658 1.89464 77 86 93 
-0.515178 -0.442229 1.8836 27 31 30 
0.0974391 -0.436424 1.72622 245 247 246 
-0.739239 -0.234061 1.65834 62 55 27 
0.526934 -0.764323 1.84005 220 225 221 
0.207368 -0.756694 2.0769 202 185 178 
0.502949 -0.739264 1.83136 5 10 4 
-0.349414 -0.199168 1.61246 218 219 223 
-0.59341 -0.511429 1.86377 238 216 218 
-0.366082 -0.660972 1.88937 179 180 182 
0.895383 -0.501531 1.78491 145 150 144 
-0.59635 -0.522888 1.85018 218 160 175 
-0.511725 -0.162169 1.61259 184 185 187 
-0.347645 -0.315871 1.64434 77 78 80 
0.533049 -0.534939 1.76434 44 46 25 
0.459679 -0.461996 1.73388 115 140 170 
-0.320299 -0.622821 1.8759 187 191 194 
0.538674 -0.530736 1.74303 124 125 120 
0.155843 -0.731987 2.0714 31 21 29 
0.234886 -0.263171 1.6038 31 47 72 
0.871208 -0.499631 1.78145 107 112 106 
0.00984191 -0.161712 1.70826 213 212 218 
0.516718 -0.482972 1.72785 189 184 165 
-0.0815377 -0.247078 1.72243 25 25 27 
-0.00828243 -0.231608 1.74032 35 35 37 
0.33894 -0.644107 1.79625 25 31 31 
-0.277981 0.0379063 1.54792 156 141 174 
0.380966 -0.612793 1.79265 36 38 37 
-0.174732 -0.237474 1.69151 236 237 241 
-0.229673 -0.255592 1.68295 57 56 61 
0.469327 -0.690871 1.8278 93 90 85 
0.340129 -0.686744 1.81189 138 137 133 
-0.233651 -0.217632 1.55772 118 119 123 
-0.102552 -0.188913 1.6802 70 71 75 
0.431846 -0.614156 1.79628 137 137 137 
-0.283403 0.0288265 1.55693 32 15 59 
-0.331446 -0.000541564 1.56469 9 2 35 
0.41549 -0.65273 1.8085 156 162 162 
0.357332 -0.124675 1.70342 21 23 0 
0.467319 -0.667529 1.8201 49 50 54 
0.328145 -0.625567 1.7906 146 148 147 
0.359651 -0.580449 1.77897 152 151 147 
0.158946 -0.0138125 1.65084 171 148 140 
-0.269475 -0.214563 1.64392 116 117 122 
-0.0172595 -0.230344 1.73434 221 222 226 
0.366518 -0.588316 1.78245 170 175 171 
-0.321009 -0.647282 1.88721 22 31 28 
0.571288 -0.577074 1.78106 178 174 163 
-0.340209 0.0040834 1.55624 115 107 144 
0.453586 -0.644426 1.80932 90 101 97 
0.391988 -0.109422 1.67967 31 35 2 
0.329434 -0.649814 1.79853 80 79 75 
-0.525688 -0.160777 1.61062 73 74 69 
-0.20175 -0.223168 1.67497 150 149 154 
0.651421 0.0513622 1.62537 0 12 19 
0.387867 -0.537231 1.7576 206 210 209 
0.394907 -0.617602 1.7969 0 4 3 
0.341761 -0.629014 1.7935 4 4 6 
0.393714 -0.646848 1.8045 187 187 187 
0.419936 -0.666109 1.81422 34 44 43 
0.652551 -0.64463 1.82014 179 171 152 
-0.334477 -0.645765 1.88645 43 47 50 
0.855721 -0.261791 1.65643 146 148 147 
0.551586 -0.579265 1.7797 197 192 186 
0.589111 -0.195993 1.62936 65 61 60 
-0.338278 0.0263141 1.53365 10 1 46 
0.409973 -0.543538 1.7634 184 186 185 
0.484868 -0.707801 1.83544 103 105 104 
-0.328299 -0.0129278 1.57677 99 94 124 
0.407774 -0.507978 1.74852 91 91 91 
-0.143448 -0.278363 1.72213 138 139 143 
0.407959 -0.2255 1.60912 179 147 86 
0.48079 -0.727379 1.84142 171 173 172 
0.343118 -0.664311 1.80348 180 186 186 
0.457591 -0.668143 1.81777 204 208 209 
0.343831 -0.655316 1.79666 22 26 27 
0.0328422 -0.153466 1.69207 177 173 172 
0.37501 -0.561014 1.77186 185 185 185 
0.611185 -0.640784 1.81342 192 194 181 
0.438214 -0.622036 1.8005 200 202 201 
0.370677 -0.605343 1.78435 4 4 4 
0.388514 -0.606718 1.78865 107 111 110 
0.411277 -0.56876 1.77494 186 188 187 
-0.57039 -0.411848 1.79149 183 85 110 
0.466585 -0.524593 1.74929 214 184 62 
-0.6034 -0.438082 1.8063 242 189 195 
0.855323 -0.688963 1.90162 48 30 10 
0.347622 -0.25002 1.4308 207 174 103 
0.845872 -0.277264 1.68976 151 135 135 
-0.107359 -0.26193 1.72618 84 84 86 
0.379098 -0.599554 1.78674 40 44 43 
0.249451 -0.550789 1.75536 116 131 160 
0.474028 -0.543423 1.75806 111 80 0 
0.43274 -0.337099 1.70371 230 196 106 
0.468334 -0.632495 1.80317 162 160 161 
0.410051 -0.671582 1.81365 32 34 31 
0.359472 -0.661275 1.80065 39 39 39 
-0.561177 -0.42879 1.80597 252 186 190 
0.44485 -0.641574 1.80335 189 189 189 
-0.291363 -0.669851 1.90285 64 69 72 
0.412227 -0.640913 1.80577 217 218 220 
0.401251 -0.627676 1.79823 25 25 25 
0.322971 -0.609325 1.78049 48 52 53 
0.847862 -0.265165 1.67353 161 158 149 
0.28277 -0.559217 1.75863 207 207 207 
0.384005 -0.581224 1.78086 203 203 203 
-0.276648 -0.677096 1.90322 176 177 181 
-0.312153 -0.661625 1.8913 55 59 60 
-0.265517 -0.630844 1.89347 152 157 160 
-0.609228 -0.417905 1.78851 255 200 206 
0.391111 -0.262292 1.62829 189 156 103 
-0.285468 -0.282378 1.67685 99 100 105 
0.242936 -0.037904 1.69672 0 53 36 
0.811429 -0.403121 1.80501 131 134 115 
0.854404 -0.696731 1.91026 170 145 125 
0.678782 -0.677675 1.83718 58 40 18 
0.856273 -0.49353 1.78641 135 137 132 
0.646995 -0.598235 1.80096 72 41 0 
0.457579 -0.415979 1.68948 203 175 101 
0.571415 -0.184597 1.61823 186 182 181 
0.905523 -0.259976 1.64443 160 161 156 
0.348142 -0.674206 1.80529 227 229 228 
-0.558319 -0.244323 1.68385 227 224 207 
0.354321 -0.640906 1.7963 186 186 188 
0.359338 -0.217433 1.58124 191 153 91 
0.454804 -0.61214 1.79854 207 209 208 
0.535348 -0.414204 1.70248 188 184 181 
0.577723 -0.609426 1.7925 42 45 38 
0.90552 -0.205099 1.61061 151 146 124 
-0.32122 -0.624089 1.87391 194 197 204 
0.448674 -0.599437 1.78846 155 157 156 
0.393283 -0.59691 1.78671 33 37 36 
0.833891 -0.477666 1.80095 119 122 115 
0.29989 -0.573553 1.76463 213 217 218 
0.8318 -0.608913 1.87174 153 174 159 
-0.466851 -0.505756 1.92131 175 177 174 
0.294818 -0.561936 1.76299 74 78 81 
0.410344 -0.535421 1.75379 24 28 27 
0.387633 -0.52415 1.75328 58 59 61 
-0.00414222 -0.166067 1.68511 68 116 74 
0.824026 -0.464095 1.82581 82 85 78 
0.267716 -0.791334 2.07255 151 156 149 
0.821998 -0.27829 1.70728 145 152 134 
0.517715 -0.466925 1.71576 162 161 159 
0.398374 -0.670882 1.81542 41 40 36 
0.520437 -0.499472 1.73535 155 153 141 
0.540157 -0.503147 1.74098 37 37 25 
0.442372 -0.65771 1.81527 212 210 213 
0.532116 -0.311066 1.67513 147 143 142 
0.329105 -0.637336 1.79215 151 153 152 
0.390607 -0.632513 1.79858 5 9 8 
0.591285 -0.623104 1.80098 198 192 192 
0.303712 -0.55801 1.75641 0 9 8 
0.590661 -0.608742 1.79819 209 204 198 
0.836495 -0.612602 1.88416 163 184 169 
0.905292 -0.244807 1.63564 148 150 145 
-0.278027 -0.632566 1.88685 58 74 73 
0.843222 -0.544143 1.83909 128 134 120 
-0.327784 -0.639348 1.87857 194 197 204 
-0.329765 -0.682161 1.8988 63 73 74 
0.806774 -0.423513 1.82248 127 115 115 
-0.237564 -0.204766 1.63239 177 176 181 
0.866251 -0.194224 1.6024 169 173 138 
-0.196402 -0.0418952 1.56449 78 62 47 
0.820493 -0.463923 1.81433 98 100 95 
0.904401 -0.271653 1.64951 198 198 200 
0.868534 -0.202407 1.6142 192 187 147 
0.84215 -0.485698 1.79503 135 138 127 
0.868712 -0.257088 1.6502 194 197 186 
0.522317 -0.49265 1.72733 15 19 5 
-0.284811 -0.682168 1.90719 196 201 205 
0.765756 0.0715662 1.56461 37 46 45 
0.233665 0.12239 1.58751 175 170 177 
0.557987 -0.166949 1.61735 246 245 243 
-0.116139 -0.21358 1.6995 58 55 62 
-0.236246 -0.221367 1.66311 33 34 38 
-0.00157518 -0.210445 1.73871 131 135 136 
-0.151142 -0.220787 1.67829 249 249 251 
-0.0858732 -0.259186 1.73492 119 107 111 
0.475503 -0.54344 1.76338 46 14 0 
0.505178 -0.783416 1.85784 55 57 56 
-0.278186 0.0396118 1.55425 165 156 187 
0.416213 -0.652684 1.80794 174 178 177 
-0.187052 -0.249283 1.69871 47 48 53 
0.512355 -0.769215 1.85635 153 154 149 
-0.280129 -0.251442 1.64994 67 67 69 
-0.0907814 -0.223957 1.72154 53 52 57 
0.0997614 -0.434155 1.72205 172 172 172 
0.0986072 -0.44145 1.73746 170 174 173 
0.519198 -0.736998 1.84872 119 119 117 
-0.25089 -0.236782 1.65061 45 45 47 
0.477806 -0.728336 1.8446 142 143 138 
0.484834 -0.723331 1.83305 164 165 160 
-0.165592 -0.26904 1.7148 90 93 98 
-0.269467 -0.239551 1.65176 228 229 231 
-0.20806 -0.228568 1.68123 205 206 208 
0.469289 -0.527981 1.76578 86 43 0 
0.577988 -0.190959 1.62544 98 94 91 
-0.307474 -0.243007 1.64243 96 99 104 
0.591494 -0.202913 1.6451 172 171 169 
0.502648 -0.704272 1.83732 161 163 162 
-0.156841 -0.222537 1.6923 107 106 111 
0.451591 -0.498416 1.74061 111 72 0 
0.462083 -0.695108 1.83548 146 146 146 
0.464148 -0.692432 1.82369 183 185 182 
-0.158987 -0.193843 1.67825 111 113 112 
0.485218 -0.572482 1.77713 44 2 0 
-0.106604 -0.237592 1.71554 233 233 235 
0.397796 -0.683506 1.81828 202 203 205 
-0.0677902 -0.200984 1.69124 52 51 56 
-0.592894 -0.539154 1.87861 192 197 200 
-0.582386 -0.538999 1.8793 9 9 0 
0.41279 -0.519814 1.75945 222 226 229 
0.525318 -0.517887 1.75409 219 215 203 
0.540421 -0.514941 1.7498 174 176 165 
0.469137 -0.513919 1.74646 73 39 0 
0.40399 -0.512355 1.75528 40 45 48 
0.467537 -0.524234 1.75269 230 200 110 
0.347215 -0.67301 1.81418 179 178 173 
0.45946 -0.49918 1.75092 76 43 0 
0.51966 -0.490701 1.73427 48 51 44 
0.446295 -0.490306 1.73662 208 172 60 
0.523945 -0.525837 1.74808 188 185 168 
0.53571 -0.480905 1.73377 166 163 158 
-0.339754 0.0103364 1.5465 135 125 162 
0.518338 -0.469591 1.72935 162 163 157 
0.396095 -0.530433 1.76345 185 187 184 
-0.172145 -0.24695 1.6919 232 233 237 
0.404655 -0.665789 1.81466 175 177 176 
0.363518 -0.535063 1.76286 187 188 190 
0.42116 -0.534918 1.76624 152 161 158 
-0.209498 -0.249527 1.68591 73 74 79 
0.520102 -0.428524 1.71007 166 166 164 
0.536351 -0.426219 1.71771 34 34 24 
0.341369 -0.660902 1.80775 203 205 202 
0.396914 -0.540512 1.77617 123 127 130 
0.530549 -0.540548 1.76264 197 190 171 
0.439658 -0.655262 1.81134 182 182 182 
-0.0778071 -0.244689 1.73721 57 51 53 
0.55457 -0.171322 1.60687 212 211 209 
0.345871 -0.543664 1.76851 174 176 175 
0.335928 -0.654581 1.79882 99 107 109 
-0.113751 -0.249556 1.70256 238 237 242 
0.311604 -0.54584 1.75777 187 189 186 
0.573505 -0.175212 1.61088 225 220 217 
0.329537 -0.649587 1.79418 173 169 170 
0.449561 -0.649677 1.82003 10 12 11 
0.404795 -0.546478 1.7704 194 198 197 
0.358405 -0.648602 1.80404 192 196 197 
0.421586 -0.547404 1.7707 47 51 54 
0.339631 -0.644701 1.80298 0 2 0 
0.610852 -0.640031 1.81453 181 178 163 
0.601688 -0.197644 1.65345 235 233 236 
-0.254953 -0.206328 1.63798 43 44 48 
0.582302 -0.183939 1.61871 87 83 80 
0.411694 -0.633924 1.81329 219 220 222 
-0.134243 -0.185573 1.66163 40 40 42 
0.411806 -0.553127 1.77388 6 8 5 
0.372631 -0.554379 1.77115 175 179 180 
0.53601 -0.552222 1.76731 194 187 169 
0.430378 -0.554238 1.77437 136 140 141 
0.353411 -0.55606 1.77152 67 67 69 
0.385921 -0.627072 1.79895 191 193 192 
0.402399 -0.626899 1.80112 2 11 10 
0.325585 -0.627359 1.79849 101 103 100 
0.587713 -0.622098 1.80107 148 145 126 
0.59966 -0.199153 1.63251 65 63 64 
0.328223 -0.625171 1.78922 179 181 176 
0.345664 -0.624919 1.79796 46 46 48 
0.296261 -0.559938 1.76315 55 59 62 
0.438777 -0.622798 1.80854 221 223 222 
0.552728 -0.558926 1.77203 92 94 91 
-0.203972 -0.261777 1.70741 50 51 55 
-0.22306 -0.204074 1.63759 34 30 31 
0.304748 -0.56495 1.76489 193 195 194 
0.000621342 -0.307013 1.66308 232 231 229 
0.353756 -0.568598 1.77593 145 145 145 
0.384175 -0.613739 1.79475 21 22 24 
0.602486 -0.6105 1.80295 165 168 151 
-0.0992431 -0.26061 1.73593 105 103 106 
-0.290947 -0.0021741 1.57691 9 10 30 
0.564242 -0.567046 1.77346 170 167 150 
0.54396 -0.567411 1.77615 203 202 174 
0.298883 -0.572189 1.77447 175 177 174 
0.586996 -0.607304 1.79419 185 179 155 
0.431252 -0.61019 1.80383 41 39 40 
0.457116 -0.609799 1.80463 192 194 189 
0.342482 -0.610187 1.79302 204 202 203 
0.318746 -0.572831 1.76975 0 1 0 
-0.272133 -0.27084 1.68678 232 233 237 
0.581649 -0.19154 1.63567 240 239 235 
0.371379 -0.601903 1.79831 223 225 224 
0.418987 -0.577441 1.78306 144 145 140 
-0.209291 -0.196744 1.64504 220 220 222 
0.0353445 -0.29293 1.64286 255 249 215 
0.548558 -0.57569 1.77937 201 200 182 
0.317268 -0.599247 1.78612 20 20 18 
-0.145753 -0.195095 1.65813 26 26 28 
0.572207 -0.576504 1.78603 141 143 132 
0.385905 -0.579864 1.79067 176 177 179 
0.371521 -0.593543 1.78671 37 39 36 
0.563128 -0.590732 1.79456 60 62 61 
0.566003 -0.589316 1.78318 66 67 69 
0.309161 -0.593109 1.78545 171 171 169 
0.437753 -0.584134 1.78525 17 24 17 
0.319412 -0.58717 1.77676 10 10 8 
-0.0205493 -0.233517 1.74345 67 68 72 
0.629901 -0.631969 1.81241 152 152 150 
-0.091972 -0.226215 1.70922 69 68 73 
0.535579 -0.451764 1.72241 174 175 167 
0.835699 -0.275516 1.71961 122 123 117 
0.50043 -0.576949 1.78674 198 160 97 
-0.136207 -0.234283 1.69134 111 111 113 
-0.341862 0.0272407 1.53908 131 121 156 
0.473119 -0.645478 1.80795 191 199 201 
-0.345373 0.00357503 1.55443 140 133 167 
0.462151 -0.496876 1.74174 76 35 0 
-0.172901 -0.256705 1.69321 109 110 114 
0.482807 -0.551614 1.76451 94 61 0 
0.496526 -0.589575 1.79001 208 185 92 
0.557637 -0.700071 1.84076 203 178 78 
-0.303013 -0.278214 1.67846 101 102 106 
-0.329156 -0.223622 1.62512 59 62 67 
0.356455 -0.648201 1.81512 84 85 87 
-0.328941 0.0317921 1.53346 117 114 145 
0.570296 -0.166287 1.60425 235 234 230 
-0.345996 -0.012367 1.57482 131 122 153 
-0.301865 -0.300217 1.69454 74 75 80 
-0.323545 -0.00100541 1.56268 135 128 159 
0.560705 -0.557163 1.7784 191 190 188 
-0.331795 -0.305514 1.68491 55 59 62 
0.635544 -0.655801 1.81881 180 175 155 
0.535579 -0.672193 1.82025 203 175 76 
0.545234 -0.668809 1.82942 202 173 95 
0.517211 -0.607546 1.79825 74 38 0 
0.475268 -0.671922 1.82639 197 202 206 
0.472957 -0.660787 1.82602 102 106 115 
0.548686 -0.53545 1.76098 195 196 188 
0.541836 -0.660162 1.81825 65 29 0 
0.498281 -0.75174 1.84286 12 12 14 
0.488593 -0.728005 1.8432 191 196 199 
0.558642 -0.719898 1.84489 83 44 0 
0.658654 -0.647291 1.82865 184 186 181 
0.108919 -0.440866 1.71716 179 183 182 
0.343923 -0.690713 1.81834 224 228 229 
-0.325957 0.0181495 1.55285 118 113 143 
0.648415 -0.646678 1.82705 10 7 0 
-0.0793219 -0.214141 1.6983 62 61 66 
0.420748 -0.586859 1.79165 176 180 181 
-0.122329 -0.187196 1.66 42 42 44 
-0.256209 -0.22441 1.66892 202 201 206 
-0.188205 -0.189246 1.64376 54 53 58 
0.560053 -0.17171 1.59774 90 89 85 
0.564459 -0.178202 1.62203 56 55 51 
0.499758 -0.776517 1.85365 172 172 172 
0.5258 -0.750351 1.85954 126 131 125 
0.501065 -0.742214 1.84453 49 54 50 
0.506657 -0.714703 1.83654 177 183 181 
0.484983 -0.709206 1.83586 65 74 73 
-0.00786025 -0.214504 1.73077 240 242 241 
0.497678 -0.696101 1.8314 213 217 218 
0.438352 -0.570664 1.78902 242 248 248 
-0.131607 -0.225722 1.67614 92 92 90 
0.489246 -0.560783 1.77052 231 203 80 
0.282565 -0.55891 1.76396 193 191 192 
0.363038 -0.584358 1.78895 182 188 188 
-0.166778 -0.232188 1.69406 71 72 74 
0.375268 -0.678539 1.82405 214 215 210 
0.401484 -0.538865 1.76199 61 69 71 
0.391185 -0.672582 1.80788 189 189 189 
0.46765 -0.667513 1.82079 0 1 4 
0.447584 -0.590752 1.79672 231 237 237 
0.581875 -0.58965 1.78906 188 195 188 
0.530955 -0.515121 1.7438 201 203 189 
0.3859 -0.515399 1.76166 140 142 139 
-0.0431392 -0.656129 1.73911 208 207 205 
-0.109233 -0.245192 1.72234 82 83 87 
-0.213904 -0.251335 1.67654 91 90 95 
0.522474 -0.508172 1.75021 193 192 172 
0.452166 -0.599976 1.80018 232 233 235 
0.334149 -0.648337 1.81066 54 55 50 
0.0986275 -0.403871 1.69212 213 213 213 
0.454173 -0.644762 1.81315 23 32 31 
0.389407 -0.60682 1.79974 69 73 76 
-0.0953155 -0.258512 1.71562 88 83 89 
-0.109354 -0.260417 1.73104 236 236 236 
0.390907 -0.633874 1.80795 62 62 62 
0.597287 -0.629895 1.80556 167 168 154 
0.622905 -0.628633 1.80549 199 198 196 
0.352883 -0.63188 1.80537 212 214 213 
0.383195 -0.614497 1.81203 9 10 12 
0.39143 -0.617657 1.8002 175 179 180 
0.0373642 -0.29382 1.63223 83 68 37 
0.610457 -0.617839 1.80094 189 192 181 
-0.291114 -0.300728 1.69654 84 85 90 
0.594333 -0.625775 1.81434 211 211 211 
-0.647301 -0.548446 1.86625 83 82 80 
0.524709 -0.635256 1.81373 189 171 87 
0.854523 -0.25494 1.66473 142 145 138 
0.500266 -0.604314 1.79134 101 61 0 
0.359109 -0.377163 1.68954 147 146 178 
-0.198489 -0.202374 1.65109 124 120 121 
0.508205 -0.60249 1.8024 72 33 0 
-0.228619 -0.262417 1.69852 122 123 127 
0.813271 -0.442126 1.83526 91 92 87 
-0.690698 -0.503871 1.84494 214 225 229 
-0.611578 -0.535849 1.87623 209 201 198 
-0.37668 -0.0105598 1.55723 14 1 18 
0.475882 -0.524511 1.75869 87 47 0 
-0.684985 -0.551669 1.86574 214 214 214 
-0.532999 -0.0962053 1.56449 80 81 76 
0.481532 -0.541374 1.75505 93 54 0 
0.555076 -0.680426 1.84262 78 41 0 
0.549155 -0.679908 1.8279 216 183 90 
-0.114238 -0.227489 1.69413 88 86 91 
0.49091 -0.580124 1.78274 195 164 58 
0.550536 -0.671936 1.8401 82 45 0 
-0.509168 -0.185193 1.64999 172 173 177 
0.87415 -0.188187 1.61173 41 42 37 
0.525558 -0.753932 1.84966 205 206 208 
0.130698 -0.304573 1.64278 159 163 175 
-0.264411 -0.240879 1.65806 89 95 95 
-0.126523 -0.199936 1.66994 100 98 101 
-0.32815 -0.0132225 1.57564 123 119 142 
0.570619 -0.723798 1.85355 196 178 68 
0.73696 -0.301079 1.78208 168 158 166 
0.376174 -0.560609 1.77973 101 103 100 
0.355294 -0.640194 1.79738 188 187 183 
0.839289 -0.600124 1.88861 167 185 173 
0.568944 -0.779059 1.86948 186 166 77 
0.510461 -0.621033 1.80793 90 63 0 
0.553687 -0.690039 1.83074 210 178 69 
0.852587 0.0321025 1.50126 188 194 192 
0.764128 -0.277107 1.76425 193 214 205 
-0.142256 -0.25518 1.70168 255 255 255 
0.536319 -0.464648 1.72804 214 211 206 
0.465643 -0.472579 1.72681 206 187 119 
0.538325 -0.504808 1.74337 188 191 184 
0.51982 -0.776936 1.86221 2 4 0 
0.395568 -0.520088 1.76253 1 2 4 
0.402308 -0.672025 1.83142 6 6 6 
0.527802 -0.769179 1.85096 6 15 14 
0.314197 -0.550289 1.77248 220 222 221 
0.304338 -0.557407 1.77008 27 30 39 
0.304741 -0.583621 1.78284 186 186 186 
0.555644 -0.586102 1.78069 214 209 190 
0.384293 -0.589525 1.7887 61 65 66 
0.335982 -0.595255 1.78746 171 171 171 
0.316792 -0.609624 1.7895 53 55 54 
0.398316 -0.612468 1.79407 207 211 212 
0.335771 -0.6327 1.79908 3 2 0 
0.465074 -0.639928 1.80718 3 5 4 
0.639637 -0.638386 1.81496 184 177 169 
0.39563 -0.648335 1.8206 193 195 192 
0.623644 -0.647881 1.81913 236 239 230 
0.362119 -0.661877 1.81073 25 29 32 
0.471531 -0.661072 1.81227 32 37 43 
0.420181 -0.666181 1.81569 0 4 1 
0.4824 -0.666386 1.82018 212 221 220 
0.428592 -0.672206 1.81832 209 213 214 
0.393369 -0.673793 1.81785 186 188 187 
0.372675 -0.673982 1.81527 181 183 178 
0.479321 -0.73149 1.83435 190 196 192 
0.492139 -0.685626 1.82605 206 206 206 
0.512601 -0.729214 1.83798 197 201 202 
-0.156058 -0.215943 1.65534 236 235 241 
0.520187 -0.449377 1.71912 36 36 26 
-0.0992813 -0.205746 1.68395 215 213 218 
0.59823 -0.195705 1.64222 70 70 72 
0.401071 -0.661797 1.82862 200 204 203 
0.881412 -0.101702 1.56895 16 18 17 
0.313266 -0.605798 1.77839 124 124 124 
-0.327294 0.0361724 1.5448 128 118 153 
0.901218 0.0266633 1.49434 4 6 3 
0.389839 -0.103781 1.69001 135 138 93 
0.476896 -0.707109 1.82892 66 65 63 
-0.332471 0.0175294 1.5081 6 0 36 
0.655549 -0.647347 1.81933 187 187 185 
0.542849 -0.692738 1.82643 113 76 0 
0.472787 -0.534404 1.75543 231 207 73 
-0.521973 -0.208086 1.64235 167 152 149 
-0.43814 -0.114238 1.59744 166 151 170 
0.570053 -0.179828 1.5947 84 79 76 
-0.133341 -0.209674 1.66475 225 225 227 
-0.315 -0.658862 1.89848 169 169 169 
0.526415 -0.636206 1.82328 189 171 87 
-0.301779 -0.257732 1.64633 63 67 70 
0.642516 -0.242601 1.74825 60 62 13 
-0.0256262 -0.245726 1.75107 45 49 52 
0.857343 -0.695754 1.91917 172 152 125 
-1.26182 0.267226 1.52657 34 34 32 
0.431101 -0.569631 1.78143 26 30 29 
-0.322214 -0.647115 1.89395 37 43 41 
-0.5252 -0.161848 1.60276 139 145 133 
-0.259568 -0.273384 1.69188 98 97 103 
0.854519 -0.262487 1.6857 161 163 149 
0.4743 -0.441391 1.71179 207 181 106 
-0.236762 -0.270892 1.67472 105 106 108 
0.861898 -0.260106 1.66976 190 189 187 
-0.525016 -0.0990167 1.55836 155 161 161 
0.912609 -0.231268 1.63245 172 176 175 
0.876443 -0.112312 1.5625 12 18 14 
0.530192 -0.761891 1.86259 179 179 179 
0.250616 -0.551193 1.76719 128 139 161 
0.858811 -0.252812 1.67626 157 160 151 
0.502503 -0.601854 1.81051 110 75 0 
0.561073 -0.728118 1.83598 116 84 0 
0.876963 -0.134429 1.58031 23 22 28 
-0.296409 -0.00285927 1.59473 8 5 26 
0.573683 -0.749512 1.85784 72 36 0 
0.488223 -0.564036 1.76774 124 81 2 
-0.621993 -0.53787 1.85536 223 214 215 
0.330415 -0.182301 1.57757 30 1 0 
-0.307778 -0.628661 1.88881 35 45 46 
-0.155067 -0.211706 1.66572 92 92 94 
0.57695 -0.585736 1.77971 187 186 182 
-0.28304 -0.250903 1.67171 236 238 237 
0.900481 -0.500141 1.79258 158 163 159 
-0.105926 -0.200548 1.67856 51 50 55 
0.897731 -0.510202 1.79476 167 145 124 
0.406467 -0.299716 1.63697 216 183 104 
-0.651338 -0.539844 1.87057 49 83 95 
0.561419 -0.555987 1.76837 3 2 0 
0.794936 0.068292 1.55089 148 136 138 
0.521063 -0.645249 1.8123 120 86 0 
0.848859 -0.481335 1.81141 116 121 115 
0.548887 -0.696536 1.84454 104 70 0 
0.0220077 -0.308561 1.63816 200 204 205 
-0.290586 -0.222865 1.63379 69 70 75 
0.57985 -0.733124 1.85571 74 38 0 
0.491151 -0.473157 1.72769 221 193 110 
-0.831693 0.0720863 1.45685 36 38 33 
0.88986 -0.496651 1.80135 123 125 120 
0.409047 -0.206611 1.62363 185 154 90 
0.399807 -0.289021 1.62935 211 174 104 
0.514451 -0.630118 1.80743 74 37 0 
0.87089 -0.181666 1.60317 212 197 202 
0.517127 -0.764748 1.84509 174 174 172 
0.57283 -0.723334 1.84054 89 53 0 
0.579002 -0.758665 1.86003 94 60 0 
0.272983 -0.415071 1.70474 39 33 67 
0.362696 -0.535253 1.77468 223 224 226 
0.330271 -0.58797 1.77724 213 215 214 
0.399526 -0.612394 1.80565 227 231 232 
0.473881 -0.646823 1.8209 223 228 231 
0.393296 -0.647872 1.80404 212 214 211 
0.345702 -0.657156 1.81582 1 11 10 
0.348329 -0.674564 1.82508 172 171 166 
-0.167671 -0.215456 1.66511 55 53 56 
0.471035 -0.692122 1.83163 185 188 181 
0.877121 -0.236828 1.64927 20 26 24 
0.345097 -0.539665 1.75812 28 29 31 
0.528868 -0.531016 1.76493 165 162 147 
-0.528636 -0.179836 1.63523 199 204 200 
0.413627 -0.541745 1.78013 113 115 114 
-0.270242 -0.749777 1.96993 145 157 153 
0.484102 -0.71691 1.84332 150 151 155 
0.0887449 -0.43197 1.7466 212 214 213 
0.55767 -0.170761 1.58657 164 158 160 
0.370394 -0.54479 1.77929 188 192 193 
0.536987 -0.527315 1.76005 37 41 40 
0.34139 -0.361462 1.68133 161 161 195 
0.591837 -0.197195 1.65475 230 226 227 
0.544763 -0.693595 1.83674 113 76 0 
0.480714 -0.551604 1.78422 103 68 0 
0.911744 -0.267977 1.6562 173 172 177 
0.388794 -0.280946 1.57859 193 166 99 
0.687316 -0.683152 1.84387 218 209 194 
0.349854 -0.560771 1.78194 108 108 108 
0.121379 -0.134443 1.70025 221 160 157 
-0.627994 -0.542176 1.87599 194 196 195 
0.325224 -0.569637 1.78591 189 189 189 
-0.129488 -0.264304 1.70545 69 70 72 
0.426842 -0.66345 1.82352 197 198 200 
0.457981 -0.66287 1.8229 147 149 148 
0.427022 -0.568411 1.77129 16 20 19 
0.41107 -0.568701 1.7736 107 106 101 
0.641953 -0.658753 1.82731 188 188 180 
0.410908 -0.659598 1.80515 143 147 146 
-0.323693 -0.681306 1.90182 191 196 199 
0.868922 -0.12976 1.57431 64 62 63 
-0.290445 -0.28516 1.69295 211 212 216 
0.453157 -0.470835 1.72703 151 175 213 
0.437129 -0.576695 1.77547 219 219 217 
0.494135 -0.580458 1.79543 207 183 51 
0.853314 -0.196459 1.61729 180 178 153 
0.330464 -0.638968 1.80872 130 130 130 
0.471152 -0.63707 1.81794 225 226 228 
-0.185038 -0.199452 1.65232 148 149 153 
0.505951 -0.762109 1.85465 164 168 167 
0.738991 -0.28978 1.74853 184 192 195 
-0.2807 -0.225696 1.66744 219 220 225 
0.424008 -0.487492 1.73679 212 190 105 
0.447391 -0.490939 1.75723 139 96 17 
0.838567 -0.236684 1.7165 159 163 146 
0.403855 -0.620837 1.79339 217 219 218 
-0.31883 -0.639944 1.88867 15 20 24 
0.582493 -0.191134 1.64868 73 72 68 
0.321121 -0.618287 1.78575 160 161 163 
0.534682 -0.77607 1.85576 174 179 182 
0.320142 -0.61833 1.80118 131 131 131 
0.523482 -0.45909 1.7277 75 76 68 
0.573861 -0.608571 1.79547 220 214 200 
0.580948 -0.60967 1.81164 72 69 60 
0.883854 -0.50363 1.78882 130 131 125 
-0.310623 -0.629642 1.90461 35 45 46 
0.505301 -0.293245 1.6662 58 63 66 
0.397636 -0.508327 1.76541 86 86 86 
-0.0569265 -0.260464 1.76046 213 213 213 
-0.298232 -0.23153 1.63121 224 225 230 
0.85949 -0.183775 1.626 193 195 173 
0.573565 -0.598916 1.79277 205 206 198 
0.461521 -0.413639 1.70238 210 180 90 
0.562847 -0.728936 1.84619 80 49 0 
-0.173577 -0.189573 1.64583 116 117 121 
0.567684 -0.727707 1.86653 207 179 80 
0.863255 -0.492273 1.80186 134 135 127 
0.394853 -0.272903 1.62559 198 171 104 
0.904592 -0.490186 1.78306 165 169 170 
0.499705 -0.2896 1.65761 193 205 221 
-0.86096 -0.188343 1.60391 10 17 1 
-0.608215 -0.507259 1.86166 255 218 226 
0.481636 -0.448021 1.72086 218 192 107 
0.536924 -0.676531 1.83192 164 130 32 
0.532966 -0.666779 1.82912 131 96 12 
0.455686 -0.665269 1.81257 35 37 36 
0.478091 -0.455061 1.70826 223 199 109 
0.522477 -0.646092 1.82263 136 95 0 
0.811349 -0.224291 1.74548 3 4 0 
0.356506 -0.333205 1.32001 232 195 107 
0.8607 -0.136804 1.56019 69 60 65 
0.732667 -0.266445 1.72966 149 149 151 
0.488457 -0.461921 1.72773 219 194 112 
-0.737657 -0.238878 1.65243 179 161 49 
-0.331965 -0.30466 1.66581 106 110 111 
-0.851071 0.0227883 1.48679 46 46 44 
-0.875795 -0.459728 1.76722 49 42 36 
0.387386 -0.264923 1.60356 188 158 98 
0.40008 -0.219519 1.60339 78 40 0 
0.583181 -0.752021 1.85283 217 192 65 
0.429717 -0.34538 1.67856 221 194 105 
-0.85113 -0.00723436 1.49452 35 34 32 
0.572994 -0.737424 1.84902 125 87 16 
0.373873 -0.186546 1.59583 172 134 69 
0.840774 -0.609863 1.89472 156 172 162 
-0.273538 0.013564 1.53223 7 4 35 
0.410662 -0.510996 1.76814 230 234 235 
0.523061 -0.501229 1.73484 186 188 183 
0.531139 -0.51301 1.74912 189 190 192 
0.371059 -0.60618 1.7875 6 6 6 
0.354295 -0.532724 1.76002 5 15 16 
0.389914 -0.539378 1.76245 232 232 234 
0.344881 -0.543731 1.78144 218 222 221 
0.514519 -0.786027 1.86567 2 7 10 
0.354679 -0.545651 1.76482 184 186 181 
0.406039 -0.548649 1.7867 228 230 227 
0.508418 -0.775766 1.86332 15 15 13 
0.380575 -0.574171 1.77852 226 231 234 
0.576923 -0.579623 1.80461 206 205 200 
0.386133 -0.582516 1.80069 222 223 225 
0.491234 -0.735057 1.83579 197 197 195 
0.531967 -0.454905 1.71281 215 215 215 
0.424117 -0.595231 1.78615 227 227 225 
0.3941 -0.601451 1.8078 200 198 201 
0.376356 -0.608982 1.80768 184 186 185 
0.439187 -0.609535 1.81099 96 106 105 
0.590965 -0.608944 1.80305 209 207 195 
0.374227 -0.614863 1.7906 170 171 173 
0.327989 -0.18862 1.58603 154 161 189 
0.501114 -0.708162 1.82602 165 169 170 
0.386643 -0.639478 1.79949 122 126 125 
0.0983734 -0.443968 1.74718 234 238 237 
0.411918 -0.640681 1.8032 221 225 226 
0.446166 -0.644423 1.80344 204 204 202 
0.474229 -0.693416 1.84307 208 209 203 
0.430186 -0.673143 1.83258 217 218 220 
0.399285 -0.677296 1.81128 220 224 225 
0.410803 -0.680688 1.83199 192 193 195 
0.413834 -0.515227 1.77587 95 100 103 
0.543545 -0.514215 1.76058 175 176 168 
0.872992 -0.101519 1.54408 10 14 17 
-0.273466 -0.637307 1.89787 173 178 181 
-0.315243 -0.639294 1.87524 27 32 36 
-0.531933 -0.17819 1.64629 199 204 200 
0.531762 -0.438123 1.72368 191 190 188 
0.455388 -0.657453 1.80811 0 9 5 
0.52306 -0.428331 1.7361 30 30 22 
0.871209 -0.205054 1.63202 45 46 48 
0.666701 -0.263617 1.75528 29 42 12 
0.325772 -0.573524 1.77567 92 92 94 
-0.291219 -0.670142 1.90717 28 36 38 
0.844861 -0.48347 1.79858 140 146 136 
-0.906717 -0.562166 1.80919 61 66 62 
0.846755 -0.282075 1.70585 142 152 143 
-0.593458 -0.434952 1.81917 255 198 205 
-0.325403 -0.624147 1.89135 135 139 142 
0.449991 -0.491681 1.76703 109 67 7 
-0.71388 -0.549092 1.86703 57 68 64 
0.497324 -0.288286 1.67539 64 68 79 
0.880435 -0.259616 1.67228 25 27 26 
0.357712 -0.526163 1.77685 183 183 183 
-0.876238 -0.416694 1.7478 48 47 42 
0.876363 -0.11682 1.57728 236 225 229 
-0.327537 -0.640988 1.87474 193 194 199 
0.491642 -0.479498 1.7392 218 191 102 
0.609488 -0.626215 1.81028 74 74 72 
-0.265586 -0.631006 1.8964 174 178 179 
-0.5594 -0.549193 1.89797 150 147 132 
-0.150001 -0.185673 1.65185 32 33 37 
-0.273578 -0.631396 1.94174 154 160 160 
0.91193 -0.240518 1.64064 142 142 140 
0.870535 0.0280653 1.49164 130 136 134 
-0.866061 -0.440191 1.73885 34 29 23 
-0.37209 -0.659367 1.90596 147 148 150 
-0.867196 -0.204056 1.62486 40 36 33 
0.854947 -0.530506 1.80341 133 135 124 
-0.00363249 -0.186469 1.70904 201 215 202 
0.357288 -0.366557 1.70775 51 54 85 
0.409764 -0.222573 1.62252 200 163 95 
0.393991 -0.275758 1.61472 197 167 97 
0.892498 0.0192458 1.4737 39 44 40 
0.474622 -0.433424 1.71745 217 193 105 
-0.283724 -0.684054 1.91215 157 162 166 
0.413579 -0.238136 1.60815 194 162 87 
0.392471 -0.257287 1.64701 187 157 93 
-0.513804 -0.441991 1.87695 33 39 37 
