ply                 
format ascii 1.0    
element vertex 1230
property float x    
property float y    
property float z    
property uchar red  
property uchar green
property uchar blue 
end_header          
0.340985 -0.608907 1.79382 204 202 203 
0.317487 -0.571793 1.77075 0 1 0 
-0.270676 -0.271607 1.68799 232 233 237 
0.579161 -0.191931 1.63849 240 239 235 
0.36973 -0.600644 1.79911 223 225 224 
0.417121 -0.576296 1.78407 144 145 140 
-0.208308 -0.197787 1.64678 220 220 222 
0.035142 -0.293307 1.64501 255 249 215 
0.546119 -0.574503 1.78055 201 200 182 
0.315896 -0.598039 1.787 20 20 18 
-0.145072 -0.196119 1.65978 26 26 28 
0.569656 -0.575296 1.78721 141 143 132 
0.384182 -0.578712 1.79158 176 177 179 
0.369884 -0.592339 1.78763 37 39 36 
0.560593 -0.589452 1.79559 60 62 61 
0.563496 -0.588057 1.78435 66 67 69 
0.307821 -0.591933 1.7863 171 171 169 
0.435805 -0.582948 1.78627 17 24 17 
0.318079 -0.586038 1.77788 10 10 8 
-0.0203892 -0.234389 1.74418 67 68 72 
0.627052 -0.63045 1.81329 152 152 150 
-0.0914676 -0.227124 1.71032 69 68 73 
0.53325 -0.451164 1.72422 174 175 167 
0.831997 -0.275491 1.72176 122 123 117 
0.498184 -0.575767 1.78779 198 160 97 
-0.135491 -0.235155 1.6926 111 111 113 
-0.340559 0.0252296 1.54173 131 121 156 
0.471012 -0.643965 1.80875 191 199 201 
-0.343994 0.00162492 1.55694 140 133 167 
0.460115 -0.496111 1.74325 76 35 0 
-0.171979 -0.257484 1.69444 109 110 114 
0.48068 -0.550579 1.76581 94 61 0 
0.494304 -0.588334 1.79104 208 185 92 
0.555089 -0.698211 1.84123 203 178 78 
-0.301415 -0.278952 1.67976 101 102 106 
-0.327614 -0.224581 1.62701 59 62 67 
0.354886 -0.646702 1.8157 84 85 87 
-0.327728 0.029798 1.5362 117 114 145 
0.567929 -0.166731 1.60735 235 234 230 
-0.344526 -0.0143171 1.57707 131 122 153 
-0.300215 -0.300856 1.69565 74 75 80 
-0.322241 -0.00294521 1.5651 135 128 159 
0.558207 -0.556053 1.77965 191 190 188 
-0.330014 -0.306134 1.68613 55 59 62 
0.632678 -0.654163 1.81964 180 175 155 
0.533174 -0.670512 1.82095 203 175 76 
0.542751 -0.667122 1.83003 202 173 95 
0.514888 -0.606203 1.79919 74 38 0 
0.473127 -0.670251 1.82697 197 202 206 
0.47081 -0.659167 1.82656 102 106 115 
0.546269 -0.534459 1.76238 195 196 188 
0.539392 -0.658537 1.81896 65 29 0 
0.496058 -0.749653 1.84323 12 12 14 
0.486398 -0.726033 1.84359 191 196 199 
0.5561 -0.717939 1.84532 83 44 0 
0.655631 -0.645664 1.82938 184 186 181 
0.108483 -0.44055 1.71857 179 183 182 
0.342446 -0.689014 1.81886 224 228 229 
-0.324675 0.0161416 1.55536 118 113 143 
0.645447 -0.645061 1.8278 10 7 0 
-0.0789098 -0.215088 1.69954 62 61 66 
0.418865 -0.585659 1.79258 176 180 181 
-0.121769 -0.188247 1.66165 42 42 44 
-0.254898 -0.225389 1.67033 202 201 206 
-0.187339 -0.190307 1.64554 54 53 58 
0.557762 -0.172118 1.60094 90 89 85 
0.562057 -0.178642 1.62493 56 55 51 
0.497524 -0.774289 1.85389 172 172 172 
0.523399 -0.748222 1.85976 126 131 125 
0.498819 -0.740169 1.8449 49 54 50 
0.504382 -0.712803 1.83703 177 183 181 
0.482803 -0.707338 1.83632 65 74 73 
-0.00779484 -0.21545 1.73168 240 242 241 
0.49544 -0.6943 1.83194 213 217 218 
0.436373 -0.569533 1.78996 242 248 248 
-0.130956 -0.226607 1.67762 92 92 90 
0.487093 -0.5597 1.77183 231 203 80 
0.281354 -0.55793 1.76505 193 191 192 
0.361428 -0.583196 1.78983 182 188 188 
-0.165889 -0.233099 1.69526 71 72 74 
0.373613 -0.676872 1.8245 214 215 210 
0.399707 -0.537925 1.76321 61 69 71 
0.389487 -0.670973 1.80858 189 189 189 
0.465556 -0.665877 1.82143 0 1 4 
0.445563 -0.589515 1.79758 231 237 237 
0.579276 -0.588375 1.79017 188 195 188 
0.528645 -0.514241 1.74538 201 203 189 
0.384175 -0.514574 1.76287 140 142 139 
-0.0427023 -0.654877 1.74017 208 207 205 
-0.108599 -0.246034 1.72323 82 83 87 
-0.212806 -0.252146 1.67795 91 90 95 
0.520176 -0.507322 1.75173 193 192 172 
0.450125 -0.598689 1.80101 232 233 235 
0.332697 -0.646853 1.81126 54 55 50 
0.0982148 -0.403731 1.6938 213 213 213 
0.452139 -0.643249 1.81386 23 32 31 
0.387669 -0.605527 1.80051 69 73 76 
-0.0947748 -0.259253 1.71668 88 83 89 
-0.108702 -0.261182 1.73186 236 236 236 
0.389172 -0.632442 1.80865 62 62 62 
0.594602 -0.628409 1.80647 167 168 154 
0.620108 -0.627143 1.80644 199 198 196 
0.351334 -0.630476 1.80606 212 214 213 
0.381472 -0.613154 1.81267 9 10 12 
0.389698 -0.616314 1.80102 175 179 180 
0.0371458 -0.294181 1.63449 83 68 37 
0.60772 -0.616409 1.80194 189 192 181 
-0.289515 -0.301361 1.69762 84 85 90 
0.591629 -0.624294 1.81517 211 211 211 
-0.642609 -0.547822 1.86482 83 82 80 
0.522335 -0.63376 1.81451 189 171 87 
0.851017 -0.25493 1.66739 142 145 138 
0.498035 -0.603002 1.79233 101 61 0 
0.357518 -0.376986 1.69152 147 146 178 
-0.197554 -0.203382 1.65281 124 120 121 
0.505904 -0.601167 1.80328 72 33 0 
-0.227371 -0.263214 1.69963 122 123 127 
0.809273 -0.441391 1.83611 91 92 87 
-0.685789 -0.50357 1.8437 214 225 229 
-0.607078 -0.53528 1.87467 209 201 198 
-0.37513 -0.0124796 1.55967 14 1 18 
0.473769 -0.523604 1.76002 87 47 0 
-0.680019 -0.551042 1.86428 214 214 214 
-0.530619 -0.09785 1.56676 80 81 76 
0.47942 -0.540394 1.75643 93 54 0 
0.552513 -0.678655 1.84307 78 41 0 
0.546673 -0.678173 1.82854 216 183 90 
-0.113638 -0.228385 1.69538 88 86 91 
0.488719 -0.578936 1.78381 195 164 58 
0.547993 -0.670211 1.84057 82 45 0 
-0.50647 -0.186558 1.65128 172 173 177 
0.870806 -0.188334 1.61495 41 42 37 
0.523189 -0.751811 1.84998 205 206 208 
0.130704 -0.304903 1.64518 148 154 168 
-0.263165 -0.241706 1.65999 89 95 95 
-0.125917 -0.200942 1.67147 100 98 101 
-0.326775 -0.0151476 1.57793 123 119 142 
0.567998 -0.721797 1.85391 196 178 68 
0.733367 -0.301065 1.78344 168 158 166 
0.3745 -0.559563 1.78074 101 103 100 
0.353755 -0.638765 1.79816 188 187 183 
0.835116 -0.598558 1.88887 167 185 173 
0.566329 -0.776757 1.8696 186 166 77 
0.508156 -0.619617 1.80877 90 63 0 
0.551187 -0.688251 1.83136 210 178 69 
0.849629 0.0314606 1.50545 188 194 192 
0.760479 -0.277171 1.76585 193 214 205 
-0.141482 -0.255957 1.70283 255 255 255 
0.533976 -0.463992 1.72976 214 211 206 
0.463623 -0.471923 1.72859 206 187 119 
0.535977 -0.50397 1.74497 188 191 184 
0.517458 -0.774673 1.86233 2 4 0 
0.393796 -0.519236 1.76371 1 2 4 
0.400501 -0.670366 1.83183 6 6 6 
0.525429 -0.766981 1.85123 6 15 14 
0.312812 -0.549326 1.77344 220 222 221 
0.303016 -0.556418 1.77113 27 30 39 
0.303417 -0.582494 1.78372 186 186 186 
0.553181 -0.584863 1.78186 214 209 190 
0.382586 -0.588331 1.78959 61 65 66 
0.334513 -0.594056 1.78833 171 171 171 
0.315427 -0.608364 1.79036 53 55 54 
0.396559 -0.611156 1.79496 207 211 212 
0.334319 -0.63131 1.79983 3 2 0 
0.463 -0.638444 1.80798 3 5 4 
0.636746 -0.636831 1.81584 184 177 169 
0.393863 -0.646814 1.82118 193 195 192 
0.620813 -0.646281 1.81992 236 239 230 
0.360543 -0.660321 1.81136 25 29 32 
0.469454 -0.659488 1.81314 32 37 43 
0.418318 -0.664575 1.81632 0 4 1 
0.480229 -0.664748 1.82079 212 221 220 
0.426688 -0.670564 1.81891 209 213 214 
0.391636 -0.672156 1.81841 186 188 187 
0.37105 -0.672357 1.81586 181 183 178 
0.477199 -0.729527 1.83484 190 196 192 
0.489925 -0.683885 1.82661 206 206 206 
0.510304 -0.72724 1.83843 197 201 202 
-0.155325 -0.216865 1.65702 236 235 241 
0.517923 -0.448798 1.72093 36 36 26 
-0.0987872 -0.206731 1.68532 215 213 218 
0.595667 -0.196075 1.645 70 70 72 
0.399266 -0.660192 1.82906 200 204 203 
0.878164 -0.10207 1.57254 16 18 17 
0.311926 -0.604572 1.77932 124 124 124 
-0.326035 0.0341021 1.54738 128 118 153 
0.898193 0.026105 1.4986 4 6 3 
0.387849 -0.104881 1.69192 135 138 93 
0.474774 -0.70527 1.82946 66 65 63 
-0.331357 0.0157209 1.51118 6 0 36 
0.652579 -0.645738 1.82016 187 187 185 
0.540416 -0.69095 1.82709 113 76 0 
0.470707 -0.533458 1.7568 231 207 73 
-0.519262 -0.209314 1.64378 167 152 149 
-0.436101 -0.115799 1.59942 166 151 170 
0.56775 -0.18019 1.59794 84 79 76 
-0.132712 -0.21062 1.66638 225 225 227 
-0.31256 -0.65738 1.89713 169 169 169 
0.524005 -0.634689 1.82395 189 171 87 
-0.300303 -0.258533 1.64801 63 67 70 
0.639405 -0.2429 1.7499 60 62 13 
-0.0254238 -0.246542 1.75171 45 49 52 
0.853032 -0.693651 1.91901 172 152 125 
-1.25442 0.262548 1.52777 34 34 32 
0.429177 -0.568518 1.78247 26 30 29 
-0.319742 -0.645715 1.89265 37 43 41 
-0.522674 -0.163244 1.60463 139 145 133 
-0.258164 -0.274136 1.69304 98 97 103 
0.850904 -0.262472 1.68816 161 163 149 
0.47224 -0.440872 1.71365 207 181 106 
-0.235542 -0.271616 1.67614 105 106 108 
0.858342 -0.260078 1.67237 190 189 187 
-0.522722 -0.100618 1.56073 155 161 161 
0.909088 -0.23126 1.6355 172 176 175 
0.873263 -0.112631 1.56614 12 18 14 
0.527766 -0.759697 1.86274 179 179 179 
0.249547 -0.550259 1.76819 128 139 161 
0.855233 -0.252818 1.67885 157 160 151 
0.500206 -0.600525 1.8113 110 75 0 
0.558565 -0.726144 1.83655 116 84 0 
0.873722 -0.134704 1.58382 23 22 28 
-0.295121 -0.00488609 1.59679 8 5 26 
0.571061 -0.747381 1.85814 72 36 0 
0.486074 -0.56294 1.769 124 81 2 
-0.617546 -0.537312 1.8541 223 214 215 
0.32897 -0.182818 1.58073 30 1 0 
-0.30542 -0.627374 1.88757 35 45 46 
-0.154319 -0.212663 1.6673 92 92 94 
0.574403 -0.584493 1.78093 187 186 182 
-0.281579 -0.25176 1.67311 236 238 237 
0.896421 -0.499113 1.79394 158 163 159 
-0.10541 -0.201555 1.67999 51 50 55 
0.893693 -0.509129 1.79612 167 145 124 
0.404728 -0.299799 1.63957 216 183 104 
-0.64658 -0.539272 1.86906 49 83 95 
0.558941 -0.554894 1.76969 3 2 0 
0.791827 0.0673041 1.55473 148 136 138 
0.51872 -0.643711 1.81308 120 86 0 
0.844874 -0.480406 1.81251 116 121 115 
0.546365 -0.694687 1.84496 104 70 0 
0.0218697 -0.308871 1.64035 200 204 205 
-0.289211 -0.223816 1.6356 69 70 75 
0.577183 -0.73107 1.85603 74 38 0 
0.489011 -0.472488 1.7294 221 193 110 
-0.828362 0.0696799 1.45991 36 38 33 
0.885804 -0.495636 1.80265 123 125 120 
0.407247 -0.207048 1.62643 185 154 90 
0.3981 -0.289143 1.63202 211 174 104 
0.512136 -0.628659 1.80826 74 37 0 
0.867609 -0.181818 1.6065 212 197 202 
0.514828 -0.762595 1.84548 174 174 172 
0.570233 -0.721361 1.841 89 53 0 
0.576358 -0.756485 1.86031 94 60 0 
0.271771 -0.414783 1.70644 39 33 67 
0.361068 -0.534336 1.7757 223 224 226 
0.328838 -0.586821 1.7782 213 215 214 
0.397733 -0.611063 1.80637 227 231 232 
0.471731 -0.645278 1.82151 223 228 231 
0.391563 -0.646379 1.80472 212 214 211 
0.344194 -0.655619 1.81639 1 11 10 
0.346802 -0.672923 1.8255 172 171 166 
-0.166856 -0.216403 1.66668 55 53 56 
0.468921 -0.690349 1.83216 185 188 181 
0.873607 -0.236853 1.65211 20 26 24 
0.343586 -0.538751 1.75932 28 29 31 
0.526506 -0.53005 1.76622 165 162 147 
-0.525908 -0.181214 1.6367 199 204 200 
0.411755 -0.540769 1.78114 113 115 114 
-0.267876 -0.747562 1.96764 145 157 153 
0.481909 -0.714987 1.84366 150 151 155 
0.0884101 -0.431704 1.74762 212 214 213 
0.555426 -0.171152 1.58987 164 158 160 
0.368729 -0.54382 1.78026 188 192 193 
0.534612 -0.526367 1.76145 37 41 40 
0.339827 -0.361402 1.68289 161 161 195 
0.589234 -0.197598 1.65733 230 226 227 
0.542285 -0.69178 1.83726 113 76 0 
0.47854 -0.550548 1.7853 103 68 0 
0.908138 -0.267861 1.65903 173 172 177 
0.387235 -0.281047 1.58178 193 166 99 
0.684134 -0.68132 1.84441 218 209 194 
0.3483 -0.559733 1.7829 108 108 108 
0.120694 -0.135671 1.7016 221 160 157 
-0.623378 -0.541573 1.87442 194 196 195 
0.323786 -0.568564 1.78678 189 189 189 
-0.128775 -0.265027 1.70658 69 70 72 
0.424927 -0.66184 1.82406 197 198 200 
0.455921 -0.661254 1.8235 147 149 148 
0.425141 -0.567318 1.77246 16 20 19 
0.409251 -0.56761 1.77469 107 106 101 
0.639036 -0.657085 1.82808 188 188 180 
0.409106 -0.658046 1.80589 143 147 146 
-0.321184 -0.679687 1.90044 191 196 199 
0.865737 -0.130041 1.57789 64 62 63 
-0.28886 -0.285873 1.69406 211 212 216 
0.451402 -0.470264 1.7284 151 175 213 
0.4352 -0.575555 1.77659 219 219 217 
0.4919 -0.579252 1.7964 207 183 51 
0.849997 -0.196607 1.62041 180 178 153 
0.329028 -0.637535 1.80937 130 130 130 
0.469012 -0.635576 1.81858 225 226 228 
-0.184163 -0.200475 1.654 148 149 153 
0.503669 -0.759942 1.85489 164 168 167 
0.735539 -0.289786 1.75029 184 192 195 
-0.27926 -0.226683 1.66884 219 220 225 
0.422143 -0.48679 1.73834 212 190 105 
0.445375 -0.490198 1.75857 139 96 17 
0.834799 -0.23683 1.71864 159 163 146 
0.402074 -0.619483 1.79423 217 219 218 
-0.3164 -0.638595 1.88744 15 20 24 
0.579943 -0.191558 1.65132 73 72 68 
0.319747 -0.616991 1.78664 160 161 163 
0.532281 -0.773833 1.85605 174 179 182 
0.31875 -0.61701 1.80191 131 131 131 
0.521193 -0.458464 1.72945 75 76 68 
0.571292 -0.607205 1.79648 220 214 200 
0.578296 -0.608272 1.8125 72 69 60 
0.87988 -0.502597 1.79018 130 131 125 
-0.30819 -0.628323 1.90314 35 45 46 
0.503094 -0.293318 1.66857 58 63 66 
0.395837 -0.507526 1.76656 86 86 86 
-0.0565241 -0.261233 1.76094 213 213 213 
-0.296834 -0.232433 1.63308 224 225 230 
0.856086 -0.183982 1.62905 193 195 173 
0.570993 -0.597597 1.7938 205 206 198 
0.45951 -0.413247 1.70432 210 180 90 
0.560293 -0.726932 1.84663 80 49 0 
-0.17278 -0.190627 1.64758 116 117 121 
0.56503 -0.725655 1.86669 207 179 80 
0.859267 -0.491293 1.80304 134 135 127 
0.39316 -0.273088 1.6283 198 171 104 
0.900554 -0.489205 1.78452 165 169 170 
0.497556 -0.289674 1.66014 193 205 221 
-0.856451 -0.189877 1.60543 10 17 1 
-0.603809 -0.506884 1.86028 255 218 226 
0.479527 -0.447468 1.72263 218 192 107 
0.534478 -0.674806 1.83248 164 130 32 
0.530536 -0.665106 1.82971 131 96 12 
0.453655 -0.663658 1.81322 35 37 36 
0.476038 -0.454483 1.71015 223 199 109 
0.520093 -0.644529 1.82328 136 95 0 
0.807535 -0.224545 1.74735 3 4 0 
0.355613 -0.332946 1.32512 232 195 107 
0.857634 -0.137034 1.56389 69 60 65 
0.729309 -0.266538 1.73165 149 149 151 
0.486316 -0.461302 1.72944 219 194 112 
-0.733579 -0.240121 1.65352 179 161 49 
-0.330256 -0.305266 1.66726 106 110 111 
-0.847415 0.0204814 1.48952 46 46 44 
-0.870103 -0.459833 1.76689 49 42 36 
0.385758 -0.265121 1.60648 188 158 98 
0.398366 -0.219882 1.60634 78 40 0 
0.580534 -0.749889 1.85321 217 192 65 
0.427827 -0.345292 1.68072 221 194 105 
-0.847448 -0.00940835 1.49721 35 34 32 
0.570392 -0.735371 1.84943 125 87 16 
0.372236 -0.187054 1.5988 172 134 69 
0.836569 -0.608239 1.89489 156 172 162 
-0.272607 0.0117363 1.5351 7 4 35 
0.408811 -0.510173 1.76935 230 234 235 
0.520786 -0.50042 1.73645 186 188 183 
0.528811 -0.512136 1.75066 189 190 192 
0.369434 -0.604917 1.78841 6 6 6 
0.35273 -0.531836 1.7612 5 15 16 
0.388191 -0.538441 1.76366 232 232 234 
0.343337 -0.542776 1.7824 218 222 221 
0.512191 -0.783718 1.86581 2 7 10 
0.353117 -0.5447 1.76595 184 186 181 
0.404199 -0.547638 1.78766 228 230 227 
0.506116 -0.773513 1.86348 15 15 13 
0.37889 -0.573062 1.77951 226 231 234 
0.574288 -0.578375 1.80558 206 205 200 
0.384387 -0.581338 1.80145 222 223 225 
0.489045 -0.733065 1.83622 197 197 195 
0.529677 -0.454298 1.71468 215 215 215 
0.422238 -0.593998 1.78713 227 227 225 
0.392319 -0.60017 1.80849 200 198 201 
0.374671 -0.607674 1.80838 184 186 185 
0.437195 -0.608195 1.81172 96 106 105 
0.588284 -0.607557 1.80395 209 207 195 
0.37259 -0.613554 1.79148 170 171 173 
0.326542 -0.189134 1.58907 154 161 189 
0.498885 -0.706316 1.82661 165 169 170 
0.384952 -0.638037 1.80029 122 126 125 
0.0979964 -0.443638 1.7482 234 238 237 
0.410097 -0.639218 1.80395 221 225 226 
0.444193 -0.642931 1.80426 204 204 202 
0.472062 -0.691608 1.84341 208 209 203 
0.428245 -0.671469 1.83303 217 218 220 
0.397546 -0.675656 1.81196 220 224 225 
0.408968 -0.678988 1.83246 192 193 195 
0.411945 -0.514378 1.77692 95 100 103 
0.541119 -0.513321 1.76195 175 176 168 
0.869916 -0.101833 1.54787 10 14 17 
-0.27131 -0.63594 1.89655 173 178 181 
-0.312881 -0.63797 1.87419 27 32 36 
-0.529116 -0.179605 1.6476 199 204 200 
0.529423 -0.437585 1.72545 191 190 188 
0.453372 -0.655891 1.80888 0 9 5 
0.520713 -0.427838 1.73776 30 30 22 
0.867801 -0.205164 1.63511 45 46 48 
0.663477 -0.263809 1.75686 29 42 12 
0.324349 -0.572444 1.77664 92 92 94 
-0.288914 -0.668568 1.90574 28 36 38 
0.840993 -0.482538 1.79989 140 146 136 
-0.900568 -0.561634 1.80837 61 66 62 
0.843116 -0.281994 1.7082 142 152 143 
-0.589366 -0.435048 1.81834 255 198 205 
-0.322913 -0.622888 1.89004 135 139 142 
0.447934 -0.49093 1.76822 109 67 7 
-0.708685 -0.548493 1.86551 57 68 64 
0.495109 -0.2884 1.67762 64 68 79 
0.876831 -0.25957 1.67496 25 27 26 
0.356096 -0.525289 1.77785 183 183 183 
-0.870658 -0.417062 1.74767 48 47 42 
0.873125 -0.117146 1.58085 236 225 229 
-0.325096 -0.63966 1.87369 193 194 199 
0.489474 -0.478795 1.74079 218 191 102 
0.606718 -0.624731 1.8111 74 74 72 
-0.263488 -0.629677 1.89511 174 178 179 
-0.55517 -0.548491 1.89615 150 147 132 
-0.149312 -0.186741 1.65355 32 33 37 
-0.27128 -0.629989 1.93975 154 160 160 
0.908375 -0.240488 1.64361 142 142 140 
0.86761 0.0274965 1.49594 130 136 134 
-0.860656 -0.440414 1.73889 34 29 23 
-0.369224 -0.657886 1.90441 147 148 150 
-0.862482 -0.205549 1.62612 40 36 33 
0.851054 -0.529356 1.80462 133 135 124 
-0.00362508 -0.187529 1.71021 201 215 202 
0.355665 -0.366432 1.70957 51 54 85 
0.407963 -0.22296 1.62522 200 163 95 
0.392325 -0.275922 1.61754 197 167 97 
0.889648 0.0187885 1.47814 39 44 40 
0.472534 -0.432939 1.71923 217 193 105 
-0.281453 -0.682384 1.91067 157 162 166 
0.411823 -0.238423 1.61106 194 162 87 
0.390716 -0.257574 1.64944 187 157 93 
-0.509957 -0.441991 1.87531 33 39 37 
0.356225 -0.124807 1.69407 178 179 121 
0.320659 -0.485499 1.73809 121 138 168 
0.342408 -0.529817 1.77646 170 170 168 
0.491946 -0.740083 1.85483 7 7 5 
0.50827 -0.78234 1.84331 7 15 17 
0.870555 -0.261736 1.65831 24 26 25 
0.533749 -0.774952 1.86585 205 209 210 
0.470444 -0.653208 1.80473 215 216 218 
0.846147 -0.281583 1.71847 185 195 187 
0.460627 -0.673004 1.81668 106 111 114 
0.107424 -0.272395 1.60129 62 27 0 
-0.189578 -0.190871 1.67752 218 218 218 
0.54445 -0.412373 1.75749 194 195 199 
-0.851692 -0.0438621 1.52245 16 19 12 
0.0316593 -0.153654 1.71705 221 221 221 
0.532452 -0.310937 1.68966 151 150 146 
0.312086 -0.603362 1.80382 92 92 92 
0.426266 -0.558053 1.78167 34 35 37 
0.309721 -0.587958 1.77617 4 6 5 
0.30634 -0.584216 1.7968 237 237 235 
0.288627 -0.569403 1.77214 233 235 232 
0.355932 -0.569493 1.79249 209 209 209 
0.412871 -0.568732 1.80038 107 106 101 
0.879044 -0.203928 1.64395 17 21 22 
0.8539 -0.205111 1.63795 236 234 235 
-0.57324 -0.412664 1.80725 191 51 77 
0.370696 -0.590212 1.80135 12 14 11 
0.388545 -0.591734 1.80428 227 231 232 
0.369688 -0.553662 1.78901 223 224 226 
-0.737152 -0.572569 1.8738 17 32 0 
0.853357 -0.23526 1.6613 157 160 153 
0.823367 -0.596315 1.86062 170 190 178 
0.410999 -0.117857 1.67375 221 181 145 
0.870252 -0.128455 1.59426 66 64 65 
0.854154 -0.19423 1.63257 143 140 121 
0.430458 -0.610537 1.79391 219 219 219 
0.423641 -0.670139 1.81463 202 206 207 
-0.841405 0.0147481 1.48111 25 23 24 
0.465558 -0.666343 1.83553 31 36 40 
-0.145567 -0.193294 1.68201 100 99 104 
0.528144 -0.470328 1.73468 53 50 41 
0.87712 -0.185249 1.62521 27 31 34 
-0.274677 -0.676591 1.90487 185 189 190 
-0.522383 -0.101522 1.54464 27 29 28 
0.529078 -0.488869 1.74184 76 75 57 
0.388352 -0.523953 1.77468 155 157 156 
0.617219 -0.644033 1.80912 234 237 230 
0.51933 -0.49569 1.74971 209 202 192 
0.613143 -0.639096 1.82841 223 225 214 
-0.319879 -0.657431 1.9245 183 184 186 
-0.628751 -0.441846 1.82037 255 207 218 
0.851164 -0.488189 1.80818 146 157 141 
-0.642332 -0.540852 1.83822 56 68 68 
-0.278567 -0.675081 1.92702 189 190 192 
-0.526548 -0.1657 1.6359 147 127 128 
-0.633554 -0.543377 1.86743 44 46 45 
-0.502874 -0.166632 1.60762 164 168 171 
-0.206151 -0.772205 2.10854 143 164 157 
-0.505457 -0.21162 1.64708 176 142 141 
-0.373972 -0.0140983 1.54765 11 1 9 
-0.732232 -0.246199 1.66156 234 180 48 
-0.67061 -0.416578 1.77865 184 67 76 
0.810622 -0.403915 1.81583 145 142 125 
0.893487 -0.0947291 1.57287 146 151 145 
-0.51303 -0.214491 1.678 174 154 153 
-0.852053 -0.0022494 1.50373 31 30 28 
0.400787 -0.134162 1.61897 255 224 179 
-0.590378 -0.420006 1.81003 169 109 121 
0.377265 -0.291196 1.64906 137 153 186 
-0.630341 -0.44408 1.79347 255 192 201 
-0.673644 -0.456808 1.82597 186 60 38 
0.834037 -0.245727 1.69038 141 123 123 
-0.673665 -0.405918 1.78166 59 133 96 
0.3541 -0.387406 1.63193 114 115 146 
-0.557628 0.11836 1.61459 9 15 11 
-0.32513 -0.634895 1.88962 186 190 191 
0.827653 -0.462879 1.84726 89 94 88 
0.80948 -0.4122 1.82732 133 134 116 
-0.612155 -0.507895 1.82544 241 149 164 
-0.161972 -0.206218 1.68996 84 82 85 
-0.0144153 -0.19137 1.68744 203 213 204 
0.491326 -0.0174049 1.6814 108 109 104 
0.553222 -0.0189369 1.68145 106 107 102 
-0.326305 -0.679471 1.88711 40 48 50 
0.805867 -0.234437 1.68703 160 163 152 
-0.587486 -0.426385 1.84248 248 206 218 
0.829684 -0.274593 1.74139 152 161 142 
-0.00353488 -0.174941 1.70483 209 213 214 
-0.455276 -0.438775 1.85634 161 111 162 
0.452249 -0.45141 1.72109 150 176 227 
0.688317 -0.293129 1.74465 211 220 215 
0.0144409 -0.174963 1.64565 203 219 209 
0.839135 -0.542476 1.83743 127 133 123 
-0.162918 -0.201953 1.65773 224 223 228 
-0.773353 -0.221898 1.63987 162 158 121 
0.0280994 -0.156015 1.68194 214 214 214 
-0.572108 -0.429893 1.80124 244 201 210 
0.519459 -0.7839 1.88261 218 219 221 
0.346715 -0.526164 1.76606 193 193 193 
0.539474 -0.527385 1.77262 7 11 10 
0.338514 -0.53454 1.76794 152 152 154 
0.410646 -0.535516 1.77155 10 16 14 
0.511496 -0.498083 1.70368 221 221 211 
0.525133 -0.492719 1.75813 12 12 2 
0.360086 -0.548699 1.77627 2 8 6 
0.513863 -0.739134 1.84046 204 205 207 
0.425341 -0.48835 1.74227 225 188 47 
0.538416 -0.554231 1.7812 239 236 229 
0.481935 -0.731018 1.86897 212 213 208 
0.283855 -0.560216 1.77661 221 221 223 
0.521704 -0.466271 1.74762 198 197 192 
-0.516165 -0.196851 1.67554 200 201 203 
0.552068 -0.576835 1.79019 225 224 222 
0.390211 -0.591672 1.82182 201 207 207 
-0.568465 -0.410106 1.81797 254 224 224 
0.911949 -0.212669 1.63833 205 206 208 
0.438516 -0.612012 1.80031 0 1 0 
0.722521 -0.30898 1.74381 225 203 189 
0.83802 -0.302664 1.72693 183 189 179 
-0.35084 -0.313339 1.66863 98 102 105 
0.334365 -0.621876 1.7967 201 201 199 
0.407958 -0.677691 1.82153 192 193 195 
0.131532 -0.303778 1.66198 150 154 165 
0.833097 -0.286056 1.68398 193 200 192 
-0.711795 -0.249089 1.67056 45 37 0 
0.230717 -0.262818 1.60368 59 74 95 
0.633349 -0.246636 1.73548 42 50 13 
0.856643 -0.175454 1.63933 45 37 35 
0.897053 -0.49529 1.77807 19 19 19 
0.472853 -0.250288 1.64131 216 215 213 
0.852621 -0.262048 1.7019 163 157 141 
0.618487 -0.259769 1.75183 39 42 23 
0.64424 -0.640679 1.84597 169 161 158 
0.799297 -0.259734 1.77198 137 148 131 
-0.472555 -0.502493 1.93878 173 182 177 
-0.728103 -0.572574 1.85259 15 30 9 
0.490682 -0.289336 1.66769 56 59 66 
-0.50998 -0.176502 1.65835 167 141 142 
0.231263 -0.234396 1.61253 35 58 72 
-0.59173 -0.539248 1.89963 46 47 49 
0.840622 -0.11809 1.61631 163 138 142 
0.866259 -0.101373 1.56834 93 96 85 
-0.858413 -0.0397123 1.53609 14 15 10 
-0.507562 -0.217626 1.65849 180 165 162 
-0.549014 -0.383008 1.78739 236 252 239 
-0.536416 0.101776 1.58179 25 29 28 
-0.313065 -0.661503 1.90614 37 41 40 
0.86605 -0.111954 1.57437 91 93 92 
0.491326 -0.290499 1.63341 179 191 207 
0.0900961 -0.434225 1.73602 134 136 135 
-0.683655 -0.416082 1.81541 217 126 131 
-0.606398 -0.436347 1.82942 255 203 203 
-0.592994 -0.433983 1.82917 255 208 214 
-0.37099 -0.0124605 1.53274 4 3 11 
0.806372 -0.412283 1.81971 133 134 116 
-0.524427 -0.173452 1.62531 152 135 127 
0.368449 -0.379173 1.68998 79 75 110 
0.00382826 -0.170706 1.68177 207 216 213 
-0.448627 -0.44053 1.83345 165 117 165 
-0.797932 -0.163226 1.66592 34 31 0 
0.803084 -0.428669 1.83521 61 51 50 
-0.491012 -0.293084 1.75082 131 84 128 
0.77064 0.0767977 1.58942 42 43 38 
0.82128 -0.466114 1.82476 96 98 93 
0.660166 -0.265709 1.7373 11 23 11 
0.0546113 -0.2934 1.61332 64 62 50 
-0.546546 -0.15893 1.66946 58 49 10 
0.505097 -0.778237 1.88164 187 187 185 
-0.610349 -0.442385 1.77939 179 46 67 
0.526898 -0.422456 1.71196 12 8 0 
-0.858686 -0.201124 1.60311 209 192 182 
0.668767 -0.236212 1.757 198 205 110 
0.798916 -0.22819 1.72546 17 17 15 
-0.719203 -0.245497 1.68813 55 48 29 
0.831115 -0.58345 1.87687 170 194 180 
0.884687 -0.110541 1.59037 12 16 19 
0.480223 -0.541385 1.44301 237 236 241 
0.807745 -0.391829 1.79209 133 145 125 
0.467387 -0.699885 1.82154 13 15 14 
-0.501201 -0.230809 1.64786 181 185 184 
0.472339 -0.689798 1.81988 218 216 227 
-0.719883 -0.227257 1.67375 66 68 65 
-0.524777 -0.224365 1.68197 165 171 169 
0.0377342 -0.213279 1.66759 17 17 17 
0.840746 0.0317904 1.51349 139 152 135 
-0.615568 -0.43927 1.81731 238 190 202 
-0.644703 -0.442302 1.81683 181 75 95 
-0.833161 0.0109019 1.46607 23 23 23 
0.863268 -0.201914 1.65924 238 238 238 
0.39678 -0.674417 1.8474 202 204 203 
0.802705 -0.438728 1.85116 126 132 118 
0.803151 -0.441725 1.80848 221 220 218 
0.512775 -0.456242 1.69345 213 209 206 
-0.853954 -0.209771 1.61038 36 38 27 
-0.501002 -0.204451 1.62583 204 204 206 
0.397409 -0.655947 1.81083 220 222 221 
0.837881 -0.540657 1.82549 128 131 120 
0.457183 -0.476033 1.70169 226 189 23 
0.520715 -0.480135 1.74421 23 17 0 
0.873219 -0.12608 1.60925 52 48 49 
-0.851717 -0.194559 1.59787 30 26 23 
0.892595 -0.489124 1.76889 174 178 181 
0.875575 -0.497461 1.80869 103 109 97 
-0.595335 -0.522094 1.85751 223 165 179 
0.899679 -0.499563 1.81363 166 165 160 
0.386257 -0.622832 1.73053 120 122 121 
-0.323371 -0.648461 1.91884 28 33 29 
-0.339396 -0.645988 1.91665 40 41 45 
0.395335 -0.517216 1.78933 8 14 12 
-0.52735 -0.15202 1.68019 164 165 167 
-0.29952 -0.629169 1.87593 31 37 33 
0.786772 -0.334561 1.75297 216 193 162 
0.773476 -0.896445 2.0551 196 213 207 
-0.561828 -0.549313 1.91271 126 124 112 
0.625486 -0.262609 1.77397 43 40 31 
0.656357 -0.025655 1.66062 122 117 111 
-0.31657 -0.682327 1.89193 168 171 178 
-0.51829 -0.163978 1.59048 180 187 179 
0.879554 -0.527434 1.81731 17 1 0 
0.170154 -0.542227 1.90863 192 142 119 
0.264468 -0.791115 2.06232 113 113 101 
-0.878631 -0.446445 1.76739 199 177 156 
0.600768 -0.227649 1.74939 150 153 72 
-0.576038 -0.482586 1.84035 204 40 77 
0.82135 -0.269326 1.70698 129 113 114 
-0.463716 -0.300049 1.80724 160 105 144 
0.617762 0.0365622 1.64288 20 22 21 
-0.862614 0.0130707 1.50964 214 208 208 
-0.547299 0.101894 1.61272 91 93 90 
0.868871 -0.109399 1.58501 74 76 73 
0.152682 -0.709482 2.04358 190 169 184 
-0.458877 -0.425816 1.85902 180 125 182 
0.495787 -0.772897 1.84793 144 144 144 
0.467885 -0.513112 1.75182 73 39 0 
-0.660236 -0.548753 1.86208 217 219 216 
-0.363606 0.0508449 1.63788 131 121 156 
-0.344612 -0.0143874 1.57685 131 122 153 
-0.584675 -0.530237 1.86318 76 18 30 
0.487093 -0.5597 1.77183 231 203 80 
-0.318418 -0.645874 1.88594 34 39 35 
0.84981 -0.255333 1.66532 142 145 138 
0.549103 -0.677083 1.82707 78 41 0 
-0.571012 -0.157164 1.85724 172 173 177 
0.561334 -0.773992 1.84548 186 166 77 
0.409751 -0.552326 1.77362 0 1 0 
0.853548 -0.22673 1.64596 236 237 232 
-0.439444 -0.114181 1.60862 166 151 170 
0.526031 -0.631729 1.81308 215 185 63 
-0.670996 -0.549978 1.86242 56 60 63 
-0.688861 -0.553282 1.85855 84 85 87 
-0.705209 -0.54823 1.85605 66 68 63 
0.866985 -0.239069 1.63694 28 34 32 
0.532499 -0.77275 1.85012 161 165 168 
0.611404 -0.631457 1.80487 108 108 110 
0.843576 -0.273556 1.68615 144 141 134 
-0.672004 -0.508692 1.8376 51 82 85 
-0.598363 -0.50764 1.84318 255 220 227 
0.478502 -0.564323 1.77528 113 67 0 
0.906288 -0.268299 1.65402 173 172 177 
0.807923 -0.441968 1.83027 151 152 147 
-0.828745 0.0703955 1.4609 32 34 29 
0.828478 -0.238855 1.70222 159 163 146 
0.346935 -0.62064 1.79499 190 190 192 
0.394424 -0.507332 1.75649 86 86 86 
0.127506 -0.298223 1.64071 209 223 236 
0.228676 -0.229895 1.5931 144 158 193 
-0.729086 -0.57625 1.87641 212 218 204 
0.490066 -0.479816 1.73213 221 197 101 
-0.364673 -0.656583 1.88355 139 140 142 
0.463284 -0.41795 1.70168 203 179 93 
0.394248 -0.617904 1.83623 209 213 214 
0.508643 -0.780904 1.84673 2 7 10 
0.548608 -0.575897 1.78258 223 220 211 
0.39712 -0.658691 1.81359 200 204 203 
-0.288214 -0.668186 1.9015 28 36 38 
-0.69911 -0.554365 1.86467 66 72 68 
0.866798 -0.192144 1.61093 211 213 191 
0.866375 -0.180804 1.60361 232 213 219 
-0.64738 -0.54107 1.85187 44 62 64 
-0.558139 -0.40999 1.79133 255 185 187 
0.834716 -0.607701 1.88744 129 142 133 
0.276494 -0.296182 1.63399 59 69 104 
0.824676 -0.27641 1.72521 146 155 138 
0.3305 -0.636826 1.80024 226 228 227 
0.305097 -0.583086 1.77897 237 237 235 
0.851229 -0.235896 1.65448 157 160 153 
0.395841 -0.610003 1.79812 230 234 235 
0.905674 -0.214916 1.62015 202 204 203 
0.402249 -0.639014 1.80366 8 19 15 
0.863756 -0.25626 1.6481 206 212 202 
0.502137 -0.293574 1.66347 58 63 66 
0.869055 -0.119063 1.57352 224 207 213 
0.844805 -0.252103 1.67479 165 144 143 
-0.617467 -0.440215 1.80204 181 76 93 
0.479408 -0.543819 1.80426 104 72 0 
-0.458939 -0.508636 1.90888 162 173 165 
-0.593757 -0.429122 1.80509 169 106 114 
-0.0982592 -0.203499 1.6924 215 214 219 
0.3462 -0.526434 1.76511 193 193 193 
0.502256 -0.758827 1.84802 199 204 200 
0.870758 -0.2075 1.61991 21 25 26 
0.31854 -0.597123 1.782 3 5 2 
0.871549 -0.105957 1.55424 0 1 0 
0.833264 -0.303716 1.71387 183 189 179 
0.505568 -0.749847 1.83992 15 26 20 
0.848591 -0.178584 1.61923 45 37 35 
-0.46872 -0.502269 1.92172 173 182 177 
-0.276892 -0.631802 1.89362 63 68 74 
0.863549 -0.202949 1.6112 225 228 199 
0.0970021 -0.0831781 1.64784 171 93 93 
0.900497 -0.259804 1.64001 163 166 159 
0.0108862 -0.164786 1.70314 209 218 215 
0.279226 -0.285171 1.63034 78 88 123 
0.843224 -0.264816 1.67485 165 159 145 
-0.490713 -0.287169 1.72302 204 195 200 
0.850501 -0.252426 1.65595 203 205 192 
-0.851291 -0.00504015 1.50396 28 28 26 
-0.506247 -0.202205 1.64245 204 204 206 
0.869172 -0.49712 1.79047 103 109 97 
-0.872834 -0.580406 1.83734 28 38 30 
-0.596974 -0.498504 1.84049 254 192 205 
0.354857 -0.36136 1.67636 125 132 178 
-0.57374 -0.482533 1.83279 204 40 77 
0.61782 -0.0220183 1.67824 99 105 95 
0.448499 -0.469068 1.73199 155 179 227 
-0.0748273 -0.251338 1.64347 200 200 202 
-0.0542183 -0.245723 1.74976 54 55 59 
-0.565315 -0.53419 1.86334 80 84 70 
-0.576087 -0.41353 1.78905 255 197 205 
0.477013 -0.711524 1.83201 130 131 133 
-0.667716 -0.404175 1.76887 69 151 113 
-0.287995 -0.664977 1.89085 54 62 64 
-0.312959 -0.652504 1.88376 178 180 179 
0.884291 -0.49917 1.78042 143 150 143 
0.496141 -0.747646 1.8381 90 90 92 
-0.126679 -0.19176 1.67207 33 28 32 
-0.375207 -0.0120002 1.56175 14 1 18 
-0.018587 -0.215335 1.76805 83 85 84 
-0.140105 -0.246325 1.70101 116 118 117 
-0.235989 -0.253547 1.67445 104 103 111 
0.561373 -0.77373 1.84525 182 162 67 
0.401657 -0.215083 1.61528 195 163 88 
0.572991 -0.728813 1.83612 74 38 0 
0.520918 -0.77009 1.84307 21 23 22 
0.641089 -0.241576 1.76171 35 36 0 
0.0187781 -0.17841 1.71341 178 220 182 
0.506553 -0.768001 1.84165 209 210 204 
0.569657 -0.183902 1.62757 241 242 237 
0.508292 -0.762759 1.83416 19 21 18 
0.609826 -0.0196553 1.6893 90 91 86 
0.633979 -0.0197203 1.68842 127 120 112 
0.691279 -0.291748 1.75698 214 225 217 
0.665411 -0.263453 1.7572 11 23 11 
0.85736 -0.186459 1.63302 194 192 151 
0.577506 -0.179671 1.62113 236 234 235 
0.567023 -0.743245 1.83769 201 177 69 
-0.319482 -0.630107 1.86455 168 176 179 
0.675847 -0.676944 1.82871 55 47 28 
-0.31792 -0.643295 1.86917 181 185 194 
-0.312305 -0.67414 1.8807 159 168 175 
0.598686 -0.204356 1.65346 86 85 83 
0.557638 -0.696417 1.82663 86 53 0 
0.559819 -0.181127 1.62949 118 116 119 
0.457772 -0.459242 1.71995 145 159 186 
-0.133103 -0.185531 1.66715 45 45 47 
-0.0555432 -0.193 1.6992 65 66 68 
-0.170661 -0.214976 1.6769 227 228 230 
0.566806 -0.172491 1.61098 72 71 69 
-0.298686 -1.00166 2.04406 173 177 178 
0.526448 -0.41701 1.71615 27 24 15 
0.579055 -0.749194 1.84128 215 185 73 
0.519867 -0.751175 1.83683 218 220 219 
0.509542 -0.727092 1.83234 215 217 216 
0.498251 -0.757565 1.83741 157 159 158 
-0.261515 -0.632585 1.88023 159 165 165 
-0.543487 -0.548472 1.86714 98 94 83 
0.544821 -0.520649 1.75759 6 9 0 
-0.585307 -0.538163 1.84812 38 43 46 
-0.323285 -0.679104 1.87696 41 46 49 
0.400043 -0.287073 1.63593 207 175 102 
-0.277355 -0.681647 1.88869 163 173 175 
0.733518 -0.286687 1.74938 209 210 214 
-0.329784 -0.644018 1.86834 40 45 48 
0.375984 -0.637694 1.70169 181 185 188 
-0.009245 -0.18185 1.70661 199 221 200 
0.497035 -0.774364 1.83636 167 165 166 
-0.581267 -0.515609 1.84019 238 220 220 
0.72683 -0.308277 1.7604 227 210 194 
0.632725 -0.256601 1.76241 31 31 29 
-0.361338 -0.658959 1.87189 133 137 140 
-0.591855 -0.507085 1.83562 249 222 229 
0.553622 -0.171714 1.60786 240 239 235 
0.594732 -0.198136 1.65069 54 52 53 
0.567105 -0.165829 1.60568 252 251 249 
0.564927 -0.175144 1.62221 255 255 248 
-0.142373 -0.185373 1.66752 117 117 117 
-0.157876 -0.184981 1.6689 100 103 108 
0.500233 -0.785147 1.83817 204 206 205 
-0.135151 -0.210481 1.68274 75 73 76 
0.518955 -0.427147 1.71647 189 188 183 
-0.130497 -0.240602 1.70828 253 252 255 
0.571517 -0.754283 1.83494 196 172 84 
0.582374 -0.182482 1.62942 242 241 239 
0.57456 -0.187167 1.64024 234 233 231 
-0.116872 -0.178679 1.67388 36 36 38 
0.585571 -0.189828 1.63712 28 28 26 
0.594687 -0.191196 1.64192 65 61 58 
-0.236728 -0.191909 1.65234 31 30 35 
-0.248375 -0.203878 1.64142 51 51 51 
-0.169671 -0.196743 1.6635 29 30 35 
0.382383 -0.477282 2.18121 31 32 34 
0.522205 -0.76395 1.83962 96 97 99 
0.372987 -0.722526 1.81755 187 187 189 
-0.224883 -0.198028 1.64822 57 57 57 
0.57512 -0.191666 1.65131 77 73 70 
-0.202869 -0.202164 1.66265 61 61 63 
0.571419 -0.181154 1.62897 63 64 58 
0.450095 -0.505745 1.75123 63 19 0 
-0.140047 -0.253468 1.70889 118 117 122 
-0.0645323 -0.240376 1.72383 54 52 57 
0.488654 -0.736586 1.8316 160 164 163 
0.43246 -0.768115 1.83158 150 150 152 
-0.12739 -0.198966 1.67856 77 77 79 
0.533521 -0.647997 1.81319 93 47 0 
0.578706 -0.172011 1.6118 117 116 114 
0.568537 -0.720657 1.82919 78 44 0 
-0.187456 -0.188215 1.65587 32 31 36 
0.567701 -0.731886 1.83097 204 183 94 
0.480396 -0.665184 1.81128 134 133 131 
-0.131129 -0.184345 1.67321 140 139 145 
-0.215634 -0.196014 1.65096 24 22 27 
0.535765 -0.420085 1.72122 45 42 37 
0.974094 -0.0769319 1.95516 56 56 46 
-0.0761699 -0.195858 1.69372 83 78 84 
-0.119214 -0.242387 1.70688 225 226 228 
-0.224545 -0.236475 1.6682 148 144 145 
-0.223459 -0.219254 1.66476 99 97 102 
-0.0686239 -0.213866 1.70605 98 96 97 
-0.0642266 -0.224067 1.7133 120 118 123 
0.557402 -0.72801 1.82937 103 68 0 
0.483106 -0.72349 1.82635 216 218 215 
-0.200046 -0.193094 1.65479 58 57 62 
-0.191122 -0.196939 1.65955 40 40 42 
-0.0919351 -0.215699 1.69911 218 210 208 
0.531547 -0.490602 1.74633 16 16 4 
0.464188 -0.473128 1.72755 222 202 115 
0.527904 -0.458564 1.72432 217 216 212 
0.217103 -0.749944 2.0611 16 13 6 
-0.271059 -0.634234 1.87518 95 96 100 
0.512072 -0.773046 1.84074 12 12 12 
0.493728 -0.75101 1.82973 8 9 11 
0.513752 -0.739871 1.83079 228 229 233 
0.481525 -0.706573 1.82138 0 1 0 
0.539872 -0.68151 1.8187 226 201 85 
0.128219 -0.293874 1.6384 54 69 88 
0.312716 -0.647482 1.79262 188 188 188 
-0.196293 -0.217358 1.66959 224 222 227 
0.496748 -0.740598 1.82787 0 5 1 
-0.31031 -0.640459 1.85987 18 23 27 
0.372161 -0.659795 1.65215 107 108 110 
-0.25963 -0.636321 1.86909 195 194 199 
0.504585 -0.751499 1.83318 2 4 3 
0.11567 -0.271556 1.62586 180 186 208 
0.666814 -0.286453 1.78367 191 201 193 
0.729459 -0.266362 1.74655 184 188 189 
-0.312349 -0.628842 1.85152 185 186 190 
0.0601486 -0.720816 2.02231 121 117 116 
0.650257 -0.290606 1.81046 172 175 84 
0.470056 -0.243883 1.65838 58 38 3 
0.206767 -0.754087 2.06785 196 185 179 
0.409765 -0.678042 1.81234 213 214 216 
0.664831 -0.235616 1.75321 208 212 115 
0.325483 -0.6465 1.7821 23 23 21 
0.659389 -0.279 1.78131 46 81 39 
0.234535 -0.259428 1.61831 43 58 81 
0.355769 -0.359834 1.68286 125 132 174 
-0.0974584 -0.233832 1.67848 110 110 112 
-0.288518 -0.664633 1.88971 54 62 64 
-0.319712 -0.618926 1.87223 139 140 144 
-0.56382 -0.425592 1.80386 206 24 49 
-0.5951 -0.435002 1.79652 248 206 208 
0.905953 -0.26737 1.6545 165 164 169 
-0.304532 -0.625277 1.87276 55 65 67 
0.327251 -0.618244 1.66642 1 0 0 
0.906978 -0.231035 1.63464 172 176 175 
-0.320509 -0.677487 1.88208 161 166 169 
-0.326368 -0.639966 1.87016 175 179 182 
0.895427 0.0261708 1.50016 5 10 6 
0.437715 -0.366471 1.67498 223 193 107 
-0.278981 -0.679987 1.88872 157 162 166 
-0.264832 -0.625868 1.88306 186 192 190 
-0.313327 -0.653174 1.87928 183 184 186 
-0.275088 -0.631427 1.87803 52 56 65 
0.865484 0.0363457 1.50366 12 16 17 
-0.298929 -1.00037 2.0377 173 177 178 
0.493497 -0.567921 1.77306 49 11 0 
0.767039 -0.899903 2.02704 169 186 178 
-0.118496 -0.167226 1.67118 239 239 241 
0.558118 -0.572186 1.7766 231 233 230 
-0.185806 -0.243528 1.70437 233 231 236 
-0.256833 -0.241606 1.68159 57 57 59 
-0.305455 -0.622372 1.87819 24 27 36 
-0.290435 -0.294342 1.70255 75 74 80 
-0.307888 -0.295377 1.69533 140 139 145 
-0.322904 -0.293378 1.69313 255 253 255 
-0.257949 -0.265677 1.69248 231 230 235 
-0.228823 -0.262573 1.70274 79 80 84 
-0.295982 -0.222149 1.66113 57 56 61 
-0.29673 -0.265621 1.68286 117 118 122 
-0.182441 -0.267917 1.71549 119 118 124 
0.764312 -0.898518 2.02755 166 178 174 
-0.138139 -0.261494 1.72636 78 79 83 
-0.327582 -0.636831 1.87681 189 193 194 
0.557336 -0.693888 1.82802 79 44 0 
-0.290733 -0.285688 1.69735 216 215 220 
-0.059256 -0.248671 1.74001 184 183 188 
-0.307514 -0.612534 1.86676 164 168 171 
0.829629 -0.475481 1.80527 145 146 141 
0.903242 -0.233356 1.63214 182 180 181 
-0.307447 -0.607616 1.87562 155 159 162 
0.520363 -0.622647 1.80544 216 194 92 
0.599463 -0.19733 1.65249 214 214 212 
-0.251393 -0.273484 1.65637 63 65 64 
0.904036 -0.266421 1.65724 184 184 186 
0.0904457 -0.70955 2.04428 13 1 3 
0.453355 -0.268468 1.63641 254 234 201 
0.567311 -0.63293 1.80366 219 192 113 
0.584153 -0.597669 1.78789 216 217 211 
0.575069 -0.60363 1.79619 79 76 67 
0.830724 -0.666409 1.88079 169 181 171 
0.163727 -0.703976 2.02351 169 165 166 
-0.240318 -0.203013 1.6562 197 198 200 
-0.320845 -0.619671 1.87191 125 129 132 
0.641322 -0.295277 1.75954 232 255 227 
-0.275533 -0.287021 1.70278 208 205 214 
0.827711 -0.311215 1.71292 154 159 153 
0.528926 -0.324809 1.69033 174 174 166 
0.890823 -0.490498 1.77046 153 154 159 
0.0976026 -0.399409 1.71146 176 180 183 
0.838817 -0.276022 1.68827 153 133 135 
0.462267 -0.431205 1.69898 214 191 115 
-0.169825 -0.711223 2.05456 97 112 109 
0.576131 -0.179356 1.62022 80 81 73 
0.501531 -0.460322 1.71612 211 180 97 
0.905817 -0.209943 1.62421 14 12 15 
0.407382 -0.550067 1.75387 183 185 182 
-0.287501 -0.663865 1.89236 20 23 28 
0.544455 -0.56613 1.77556 237 238 224 
0.0304241 -0.145507 1.70568 133 131 132 
0.900265 -0.26797 1.64843 4 4 6 
0.555164 -0.709658 1.8349 229 194 40 
-0.279516 -0.68257 1.88445 160 164 165 
0.729207 -0.858871 2.0613 79 90 82 
0.126934 -0.735369 2.05266 64 60 59 
0.639376 -0.63544 1.81001 11 4 0 
0.0502631 -0.293631 1.6258 53 34 1 
0.306189 -0.568799 1.75722 9 9 11 
0.148067 -0.483475 1.75455 157 158 160 
0.265372 -0.76883 2.05997 71 67 66 
0.135658 -0.454575 1.7383 49 51 50 
0.841355 -0.253974 1.67708 155 141 141 
0.835867 -0.281261 1.70696 183 188 181 
0.467982 -0.258637 1.63641 66 56 31 
0.0518276 -0.288429 1.63472 59 49 37 
0.454566 -0.655911 1.8123 8 14 14 
0.607075 -0.63061 1.81329 91 92 76 
0.164798 -0.708703 2.0493 128 145 137 
-0.315322 -0.635152 1.87889 32 36 39 
0.390941 -0.524117 1.72712 231 233 232 
0.375518 -0.579767 1.76903 219 222 227 
-0.275277 -0.67537 1.89156 192 195 200 
0.337338 -0.775177 2.05672 106 101 98 
0.852508 -0.266347 1.66385 236 232 231 
0.850426 -0.543678 1.80703 255 233 199 
0.400889 -0.558932 1.76224 203 207 208 
0.411979 -0.56048 1.7854 17 18 20 
0.374423 -0.568739 1.77033 219 219 221 
0.367605 -0.571084 1.77936 22 23 25 
0.196959 -0.757068 2.06042 103 99 100 
0.525988 -0.438447 1.72415 216 212 211 
0.656073 -0.639896 1.82031 57 50 32 
-0.0542158 -0.20861 1.73004 100 101 105 
-0.0254078 -0.230627 1.76529 36 37 42 
-0.613614 -0.440735 1.79503 168 80 92 
-0.590571 -0.418784 1.78738 253 219 220 
0.508782 -0.596114 1.79111 80 38 0 
-0.579904 -0.438782 1.80022 255 187 192 
0.574661 -0.541502 1.76414 113 88 0 
-0.612194 -0.421631 1.78366 254 198 201 
-0.594137 -0.441529 1.79747 255 169 180 
-0.642253 -0.428265 1.77871 255 201 206 
-0.555401 -0.414304 1.78427 251 221 219 
0.0105797 -0.177114 1.70576 205 210 204 
-0.576251 -0.421441 1.78824 255 218 220 
-0.291645 -0.246723 1.67204 71 72 77 
0.57879 -0.19084 1.61449 60 60 58 
0.838269 -0.694321 1.88764 167 160 134 
0.575275 -0.737706 1.83581 62 19 0 
-0.205524 -0.776425 2.07953 141 162 157 
-0.256145 -0.255839 1.68691 92 94 93 
-0.316253 -0.295656 1.69323 85 89 90 
0.585046 -0.193407 1.62192 89 88 86 
0.831606 -0.665174 1.88225 190 203 194 
-0.0593027 -0.250898 1.73643 184 183 188 
-0.297087 -1.00413 2.03163 193 194 199 
-0.0104536 -0.194163 1.70747 201 227 198 
0.58523 -0.205319 1.63898 219 219 217 
0.55759 -0.180847 1.61373 66 65 63 
0.608013 -0.7573 1.84588 32 5 0 
-0.310136 -0.235528 1.66197 79 78 83 
0.210747 -0.752025 2.05206 9 9 7 
-0.289706 -0.773366 2.08093 166 181 178 
0.597912 -0.209481 1.63518 68 68 66 
0.659231 -0.272585 1.74727 88 96 45 
-0.352132 -0.191065 1.62598 110 110 112 
-0.336353 -0.773316 2.07776 132 153 144 
-0.325145 -0.775005 2.07692 111 126 119 
0.845165 -0.705936 1.88912 57 53 50 
0.71911 -0.317878 1.74283 187 175 177 
-0.354041 -0.302317 1.69244 194 195 199 
-0.286861 -0.667689 1.88698 47 50 57 
0.821803 -0.573542 1.8515 124 131 123 
0.586973 -0.22454 1.67559 217 186 194 
-0.256728 -1.03229 2.04602 55 54 59 
0.803307 -0.444297 1.82283 210 212 209 
0.0614945 -0.727601 2.02378 236 235 233 
0.79938 -0.4109 1.79901 140 134 110 
0.00815009 -0.165829 1.6989 203 203 203 
0.124668 -0.738352 2.04458 99 86 80 
0.794037 -0.443834 1.83063 122 124 113 
0.824353 -0.565311 1.86058 119 127 114 
0.643717 -0.651187 1.80701 208 206 207 
-0.325806 -0.302815 1.68135 222 223 225 
-0.302989 -0.298867 1.68514 106 105 111 
-0.290439 -0.293642 1.6869 220 219 224 
-0.287495 -0.288401 1.67827 217 216 221 
-0.27236 -0.278956 1.68596 217 215 220 
-0.257677 -0.272054 1.68456 235 234 239 
-0.310833 -0.275408 1.67662 84 84 84 
-0.296327 -0.275753 1.67536 230 230 230 
-0.315662 -0.301727 1.68597 101 101 103 
-0.286739 -0.268723 1.68085 79 77 80 
0.535202 -0.551653 1.76912 206 202 191 
0.192457 -0.47913 1.91572 152 181 211 
0.198005 -0.49078 1.91852 23 45 58 
-0.249264 -0.261923 1.67583 237 235 236 
0.412545 -0.583474 1.77692 132 134 133 
-0.283853 -0.263753 1.66618 65 64 69 
0.499396 -0.589199 1.783 191 162 70 
0.554416 -0.590428 1.77953 209 210 202 
-0.303082 -0.256335 1.66178 202 206 205 
-0.0556183 -0.212234 1.70074 64 65 69 
-0.272653 -0.296733 1.6929 222 221 226 
-0.280197 -0.249215 1.66281 89 89 87 
0.105494 -0.265069 1.62396 48 15 0 
0.512164 -0.606733 1.79276 59 20 0 
0.393689 -0.616608 1.78858 124 128 129 
-0.252354 -0.239373 1.66298 239 237 238 
0.432889 -0.621501 1.79381 207 211 210 
-0.243828 -0.232441 1.66582 87 82 86 
0.423349 -0.625456 1.79387 190 192 189 
-0.679105 -0.490541 1.82955 0 50 77 
-0.0624403 -0.192526 1.70132 54 55 57 
0.40733 -0.636328 1.79626 192 196 199 
-0.170925 -0.220502 1.67025 48 46 51 
-0.108857 -0.203845 1.68449 71 69 70 
-0.279249 -0.236994 1.64929 41 40 45 
-0.158392 -0.21094 1.67449 233 232 237 
0.447856 -0.648685 1.79704 47 51 54 
-0.136648 -0.206398 1.67757 227 227 229 
-0.326196 -0.240065 1.64521 68 67 72 
-0.302121 -0.234466 1.65053 86 86 98 
-0.312794 -0.235799 1.64817 233 233 235 
0.436482 -0.657051 1.80485 189 191 188 
-0.2172 -0.21667 1.66251 218 215 222 
-0.235839 -0.220697 1.65753 205 203 206 
0.536279 -0.65842 1.81221 81 50 0 
-0.253906 -0.227609 1.649 224 220 221 
-0.144935 -0.199991 1.66636 52 53 55 
-0.16372 -0.201539 1.66393 227 227 227 
-0.200401 -0.207012 1.65664 91 91 91 
-0.19086 -0.193695 1.67056 94 95 99 
-0.135595 -0.192162 1.67118 233 234 229 
-0.31958 -0.226899 1.63733 228 227 232 
0.458323 -0.693547 1.821 180 182 181 
-0.217877 -0.208393 1.65199 41 39 42 
0.350902 -0.728023 1.97761 233 220 204 
-0.232812 -0.209921 1.64834 57 56 54 
0.548393 -0.70238 1.82952 69 36 0 
-0.159566 -0.19162 1.66502 224 224 224 
-0.119179 -0.188605 1.66441 8 8 10 
-0.25682 -0.211923 1.64201 52 52 52 
-0.211358 -0.199295 1.65458 220 218 223 
0.351227 -0.715294 1.97686 23 7 0 
-0.146856 -0.192455 1.65862 222 221 226 
-0.18724 -0.193667 1.65749 240 238 243 
-0.237159 -0.202957 1.64015 34 32 35 
0.312877 -0.686375 1.96764 202 184 172 
-0.120317 -0.179734 1.65561 244 244 246 
-0.110439 -0.266206 1.71767 214 215 217 
-0.131346 -0.269184 1.71366 235 233 236 
-0.182878 -0.272765 1.70905 98 97 102 
-0.101861 -0.258088 1.72199 210 208 211 
-0.144793 -0.267717 1.70817 96 96 98 
-0.860991 -0.534972 1.81523 11 20 19 
-0.0564745 -0.24702 1.72682 78 76 79 
-0.08107 -0.250425 1.72121 209 208 213 
-0.0910854 -0.251123 1.71943 216 214 217 
-0.664994 -0.409218 1.78048 170 102 65 
-0.10769 -0.274024 1.72513 80 80 82 
-0.112211 -0.252468 1.71352 227 222 226 
-0.0890345 -0.24307 1.70838 99 98 96 
-0.247692 -0.196334 1.64578 96 94 97 
-0.128089 -0.2544 1.71054 225 225 227 
0.575069 -0.736695 1.83701 73 37 0 
-0.611297 -0.42623 1.80101 137 107 117 
-0.170296 -0.261723 1.7011 230 230 232 
-0.139803 -0.278338 1.72113 237 232 236 
-0.0832513 -0.258701 1.72834 227 225 228 
-0.0679408 -0.234627 1.71882 208 203 207 
-0.563669 -0.423331 1.80643 160 81 87 
0.55474 -0.560691 1.76385 160 161 155 
-0.175047 -0.247187 1.69785 239 239 241 
-0.055403 -0.254532 1.73351 78 76 77 
0.456334 -0.260524 1.64439 238 209 169 
-0.267599 -0.257345 1.67442 82 82 84 
-0.150671 -0.236626 1.69396 87 85 86 
-0.169904 -0.238792 1.68963 220 218 221 
-0.21568 -0.244445 1.67975 212 212 214 
-0.338753 -0.307523 1.68137 70 71 73 
-0.256666 -0.248663 1.67252 89 89 89 
-0.238065 -0.246583 1.67434 230 228 231 
0.0344909 -0.316021 1.65486 32 33 35 
-0.290563 -0.254875 1.66472 110 111 113 
-0.00300835 -0.201139 1.71436 172 202 176 
-0.0200096 -0.20652 1.70724 190 221 190 
-0.264075 -0.249391 1.6659 112 113 117 
0.507672 -0.600058 1.78649 103 70 0 
-0.182598 -0.227567 1.68414 78 82 83 
-0.165525 -0.225141 1.68513 241 242 244 
-0.569201 -0.408746 1.79132 255 163 165 
0.501795 -0.608975 1.79603 86 48 0 
-0.272928 -0.243063 1.65953 93 94 98 
-0.29428 -0.24629 1.65539 119 119 117 
0.676765 -0.683776 1.82389 210 191 159 
-0.665218 -0.400761 1.77363 59 116 81 
-0.761773 -0.460528 1.88007 35 34 3 
-0.329726 -0.223891 1.63997 218 216 221 
-0.0202869 -0.253565 1.74124 197 201 202 
0.0593987 -0.387081 1.71368 170 171 173 
-0.0119595 -0.190724 1.69962 182 217 185 
0.350963 -0.738342 1.98324 211 167 166 
0.51106 -0.631696 1.80156 83 47 0 
-0.641823 -0.441076 1.80352 255 176 176 
-0.618834 -0.441243 1.80187 246 147 150 
0.528919 -0.636038 1.80925 69 32 0 
-0.0798991 -0.267846 1.73939 74 72 73 
-0.292822 -0.22565 1.64284 122 123 127 
-0.600224 -0.43696 1.80396 255 152 159 
0.530145 -0.671339 1.81901 97 66 0 
0.521131 -0.649793 1.80885 179 145 56 
-0.594629 -0.431106 1.81182 255 185 191 
-0.579088 -0.433607 1.80748 255 143 151 
-0.604313 -0.413829 1.79347 255 178 186 
-0.00201144 -0.180224 1.69599 184 219 187 
-0.541874 -0.382039 1.78072 240 247 229 
0.458792 -0.665416 1.80961 112 118 116 
-0.4876 -0.288371 1.7293 115 116 121 
-0.1216 -0.244182 1.70548 220 220 222 
-0.229119 -0.271992 1.69131 116 115 121 
-0.592346 -0.406664 1.79994 255 132 142 
-0.89791 -0.554609 1.82392 196 218 206 
-0.236339 -0.265217 1.68537 104 102 105 
-0.149743 -0.272801 1.72186 104 102 105 
-0.0292673 -0.184534 1.69086 69 79 71 
-0.302532 -0.223695 1.64913 229 230 235 
-0.0164919 -0.182844 1.69357 98 114 101 
-0.152471 -0.279735 1.71369 222 220 223 
-0.137626 -0.247686 1.7131 56 56 58 
-0.0582796 -0.27079 1.74002 124 124 126 
-0.154732 -0.250234 1.69601 235 233 236 
-0.169552 -0.271087 1.71181 139 139 139 
0.560112 -0.732799 1.83787 95 57 0 
-0.640371 -0.41575 1.79291 255 131 151 
-0.149314 -0.225835 1.68471 229 229 231 
-0.222576 -0.235864 1.66965 215 214 212 
-0.628875 -0.438354 1.80518 247 155 160 
-0.339263 -0.296792 1.68029 91 92 96 
-0.181519 -0.255209 1.70284 157 157 157 
-0.308951 -0.243488 1.65918 131 135 138 
-0.0666039 -0.248779 1.72514 215 211 212 
