ply                 
format ascii 1.0    
element vertex 517
property float x    
property float y    
property float z    
property uchar red  
property uchar green
property uchar blue 
end_header          
0.0102669 -0.0217309 3.58561 135 189 253 
0.0367796 -0.0202557 3.56942 101 155 215 
0.0405753 -0.0202825 3.56901 116 171 225 
0.0393093 -0.0151675 3.56934 0 43 129 
0.0266988 -0.00998219 3.57561 0 34 127 
0.0279145 -0.00487195 3.57092 106 177 229 
-0.0892319 -0.176523 3.59844 146 201 240 
0.0964214 -0.178389 3.48692 0 115 180 
-0.182147 -0.19106 3.64511 142 181 238 
-0.140683 -0.223671 3.60895 42 72 134 
0.246641 -0.258559 3.36374 107 183 215 
-0.759202 0.373203 3.64558 58 57 53 
-0.775938 0.39249 3.60293 59 59 51 
0.171429 -1.09087 3.46433 67 38 40 
0.281956 -1.24225 3.34611 74 47 36 
0.237338 -1.23202 3.37303 109 78 75 
0.237443 -1.23767 3.37317 174 145 141 
0.238386 -1.24517 3.3686 179 158 155 
0.281658 -1.24618 3.34481 165 145 136 
0.128164 -1.71718 3.30355 165 129 105 
0.247738 -0.329368 3.34627 114 184 254 
-0.744813 0.379008 3.63843 235 229 229 
-0.786739 0.391305 3.60019 123 125 114 
0.282967 -1.55454 3.24924 155 136 130 
0.21632 -0.371191 3.3554 0 59 132 
0.228523 -1.55877 3.27889 144 121 115 
0.228934 -1.23789 3.371 179 155 145 
0.242096 -1.23969 3.37175 86 57 51 
0.331417 -0.252681 3.31831 11 104 182 
-0.24082 -0.272633 3.65207 113 147 192 
-0.13488 -0.260763 3.59013 10 92 148 
0.172323 -1.69933 3.27282 166 129 103 
0.169822 -1.69377 3.26913 68 36 11 
0.252584 -0.345936 3.33255 4 74 160 
0.168877 -1.69266 3.27349 139 111 90 
0.0607756 -0.213422 3.49852 16 103 157 
-0.0935131 -0.260785 3.57603 35 126 183 
0.212427 -1.07898 3.44442 49 30 23 
0.167282 -0.97728 3.51053 96 76 75 
-0.788248 0.39121 3.60617 123 125 114 
0.242251 -1.23854 3.36963 86 57 51 
0.236737 -1.23852 3.37512 173 144 140 
0.17087 -1.09133 3.4641 67 38 40 
0.281807 -1.24183 3.34502 74 47 36 
0.286754 -0.401826 3.29948 123 192 255 
0.217026 -0.370746 3.34811 7 78 158 
0.245107 -0.326993 3.34279 67 118 175 
0.318139 -0.265876 3.3196 11 91 160 
-0.132594 -0.229811 3.6041 17 61 132 
0.112955 -0.207893 3.47112 39 113 186 
0.0160438 -0.0117173 3.57846 0 43 113 
0.0266632 -0.0111436 3.5718 0 30 136 
-0.722603 0.565986 3.51735 188 162 129 
0.282103 -1.24807 3.34919 165 145 136 
0.229598 -1.23813 3.37288 179 155 145 
0.330491 -0.252685 3.31612 4 94 172 
0.168891 -1.68172 3.28375 156 131 111 
0.0956341 -0.177099 3.4853 6 119 189 
0.199985 -1.59566 3.28673 172 147 117 
-0.182147 -0.19106 3.64511 142 181 238 
0.189934 -1.00072 3.48808 153 132 137 
0.241558 -1.5541 3.27512 187 160 151 
0.318611 -0.265875 3.32143 11 91 160 
0.11344 -0.193715 3.46855 127 206 255 
0.211639 -1.07853 3.44214 49 30 23 
-0.17341 -0.270094 3.61719 139 225 255 
-0.242445 -0.294401 3.65615 113 166 210 
-0.770084 0.393985 3.58991 243 242 238 
0.213657 -0.369803 3.34939 0 64 121 
0.284401 -0.402757 3.29862 127 203 255 
0.0330479 -0.0197717 3.5708 0 43 116 
0.27924 -1.24287 3.34672 98 72 59 
-0.739797 0.57271 3.52419 175 134 116 
-0.724148 0.564544 3.51808 206 179 149 
0.131794 -1.71874 3.29355 185 141 104 
0.282586 -1.2426 3.34591 71 47 37 
0.168076 -1.6795 3.27983 134 112 98 
0.251182 -1.24584 3.3595 184 157 146 
-0.73447 0.380321 3.63114 143 138 134 
0.241384 -1.23747 3.3679 92 63 57 
-0.761044 0.373606 3.64318 98 97 93 
0.238101 -1.23256 3.36934 71 42 36 
0.282741 -1.55527 3.24756 159 139 132 
0.11543 -0.19949 3.47441 10 81 147 
0.204272 -1.10106 3.43617 171 155 165 
0.198663 -1.59519 3.28395 179 154 113 
0.174624 -1.68025 3.27775 97 52 19 
0.0280404 -0.00642697 3.58292 106 184 248 
-0.173312 -0.270554 3.61592 140 226 255 
0.242459 -0.330666 3.33692 0 23 61 
0.169684 -1.09138 3.45944 53 32 39 
0.175908 -1.09526 3.45752 188 159 151 
-0.234286 -0.236768 3.66881 116 178 251 
0.125327 -1.71498 3.2994 172 128 99 
0.247078 -0.338497 3.343 129 187 250 
0.283677 -0.401888 3.29354 125 203 255 
-0.740964 0.571119 3.52121 183 136 118 
0.0952947 -1.57847 3.37538 88 52 54 
0.24091 -1.55303 3.27291 188 164 154 
0.282589 -1.55503 3.24702 159 139 132 
0.059421 -0.206356 3.49747 108 209 255 
-0.239921 -0.269623 3.65124 111 156 215 
0.233403 -1.05509 3.43108 82 62 51 
0.13093 -1.71825 3.28993 175 130 91 
-0.168845 -0.277309 3.61523 25 110 177 
0.251302 -1.24586 3.36166 192 164 152 
0.312208 -0.286012 3.31838 40 74 135 
0.218203 -1.08649 3.45591 136 128 117 
-0.168178 -0.277378 3.60981 34 119 186 
0.176233 -1.66935 3.28986 120 79 47 
0.177687 -1.09828 3.46606 185 159 160 
0.170702 -1.09689 3.47021 57 36 45 
0.0252988 -0.0213956 3.57118 120 175 229 
0.00696991 -0.0218593 3.58474 162 220 255 
-0.0882969 -0.180472 3.60142 149 224 255 
-0.173527 -0.271985 3.6106 125 207 255 
-0.76199 0.395259 3.64198 73 70 65 
0.192163 -1.10446 3.44531 184 165 167 
0.239888 -1.23674 3.37039 118 89 83 
0.171025 -1.67034 3.28267 182 148 121 
0.211951 -1.07982 3.43869 65 52 44 
0.285724 -0.403321 3.30774 131 205 255 
0.168396 -1.68011 3.28179 139 116 98 
0.127896 -1.71851 3.29858 84 41 9 
-0.123416 -0.196308 3.60544 142 215 255 
0.178929 -1.09753 3.46174 186 164 166 
0.239132 -1.23703 3.37022 104 75 71 
0.241886 -1.24575 3.36844 192 169 163 
-0.745608 0.572259 3.53608 184 133 112 
0.24522 -0.319148 3.34473 63 113 164 
0.170393 -1.02577 3.48698 139 117 119 
0.169269 -1.67988 3.28601 153 123 99 
0.23735 -1.07099 3.42944 60 48 52 
0.24881 -0.341094 3.35282 133 188 253 
-0.241878 -0.299486 3.64483 110 166 217 
-0.801515 0.387016 3.60888 226 225 220 
0.166773 -1.11171 3.45911 199 166 157 
0.237299 -1.23917 3.36873 65 40 35 
0.180576 -1.10612 3.44282 95 70 76 
-0.747018 0.57103 3.53129 191 130 111 
0.115984 -1.11001 3.48309 99 95 84 
0.237838 -1.07053 3.43045 63 52 56 
0.258304 -1.06483 3.41303 66 53 47 
0.0898469 -1.65631 3.34106 53 40 49 
0.171801 -1.66387 3.28144 67 33 21 
-0.23955 -0.300961 3.65707 106 181 236 
-0.0975855 -0.28735 3.5632 120 213 255 
0.133983 -0.891293 3.56195 63 45 59 
0.259587 -1.03155 3.42862 60 40 39 
0.258507 -1.06574 3.41377 69 56 50 
0.117802 -1.11276 3.4889 79 76 71 
-0.434868 0.164538 3.54063 8 0 0 
0.168857 -1.67135 3.27341 159 127 104 
0.365378 -0.128615 3.32561 76 182 255 
0.877185 0.0659105 3.16307 0 43 139 
0.886643 0.0681871 3.15718 0 48 131 
0.846353 -0.836879 3.22453 34 15 9 
0.74122 -0.841973 3.28052 52 33 27 
0.887789 -1.59333 3.02236 77 49 46 
0.970153 -1.56474 2.99338 59 34 38 
0.742965 -0.859142 3.27374 67 42 38 
0.827581 -1.54965 3.05862 66 28 27 
0.852739 -1.5418 3.04581 57 26 31 
0.263871 -1.07446 3.43505 40 33 25 
0.194216 -1.10538 3.45824 167 156 152 
0.175693 -1.11196 3.4625 86 62 60 
0.186196 -1.11342 3.45789 72 49 55 
0.883199 -1.4214 3.05902 61 41 34 
0.171712 -1.1701 3.45202 157 140 146 
0.571739 -1.4485 3.19871 178 153 156 
0.480677 -1.45367 3.23948 167 146 151 
0.876882 -1.37345 3.0765 77 33 32 
0.98999 -1.146 3.07764 119 88 85 
0.641909 -1.3588 3.18613 182 144 135 
0.748351 -1.27714 3.15505 74 44 42 
0.205139 -1.10408 3.44749 138 132 134 
0.16548 -0.968924 3.50598 63 40 46 
0.728642 -0.826306 3.29313 45 35 26 
0.211701 -1.08398 3.45452 46 42 33 
0.491451 -1.47328 3.22401 129 126 135 
0.87405 -1.28311 3.10092 85 61 49 
0.818745 -1.27719 3.12856 171 153 151 
0.863967 -0.915228 3.19729 128 88 89 
0.115871 -0.207807 3.40047 89 166 236 
0.832574 0.0646528 3.1819 123 158 198 
0.764463 -1.57758 3.07737 153 126 109 
0.847322 -0.814932 3.2315 53 33 22 
0.773702 -0.822589 3.27072 62 42 33 
0.716716 -0.859702 3.28371 68 54 45 
0.940614 -0.853624 3.16856 93 55 54 
0.71844 -0.872979 3.28024 176 157 151 
0.107726 -1.32063 3.4518 84 74 75 
0.824826 -1.47667 3.07506 185 150 148 
0.806372 -0.941603 3.21665 150 114 114 
0.828672 -0.930651 3.21258 170 120 121 
0.923075 -0.919377 3.16713 50 22 19 
0.782118 -0.840306 3.26476 186 165 160 
0.778059 -0.022927 3.1869 92 196 255 
0.136628 -1.7006 3.34106 150 138 138 
0.801056 -0.936473 3.22704 42 11 9 
0.119233 -1.20599 3.46432 32 29 38 
0.576693 -1.47568 3.19379 38 23 28 
0.933231 -0.914253 3.16581 60 21 22 
0.358059 -0.147442 3.32561 109 188 255 
0.781713 -0.856644 3.26037 65 26 21 
0.16675 -1.11576 3.46612 182 159 145 
0.909917 -0.931871 3.175 58 19 14 
0.839532 -1.47681 3.06499 193 167 154 
0.924276 -0.913663 3.15546 48 12 16 
0.130672 -1.13303 3.48119 193 160 151 
-0.126202 -0.258064 3.46962 102 164 249 
0.30773 -1.59286 3.26583 149 135 126 
0.171199 -1.09292 3.4663 96 77 81 
0.278607 -1.02836 3.43362 150 142 131 
0.239819 -1.07773 3.43634 45 40 37 
0.243709 -1.24233 3.38912 63 44 37 
0.116764 -1.11233 3.48605 100 95 91 
0.888516 0.0549623 3.07376 95 146 209 
1.94287 -0.776207 2.53718 180 168 170 
1.87479 -0.846367 2.55954 91 82 77 
1.85953 -0.849 2.57305 118 107 101 
1.87307 -0.834447 2.56287 63 51 51 
0.0864503 -0.999804 3.61793 64 48 48 
1.85522 -0.711372 2.62088 38 29 24 
0.33779 -1.34853 3.36486 167 131 119 
0.821514 -1.27764 3.10978 74 50 46 
0.875243 -1.27543 3.09107 162 148 137 
1.84719 -0.71087 2.63058 70 60 50 
0.924062 -0.920078 3.16039 62 26 26 
1.81318 -0.710156 2.65364 72 59 68 
1.94195 -0.702405 2.56446 189 177 179 
1.90721 -0.714006 2.58565 53 44 39 
0.879446 -1.27593 3.07569 67 42 38 
1.8212 -0.704615 2.6486 71 60 54 
1.8277 -0.697143 2.64869 76 67 62 
1.8977 -0.717126 2.59108 57 47 45 
1.90206 -0.686724 2.59354 170 161 152 
1.87766 -0.71787 2.60312 53 48 45 
1.83532 -0.721654 2.63176 101 90 88 
1.87069 -0.685517 2.62123 53 43 41 
1.90013 -0.686351 2.62022 176 170 158 
1.96281 0.683666 1.69659 196 175 120 
1.97815 -0.718123 2.52957 71 65 65 
1.96015 -0.720521 2.53789 72 62 61 
0.624714 -1.26435 3.23244 38 27 31 
0.222676 -1.31984 3.44438 133 127 131 
0.366305 -0.257423 3.27426 0 67 143 
1.9729 -0.727281 2.52991 93 83 81 
0.409008 -0.153764 3.27228 0 73 157 
0.592548 -1.44361 3.19861 86 46 38 
0.352724 -1.29198 3.3729 99 88 86 
0.580952 -1.44536 3.19582 38 18 19 
0.247022 -1.08479 3.47905 26 17 20 
0.888004 -1.41647 3.04324 61 41 34 
0.577678 -1.47312 3.19945 131 125 137 
0.474468 -1.49437 3.25179 128 107 104 
0.261802 -0.0562867 3.36956 81 141 204 
0.181969 -1.10135 3.52851 52 44 42 
1.04431 -0.119533 2.95511 92 160 223 
1.09497 -0.113476 2.92387 72 145 213 
0.138193 -1.11231 3.55064 83 65 65 
0.138045 -1.12069 3.55911 161 142 144 
1.10991 -0.109205 2.91654 0 77 159 
1.9001 -0.750147 2.57739 69 59 49 
1.8183 -1.25107 2.5002 210 195 198 
0.157845 -1.12581 3.53837 151 137 137 
0.15905 -1.12901 3.52626 53 29 27 
0.829094 -0.0395379 3.07265 23 94 172 
0.860235 -1.20491 3.11475 80 50 40 
0.414908 -0.896312 3.45584 159 150 145 
1.91217 -0.783949 2.55051 90 79 77 
0.492816 -1.25538 3.31561 96 82 79 
0.263468 -1.2833 3.42914 123 113 112 
0.862715 -1.48846 3.02885 82 57 50 
1.83773 -1.2979 2.48826 104 83 92 
0.686543 -1.15499 3.22177 181 138 131 
0.10882 -0.901753 3.63439 89 62 67 
0.260274 -1.27209 3.44048 49 32 24 
1.90699 -0.774597 2.56054 191 179 179 
1.86123 -0.776756 2.5905 67 55 55 
0.662995 0.229796 2.96827 148 125 111 
0.70858 0.233602 2.96075 172 146 131 
0.753747 0.233652 2.9353 182 155 134 
1.83434 -0.778577 2.61158 153 143 144 
1.79745 -1.32227 2.49583 33 24 29 
1.91888 -0.760146 2.55603 95 84 80 
0.220348 -1.27012 3.45226 162 149 141 
0.766874 -1.55994 3.06751 161 123 102 
0.843506 0.239324 2.89341 144 115 101 
1.95157 -0.766584 2.52884 199 188 184 
0.76996 -1.57273 3.06107 125 91 89 
0.0931071 -0.892132 3.63769 61 42 44 
0.112771 -0.889448 3.62188 72 47 51 
0.682121 -1.19975 3.21895 167 133 108 
0.77959 -0.84944 3.27172 187 157 157 
0.989426 0.243515 2.8519 218 205 188 
0.974088 0.24488 2.84738 223 209 196 
0.878514 -1.58524 3.00178 197 156 160 
0.705135 -0.874373 3.2997 37 14 8 
0.0857033 -1.14762 3.57595 163 148 143 
1.9655 0.667879 1.69583 172 153 97 
1.85502 -0.816881 2.58537 123 111 115 
0.787578 -0.127458 3.08672 8 89 178 
0.829698 -0.985217 3.18219 148 110 107 
0.845874 -1.38437 3.07374 181 152 144 
0.231555 -1.28711 3.44637 110 101 104 
0.20766 -1.27113 3.47435 54 39 34 
0.872012 -1.25438 3.09237 99 86 69 
0.905267 -1.33544 3.04134 76 37 40 
0.621201 -1.34173 3.21583 182 162 155 
0.451487 -0.175344 3.24201 85 177 252 
0.816434 -0.939959 3.21431 98 48 49 
0.0930971 -1.13404 3.57592 132 123 126 
0.500526 -1.32944 3.28144 186 140 127 
0.884283 -1.2933 3.07043 185 143 131 
0.665832 -1.37558 3.17748 67 35 24 
0.893831 -0.946116 3.16138 40 11 7 
1.98544 -0.687694 2.53493 39 30 31 
0.247823 -1.03446 3.51533 43 34 37 
0.276517 -1.03722 3.49439 116 112 109 
0.128796 -0.985494 3.59857 93 62 67 
0.234594 -1.08947 3.50812 33 27 29 
0.174506 -1.12186 3.52572 145 140 144 
0.151545 -1.12966 3.55094 155 139 140 
1.83337 -0.738379 2.6372 173 163 162 
0.144439 -1.18454 3.51667 178 159 155 
1.8192 -0.722073 2.63897 139 127 129 
0.213742 -1.26223 3.46714 62 42 35 
0.776784 -0.839866 3.27312 176 156 155 
1.87866 -0.761961 2.59283 45 34 32 
1.85243 -0.845972 2.58263 173 160 167 
1.90343 -0.757015 2.57123 91 80 74 
0.0675868 -1.34732 3.54784 63 50 44 
0.315409 -1.31607 3.39638 130 119 123 
0.737419 -0.825966 3.29001 24 14 5 
1.99542 -0.741479 2.51042 58 51 45 
1.88362 -0.747108 2.58558 41 32 25 
1.95626 -0.719003 2.55004 74 62 62 
1.98574 -0.708844 2.53049 68 63 60 
1.99215 -0.700203 2.52562 38 34 23 
1.83802 -0.70106 2.63337 66 55 49 
1.82196 -0.696585 2.63683 147 139 136 
0.639375 -1.36024 3.18779 190 156 146 
0.363959 -0.147875 3.30767 84 158 231 
0.810905 -0.146596 3.06237 5 70 154 
0.886538 -1.58645 2.98664 172 123 127 
1.77827 -1.27906 2.50641 112 99 109 
0.85835 0.0546869 3.07737 129 159 197 
0.806871 0.236002 2.92244 181 158 144 
0.835517 -1.54037 3.03077 58 24 22 
0.937741 0.0616352 3.03899 0 37 129 
0.887947 0.24109 2.88882 154 132 118 
0.819514 -0.0485179 3.08331 88 183 251 
1.84318 -1.23964 2.49259 174 154 156 
0.858358 -1.53511 3.02523 80 56 52 
1.97231 -0.756583 2.51948 80 68 82 
0.638758 -1.44498 3.16871 41 9 0 
0.0925224 -0.18017 3.43033 4 74 144 
1.08153 -0.12872 2.93109 37 114 196 
0.253937 -1.03912 3.50222 155 147 134 
0.898196 -1.18459 3.09561 184 143 139 
0.131242 -1.19406 3.53749 61 54 62 
1.82616 -1.36269 2.48303 214 196 196 
0.875906 -1.56721 3.00186 65 40 36 
0.358885 -0.127141 3.29919 90 172 246 
0.882828 -1.36523 3.05077 93 48 43 
0.882453 0.062161 3.0686 88 125 180 
0.894948 0.0531829 3.0592 89 142 210 
0.618418 -0.0381279 3.17803 117 174 243 
1.05336 -0.0879696 2.94913 92 178 253 
1.04597 -0.104668 2.95202 106 175 252 
1.07397 -0.163414 2.92809 89 174 254 
0.599712 -1.2456 3.24417 166 133 118 
1.82616 -1.23868 2.4962 182 159 169 
1.86407 -0.740636 2.60683 208 197 191 
1.98554 -0.675433 2.54499 55 49 51 
1.8327 -0.691131 2.63998 207 198 193 
1.81785 -0.695489 2.65278 35 24 28 
1.91481 -0.702083 2.57232 41 30 26 
0.780073 -1.18648 3.16453 182 154 143 
1.87479 -0.730608 2.60654 57 50 44 
1.9298 -0.747064 2.54803 65 55 46 
0.735039 -0.823932 3.27638 80 67 61 
1.87401 -0.752255 2.5851 70 58 60 
1.89454 -0.76142 2.57443 188 177 171 
1.93138 -0.769006 2.55123 58 46 50 
1.97979 -0.765468 2.51492 202 189 196 
0.734564 -0.864844 3.29733 45 17 14 
0.939336 -0.85665 3.17443 71 32 33 
0.907672 0.0594051 3.06137 0 40 121 
0.59401 -1.24309 3.25808 33 4 0 
0.488445 -1.48819 3.21911 82 54 51 
0.511224 -1.24938 3.29968 146 124 113 
0.425331 -0.410087 3.20074 79 139 212 
0.917946 -0.983945 3.12944 186 156 146 
0.886061 -0.953865 3.17031 78 40 37 
1.92989 -0.779429 2.54377 177 165 167 
0.80844 0.240295 2.90821 53 26 5 
0.620813 -1.25455 3.2305 149 135 132 
0.473806 -1.27073 3.31445 84 68 68 
0.800903 -0.0315569 3.09651 85 184 249 
0.44001 -0.255968 3.21883 5 59 123 
1.90258 -0.688119 2.60468 188 179 170 
1.87608 -0.689353 2.60874 199 192 186 
1.9447 -0.703361 2.5526 193 181 181 
1.84792 -0.718692 2.61425 56 46 37 
1.85278 -0.732782 2.6107 75 61 58 
1.82999 -0.739953 2.62429 67 54 64 
2.01049 -0.743121 2.49932 191 166 162 
0.842236 -0.838142 3.23582 24 5 0 
0.139669 -1.05228 3.56885 62 42 44 
1.85174 -1.29231 2.47969 223 202 211 
1.82491 -1.34213 2.48761 219 199 198 
0.79592 -0.12798 3.06592 0 78 167 
0.480622 -1.48476 3.25822 129 124 130 
1.11897 -0.185366 2.89507 76 159 225 
1.80181 -0.691598 2.6635 123 113 112 
1.82735 -1.2557 2.48866 216 195 202 
1.84788 -0.700864 2.62431 204 194 185 
1.30818 0.290409 3.14823 48 44 45 
1.98604 -0.718574 2.51827 197 192 189 
0.789176 -0.845248 3.24855 185 157 156 
0.858469 -1.51974 3.01023 64 36 35 
1.79589 -1.25056 2.50737 172 151 158 
1.81987 -1.30615 2.50602 96 80 91 
0.771377 -0.834459 3.28219 34 14 15 
0.843808 -0.818722 3.23746 25 14 10 
1.98232 -0.729118 2.53089 65 59 61 
1.97585 -0.715605 2.51191 45 36 37 
0.374838 -0.26063 3.26371 4 67 121 
1.78232 -1.16358 2.53954 46 37 42 
0.832484 -0.0308545 3.06714 103 174 254 
0.822719 -0.937656 3.2285 166 116 119 
0.261342 -0.251028 3.33043 2 79 123 
1.82681 -1.35475 2.47075 220 201 203 
0.734151 -0.844302 3.30145 73 52 47 
1.92411 -0.716506 2.56608 67 55 57 
0.852906 -0.912548 3.21275 180 141 142 
0.706488 -1.70818 3.064 87 58 40 
0.239273 -1.04686 3.50887 40 27 21 
0.829027 -0.985678 3.19582 159 111 107 
0.857471 -0.911202 3.20007 180 141 142 
0.0936734 -1.1543 3.57117 190 160 152 
1.81888 -1.3004 2.4894 100 88 98 
0.330433 -0.26527 3.27762 4 57 97 
1.81797 -1.23302 2.50797 182 160 162 
1.79315 -1.32822 2.50173 41 37 38 
1.89666 -0.720541 2.57978 57 46 50 
1.94617 -0.76582 2.54054 53 40 47 
0.125108 -1.12398 3.56857 54 42 46 
0.742643 -0.86344 3.26567 49 17 18 
0.457298 -1.28307 3.33634 139 130 133 
1.80008 -1.22853 2.51673 179 156 164 
1.89934 -0.77323 2.57474 128 116 104 
0.590987 -1.26048 3.26595 184 156 144 
0.266614 -0.0650406 3.37575 11 75 110 
1.95349 -0.776975 2.52936 214 204 194 
0.943238 -0.857661 3.14884 99 25 38 
0.138498 -1.13292 3.55835 51 31 22 
1.85418 -0.753093 2.60316 64 54 55 
1.77748 -1.32071 2.51336 89 83 93 
1.88407 -0.743664 2.5739 77 68 61 
1.86829 -0.739071 2.58699 185 176 171 
0.762174 0.234052 3.18105 49 255 207 
1.99046 -0.696655 2.56062 185 180 174 
0.28004 -1.04195 3.47553 139 134 114 
0.769045 -1.19119 3.18353 180 160 151 
1.86926 -0.844546 2.5474 57 46 42 
1.97555 -0.753575 2.5069 39 27 41 
0.992122 -0.960978 3.1029 81 40 44 
0.383704 -0.265316 3.24864 1 63 124 
0.245187 -1.27707 3.45877 173 153 142 
0.20691 -1.32056 3.46493 138 126 130 
1.82684 -1.3676 2.46667 207 188 192 
0.304723 -1.31755 3.41638 147 127 128 
0.238148 -1.05169 3.50254 48 40 37 
1.98066 -0.704077 2.54853 190 184 184 
0.309226 -0.265882 3.31203 4 44 69 
0.0783887 -1.13718 3.58286 62 52 53 
0.255017 -1.07164 3.43395 39 34 31 
0.834171 -1.47282 3.04724 189 164 159 
0.0845646 -1.16566 3.58973 187 157 147 
0.800281 -0.937596 3.23738 49 19 17 
1.98792 -0.697417 2.54943 185 180 174 
1.94803 -0.711793 2.56198 198 186 174 
1.85533 -0.749349 2.58432 111 100 104 
1.98709 -0.74513 2.51545 39 33 33 
0.852021 -0.824252 3.19548 35 31 30 
1.835 -0.728415 2.61959 35 24 28 
1.80174 -0.69391 2.67376 108 98 97 
1.89815 -0.793309 2.55872 146 134 134 
0.914807 -0.91158 3.15458 188 149 150 
0.134169 -1.1473 3.55193 184 151 136 
0.0820041 -1.23172 3.55328 28 27 32 
0.277595 -1.26564 3.43019 70 49 46 
0.252874 -0.257742 3.33891 99 173 248 
0.873281 -1.27691 3.09628 162 148 137 
0.634794 -1.35343 3.19168 182 162 155 
0.25462 -1.26173 3.40353 145 130 125 
0.74834 -1.27732 3.15518 62 34 33 
0.244792 -1.25378 3.41196 113 93 86 
0.286981 -1.26065 3.39058 32 15 8 
-0.0986741 -0.283211 3.47556 82 128 178 
0.245319 -1.58049 3.32975 163 141 130 
0.717583 -0.860725 3.28754 80 66 55 
0.382456 -0.157211 3.30725 82 154 226 
0.562779 -1.94387 3.09542 61 44 24 
0.718921 -0.873455 3.28756 184 160 158 
0.454392 -1.84157 3.16766 162 146 120 
0.239403 -1.08159 3.45976 40 32 29 
0.279028 -1.03311 3.45557 160 152 139 
0.133484 -0.884761 3.55822 56 40 43 
0.125637 -0.992664 3.54037 70 54 54 
0.0665634 -0.266797 3.41203 54 115 182 
0.300067 -1.03522 3.4412 144 142 119 
0.957581 -1.77364 2.93771 72 39 30 
0.175774 -1.04345 3.4945 108 84 84 
