ply                 
format ascii 1.0    
element vertex 1268
property float x    
property float y    
property float z    
property uchar red  
property uchar green
property uchar blue 
end_header          
-0.227402 -0.136547 1.4249 152 143 128 
-0.218106 -0.138821 1.43207 30 22 9 
-0.29001 -0.107583 1.48492 11 4 0 
-0.30716 -0.0930158 1.56008 79 69 60 
-0.263442 -0.117286 1.46406 133 123 113 
-0.142606 -0.165447 1.38599 31 22 13 
-0.310747 -0.0885474 1.56841 35 26 17 
-0.303464 -0.0946315 1.52917 22 12 2 
-0.245954 -0.122074 1.4383 143 131 115 
-0.167587 -0.150609 1.39628 41 28 19 
-0.314524 -0.0722903 1.66724 32 31 13 
-0.309711 -0.0861972 1.54346 31 25 11 
-0.290959 -0.0925531 1.5003 94 87 77 
-0.294331 -0.0924356 1.48558 13 5 0 
-0.207309 -0.128498 1.40026 90 81 72 
-0.314711 -0.0747587 1.56633 13 3 0 
-0.25253 -0.107334 1.44766 22 13 0 
-0.252016 -0.108855 1.43732 137 128 111 
-0.30147 -0.080072 1.55061 16 6 0 
-0.269317 -0.0997034 1.466 82 74 63 
-0.30299 -0.0780191 1.52718 114 104 95 
-0.189191 -0.130142 1.39011 89 85 74 
-0.314813 -0.0738576 1.52048 39 29 17 
-0.294805 -0.0788939 1.51745 105 95 85 
-0.204282 -0.12104 1.39484 17 10 0 
-0.287639 -0.0823055 1.49365 118 110 99 
-0.305305 -0.0707823 1.54246 113 103 93 
-0.30895 -0.0529218 1.69998 34 30 19 
-0.281108 -0.0856692 1.46704 20 11 0 
-0.260996 -0.094626 1.446 20 13 0 
-0.296312 -0.0761095 1.49675 16 6 0 
-0.31246 -0.0633518 1.56513 98 90 77 
-0.167791 -0.131418 1.37734 133 122 116 
-0.284547 -0.0802055 1.48259 51 41 29 
-0.315544 -0.0539244 1.61769 30 22 11 
-0.247224 -0.0967664 1.42319 127 115 101 
-0.311486 -0.0563421 1.58037 16 13 0 
-0.265839 -0.0874338 1.42495 119 110 95 
0.0466084 -0.193443 1.39423 52 42 40 
-0.173736 -0.120385 1.38269 106 96 84 
-0.310307 -0.0573657 1.54054 32 22 12 
-0.151032 -0.126687 1.37509 118 110 99 
-0.207107 -0.106621 1.3847 19 15 6 
-0.295482 -0.0626362 1.50252 52 48 36 
-0.308991 -0.0522593 1.54997 36 30 16 
-0.287928 -0.0671797 1.47888 105 93 81 
-0.280298 -0.0711922 1.45934 105 97 84 
-0.16961 -0.117561 1.37373 108 100 89 
-0.310457 -0.0467328 1.57682 38 30 17 
-0.298854 -0.0605464 1.48597 136 128 117 
-0.310059 -0.0460362 1.5631 135 133 112 
-0.240801 -0.0842424 1.42132 22 8 0 
-0.302906 -0.0506937 1.5347 119 112 96 
-0.314426 -0.0358829 1.60576 109 105 93 
-0.314406 -0.0392386 1.56903 37 29 16 
-0.3097 -0.0465157 1.51924 32 20 6 
-0.149575 -0.116253 1.36603 149 139 127 
-0.204529 -0.0944641 1.38614 73 59 46 
-0.287211 -0.055022 1.48892 124 114 102 
-0.295549 -0.0493129 1.50793 118 106 92 
-0.281267 -0.0580079 1.45908 33 26 10 
-0.200974 -0.0942989 1.3749 11 1 0 
-0.308064 -0.0389488 1.53932 108 99 84 
-0.293428 -0.0500881 1.47881 24 12 0 
-0.299251 -0.0453858 1.48851 26 17 0 
-0.304335 -0.0404512 1.50074 8 2 0 
-0.275107 -0.0554023 1.44789 47 38 23 
-0.261196 -0.0602872 1.42559 21 9 0 
-0.320969 -0.0247234 1.53664 33 27 11 
-0.302199 -0.0341298 1.50982 112 102 90 
-0.2917 -0.0418066 1.47208 110 98 86 
-0.200621 -0.0831497 1.37234 29 22 12 
-0.240861 -0.0669374 1.39549 117 114 99 
-0.307475 -0.00870561 1.6715 135 131 120 
-0.186862 -0.0892341 1.33118 7 0 0 
-0.312135 -0.00860681 1.65581 10 6 0 
-0.318343 -0.0141942 1.58903 100 96 87 
-0.313151 -0.017781 1.57203 104 101 86 
-0.283674 -0.0408818 1.46212 136 126 114 
-0.319916 -0.0105972 1.61226 49 45 33 
-0.309706 -0.0243029 1.52215 31 23 10 
-0.309256 -0.0133988 1.60375 55 51 40 
-0.216554 -0.0695943 1.38639 18 6 0 
-0.30502 -0.0254104 1.50415 51 41 29 
0.0317223 -0.149459 1.36406 100 95 89 
-0.20512 -0.0722364 1.37004 110 102 91 
-0.293642 -0.0293889 1.48164 23 16 0 
0.0889128 -0.161895 1.39027 21 18 13 
-0.29561 0.00575852 1.71211 43 35 24 
-0.307438 -0.0146249 1.52938 36 27 10 
-0.267571 -0.0379135 1.44068 44 31 14 
-0.230176 -0.0565004 1.38375 31 22 7 
-0.313932 -0.00277442 1.5769 33 24 15 
-0.309423 -0.0117128 1.51164 21 12 0 
-0.287873 -0.0193535 1.49508 30 23 7 
-0.271374 -0.0331348 1.43063 38 27 9 
-0.284849 -0.0246652 1.44029 59 47 31 
-0.311393 0.000368435 1.56119 130 127 112 
-0.309543 -0.00394661 1.53292 115 106 91 
-0.299001 -0.0155414 1.47094 16 8 0 
-0.234204 -0.0462902 1.37959 107 93 82 
-0.303834 -0.00779128 1.49871 145 136 121 
-0.216753 -0.0488966 1.38835 58 43 22 
0.0238196 -0.126296 1.35277 8 1 0 
-0.293295 -0.0106848 1.48122 31 24 8 
0.0461658 -0.131537 1.35813 23 14 7 
-0.272771 -0.0231276 1.43196 79 67 51 
-0.316296 0.00791094 1.54397 107 99 88 
-0.304646 0.0220046 1.66842 19 15 4 
-0.304356 -0.00386411 1.48362 12 3 0 
-0.30771 0.020586 1.64329 18 16 1 
-0.23939 -0.0357218 1.38372 111 102 87 
-0.205077 -0.0499761 1.35689 15 8 0 
-0.298826 0.0275822 1.68561 53 46 36 
-0.317403 0.0149825 1.55597 33 32 14 
-0.299931 -0.00339068 1.46036 26 17 0 
-0.287209 -0.00918888 1.44476 68 56 40 
-0.270584 -0.0177774 1.42191 133 120 104 
-0.302421 0.0294362 1.67672 121 117 105 
-0.317224 0.021386 1.57605 114 105 96 
-0.311578 0.00908128 1.50407 116 109 93 
-0.305432 0.0311677 1.65853 52 50 37 
-0.314425 0.0232398 1.58822 18 11 1 
-0.312625 0.0156431 1.53787 28 20 7 
-0.304942 0.00709724 1.4905 96 84 70 
-0.313933 0.0157606 1.52188 21 16 0 
-0.308377 0.00851905 1.48014 142 133 118 
-0.291126 0.000127026 1.4563 134 122 106 
-0.315231 0.0299158 1.59667 139 137 125 
-0.281672 -0.00264431 1.43593 95 83 69 
-0.25922 -0.00949037 1.43286 142 126 111 
-0.273817 -0.00595946 1.42528 126 110 95 
-0.310215 0.0243785 1.55392 108 105 86 
-0.318786 0.0327063 1.5858 27 23 12 
-0.300736 0.010651 1.46844 10 0 0 
-0.288469 0.003417 1.44466 130 115 94 
-0.299003 0.0436359 1.67978 24 18 6 
-0.299989 0.0147067 1.48519 35 26 9 
-0.219106 -0.0288129 1.3564 31 19 3 
-0.312073 0.0322616 1.56641 82 78 66 
-0.313985 0.0267078 1.52684 80 78 65 
-0.249719 -0.0140542 1.38502 111 102 87 
-0.302896 0.019916 1.50064 39 27 13 
-0.316626 0.0304548 1.5388 102 99 82 
-0.311754 0.0228847 1.49204 20 11 0 
-0.278779 0.00216278 1.41815 20 7 0 
-0.288666 0.00852324 1.43515 128 117 99 
-0.312461 0.0437129 1.60374 17 13 1 
-0.312672 0.0285315 1.50628 102 90 78 
-0.29183 0.0138377 1.44747 121 107 94 
-0.272365 0.000634259 1.39858 124 111 94 
-0.227527 -0.0170827 1.36163 151 135 120 
-0.259082 -0.00282994 1.39012 130 117 100 
-0.290481 0.011944 1.42445 79 71 58 
-0.204995 -0.0246488 1.34414 38 30 19 
-0.312439 0.0419171 1.55742 91 89 74 
-0.27722 0.0109095 1.42367 132 119 103 
-0.305243 0.0287583 1.48233 86 74 62 
-0.277496 0.00932658 1.41055 24 11 0 
-0.316978 0.0426507 1.5467 30 28 13 
-0.303173 0.0286812 1.47107 34 23 3 
-0.290007 0.0188755 1.43461 38 29 12 
-0.307861 0.034999 1.49495 24 16 3 
-0.269095 0.00719813 1.39123 46 34 20 
-0.318723 0.0454634 1.53673 141 142 124 
-0.294459 0.026123 1.45481 108 99 84 
-0.296541 0.0252027 1.44104 29 17 3 
-0.31352 0.0445488 1.52213 87 79 66 
-0.292849 0.0218374 1.42153 138 125 109 
-0.201458 -0.0166767 1.33769 22 15 5 
-0.312282 0.0438831 1.51073 63 54 39 
-0.247817 0.00318217 1.36883 135 117 97 
-0.323929 0.0568472 1.5553 29 27 14 
-0.317166 0.0584966 1.56487 118 114 102 
-0.208666 -0.00719638 1.34869 80 63 47 
-0.279801 0.0249079 1.41702 45 30 9 
-0.308753 0.0425789 1.47142 97 94 77 
-0.294515 0.0383567 1.46322 17 0 0 
-0.306792 0.0469438 1.48939 22 19 4 
-0.317453 0.0559077 1.52275 110 103 87 
-0.290705 0.0383704 1.44108 45 28 12 
-0.317576 0.066173 1.55848 18 10 0 
-0.315912 0.0635928 1.54535 110 103 87 
-0.298559 0.0462346 1.45431 17 5 0 
-0.313792 0.0564221 1.4861 27 19 6 
-0.309293 0.0543661 1.47756 21 14 0 
-0.0713082 -0.0424516 1.29685 110 99 81 
-0.315375 0.0737165 1.58143 43 33 23 
-0.308589 0.0591024 1.50091 16 8 0 
-0.298567 0.0512963 1.46937 36 28 9 
-0.310764 0.0536279 1.45743 31 23 4 
0.0928676 -0.0764863 1.34569 9 2 0 
-0.298111 0.0478859 1.43888 123 112 94 
-0.289692 0.0424819 1.41877 42 34 15 
-0.321817 0.0757322 1.54991 11 7 0 
0.0187107 -0.0585025 1.30954 19 10 3 
-0.317462 0.0739923 1.5226 102 95 79 
-0.29294 0.0517509 1.43144 26 15 0 
-0.311517 0.0655884 1.4777 28 21 5 
-0.314552 0.0842958 1.56165 86 79 69 
-0.305961 0.063875 1.46114 38 26 10 
-0.238048 0.0245778 1.34125 140 124 109 
-0.301587 0.0622567 1.44989 17 5 0 
-0.285454 0.0522551 1.41503 108 96 72 
-0.2555 0.0364898 1.36083 14 1 0 
-0.294383 0.0590931 1.42342 109 93 77 
-0.148314 -0.000159606 1.30201 47 40 24 
-0.299372 0.0646821 1.43376 25 8 0 
-0.277255 0.0536143 1.40127 54 45 28 
-0.265015 0.0460614 1.37383 128 116 100 
-0.316637 0.0921948 1.5431 122 114 103 
-0.286312 0.0584663 1.40559 64 51 34 
0.00868042 -0.0387065 1.30019 39 26 18 
-0.317464 0.0887434 1.51743 114 106 93 
-0.310774 0.0806577 1.47429 118 111 95 
-0.254506 0.0460941 1.36859 163 149 136 
-0.301615 0.0743554 1.4453 47 35 19 
-0.313885 0.10035 1.56556 125 117 104 
-0.296922 0.0677333 1.41483 77 66 48 
-0.290045 0.110125 1.64163 84 79 75 
-0.123722 0.00103974 1.29097 106 87 73 
-0.310861 0.0897898 1.49321 28 21 3 
-0.29828 0.0739572 1.42698 34 22 6 
-0.285291 0.0681907 1.40144 45 32 15 
-0.294414 0.121004 1.6569 46 38 27 
-0.316141 0.105738 1.54745 18 9 0 
-0.30582 0.0881714 1.46661 33 20 1 
-0.296691 0.0774978 1.41083 66 58 45 
-0.307423 0.0885901 1.45262 31 19 3 
-0.31407 0.097464 1.4813 115 103 89 
-0.262784 0.0598776 1.35566 112 96 73 
-0.315794 0.0941686 1.45872 48 33 14 
-0.210328 0.0390263 1.31239 25 14 0 
-0.292139 0.0781671 1.40171 19 10 0 
-0.314437 0.103236 1.49556 29 22 4 
-0.31286 0.101053 1.47104 127 115 101 
-0.308214 0.0923625 1.42993 123 111 95 
-0.30067 0.0891362 1.42285 130 119 101 
-0.0269929 -0.010001 1.27238 73 64 55 
-0.297571 0.130412 1.63468 51 43 32 
-0.317782 0.114361 1.51928 52 43 26 
-0.304926 0.0968328 1.44054 113 101 85 
-0.270543 0.0739853 1.36632 123 112 92 
-0.315674 0.117168 1.50971 22 12 0 
-0.261696 0.0726984 1.356 158 146 124 
-0.315828 0.113476 1.48712 45 36 21 
-0.306831 0.0967963 1.41403 37 24 8 
-0.297842 0.0930297 1.40594 129 112 96 
-0.29827 0.102998 1.45003 11 0 0 
-0.283555 0.089779 1.40021 64 48 32 
-0.223519 0.0578572 1.31718 95 81 68 
-0.303451 0.0998664 1.42325 131 118 102 
-0.287641 0.137875 1.62545 84 77 71 
-0.316503 0.108581 1.4461 40 33 15 
-0.199504 0.0521873 1.30486 40 34 22 
-0.310991 0.116617 1.47198 33 26 10 
-0.30492 0.106748 1.43117 122 114 95 
-0.315441 0.130247 1.51743 20 10 0 
-0.202156 0.0571892 1.29554 11 0 0 
-0.285679 0.0933497 1.3707 64 48 33 
-0.293011 0.150806 1.62975 21 11 1 
-0.314749 0.126619 1.48573 19 11 0 
-0.284839 0.0977541 1.38219 109 98 80 
-0.132041 0.0413471 1.28755 94 82 70 
-0.301113 0.108643 1.41234 47 31 16 
-0.300242 0.152578 1.61824 132 123 114 
-0.316013 0.117063 1.43243 32 20 4 
-0.314267 0.126628 1.47126 106 94 80 
-0.291004 0.151861 1.61253 88 78 69 
-0.302397 0.109796 1.39857 116 100 84 
-0.308997 0.128489 1.45992 22 14 1 
-0.312186 0.137061 1.48829 25 13 1 
-0.313932 0.128716 1.44624 120 107 98 
-0.303837 0.123597 1.43097 115 96 79 
-0.299229 0.116924 1.4068 40 23 5 
-0.318495 0.137041 1.46954 21 12 0 
-0.248803 0.0959002 1.34801 43 29 16 
-0.279048 0.107161 1.36383 128 122 100 
0.0602549 0.0114165 1.28517 16 11 7 
-0.246158 0.0937714 1.3268 72 55 39 
-0.283615 0.112607 1.37163 129 116 99 
-0.305655 0.133769 1.43752 49 40 23 
-0.316488 0.140859 1.4576 114 105 90 
-0.317467 0.152968 1.50769 39 30 21 
-0.310366 0.133295 1.42639 115 101 88 
-0.191491 0.0711793 1.27106 128 113 94 
-0.179676 0.0753791 1.29449 36 22 0 
-0.307356 0.131732 1.40771 140 129 107 
-0.315418 0.154033 1.4962 102 94 81 
-0.293259 0.124447 1.38434 131 118 101 
-0.265635 0.109139 1.33923 59 46 27 
-0.292157 0.180253 1.62319 48 38 28 
-0.315706 0.151213 1.46575 36 26 14 
-0.161485 0.0684047 1.25495 107 94 78 
-0.129226 0.0629736 1.25449 59 43 18 
-0.313009 0.157053 1.48215 37 28 13 
-0.308165 0.141102 1.41802 50 42 23 
-0.276885 0.120695 1.34557 25 12 0 
-0.309486 0.147883 1.42845 25 17 0 
0.0956508 0.0243169 1.29146 109 106 99 
-0.305467 0.138768 1.38908 106 98 79 
-0.316179 0.156192 1.45219 17 10 0 
-0.294902 0.136244 1.37998 147 135 111 
-0.313988 0.173578 1.52266 20 11 2 
-0.316711 0.17276 1.50577 88 81 71 
-0.0625288 0.0558796 1.24075 42 30 18 
-0.300099 0.191285 1.59538 22 14 3 
0.0104273 0.0439953 1.25376 119 110 101 
-0.318997 0.174485 1.49035 31 21 9 
-0.312703 0.159877 1.42835 9 0 0 
-0.290962 0.201881 1.61572 58 50 39 
-0.306833 0.155232 1.40343 137 120 102 
-0.298522 0.152207 1.39083 143 130 114 
-0.265632 0.130575 1.3291 61 46 27 
-0.129645 0.080259 1.24334 119 100 85 
-0.313997 0.167845 1.43613 21 13 0 
-0.310819 0.167083 1.42156 16 7 0 
-0.219266 0.119909 1.30761 139 128 110 
-0.289397 0.151972 1.359 117 99 85 
-0.300604 0.159367 1.37631 132 119 102 
-0.316535 0.184043 1.46228 136 123 107 
-0.06305 0.0759504 1.23042 54 42 26 
-0.304949 0.169124 1.40012 123 107 92 
-0.31423 0.176524 1.41124 25 13 0 
-0.288331 0.213223 1.58031 112 102 100 
-0.264079 0.133501 1.27811 40 29 11 
-0.291794 0.164792 1.37347 83 71 55 
-0.31681 0.196715 1.47968 143 133 121 
-0.168299 0.107213 1.24232 157 141 116 
0.0903384 0.0629996 1.26888 15 11 8 
0.108611 0.0623915 1.28065 35 32 27 
-0.318563 0.191769 1.43972 98 86 70 
-0.31022 0.196911 1.46492 26 15 0 
-0.310897 0.188926 1.43189 108 96 82 
-0.270937 0.153015 1.31797 45 28 10 
-0.177279 0.115324 1.24433 73 63 36 
0.0396251 0.0712104 1.24767 122 113 106 
-0.311326 0.184369 1.40488 106 98 79 
-0.29631 0.170806 1.36506 24 11 0 
-0.296772 0.168082 1.34956 66 51 28 
-0.31416 0.189962 1.41278 42 35 19 
-0.306398 0.183603 1.39267 46 31 10 
-0.318639 0.202185 1.44982 34 20 7 
-0.317899 0.195669 1.42403 33 25 12 
-0.222496 0.136138 1.25652 91 73 49 
-0.2958 0.235279 1.58458 125 117 106 
-0.314995 0.191629 1.39751 74 65 48 
-0.285743 0.173594 1.35039 146 130 104 
-0.297701 0.181302 1.36544 139 114 92 
-0.313835 0.22339 1.50082 28 18 6 
-0.315222 0.213241 1.45742 24 11 2 
-0.299462 0.188228 1.37183 65 52 35 
-0.266177 0.164623 1.30516 151 134 116 
-0.318247 0.204315 1.4166 55 43 29 
-0.254526 0.169336 1.3319 58 42 27 
-0.315043 0.203065 1.40375 27 18 1 
-0.311426 0.198976 1.39131 142 133 118 
-0.298532 0.18601 1.34624 123 112 90 
-0.314683 0.211523 1.42784 112 102 90 
-0.316783 0.2304 1.48846 14 5 0 
-0.306777 0.199679 1.37562 102 94 73 
-0.286082 0.189774 1.35265 73 61 39 
-0.307506 0.21423 1.41953 115 106 91 
-0.320989 0.22054 1.43275 36 26 14 
-0.3117 0.21305 1.4075 28 19 2 
-0.311932 0.209788 1.38916 86 79 51 
-0.286265 0.187285 1.32473 112 109 92 
-0.30259 0.202202 1.36316 158 147 117 
-0.296162 0.198682 1.34642 29 19 0 
0.00661594 0.107182 1.2196 42 33 24 
-0.293607 0.262065 1.57557 34 28 16 
-0.308121 0.210149 1.3675 134 127 101 
-0.316583 0.233004 1.44432 129 119 109 
-0.0260653 0.115952 1.21272 25 16 7 
-0.317097 0.23924 1.46255 98 88 78 
-0.00243205 0.114098 1.21761 125 116 107 
-0.304099 0.206818 1.34903 48 41 15 
-0.150931 0.141804 1.21629 148 137 119 
-0.316741 0.215773 1.37235 45 32 13 
-0.313924 0.223765 1.40032 132 120 104 
-0.183336 0.151541 1.22345 143 130 113 
-0.196623 0.15641 1.23095 51 38 21 
-0.314618 0.236824 1.42523 18 9 0 
-0.290487 0.266473 1.54684 94 81 73 
-0.305784 0.22273 1.37822 55 44 22 
-0.303424 0.219173 1.36164 125 115 90 
-0.2755 0.198043 1.3014 166 153 136 
-0.0255539 0.12651 1.20141 111 102 93 
-0.312728 0.232566 1.39339 70 58 42 
-0.194862 0.163639 1.22327 125 117 98 
-0.319435 0.250696 1.45106 148 140 129 
0.0685197 0.119244 1.2313 130 128 115 
-0.293705 0.213889 1.33177 57 36 9 
-0.0706729 0.136347 1.19839 24 11 3 
-0.30487 0.275835 1.5407 87 80 70 
-0.305927 0.222753 1.3496 56 44 22 
-0.168129 0.159905 1.20575 38 25 8 
-0.296358 0.225814 1.35608 147 133 107 
-0.299606 0.224043 1.34064 79 67 41 
-0.315514 0.243511 1.39691 39 30 15 
-0.316686 0.247893 1.40966 25 16 1 
-0.314526 0.2558 1.43698 15 5 0 
-0.311771 0.239088 1.38078 39 27 11 
-0.307697 0.233877 1.36572 118 107 87 
-0.272589 0.207802 1.29357 61 46 23 
-0.224238 0.18167 1.22901 142 123 93 
-0.301552 0.233585 1.34923 165 156 127 
-0.134061 0.160646 1.1965 49 37 21 
-0.311863 0.283027 1.50912 120 116 105 
-0.312449 0.248437 1.38567 12 3 0 
-0.160054 0.169913 1.20041 50 38 22 
-0.316405 0.275472 1.46389 47 38 29 
-0.302092 0.235071 1.33484 159 143 118 
-0.306993 0.241984 1.35155 30 18 0 
-0.317962 0.271516 1.44174 31 21 11 
-0.319098 0.263935 1.41385 30 21 12 
-0.309291 0.24907 1.37039 48 39 24 
-0.280595 0.228341 1.31428 39 28 8 
-0.297204 0.301234 1.54952 41 40 35 
-0.301187 0.295152 1.52781 17 10 0 
-0.18629 0.182193 1.2086 68 57 37 
-0.315384 0.286564 1.48667 105 96 89 
-0.284916 0.230243 1.30387 74 59 36 
-0.308517 0.295886 1.51082 25 21 12 
-0.294621 0.237619 1.32097 31 21 0 
-0.169907 0.180384 1.19811 38 25 8 
-0.312576 0.286984 1.47412 103 96 88 
-0.313433 0.258237 1.37858 44 35 20 
-0.319197 0.26693 1.40215 16 7 0 
-0.269147 0.223437 1.2816 34 18 2 
-0.196476 0.19101 1.20984 46 29 11 
-0.309583 0.248862 1.33905 137 127 100 
-0.30951 0.298135 1.50025 18 14 5 
-0.311011 0.257204 1.3601 127 114 98 
-0.234001 0.211605 1.2448 87 71 46 
-0.207699 0.196237 1.20439 152 137 114 
-0.29999 0.248359 1.3273 158 142 116 
-0.292133 0.242176 1.31065 92 66 43 
-0.000504984 0.158295 1.18795 109 102 92 
-0.317433 0.292008 1.45488 75 68 62 
-0.30779 0.256931 1.34421 128 118 93 
-0.320769 0.279858 1.41025 11 1 0 
-0.160034 0.187777 1.19009 27 15 3 
-0.305102 0.309076 1.5133 50 45 39 
-0.188387 0.195898 1.19959 56 41 18 
-0.320152 0.286099 1.4218 106 99 89 
-0.297578 0.251207 1.31219 158 147 119 
-0.305449 0.266435 1.35357 53 42 24 
-0.316819 0.306498 1.47234 99 92 84 
-0.317811 0.299545 1.44315 107 103 92 
-0.298877 0.264826 1.33735 137 123 97 
-0.316281 0.274205 1.35495 34 22 8 
-0.306098 0.321097 1.50966 52 49 42 
-0.305436 0.263348 1.32022 170 156 130 
-0.323864 0.288878 1.39224 33 25 14 
-0.313777 0.28011 1.36776 129 117 101 
-0.318725 0.306107 1.4488 29 22 14 
-0.312148 0.275227 1.34511 102 85 75 
-0.302027 0.277633 1.35767 134 117 99 
-0.315968 0.296051 1.40966 6 0 0 
-0.151362 0.199771 1.1783 49 41 28 
-0.0894509 0.188327 1.1717 65 55 46 
-0.170714 0.206243 1.18612 34 27 8 
-0.319359 0.287955 1.37236 104 90 79 
-0.320025 0.28455 1.35834 24 10 0 
-0.30638 0.27486 1.3343 157 141 116 
-0.121328 0.197185 1.17353 103 93 81 
-0.311105 0.327544 1.49141 37 34 27 
-0.313733 0.324523 1.47818 17 14 5 
-0.321993 0.312749 1.43689 79 70 63 
-0.289328 0.264481 1.29233 82 71 43 
-0.277496 0.256188 1.27071 135 119 96 
-0.320545 0.31916 1.44639 38 29 24 
-0.309871 0.287989 1.35167 19 3 0 
-0.188888 0.220359 1.19014 70 48 25 
-0.321723 0.315063 1.4251 17 13 4 
-0.163618 0.214128 1.17884 53 43 31 
-0.0962815 0.20049 1.16604 45 35 25 
-0.317746 0.331635 1.46161 114 109 103 
-0.318105 0.302943 1.36861 11 2 0 
-0.177751 0.224146 1.18193 69 61 40 
-0.316136 0.297968 1.34941 125 113 101 
-0.305626 0.287129 1.31871 50 38 12 
-0.127055 0.212121 1.1639 44 34 22 
-0.30817 0.292348 1.33104 30 18 0 
-0.295244 0.277649 1.29034 127 115 91 
-0.31418 0.342731 1.47777 28 28 18 
-0.323971 0.32434 1.41274 98 85 77 
-0.194322 0.23177 1.18158 130 121 104 
-0.106378 0.210544 1.155 64 54 45 
-0.320236 0.320632 1.39806 56 42 31 
-0.313706 0.307269 1.35802 53 40 21 
-0.29866 0.288584 1.30675 48 37 9 
0.0644427 0.199114 1.18515 69 65 62 
-0.305583 0.350887 1.48736 16 13 6 
-0.319097 0.341592 1.4512 15 4 0 
-0.314688 0.305495 1.33597 106 93 74 
-0.308518 0.29412 1.30255 42 28 1 
-0.0600367 0.211327 1.15257 121 108 100 
-0.320391 0.342571 1.44117 73 62 56 
-0.323884 0.335864 1.41723 18 7 1 
-0.313919 0.301015 1.31563 63 55 36 
-0.321055 0.323458 1.37883 39 30 21 
-0.323632 0.333409 1.40533 13 5 0 
-0.325685 0.330032 1.38786 29 18 12 
-0.299128 0.300027 1.30493 158 147 127 
-0.207254 0.247777 1.18324 153 140 121 
-0.235957 0.255408 1.19128 45 28 10 
-0.311473 0.360044 1.47186 15 10 4 
-0.313837 0.316407 1.34038 22 13 0 
-0.315433 0.310115 1.3201 125 116 99 
-0.314679 0.35494 1.45131 28 21 13 
-0.298037 0.294532 1.27967 96 85 63 
-0.323871 0.326247 1.35811 75 65 55 
-0.162172 0.239948 1.16454 116 108 97 
-0.106207 0.228524 1.14926 117 109 96 
-0.324463 0.342157 1.40032 109 102 94 
-0.307936 0.306737 1.30056 155 146 131 
-0.317679 0.362405 1.45951 41 36 30 
-0.289301 0.300283 1.28736 54 42 18 
-0.119381 0.233085 1.14947 35 26 21 
-0.319385 0.32106 1.32852 24 15 0 
-0.0349718 0.223433 1.14731 121 111 102 
-0.324455 0.350238 1.40729 112 104 91 
-0.319147 0.319643 1.31808 37 24 8 
-0.320175 0.329297 1.3435 76 66 54 
-0.151888 0.241231 1.14236 64 58 46 
-0.00198959 0.226095 1.15137 40 31 22 
-0.309744 0.376146 1.47163 22 22 14 
-0.296825 0.307232 1.27504 32 24 5 
-0.320954 0.364283 1.42412 34 25 16 
-0.322576 0.345547 1.36942 24 17 11 
-0.323617 0.355133 1.39496 14 7 0 
-0.320802 0.361097 1.40523 114 105 96 
-0.185573 0.260045 1.16126 110 103 93 
-0.174878 0.258131 1.15811 40 36 25 
-0.325601 0.354801 1.38343 77 72 66 
-0.0663882 0.238681 1.1366 144 137 127 
-0.318336 0.374393 1.43163 23 19 10 
-0.316275 0.337622 1.32642 105 96 81 
-0.312353 0.385523 1.46218 17 16 11 
-0.305904 0.327493 1.29912 116 106 94 
-0.26706 0.305294 1.2444 50 23 12 
0.0500714 0.237093 1.15481 28 24 21 
-0.299245 0.321879 1.27813 110 97 80 
-0.325272 0.368546 1.3931 79 74 68 
-0.321808 0.360771 1.37394 19 15 6 
0.0112733 0.243197 1.14117 89 84 78 
-0.167557 0.266809 1.14875 13 3 0 
-0.311566 0.343799 1.31594 53 43 31 
-0.314048 0.392331 1.44884 16 16 6 
-0.314112 0.336637 1.29364 152 140 124 
-0.233859 0.286002 1.17613 51 39 17 
-0.314442 0.341482 1.30465 60 51 36 
-0.107189 0.258153 1.13232 115 106 97 
-0.316536 0.39155 1.43254 56 53 46 
-0.211393 0.294569 1.18569 45 39 27 
-0.0360103 0.254304 1.12633 17 10 2 
-0.28279 0.328022 1.25254 38 19 2 
-0.226511 0.292233 1.17028 99 91 78 
-0.315904 0.347454 1.29445 132 123 106 
-0.183324 0.282558 1.14851 118 109 94 
-0.0841008 0.263552 1.12333 34 27 17 
-0.140946 0.274987 1.13744 118 108 96 
-0.128595 0.269561 1.12723 23 15 4 
-0.32339 0.361266 1.32062 110 98 86 
-0.306276 0.342608 1.2747 76 67 52 
-0.0623059 0.262549 1.1233 96 92 81 
-0.170137 0.280675 1.14195 39 31 20 
-0.32793 0.370445 1.33621 97 93 84 
-0.303763 0.342233 1.26255 46 33 14 
-0.214717 0.295013 1.15542 38 26 14 
-0.327141 0.388434 1.37533 138 133 127 
-0.193058 0.291048 1.14339 33 23 13 
-0.314347 0.412672 1.43692 142 140 128 
-0.324514 0.368402 1.31354 23 15 4 
-0.321761 0.364408 1.30305 119 110 95 
-0.0317532 0.267432 1.11662 42 37 33 
-0.3248 0.387304 1.36104 6 2 0 
0.00485737 0.267247 1.12516 38 30 27 
-0.141879 0.283325 1.12933 104 95 86 
-0.108687 0.275657 1.11492 29 21 10 
-0.266368 0.325998 1.20071 23 12 0 
-0.172185 0.289668 1.12836 48 40 29 
-0.322931 0.387025 1.3486 20 11 4 
-0.238047 0.312173 1.1686 56 44 30 
-0.326602 0.385126 1.33552 119 115 106 
-0.0782761 0.277121 1.10989 39 30 21 
-0.100924 0.279226 1.1071 45 38 28 
-0.323553 0.402025 1.37765 30 26 15 
-0.300855 0.352126 1.25102 62 55 36 
-0.0659659 0.278513 1.11292 53 47 35 
-0.311567 0.364676 1.27584 124 112 100 
-0.122685 0.285546 1.10808 37 30 22 
-0.310035 0.432212 1.44789 72 69 64 
-0.187954 0.301037 1.12989 54 48 36 
-0.323533 0.384575 1.30959 22 12 0 
-0.228303 0.32047 1.16476 126 114 98 
-0.176864 0.339264 1.22267 43 34 19 
-0.152304 0.297229 1.11815 39 31 20 
-0.30659 0.367435 1.26542 112 104 91 
-0.197753 0.307774 1.13363 27 19 8 
-0.282433 0.456838 1.49846 80 79 75 
-0.300127 0.357579 1.23513 131 123 110 
-0.309795 0.36463 1.2502 46 38 25 
-0.185843 0.309765 1.12376 29 20 5 
-0.0436466 0.288585 1.09917 98 94 93 
-0.168616 0.305496 1.1152 128 118 108 
-0.318515 0.377741 1.26786 113 105 94 
-0.0969297 0.293448 1.09626 31 26 20 
-0.00227822 0.290228 1.1041 128 125 120 
0.0132003 0.291371 1.10855 24 20 19 
-0.328923 0.421693 1.36254 43 33 31 
-0.299646 0.364944 1.22303 20 11 0 
-0.156899 0.306036 1.1014 23 16 6 
-0.131365 0.30375 1.09232 116 111 107 
-0.109863 0.30205 1.09207 27 24 19 
-0.317862 0.44744 1.41911 58 55 48 
-0.14638 0.307227 1.09645 142 139 130 
-0.200013 0.320736 1.11822 138 129 120 
-0.0694259 0.300001 1.08667 90 89 84 
-0.210835 0.326061 1.12044 21 11 0 
-0.325783 0.388768 1.25005 144 140 129 
-0.326216 0.399604 1.27137 93 86 76 
-0.117247 0.311077 1.08421 30 27 22 
-0.0353515 0.304577 1.08135 15 12 7 
-0.318609 0.389136 1.24229 91 81 72 
-0.19714 0.326969 1.10784 36 27 18 
-0.336561 0.410834 1.29004 101 94 84 
-0.00957386 0.306327 1.08472 94 91 86 
-0.156547 0.320833 1.09315 132 123 114 
0.00487347 0.307497 1.08749 22 22 14 
-0.24733 0.342482 1.12783 119 111 98 
-0.205521 0.332982 1.11197 126 116 107 
0.0185266 0.309242 1.09069 78 77 75 
-0.141866 0.320015 1.08781 36 32 21 
-0.0905556 0.313695 1.07888 117 114 109 
-0.30481 0.37673 1.19739 14 8 0 
-0.186368 0.32709 1.09455 102 98 86 
-0.0702008 0.312579 1.07638 104 100 97 
-0.336429 0.412162 1.27224 119 115 104 
-0.235946 0.346113 1.12533 113 110 101 
-0.31719 0.397773 1.2325 18 12 0 
-0.223971 0.344015 1.1097 33 26 16 
-0.100369 0.322601 1.07197 94 91 86 
-0.155575 0.332854 1.08769 48 41 33 
-0.125972 0.325337 1.073 100 96 87 
-0.307935 0.393494 1.2105 20 12 1 
-0.262377 0.360003 1.13428 19 6 0 
-0.186145 0.339999 1.09621 36 27 18 
-0.335125 0.468228 1.38185 67 66 61 
-0.347968 0.439087 1.30783 12 7 3 
0.0225096 0.323534 1.07672 93 89 86 
-0.0423486 0.32312 1.06481 84 76 73 
-0.326844 0.412686 1.23552 37 29 16 
-0.087389 0.329811 1.0655 89 84 78 
-0.114899 0.332806 1.0657 25 22 13 
-0.144982 0.338129 1.07309 56 46 36 
-0.245569 0.361515 1.11423 107 100 84 
-0.188499 0.34803 1.08939 7 0 0 
-0.174395 0.345451 1.08256 105 97 86 
-0.229456 0.361398 1.11114 25 17 6 
-0.0992673 0.334209 1.06311 30 25 19 
-0.129499 0.340798 1.06532 27 23 14 
-0.340686 0.441024 1.27389 6 6 0 
-0.332852 0.42398 1.23585 36 28 15 
-0.204951 0.357335 1.09055 21 14 4 
-0.121028 0.34115 1.05717 93 89 80 
-0.161474 0.350145 1.07223 47 40 30 
-0.0508157 0.33793 1.05582 84 79 73 
-0.326492 0.423427 1.22143 66 55 35 
-0.0644404 0.339672 1.05541 15 6 1 
-0.314334 0.418554 1.21033 116 109 93 
-0.147394 0.349707 1.06397 48 43 37 
-0.107516 0.344465 1.0552 18 11 3 
-0.178004 0.359177 1.07809 23 16 6 
-0.308221 0.409964 1.17978 61 48 32 
-0.196666 0.366972 1.08329 110 102 89 
-0.232312 0.375499 1.09764 106 100 88 
-0.12693 0.354933 1.05826 124 120 111 
-0.314104 0.424724 1.19701 21 9 0 
-0.0312877 0.350077 1.05247 19 11 8 
-0.249416 0.384737 1.10914 67 54 37 
-0.176807 0.368767 1.07225 39 33 21 
-0.215724 0.380199 1.09392 36 28 17 
-0.0918047 0.356113 1.0487 28 24 13 
-0.109703 0.358824 1.04681 97 90 82 
-0.149819 0.364898 1.05374 53 46 36 
-0.135592 0.362773 1.04972 64 60 51 
-0.311723 0.433179 1.18829 137 130 112 
-0.0437149 0.361208 1.04511 54 47 39 
-0.183431 0.377362 1.06996 44 38 26 
-0.12104 0.36409 1.04159 33 26 18 
-0.160263 0.374069 1.05824 29 20 11 
-0.0898913 0.365044 1.04284 23 19 10 
-0.296702 0.421709 1.14786 63 52 32 
-0.313061 0.430621 1.16136 22 10 0 
-0.26997 0.409626 1.1158 54 43 25 
-0.180379 0.384645 1.05904 44 37 27 
-0.0365942 0.373866 1.04107 123 113 101 
-0.215928 0.394575 1.07506 10 3 0 
-0.106218 0.374326 1.03587 34 30 21 
0.0264777 0.378817 1.04997 36 28 25 
-0.126829 0.379686 1.04217 115 111 102 
-0.22378 0.401997 1.08208 43 33 21 
-0.171821 0.39115 1.05246 39 30 23 
-0.234472 0.407433 1.08395 38 31 21 
-0.116688 0.383552 1.03542 105 102 97 
-0.142549 0.388625 1.03966 103 96 86 
-0.265522 0.419927 1.10194 128 116 100 
-0.19515 0.399318 1.05893 51 41 31 
-0.28094 0.430248 1.12176 67 58 41 
-0.157593 0.391886 1.04233 47 44 35 
-0.204618 0.403267 1.06391 182 174 163 
-0.103784 0.389251 1.03229 34 31 24 
-0.273048 0.427566 1.1056 62 51 31 
-0.250924 0.418996 1.08706 55 47 36 
-0.233655 0.416768 1.07479 112 106 94 
0.038206 0.39842 1.04163 108 103 99 
-0.166904 0.400733 1.03803 48 44 33 
-0.210572 0.41241 1.05965 115 111 100 
-0.148166 0.401741 1.03142 113 109 98 
-0.106197 0.397787 1.02304 26 23 18 
-0.0736926 0.397477 1.02297 31 26 22 
-0.0522725 0.396873 1.02099 33 29 26 
-0.250062 0.429221 1.08202 32 24 11 
-0.221762 0.418238 1.05878 49 43 31 
-0.339286 0.553328 1.337 18 19 13 
-0.131849 0.407452 1.02457 31 30 26 
-0.0555828 0.401169 1.01072 100 97 92 
-0.153958 0.409837 1.02518 30 27 22 
-0.164289 0.414321 1.02885 101 98 89 
-0.288442 0.446271 1.09168 134 124 112 
-0.230851 0.426244 1.05021 142 135 125 
-0.117902 0.410295 1.01551 27 24 15 
-0.255721 0.435494 1.06057 28 21 3 
-0.163124 0.418496 1.01947 108 101 93 
-0.224497 0.440626 1.03497 123 114 105 
-0.210853 0.438306 1.02396 122 119 110 
-0.202332 0.436677 1.01438 32 33 25 
-0.159687 0.436744 1.00345 91 88 81 
-0.271081 0.46352 1.04857 33 26 18 
-0.171738 0.462265 0.987246 116 108 97 
-0.195258 0.480689 0.991061 87 76 70 
-0.0491519 0.504972 0.884053 99 96 81 
-0.0228525 -0.531789 1.59723 139 137 125 
-0.0484064 -0.512537 1.59959 30 26 17 
-0.0900253 -0.479446 1.56596 98 95 86 
-0.263935 -0.371632 1.58204 94 90 87 
0.0166922 -0.484247 1.54348 55 51 42 
-0.218414 -0.368197 1.50508 40 36 25 
-0.092936 -0.42188 1.50668 48 45 40 
-0.230052 -0.287155 1.47632 21 17 8 
-0.0688914 -0.32705 1.43381 117 108 101 
-0.150319 -0.273524 1.42504 70 65 61 
-0.241783 -0.204143 1.46969 2 2 0 
-0.164872 -0.216255 1.43047 7 2 0 
-0.225589 -0.155749 1.44715 77 67 58 
-0.254173 -0.121575 1.45215 26 13 4 
-0.315769 -0.0775845 1.61883 49 46 31 
-0.149469 -0.150807 1.38838 9 0 0 
-0.233521 -0.113718 1.42018 20 18 5 
-0.281184 -0.0828023 1.55246 108 99 90 
-0.232821 -0.102641 1.41224 21 5 0 
-0.31382 -0.0390419 1.65031 35 33 20 
-0.280058 -0.031544 1.77595 43 39 30 
-0.317832 -0.0328266 1.61562 104 100 88 
-0.276886 -0.0656379 1.4379 124 116 105 
-0.316065 -0.035135 1.55679 112 109 92 
-0.310017 -0.0132496 1.68593 46 39 33 
-0.320548 -0.000846588 1.61932 102 98 89 
-0.309885 0.0076734 1.51531 35 26 9 
-0.296347 -0.000770437 1.47254 119 110 93 
-0.0897958 -0.0747952 1.3367 98 65 56 
-0.32468 0.0459124 1.57645 16 12 0 
-0.306012 0.0553903 1.64317 10 2 0 
-0.313678 0.0580774 1.58689 27 21 9 
-0.320532 0.0567047 1.53785 27 21 7 
-0.259729 0.0302997 1.38001 126 113 94 
0.0497419 -0.0610687 1.32012 112 108 97 
-0.286777 0.0609696 1.44731 121 99 85 
-0.308681 0.067457 1.42613 134 122 106 
-0.27823 0.113464 1.69678 80 78 66 
-0.303743 0.110319 1.45526 32 20 4 
-0.265147 0.109162 1.35508 35 22 5 
-0.287337 0.122389 1.3767 27 15 0 
-0.300619 0.213759 1.585 137 127 117 
-0.203614 0.13193 1.24782 150 140 115 
-0.281356 0.179097 1.33208 32 20 8 
0.0177815 0.0985797 1.22282 25 20 14 
-0.147296 0.128381 1.21243 133 124 107 
0.0528579 0.110832 1.23132 32 23 16 
-0.304263 0.249549 1.48004 32 23 14 
-0.109935 0.137697 1.19616 117 107 95 
-0.320805 0.24578 1.4431 28 19 10 
-0.083528 0.143839 1.19364 44 35 26 
-0.166135 0.169902 1.18867 150 138 122 
-0.183113 0.176881 1.20041 66 51 28 
0.0576907 0.144006 1.21225 35 30 26 
0.136645 0.157653 1.24209 197 197 195 
-0.316205 0.278841 1.3845 99 89 77 
-0.146424 0.193051 1.18704 125 116 101 
-0.0254322 0.174154 1.17497 35 22 14 
-0.183489 0.207894 1.19184 43 22 1 
-0.295558 0.265083 1.31344 144 129 108 
-0.319411 0.307226 1.40301 101 90 84 
-0.161439 0.225382 1.20061 65 55 30 
0.0174819 0.193223 1.17204 34 27 19 
-0.0279183 0.212141 1.15259 49 40 33 
-0.153512 0.234331 1.15737 97 87 78 
-0.2605 0.289902 1.22864 107 98 81 
-0.140182 0.251191 1.15273 26 20 8 
-0.0178969 0.242422 1.13263 36 25 19 
-0.324365 0.391423 1.3862 12 8 0 
-0.307746 0.355781 1.2899 29 17 3 
0.041227 0.273727 1.11031 102 99 94 
-0.223024 0.31398 1.143 47 34 25 
-0.235348 0.317864 1.14895 28 22 0 
-0.137634 0.296116 1.10677 109 99 90 
-0.285418 0.35501 1.22377 123 110 93 
-0.255141 0.333 1.14342 44 30 17 
-0.120632 0.307017 1.09463 95 91 82 
-0.31175 0.387596 1.23296 25 15 3 
-0.202065 0.338884 1.1006 124 114 105 
-0.0819139 0.339173 1.06109 19 16 11 
-0.329666 0.429812 1.20809 44 41 26 
-0.330263 0.434531 1.217 43 37 23 
-0.29889 0.429592 1.15821 72 64 45 
-0.184418 0.393941 1.05455 27 23 12 
-0.0632676 0.39113 1.02627 120 115 109 
-0.178109 0.409025 1.04368 98 95 88 
-0.274924 0.445012 1.0795 20 10 0 
-0.242756 0.437631 1.05176 37 33 22 
-0.261955 0.451924 1.06157 37 31 17 
-0.255245 0.448651 1.05115 123 120 103 
-0.171928 0.432886 1.00643 85 84 80 
-0.186078 0.444231 1.00801 81 78 71 
-0.241229 0.465817 1.02655 84 81 74 
-0.0448007 -0.663817 1.71647 124 119 113 
-0.173317 -0.536005 1.64807 36 33 24 
-0.266072 -0.492532 2.0134 175 175 175 
-0.278347 -0.456561 1.88141 106 98 87 
-0.177336 -0.43741 1.56315 38 31 21 
-0.311221 -0.351614 1.71546 102 97 91 
-0.316453 -0.335716 1.696 91 88 83 
-0.210599 -0.328007 1.48572 15 11 12 
0.0107359 -0.400337 1.46801 35 32 27 
-0.209937 -0.300781 1.46667 24 19 13 
-0.0921311 -0.348583 1.45785 21 16 12 
-0.321829 -0.243517 1.56679 17 14 5 
-0.321871 -0.221687 1.60071 105 101 89 
-0.0516074 -0.327352 1.43732 17 12 9 
-0.184681 -0.266852 1.42999 53 45 42 
-0.0142212 -0.331471 1.43497 53 50 43 
-0.0933863 -0.293026 1.42733 116 112 103 
-0.331982 -0.187249 1.59006 19 18 0 
-0.208059 -0.235767 1.4388 5 4 0 
-0.341116 -0.173099 1.69572 25 20 16 
-0.284003 -0.198405 1.51531 14 10 7 
-0.262933 -0.203652 1.52653 71 68 59 
-0.156986 -0.2476 1.42168 57 56 54 
-0.335823 -0.165045 1.648 34 31 24 
-0.0394184 -0.290509 1.41028 71 67 64 
-0.275605 -0.192123 1.50613 73 70 63 
-0.228638 -0.20841 1.48829 2 2 0 
-0.213199 -0.216613 1.43289 3 2 0 
-0.201766 -0.220349 1.43823 1 0 0 
-0.282758 -0.176964 1.51799 83 78 72 
-0.27372 -0.158135 1.52687 87 78 69 
-0.0228185 -0.256126 1.40747 68 67 65 
-0.00792012 -0.254498 1.41892 101 98 93 
-0.241656 -0.148759 1.43629 53 43 33 
-0.318897 -0.0961853 1.72488 94 93 88 
-0.30007 -0.111572 1.56207 13 7 0 
-0.306621 -0.0991721 1.58349 20 17 8 
-0.240426 -0.136051 1.42443 132 123 108 
-0.296101 -0.106008 1.53742 14 4 0 
-0.128034 -0.156384 1.38496 45 35 25 
0.0684629 -0.220715 1.41436 108 104 95 
-0.3098 -0.0782786 1.51411 19 9 0 
-0.0378669 -0.178795 1.35463 34 25 16 
-0.265354 -0.0835934 1.48073 132 123 108 
-0.292732 -0.0528617 1.51915 34 22 10 
-0.225653 -0.0621544 1.39813 151 134 118 
-0.203549 -0.0706892 1.38827 121 111 99 
-0.311949 -0.00231028 1.63588 21 17 6 
-0.137753 -0.0923167 1.35519 20 8 0 
-0.297157 -0.0113716 1.51779 121 114 98 
-0.303918 0.0190344 1.65676 37 35 20 
-0.166054 -0.0641847 1.30862 38 24 11 
-0.290865 -0.00679461 1.42219 16 4 0 
-0.287062 0.00692727 1.48031 13 4 0 
0.101513 -0.118455 1.37449 28 19 10 
-0.0553694 -0.0797024 1.31193 35 21 8 
-0.317433 0.0471728 1.59091 29 25 13 
-0.284688 0.0316665 1.51193 18 6 0 
-0.228775 -0.00832187 1.31743 146 134 120 
-0.269205 0.0291377 1.40915 131 121 96 
-0.00536788 -0.0453882 1.32528 124 114 104 
-0.308057 0.0787605 1.43475 131 119 105 
-0.316641 0.102981 1.50955 101 91 79 
-0.289386 0.131547 1.61442 21 0 0 
-0.251372 0.0812048 1.3543 41 28 9 
-0.203553 0.0595028 1.28032 151 143 124 
-0.0461881 0.0271774 1.2526 32 20 6 
-0.312322 0.151989 1.52027 17 8 1 
-0.23798 0.088 1.27582 47 35 21 
-0.304424 0.152387 1.49245 8 0 0 
-0.312008 0.164699 1.46495 10 2 0 
-0.0200625 0.0494461 1.24586 110 103 97 
-0.160128 0.0842304 1.25186 54 40 14 
-0.310472 0.186361 1.53546 35 23 11 
-0.322596 0.175487 1.42131 16 4 0 
-0.253143 0.126034 1.27796 137 125 103 
-0.306464 0.166253 1.3833 27 12 0 
-0.0448175 0.0775009 1.22442 33 20 14 
-0.30059 0.172026 1.37527 117 103 90 
-0.165355 0.131061 1.22587 51 37 10 
-0.292774 0.212807 1.36629 44 34 9 
-0.224961 0.163639 1.23162 131 120 98 
-0.279885 0.202864 1.33048 40 24 0 
-0.148978 0.144267 1.19859 52 40 26 
-0.300288 0.294421 1.53851 15 10 6 
-0.304068 0.245076 1.36331 57 49 26 
-0.145115 0.168395 1.18614 21 11 0 
-0.322429 0.284468 1.46426 21 17 8 
-0.301236 0.313347 1.525 159 156 149 
-0.0520615 0.166001 1.17314 14 7 1 
-0.317129 0.286874 1.33792 134 118 95 
-0.262523 0.272403 1.26546 23 9 0 
-0.324024 0.312437 1.34476 24 10 0 
-0.0817458 0.214126 1.14078 34 24 14 
-0.308847 0.330759 1.30991 132 124 105 
-0.22034 0.278715 1.16882 30 23 13 
-0.29852 0.400416 1.48196 5 4 0 
-0.157997 0.273339 1.13501 27 21 9 
-0.236933 0.292772 1.1595 17 13 1 
-0.317181 0.403787 1.41013 138 133 127 
-0.0050569 0.277086 1.10689 38 33 29 
-0.315361 0.433322 1.42423 7 4 0 
-0.0646641 0.289247 1.10098 25 22 17 
-0.319794 0.433459 1.40445 33 28 25 
0.098817 0.293329 1.12623 111 107 104 
-0.320867 0.417818 1.34639 27 19 16 
-0.0468948 0.306492 1.08419 10 6 3 
-0.333139 0.433285 1.34703 115 112 105 
-0.330332 0.481689 1.39566 59 59 51 
-0.242967 0.375179 1.10774 50 42 31 
-0.0859745 0.346764 1.05113 16 13 8 
-0.327625 0.437144 1.22969 104 95 78 
-0.161311 0.352967 1.04676 64 60 51 
0.017444 0.352152 1.06161 31 26 23 
-0.22733 0.390274 1.08964 42 32 22 
-0.170066 0.380941 1.05021 37 28 21 
-0.256601 0.405598 1.0949 41 32 17 
-0.216506 0.409742 1.07164 54 46 35 
-0.31538 0.457042 1.13432 35 28 12 
-0.274774 0.449304 1.06455 45 39 23 
-0.272783 0.453774 1.07381 30 23 17 
-0.228214 0.432353 1.02358 92 88 79 
-0.351645 0.568004 1.29909 113 109 108 
-0.278854 0.466824 1.06617 92 88 79 
-0.258365 0.473647 1.04058 89 82 72 
-0.260507 0.481443 1.02622 71 67 55 
-0.556907 0.314964 0.55609 16 13 0 
0.0406664 -0.726292 1.78134 202 206 207 
-0.250492 -0.500921 2.04499 170 170 170 
-0.243043 -0.381187 1.53628 42 39 34 
-0.113895 -0.331436 1.44304 37 32 28 
-0.252172 -0.237966 1.47705 70 66 57 
-0.294843 -0.214043 1.5071 91 86 82 
-0.32163 -0.19838 1.60148 111 101 89 
-0.335542 -0.160876 1.63229 16 12 11 
-0.32297 -0.111473 1.65929 11 7 6 
-0.322523 -0.11002 1.67546 27 22 19 
-0.050541 -0.228562 1.40584 12 11 9 
-0.320771 -0.0945313 1.58963 103 97 85 
-0.314472 -0.0853102 1.718 11 7 8 
0.123504 -0.259195 1.45688 89 88 86 
-0.282118 -0.10776 1.49386 112 100 86 
-0.321887 -0.0813571 1.53409 26 17 8 
-0.316342 -0.0779519 1.54848 17 11 0 
-0.299395 -0.0427032 1.73834 22 17 11 
-0.103352 -0.145893 1.37385 40 31 22 
-0.277628 -0.0718299 1.48576 85 76 69 
-0.285531 -0.0670447 1.49107 13 3 0 
-0.113157 -0.102924 1.32414 34 24 12 
-0.0811452 -0.108738 1.35535 41 31 19 
-0.327211 0.0328858 1.48208 123 111 97 
-0.24476 0.0371721 1.37791 21 8 0 
-0.310619 0.0803308 1.35833 28 15 0 
-0.258534 0.0834394 1.37464 24 11 0 
-0.16189 0.0887268 1.24144 143 132 112 
-0.31827 0.170321 1.38334 14 0 0 
0.00826297 0.0779872 1.26739 25 15 6 
-0.292967 0.186054 1.43955 8 0 0 
-0.288593 0.180704 1.34297 47 32 11 
-0.317042 0.264585 1.37025 16 5 0 
-0.167481 0.184006 1.18303 27 15 1 
0.0862127 0.174461 1.2102 12 8 7 
-0.303304 0.291712 1.34177 153 139 112 
-0.285353 0.28359 1.28512 37 27 2 
-0.297052 0.359968 1.43542 149 143 131 
-0.257122 0.300275 1.25063 32 15 0 
-0.264347 0.315297 1.24075 19 6 0 
-0.229852 0.337805 1.123 26 21 15 
-0.241021 0.387703 1.09515 124 127 118 
0.0778627 0.379442 1.07031 154 127 84 
-0.117449 0.405751 1.03061 101 98 93 
-0.174669 0.410859 1.02322 96 91 85 
-0.185577 0.433996 1.01809 93 89 86 
-0.296011 0.497714 1.04541 95 91 82 
-0.201774 -0.257969 1.46102 120 119 114 
-0.345304 -0.157826 1.61623 17 16 14 
-0.250825 -0.183287 1.46639 120 110 100 
-0.0654763 -0.232965 1.41085 108 105 96 
-0.0703809 -0.169064 1.37756 25 13 1 
0.207666 -0.237 1.50372 20 20 20 
-0.0829625 -0.0895748 1.35572 88 44 41 
-0.17597 0.0136309 1.28591 137 123 97 
-0.32574 0.109778 1.45366 48 38 26 
-0.298807 0.145029 1.42208 119 110 93 
-0.315399 0.156466 1.40858 123 112 90 
-0.305419 0.188714 1.38189 51 33 13 
0.151806 0.158565 1.25296 201 202 204 
0.11959 0.156371 1.21781 26 26 26 
-0.312315 0.305498 1.38802 11 4 0 
-0.241517 0.285291 1.24531 90 79 57 
-0.222057 0.260549 1.17505 61 51 41 
0.0456061 0.234972 1.13571 83 78 74 
-0.237281 0.298828 1.21447 61 50 32 
-0.0673265 0.252714 1.13641 28 19 12 
-0.320508 0.393924 1.42073 22 22 14 
-0.219547 0.332793 1.11254 30 21 14 
-0.118782 0.321516 1.06276 106 103 96 
-0.215595 0.388549 1.06614 44 37 27 
-0.257764 0.412862 1.0738 94 84 72 
0.153422 0.502521 1.03371 42 36 22 
-0.0589973 -0.481839 1.53437 32 29 24 
-0.182666 -0.252346 1.5778 65 56 47 
-0.256929 -0.226198 1.48007 72 64 53 
-0.313836 -0.195328 1.55994 8 6 9 
-0.294811 -0.205514 1.5205 81 72 63 
-0.306981 -0.189265 1.60443 8 7 12 
-0.322471 -0.154728 1.53587 8 4 5 
-0.346672 -0.12565 1.66989 16 15 13 
-0.313815 -0.136745 1.62387 7 7 5 
-0.2928 -0.0676985 1.77089 23 20 15 
-0.158336 -0.0210275 1.2903 39 31 20 
-0.286709 0.0666481 1.33145 142 125 109 
-0.16822 0.436784 1.02244 83 79 76 
-0.5875 0.319432 0.572044 94 87 61 
-0.185867 0.118583 1.20635 23 11 0 
-0.158301 0.3468 1.04366 80 75 69 
-0.202165 -0.0402714 1.30219 10 1 0 
-0.131848 0.179719 1.15194 14 10 0 
-0.180867 0.237357 1.1364 27 23 11 
-0.116092 0.121381 1.17872 146 132 119 
-0.156075 0.216437 1.13834 10 0 0 
-0.142038 0.242911 1.11908 110 102 91 
-0.297609 0.25378 1.24764 28 14 0 
-0.164568 -0.302381 1.40391 106 99 93 
-0.281143 -0.275197 1.47582 102 91 87 
-0.171533 -0.270931 1.39097 111 107 96 
-0.15829 -0.167468 1.34634 60 55 51 
-0.16848 -0.150831 1.3414 117 109 98 
-0.131489 -0.115841 1.31124 18 8 0 
-0.258715 -0.0712395 1.36456 9 0 0 
-0.23486 -0.0638335 1.3336 123 116 100 
-0.282351 -0.0129019 1.36419 17 5 0 
-0.317031 0.0200678 1.42059 8 0 0 
-0.18355 0.0026189 1.26597 44 35 20 
-0.168025 0.0941786 1.21288 117 104 88 
-0.175068 0.112367 1.20438 96 82 69 
-0.168593 0.135677 1.1892 43 36 20 
-0.316319 0.199725 1.32641 147 136 114 
-0.17134 0.192702 1.1588 7 0 0 
-0.265075 0.244495 1.20426 37 24 8 
-0.328159 0.286424 1.32257 101 90 72 
-0.192874 0.234329 1.14637 112 104 91 
-0.281439 0.49038 1.03529 90 85 79 
-0.17907 -0.127838 1.33394 13 5 0 
-0.113717 -0.120458 1.30986 19 9 0 
-0.205383 0.0250043 1.26855 115 101 90 
-0.267721 0.216434 1.22264 81 69 53 
-0.132811 0.224088 1.12728 24 11 5 
-0.155007 0.357565 1.04164 22 13 4 
-0.287716 0.0356116 1.34874 41 25 12 
-0.0811048 0.0113231 1.2357 108 98 86 
-0.0783322 0.163974 1.15349 3 0 0 
-0.304486 0.385117 1.15515 59 50 33 
-0.243877 -0.407035 1.54956 37 34 29 
-0.255775 -0.287216 1.44945 8 4 0 
-0.251693 -0.28312 1.44145 20 15 9 
-0.148004 -0.319097 1.40449 108 105 100 
-0.230521 -0.284607 1.42791 121 114 104 
-0.321104 -0.249403 1.51836 78 69 60 
-0.287274 -0.260222 1.46843 101 92 87 
-0.243235 -0.267868 1.42903 75 72 67 
-0.204082 -0.277831 1.40647 36 31 28 
-0.349315 -0.180896 1.55982 6 3 0 
-0.253643 -0.18673 1.41693 14 5 0 
-0.291587 -0.165926 1.45408 133 123 113 
-0.314185 -0.156318 1.48966 11 7 0 
-0.236489 -0.164777 1.38135 34 31 22 
-0.152222 -0.18849 1.357 13 9 0 
-0.302095 -0.133202 1.45435 80 74 62 
-0.32581 -0.115555 1.49862 107 100 90 
-0.254162 -0.143292 1.39596 125 118 108 
-0.311601 -0.11963 1.46645 100 91 82 
-0.158433 -0.169336 1.34842 12 8 5 
-0.33907 -0.0938372 1.54872 104 102 89 
-0.26705 -0.118594 1.39737 104 90 77 
-0.126867 -0.159042 1.33396 115 109 97 
-0.22767 -0.124187 1.36023 13 4 0 
-0.297749 -0.0976004 1.42909 41 32 23 
-0.278451 -0.10316 1.40242 138 129 112 
-0.184147 -0.135835 1.34044 29 25 14 
-0.313342 -0.0880777 1.45281 34 25 18 
-0.114584 -0.157649 1.3313 9 0 0 
-0.326563 -0.0797369 1.4803 109 100 91 
-0.267014 -0.102962 1.3876 12 3 0 
-0.333372 -0.0734616 1.50343 90 86 77 
-0.234901 -0.1082 1.35761 93 89 78 
-0.162104 -0.128928 1.32736 30 22 11 
-0.338408 -0.0590267 1.52275 89 80 71 
-0.144184 -0.129509 1.32151 24 14 4 
-0.158359 -0.120617 1.31983 97 88 79 
-0.316927 -0.0497615 1.44247 8 0 0 
-0.247487 -0.0757543 1.35158 25 16 1 
-0.220376 -0.0848225 1.33596 101 92 83 
-0.330085 -0.0399661 1.4691 29 20 5 
-0.299503 -0.0519735 1.41314 43 37 21 
-0.0946389 -0.119288 1.30674 24 14 4 
-0.330456 -0.0254312 1.46763 20 12 0 
-0.313221 -0.0308328 1.42333 121 117 105 
-0.201449 -0.0737195 1.31595 154 150 139 
-0.192375 -0.0750974 1.31091 121 113 102 
-0.322008 -0.012936 1.43816 8 2 0 
-0.292786 -0.020718 1.37665 108 96 82 
-0.277818 -0.0270846 1.36029 126 114 100 
-0.263087 -0.0320235 1.34553 55 41 30 
-0.327731 2.58922e-05 1.44752 112 106 94 
-0.334361 0.00680253 1.46543 111 103 90 
-0.308053 -0.00702875 1.39753 133 124 109 
-0.313687 0.00558437 1.40935 124 109 90 
-0.325309 0.0122893 1.4323 10 0 0 
-0.332655 0.0217313 1.45584 36 27 12 
-0.305095 0.0079209 1.38576 35 23 7 
-0.25453 -0.0129286 1.32905 117 103 90 
-0.338815 0.0371877 1.48997 103 99 87 
-0.337091 0.0348914 1.46985 42 34 21 
-0.243206 -0.00853926 1.31466 35 22 6 
-0.324243 0.0300374 1.42247 117 109 90 
-0.165259 -0.028469 1.27652 50 39 17 
-0.110949 -0.0394 1.28143 25 0 0 
-0.201574 -0.00565604 1.28215 12 2 0 
-0.32501 0.0469081 1.41623 17 8 0 
-0.211315 0.00584884 1.27991 105 101 89 
-0.318397 0.0536112 1.39606 117 106 88 
-0.310272 0.0510659 1.37666 109 96 79 
-0.32766 0.0623702 1.41201 31 24 6 
-0.330711 0.0705 1.42746 15 6 0 
-0.320657 0.0632379 1.39815 22 9 0 
-0.22039 0.0205858 1.28044 136 123 107 
-0.31302 0.0629831 1.37712 118 106 90 
-0.329233 0.0774063 1.41272 10 0 0 
-0.317499 0.0766314 1.37907 109 101 90 
-0.177539 0.0223018 1.25393 10 0 0 
-0.244998 0.0463652 1.28606 35 23 7 
-0.326221 0.0862512 1.39467 30 18 2 
-0.314627 0.0819625 1.37137 39 29 17 
-0.336505 0.100148 1.44237 102 90 78 
-0.327801 0.0920066 1.40211 96 84 70 
-0.32112 0.0869933 1.38365 120 110 98 
-0.337792 0.106869 1.45249 25 18 2 
-0.249698 0.0567948 1.28548 20 12 0 
-0.328065 0.104689 1.39509 41 29 13 
-0.183793 0.0508742 1.24221 13 1 0 
-0.21026 0.0597311 1.25397 118 101 91 
-0.318714 0.107044 1.37038 105 93 79 
-0.248671 0.0747204 1.27474 37 27 15 
-0.105861 0.0396085 1.22419 97 83 70 
-0.243886 0.0818263 1.26917 38 24 11 
-0.329585 0.126288 1.393 110 96 83 
-0.291294 0.10149 1.31191 46 37 22 
-0.30817 0.111408 1.33982 110 98 82 
-0.318191 0.11948 1.35943 120 111 96 
-0.182631 0.0674406 1.23455 34 19 0 
-0.259298 0.0956471 1.27768 113 101 89 
-0.217097 0.0828489 1.24559 32 29 14 
-0.20114 0.0789642 1.23738 128 115 98 
-0.332757 0.143407 1.39593 45 36 21 
-0.324211 0.138055 1.36664 43 31 15 
-0.31764 0.134186 1.34966 131 118 101 
-0.0884101 0.0569428 1.21262 126 117 110 
-0.183019 0.0840055 1.22412 117 99 75 
-0.272361 0.117029 1.2781 133 121 107 
-0.324849 0.15146 1.36215 11 0 0 
-0.263843 0.125992 1.26534 67 55 39 
-0.320761 0.157112 1.3496 119 108 88 
-0.329828 0.164975 1.37122 124 117 101 
-0.218279 0.112189 1.233 113 97 82 
-0.314693 0.158212 1.3317 132 116 103 
-0.306703 0.156708 1.31478 104 88 73 
-0.332875 0.179201 1.38135 10 0 0 
-0.338084 0.188617 1.41098 93 83 73 
-0.335482 0.189635 1.38861 106 100 84 
-0.332436 0.188564 1.37528 118 108 96 
-0.317914 0.175615 1.33256 122 106 83 
-0.325535 0.183761 1.35064 45 29 4 
-0.196858 0.131653 1.20768 48 33 12 
-0.109134 0.110752 1.18992 32 25 15 
-0.316948 0.186043 1.31882 79 61 37 
-0.300305 0.180373 1.29179 41 29 15 
-0.182866 0.136206 1.19559 51 42 27 
-0.327882 0.211728 1.34203 108 97 79 
-0.259787 0.173624 1.23526 140 118 97 
-0.296745 0.194858 1.2762 146 139 121 
-0.194112 0.154172 1.19032 76 64 52 
-0.12946 0.139173 1.17373 22 14 1 
-0.3341 0.22714 1.36164 61 52 35 
-0.333395 0.233304 1.36698 89 82 66 
-0.17442 0.155758 1.18285 18 6 0 
-0.107337 0.139721 1.1684 42 35 27 
-0.320412 0.22158 1.31838 123 111 87 
-0.327773 0.229536 1.33869 118 109 94 
-0.232963 0.182125 1.20371 27 19 8 
-0.332336 0.243693 1.35386 16 6 0 
-0.320553 0.231061 1.31104 150 137 118 
-0.325362 0.238012 1.32731 42 30 14 
-0.30928 0.224403 1.28338 117 104 88 
-0.205641 0.182822 1.18453 25 13 1 
-0.315244 0.233173 1.29511 48 35 16 
-0.338087 0.268696 1.37954 36 26 14 
-0.318385 0.24426 1.30384 150 132 110 
-0.204642 0.195062 1.17946 10 0 0 
-0.179739 0.187254 1.16867 35 25 15 
-0.158812 0.184748 1.15989 38 28 18 
-0.327306 0.26058 1.31852 50 38 22 
-0.193995 0.19573 1.17091 118 106 82 
-0.209562 0.206525 1.17612 25 13 0 
-0.139145 0.190361 1.15021 28 19 10 
-0.184117 0.206943 1.15874 121 111 99 
-0.32883 0.276062 1.30882 48 36 12 
-0.332847 0.282143 1.32518 125 117 98 
-0.314609 0.266223 1.27086 137 129 110 
-0.0793911 0.193193 1.13963 26 18 7 
-0.196014 0.218519 1.16055 142 132 120 
-0.173097 0.215162 1.14951 109 99 89 
-0.334031 0.295451 1.3246 109 96 79 
-0.210718 0.228063 1.1636 51 39 23 
-0.185947 0.224627 1.14968 100 91 82 
-0.152382 0.216822 1.14059 11 7 0 
-0.223655 0.237449 1.16804 137 124 108 
-0.326406 0.292352 1.29067 148 136 120 
-0.331464 0.302108 1.31407 22 13 0 
-0.247887 0.253087 1.1814 132 119 102 
-0.314534 0.290221 1.25955 90 78 64 
-0.330536 0.310727 1.29841 113 107 95 
-0.212364 0.24961 1.15178 110 102 89 
-0.33619 0.326322 1.32044 130 122 111 
-0.314711 0.305308 1.25402 14 6 0 
-0.328022 0.31978 1.28196 37 28 11 
-0.0924715 0.23505 1.11713 137 135 123 
-0.326119 0.330872 1.27043 129 121 108 
-0.248197 0.284301 1.16218 120 108 92 
-0.180558 0.270082 1.12269 46 40 28 
