ply                 
format ascii 1.0    
element vertex 1271
property float x    
property float y    
property float z    
property uchar red  
property uchar green
property uchar blue 
end_header          
-0.176338 0.362125 1.05837 33 30 21 
-0.316819 0.434493 1.1532 125 112 95 
-0.241839 -0.333483 1.45677 139 132 124 
-0.226292 -0.273201 1.4258 22 19 10 
-0.187646 -0.283951 1.40809 18 17 13 
-0.188714 -0.26077 1.39577 68 63 59 
-0.134835 -0.278522 1.38112 116 112 103 
-0.29543 -0.193982 1.48022 71 68 59 
-0.263458 -0.19791 1.44162 2 2 0 
-0.305741 -0.170716 1.48544 83 78 72 
-0.18328 -0.22 1.39257 21 12 3 
-0.318411 -0.155972 1.51112 11 2 0 
-0.276099 -0.129396 1.42537 19 15 4 
-0.212992 -0.139411 1.36739 10 3 0 
-0.311224 -0.0515574 1.4345 128 120 101 
-0.206109 -0.0969863 1.33856 53 41 29 
-0.325607 0.00356184 1.44407 56 46 34 
-0.336558 0.0475445 1.4845 119 112 96 
-0.180706 -0.0293371 1.2891 118 104 93 
-0.197935 -0.0174265 1.28735 24 15 0 
-0.27986 0.0475206 1.3393 157 143 130 
-0.275327 0.0447712 1.32568 58 41 25 
-0.215641 0.0600267 1.26075 25 13 1 
-0.284758 0.0900439 1.3196 59 46 30 
-0.178738 0.0587416 1.24229 122 108 95 
-0.19543 0.0667845 1.25267 55 40 17 
-0.166357 0.0898627 1.21901 52 43 28 
-0.320184 0.159526 1.33527 144 133 113 
-0.329744 0.233542 1.33372 49 41 22 
-0.181024 0.169234 1.18458 34 22 6 
-0.181527 0.180434 1.17936 41 26 5 
-0.181094 0.200605 1.17465 132 119 102 
-0.335425 0.298443 1.3618 91 84 68 
-0.2872 0.266775 1.23731 23 9 0 
-0.244669 0.246913 1.19103 35 22 5 
-0.150882 0.224988 1.14136 39 29 17 
-0.212553 0.262122 1.15341 41 29 17 
-0.324659 0.338488 1.26509 61 48 32 
-0.340315 0.385312 1.35999 136 131 125 
-0.184345 0.297841 1.11049 40 30 21 
-0.155052 0.303248 1.08919 99 95 84 
-0.277076 0.366072 1.12033 31 19 5 
-0.18486 0.341871 1.07267 37 29 18 
-0.259336 0.427166 1.07511 44 36 23 
-0.29256 0.445777 1.08823 130 120 108 
-0.281165 0.450878 1.06605 30 23 17 
-0.26478 0.448301 1.05365 44 35 26 
-0.150389 -0.319057 1.41912 29 20 15 
-0.309744 -0.20942 1.48677 91 86 82 
-0.232488 -0.23574 1.41596 111 107 104 
-0.358137 -0.155252 1.59587 16 12 11 
-0.21569 -0.165462 1.38615 22 19 10 
-0.295625 0.0202112 1.37076 20 4 0 
-0.253335 0.0128434 1.31617 167 154 137 
-0.270583 0.104774 1.30294 37 19 0 
-0.256125 0.156347 1.24497 160 148 122 
-0.183298 0.194063 1.18275 15 1 0 
-0.256782 0.22639 1.21287 36 21 0 
-0.290414 0.250413 1.24354 46 34 8 
-0.167874 0.317512 1.08957 109 105 93 
-0.289497 -0.285031 1.49232 11 10 6 
-0.331302 0.0281231 1.50429 7 3 0 
-0.167928 0.353321 1.06004 44 34 25 
-0.278442 -0.219454 1.45147 72 64 53 
-0.236562 -0.210862 1.41214 17 12 8 
-0.339314 -0.13087 1.58336 7 7 5 
-0.304386 0.112135 1.38122 145 130 109 
-0.302136 0.279438 1.25669 26 22 10 
-0.241232 0.413265 1.06966 104 104 92 
-0.259219 -0.492507 1.67598 24 14 2 
-0.213437 -0.493211 1.58379 137 134 125 
-0.218019 -0.488383 1.57981 134 131 122 
-0.275245 -0.427927 1.63513 50 43 33 
-0.256282 -0.426318 1.59203 117 114 105 
-0.245479 -0.421719 1.55626 34 31 26 
-0.229956 -0.42469 1.52807 131 127 116 
-0.233997 -0.415229 1.52362 24 20 9 
-0.288795 -0.386753 1.61777 23 19 10 
-0.333447 -0.358524 1.67773 113 109 100 
-0.333656 -0.352497 1.66532 22 18 9 
-0.263266 -0.371901 1.51029 25 21 10 
-0.340922 -0.336728 1.66882 104 100 89 
-0.333167 -0.327841 1.62308 50 46 35 
-0.272522 -0.350718 1.49732 41 39 26 
-0.250548 -0.342811 1.46576 36 27 20 
-0.358044 -0.293071 1.62566 97 94 89 
-0.283366 -0.288333 1.47021 26 21 17 
-0.340077 -0.252432 1.53719 15 11 2 
-0.346518 -0.24332 1.54986 12 9 4 
-0.313312 -0.259125 1.49994 27 23 14 
-0.348457 -0.230235 1.5466 27 20 12 
-0.363275 -0.21479 1.59243 33 21 5 
-0.340916 -0.223782 1.52112 40 32 21 
-0.36606 -0.198555 1.60217 42 38 27 
-0.3405 -0.20355 1.52054 10 6 0 
-0.348751 -0.194429 1.53173 99 93 79 
-0.295522 -0.190224 1.45907 22 14 3 
-0.365696 -0.151608 1.60105 110 109 104 
-0.200218 -0.221453 1.38916 17 14 5 
-0.251389 -0.192534 1.41336 6 0 0 
-0.275527 -0.180112 1.42821 19 9 0 
-0.299431 -0.164889 1.4519 15 8 0 
-0.315322 -0.150374 1.46594 85 81 72 
-0.327777 -0.141067 1.49066 118 115 100 
-0.160567 -0.21353 1.37053 77 69 67 
-0.257593 -0.170203 1.40775 15 8 0 
-0.303353 -0.14753 1.44839 136 126 116 
-0.241979 -0.173685 1.38223 29 25 16 
-0.328082 -0.130184 1.48615 97 89 76 
-0.121835 -0.219697 1.36163 77 74 69 
-0.249082 -0.16499 1.39804 22 13 4 
-0.165068 -0.200459 1.36313 6 4 0 
-0.334851 -0.119628 1.49489 118 108 98 
-0.339287 -0.116355 1.50671 96 86 77 
-0.353232 -0.0989947 1.6235 61 56 50 
-0.181484 -0.186379 1.36137 15 11 2 
-0.319212 -0.122629 1.46217 95 86 77 
-0.267177 -0.148151 1.40237 7 0 0 
-0.329527 -0.114736 1.48198 10 2 0 
-0.302063 -0.126505 1.43693 32 23 14 
-0.136946 -0.197665 1.35579 99 92 84 
-0.32628 -0.112132 1.47342 30 21 4 
-0.315729 -0.116318 1.4523 110 104 92 
-0.127635 -0.193242 1.34388 16 12 1 
-0.324836 -0.103893 1.4608 99 92 82 
-0.252098 -0.138589 1.38664 125 117 106 
-0.316812 -0.101926 1.45039 11 1 0 
-0.243778 -0.135085 1.38058 119 109 97 
-0.160497 -0.169357 1.3481 14 12 0 
-0.334611 -0.0881518 1.4825 88 82 70 
-0.32774 -0.0903832 1.46523 104 96 83 
-0.324993 -0.0917853 1.45685 8 5 0 
-0.299002 -0.104865 1.41999 101 89 77 
-0.178684 -0.157383 1.34552 121 113 102 
-0.238401 -0.129949 1.36425 132 128 117 
-0.266296 -0.116671 1.38316 43 40 23 
-0.249869 -0.123721 1.37292 6 0 0 
-0.326291 -0.0830192 1.46752 7 0 0 
-0.303761 -0.0937993 1.42495 17 9 0 
-0.348701 -0.0623131 1.53086 4 0 0 
-0.35004 -0.0628844 1.52163 19 12 2 
-0.320471 -0.0812393 1.45088 90 82 69 
-0.311516 -0.086198 1.43492 139 132 116 
-0.340689 -0.063146 1.48536 84 72 60 
-0.311882 -0.0801698 1.42849 8 0 0 
-0.250959 -0.108902 1.36565 11 1 0 
-0.328931 -0.0694898 1.45541 10 0 0 
-0.325077 -0.0714712 1.44726 111 101 89 
-0.124496 -0.156415 1.32873 25 13 0 
-0.349287 -0.0501322 1.52554 21 18 3 
-0.155256 -0.14339 1.33392 92 85 79 
-0.11613 -0.157783 1.33137 11 1 0 
-0.312021 -0.0746234 1.42105 148 139 122 
-0.286117 -0.0872307 1.39154 126 112 99 
-0.345917 -0.0509456 1.50187 46 38 25 
-0.314578 -0.0668986 1.43415 17 13 2 
-0.350344 -0.0337907 1.58748 111 109 96 
-0.331504 -0.0565879 1.45428 45 42 27 
-0.130978 -0.140938 1.32263 18 8 0 
-0.351421 -0.0364696 1.51925 31 24 8 
-0.35028 -0.0288794 1.57214 39 32 22 
-0.208162 -0.109768 1.33635 50 42 31 
-0.352084 -0.0335456 1.51451 11 10 0 
-0.314578 -0.0600496 1.41845 66 60 44 
-0.122464 -0.140377 1.32197 28 19 12 
-0.329232 -0.0503016 1.44797 137 130 114 
-0.13878 -0.130801 1.32022 9 0 0 
-0.33334 -0.0433858 1.45691 116 108 89 
-0.324067 -0.0485542 1.43689 8 0 0 
-0.296674 -0.0638812 1.39048 25 13 0 
-0.318231 -0.0514576 1.42368 12 6 0 
-0.100713 -0.140805 1.32018 22 12 3 
-0.188499 -0.108644 1.32625 145 141 130 
-0.306005 -0.0552764 1.40822 107 101 85 
-0.353323 -0.0212702 1.53849 106 103 86 
-0.330293 -0.0399818 1.445 120 108 94 
-0.157269 -0.11296 1.31561 22 12 0 
-0.294782 -0.0549214 1.38509 8 0 0 
-0.336615 -0.0303052 1.45212 95 85 75 
-0.133733 -0.119547 1.3116 113 100 92 
-0.0939414 -0.131984 1.31545 30 23 13 
-0.322795 -0.0358595 1.43063 8 0 0 
-0.124542 -0.120828 1.31222 12 2 0 
-0.351816 -0.0102409 1.54015 109 103 91 
-0.348638 -0.00672988 1.56372 29 27 14 
-0.350846 -0.0112553 1.52559 98 95 78 
-0.318094 -0.0360091 1.4182 127 121 109 
-0.240302 -0.0734229 1.3358 104 95 86 
-0.231674 -0.0746064 1.33513 23 16 6 
-0.197138 -0.0875318 1.32154 5 1 0 
-0.336715 -0.020253 1.45552 119 112 96 
-0.349856 0.00222148 1.57671 114 112 100 
-0.32821 -0.0248404 1.43628 11 6 0 
-0.350332 0.0029697 1.57209 100 98 83 
-0.348245 0.00571928 1.58735 136 134 121 
-0.222883 -0.0744373 1.32532 22 14 3 
-0.0968878 -0.119098 1.3062 36 26 14 
-0.348013 -0.000904543 1.51108 146 141 122 
-0.189788 -0.0825224 1.31461 96 86 77 
-0.180096 -0.0852904 1.30781 14 1 0 
-0.325251 -0.0141266 1.42241 40 31 16 
-0.183446 -0.0771129 1.30557 17 4 0 
-0.346836 0.0056352 1.48538 47 40 24 
-0.342249 0.0227037 1.59046 12 10 0 
-0.333625 -0.0061491 1.42791 18 9 0 
-0.351699 0.0146809 1.52102 91 87 75 
-0.345933 0.0247585 1.58025 8 5 0 
-0.319182 -0.0120828 1.40167 117 105 89 
-0.345886 0.00938455 1.47886 27 20 4 
-0.349793 0.0176905 1.50995 18 15 0 
-0.350485 0.0197624 1.51497 114 111 96 
-0.326703 -0.00329642 1.41699 36 27 10 
-0.350188 0.0238958 1.52851 119 112 102 
-0.335458 0.00413748 1.43122 114 107 89 
-0.31867 -0.00576658 1.40516 71 59 45 
-0.345584 0.0182346 1.47506 120 113 95 
-0.179325 -0.0636787 1.29707 22 9 0 
-0.0872848 -0.0911666 1.29179 41 33 22 
-0.339423 0.0462137 1.6067 28 26 13 
-0.320293 0.0065012 1.4045 130 115 94 
-0.350272 0.0348315 1.51143 83 81 66 
-0.344831 0.0283155 1.47299 58 52 40 
-0.310282 0.00305256 1.38231 120 109 89 
-0.332405 0.0177529 1.42314 12 3 0 
-0.188586 -0.0497814 1.29452 7 5 0 
-0.349276 0.0457391 1.54941 16 12 0 
-0.338642 0.02289 1.43364 48 40 27 
-0.279684 -0.0108166 1.34842 34 22 8 
-0.325137 0.0176821 1.40257 8 1 0 
-0.344545 0.0371857 1.47373 28 19 10 
-0.351029 0.0440521 1.50221 112 110 95 
-0.327523 0.0215019 1.41167 10 0 0 
-0.347295 0.0393432 1.46816 25 15 6 
-0.346115 0.0541788 1.54941 23 16 6 
-0.348794 0.0484147 1.49143 116 115 97 
-0.296631 0.00966475 1.35898 30 21 6 
-0.333197 0.0313138 1.41502 125 112 93 
-0.316783 0.0206755 1.38608 134 125 108 
-0.348585 0.0483345 1.47731 111 109 94 
-0.327591 0.0324457 1.40613 39 26 7 
-0.348275 0.0635338 1.54031 30 24 12 
-0.34655 0.0498287 1.46492 4 0 0 
-0.346974 0.0569786 1.4821 110 109 91 
-0.339821 0.0462596 1.42851 115 108 90 
-0.335943 0.0437722 1.41789 47 34 17 
-0.186516 -0.0262766 1.28309 10 0 0 
-0.169506 -0.0318075 1.27875 47 39 20 
-0.298496 0.0233255 1.35404 104 89 68 
-0.320091 0.0370721 1.38777 132 120 104 
-0.328085 0.0446185 1.40622 137 122 103 
-0.315588 0.0372343 1.37929 35 26 11 
-0.122909 -0.037604 1.27797 60 23 15 
-0.311682 0.0374832 1.36711 123 112 94 
-0.113786 -0.0390481 1.28038 25 0 0 
-0.181048 -0.0170736 1.27566 30 20 10 
-0.318944 0.0456599 1.38274 102 94 75 
-0.0753684 -0.0484228 1.27034 122 110 98 
-0.348302 0.0745429 1.47998 114 107 88 
-0.0629483 -0.0500192 1.2693 48 38 28 
-0.328634 0.0565712 1.40175 44 33 15 
-0.349638 0.0867728 1.5107 95 87 76 
-0.336525 0.0633226 1.40472 31 24 6 
-0.0805999 -0.0367967 1.26087 137 128 113 
-0.34854 0.086181 1.48017 104 96 85 
-0.324839 0.0609543 1.38239 104 93 75 
-0.327999 0.0649622 1.39432 129 117 103 
-0.292914 0.0452581 1.33767 121 112 97 
-0.319602 0.0612006 1.37168 107 95 79 
-0.176734 -0.000619805 1.26485 19 10 0 
-0.348166 0.0950367 1.47013 130 124 108 
-0.330972 0.0747477 1.39404 52 40 24 
-0.326316 0.0715247 1.37964 48 39 24 
-0.178524 0.00613056 1.25879 12 1 0 
-0.348241 0.0970953 1.46137 107 101 85 
-0.317047 0.0690111 1.3629 32 19 2 
-0.345988 0.108662 1.51425 29 22 12 
-0.336596 0.086803 1.40846 26 14 0 
-0.327964 0.0799704 1.3832 70 55 36 
-0.265629 0.0448608 1.29624 25 16 1 
-0.338265 0.097347 1.43218 27 18 1 
-0.333086 0.0889507 1.39495 30 19 1 
-0.310436 0.0750224 1.34709 62 53 36 
-0.321663 0.0828282 1.36603 46 30 14 
-0.349307 0.116063 1.47771 156 146 134 
-0.346642 0.111561 1.4559 101 93 80 
-0.331375 0.0917325 1.37461 106 93 77 
-0.305698 0.0781136 1.3377 32 23 8 
-0.330586 0.0967019 1.38469 24 11 0 
-0.339207 0.1024 1.39689 22 10 0 
-0.348339 0.122403 1.47264 148 139 124 
-0.178005 0.0370224 1.24639 33 15 1 
-0.3159 0.0975921 1.34515 126 114 100 
-0.32704 0.109304 1.3686 119 106 87 
-0.0717756 0.0129633 1.23795 14 4 0 
-0.312045 0.102447 1.33727 124 112 90 
-0.350434 0.143964 1.46996 34 25 18 
-0.27072 0.082257 1.28366 20 8 0 
-0.344119 0.136966 1.41784 63 55 36 
-0.34751 0.151858 1.45261 122 110 96 
-0.329622 0.125593 1.36112 28 17 0 
-0.0744498 0.0308536 1.22696 129 119 109 
-0.106869 0.0400412 1.22419 103 90 81 
-0.3303 0.134459 1.36263 118 109 92 
-0.346196 0.170479 1.47828 13 3 0 
-0.346822 0.171894 1.45301 29 21 10 
-0.291127 0.120919 1.29842 46 34 18 
-0.324359 0.141534 1.34643 25 14 0 
-0.265232 0.115118 1.26188 43 32 12 
-0.348008 0.180762 1.42068 142 129 113 
-0.212464 0.0983788 1.22261 143 124 109 
-0.337004 0.167113 1.3667 44 28 12 
-0.322101 0.208704 1.5331 111 98 90 
-0.326603 0.160891 1.34442 115 102 86 
-0.348166 0.192914 1.43774 136 126 116 
-0.268285 0.129863 1.26141 41 26 3 
-0.296352 0.143052 1.28246 29 17 1 
-0.241622 0.11917 1.23738 143 128 107 
-0.345087 0.18886 1.40556 96 84 68 
-0.345642 0.195574 1.42507 13 1 0 
-0.275566 0.137622 1.26358 162 152 127 
-0.324399 0.167709 1.32925 101 90 68 
-0.0676371 0.0758996 1.20401 26 22 11 
-0.341257 0.188401 1.38107 18 11 0 
-0.335527 0.180654 1.35685 18 5 0 
-0.325657 0.173292 1.33306 135 119 94 
-0.343009 0.19708 1.3932 18 10 0 
-0.242807 0.132492 1.23507 77 63 37 
-0.0931319 0.0896417 1.19745 35 21 10 
-0.0662524 0.0855765 1.19827 109 99 90 
-0.329138 0.185056 1.33625 50 42 21 
-0.27126 0.149782 1.25555 143 132 110 
-0.282213 0.155733 1.26418 65 53 29 
-0.320167 0.178865 1.31634 116 101 80 
-0.268063 0.152329 1.24721 52 36 10 
-0.344739 0.219979 1.42697 14 3 0 
-0.0379844 0.0882057 1.20041 33 26 18 
-0.0670588 0.0941216 1.19423 45 36 27 
-0.330511 0.195744 1.33923 143 131 107 
-0.249941 0.149118 1.23276 139 121 97 
-0.0853536 0.104594 1.18987 40 32 19 
-0.327911 0.197279 1.32745 72 58 29 
-0.320981 0.192359 1.31475 100 88 64 
-0.271592 0.164676 1.24505 134 122 106 
-0.33159 0.204428 1.33583 23 14 0 
-0.160654 0.126729 1.19467 130 120 108 
-0.346106 0.234495 1.42436 99 89 79 
-0.241013 0.153697 1.22077 134 127 111 
-0.131598 0.12049 1.18431 47 38 23 
-0.340359 0.217336 1.35765 22 11 0 
-0.249981 0.162889 1.22483 35 20 0 
-0.112468 0.121625 1.18159 126 114 102 
-0.320049 0.261163 1.50658 97 82 77 
-0.284878 0.18116 1.25477 64 49 26 
-0.327976 0.271317 1.50969 61 53 42 
-0.275001 0.179819 1.2375 145 127 113 
-0.136179 0.13581 1.18018 34 24 15 
-0.320265 0.210461 1.30134 64 40 12 
-0.337869 0.227252 1.34229 53 41 25 
-0.242502 0.169397 1.21296 115 115 103 
-0.330197 0.219425 1.31846 139 123 100 
-0.129234 0.139763 1.17436 23 13 1 
-0.269516 0.186515 1.2316 77 65 41 
-0.227621 0.172554 1.20111 137 126 108 
-0.259148 0.186332 1.22366 143 126 106 
-0.279796 0.195823 1.23613 156 144 122 
-0.167462 0.159054 1.17606 132 122 110 
-0.0958287 0.143833 1.1675 17 8 0 
-0.344292 0.271266 1.42005 27 17 7 
-0.335732 0.241451 1.32748 139 128 106 
-0.187347 0.169342 1.18917 51 42 27 
-0.331346 0.291634 1.48718 4 0 0 
-0.286204 0.206581 1.24259 33 21 0 
-0.224248 0.183531 1.19052 56 48 29 
-0.345026 0.265799 1.37335 102 90 76 
-0.234258 0.188951 1.19343 136 123 106 
-0.265103 0.204925 1.219 156 141 118 
-0.27875 0.210672 1.2247 61 50 32 
-0.0582873 0.152993 1.16386 100 96 87 
-0.147486 0.170296 1.16299 32 19 10 
-0.258936 0.207224 1.20991 30 17 0 
-0.334469 0.26053 1.31832 75 64 42 
-0.320242 0.246477 1.2827 157 145 121 
-0.233271 0.2032 1.19082 141 128 111 
-0.0756662 0.164057 1.15776 17 10 2 
-0.243805 0.207163 1.19437 9 0 0 
-0.292741 0.2305 1.23899 56 43 27 
-0.322531 0.254815 1.28731 54 42 18 
-0.327526 0.259402 1.29505 154 139 116 
-0.27351 0.223802 1.21676 148 132 109 
-0.260647 0.21906 1.20691 31 16 0 
-0.0798173 0.170438 1.15223 16 9 0 
-0.13865 0.182623 1.1542 132 124 111 
-0.123497 0.179725 1.15329 33 24 15 
-0.280585 0.231393 1.21765 141 125 99 
-0.331973 0.269709 1.30459 147 136 108 
-0.284285 0.238815 1.22365 124 111 92 
-0.243259 0.220001 1.18847 57 49 36 
-0.0960693 0.183096 1.14747 51 42 35 
-0.268567 0.234811 1.20967 122 111 93 
-0.337788 0.327064 1.44065 119 116 107 
-0.252156 0.22812 1.1928 13 1 0 
-0.292039 0.249085 1.2277 117 104 87 
-0.259853 0.235149 1.20064 70 59 41 
-0.328754 0.281137 1.28993 61 47 21 
-0.12356 0.197901 1.14448 20 12 1 
-0.100161 0.194171 1.14115 33 29 18 
-0.268481 0.244843 1.20238 30 18 0 
-0.34513 0.307776 1.34464 25 15 3 
-0.226407 0.228235 1.1725 46 34 18 
-0.345746 0.319962 1.37932 85 72 66 
-0.337558 0.293865 1.3071 58 43 14 
-0.242627 0.234688 1.18188 29 17 1 
-0.339036 0.336529 1.42581 12 9 2 
-0.335341 0.292755 1.29997 116 104 82 
-0.215857 0.227145 1.16579 117 105 89 
-0.345755 0.327418 1.3903 9 0 0 
-0.342786 0.334698 1.4055 28 18 9 
-0.290473 0.261748 1.2218 126 113 97 
-0.283372 0.258815 1.21381 34 24 0 
-0.255103 0.245625 1.18848 145 130 107 
-0.237136 0.237669 1.17397 48 40 29 
-0.162107 0.21764 1.14684 92 82 73 
-0.340467 0.341244 1.41566 107 100 90 
-0.341083 0.343268 1.41976 116 109 103 
-0.245088 0.243361 1.17635 144 131 115 
-0.142597 0.216009 1.14035 125 117 106 
-0.343246 0.313708 1.32241 28 16 4 
-0.336915 0.355343 1.4397 140 140 130 
-0.330439 0.297005 1.27829 76 65 43 
-0.331464 0.299612 1.28438 85 73 61 
-0.124154 0.215611 1.13691 52 44 33 
-0.344305 0.319216 1.32931 79 66 57 
-0.0528167 0.206614 1.13691 150 143 133 
-0.222741 0.241875 1.16187 55 42 25 
-0.250154 0.253503 1.18038 151 136 115 
-0.23779 0.247279 1.16841 28 19 2 
-0.260315 0.257192 1.1838 32 21 0 
-0.231972 0.248291 1.17006 149 137 123 
-0.282387 0.270986 1.20714 32 26 10 
-0.27405 0.267031 1.19595 71 61 36 
-0.336099 0.312597 1.29419 29 16 0 
-0.345345 0.343503 1.36907 152 144 133 
-0.129626 0.225524 1.12913 43 32 26 
-0.284341 0.274563 1.19944 15 6 0 
-0.260453 0.268096 1.18324 36 27 12 
-0.223539 0.254161 1.15837 142 130 114 
-0.23717 0.258696 1.16342 45 37 26 
-0.142688 0.232665 1.12841 35 29 17 
-0.343369 0.351874 1.36977 105 97 86 
-0.333927 0.374132 1.43172 87 84 75 
-0.343918 0.355498 1.37532 17 11 0 
-0.270318 0.276009 1.18796 133 121 107 
-0.28816 0.284635 1.2011 100 88 72 
-0.332198 0.322561 1.28376 119 107 85 
-0.253247 0.271967 1.17225 149 133 117 
-0.261845 0.27597 1.17556 19 7 0 
-0.243562 0.268509 1.16294 40 38 26 
-0.233421 0.266905 1.15381 115 102 86 
-0.273564 0.289983 1.19043 50 35 14 
-0.209237 0.262413 1.14116 134 127 117 
-0.342518 0.367982 1.37116 12 8 0 
-0.249854 0.276828 1.16272 137 129 110 
-0.333436 0.331744 1.27205 140 131 114 
-0.335806 0.335874 1.28039 71 62 45 
-0.238237 0.275983 1.1533 27 19 8 
-0.339822 0.381296 1.3924 19 16 7 
-0.256411 0.284598 1.16696 156 143 124 
-0.264529 0.289642 1.16829 75 57 33 
-0.27797 0.299054 1.18194 80 63 45 
-0.245188 0.284399 1.15436 13 7 0 
-0.129069 0.253943 1.11182 115 106 97 
-0.289744 0.316589 1.20697 19 0 0 
-0.284417 0.309862 1.189 110 101 84 
-0.34158 0.387089 1.36606 29 20 13 
-0.211628 0.280836 1.13466 147 137 127 
-0.340679 0.384953 1.35802 6 0 0 
-0.271626 0.304329 1.17234 156 143 126 
-0.13553 0.266945 1.11322 104 95 86 
-0.249804 0.29699 1.153 35 23 7 
-0.345834 0.380738 1.33571 17 13 4 
-0.345437 0.377956 1.32122 89 84 78 
-0.286304 0.316808 1.18372 142 129 112 
-0.336784 0.358527 1.26986 66 53 36 
-0.343977 0.387794 1.33959 90 83 75 
-0.239654 0.29838 1.14129 31 24 14 
-0.340945 0.369856 1.28483 24 16 3 
-0.310123 0.338675 1.21043 50 35 4 
-0.291462 0.327554 1.18534 155 139 123 
-0.27515 0.318793 1.16697 122 113 96 
-0.307737 0.339996 1.2022 133 121 105 
-0.263002 0.316266 1.15449 31 19 3 
-0.112559 0.277775 1.09858 39 32 22 
-0.227252 0.30336 1.12909 31 25 13 
-0.0456877 0.272951 1.09871 15 10 6 
-0.247208 0.311666 1.13628 25 26 10 
-0.329411 0.36195 1.23539 44 36 23 
-0.262067 0.31878 1.14578 89 77 65 
-0.216121 0.304209 1.1182 28 19 10 
-0.306574 0.347704 1.19525 140 131 116 
-0.336604 0.373149 1.24149 142 139 124 
-0.27082 0.328644 1.14719 141 129 115 
-0.103938 0.29113 1.0814 125 122 113 
-0.244363 0.322093 1.12018 51 47 36 
-0.288135 0.343701 1.15637 47 38 23 
-0.316717 0.361674 1.19096 17 9 0 
-0.332626 0.374553 1.21563 25 22 7 
-0.326837 0.369345 1.20384 138 132 120 
-0.251806 0.330873 1.11991 19 13 0 
-0.277614 0.342412 1.13794 43 29 18 
-0.285496 0.347947 1.14695 40 31 16 
-0.262294 0.340755 1.12666 48 40 29 
-0.347047 0.454408 1.37381 27 30 21 
-0.294935 0.357023 1.15235 144 132 118 
-0.320469 0.374598 1.18605 23 15 4 
-0.263829 0.348146 1.13491 142 130 116 
-0.218578 0.327619 1.09681 16 7 0 
-0.284217 0.351726 1.1384 72 58 45 
-0.354251 0.447473 1.34417 82 77 74 
-0.336608 0.471726 1.40236 12 11 6 
-0.330942 0.384553 1.20049 111 102 87 
-0.208077 0.327207 1.09262 7 0 0 
-0.336724 0.391407 1.21175 10 0 0 
-0.108603 0.310408 1.0661 128 125 118 
-0.330371 0.388225 1.19339 119 109 97 
-0.315833 0.378632 1.16957 60 52 41 
-0.217066 0.335732 1.08863 121 117 106 
-0.343988 0.406909 1.21717 43 35 22 
-0.334132 0.398083 1.19695 10 3 0 
-0.30374 0.376226 1.15309 25 13 0 
-0.289749 0.368345 1.13735 46 33 16 
-0.339132 0.405302 1.20822 10 0 0 
-0.225202 0.344933 1.08952 130 122 111 
-0.262091 0.358781 1.11398 41 32 15 
-0.352838 0.463034 1.32125 158 155 148 
-0.310247 0.386763 1.15744 69 57 33 
-0.321571 0.394644 1.17075 147 138 121 
-0.347839 0.418935 1.21978 38 29 14 
-0.331948 0.404994 1.19013 130 121 106 
-0.198248 0.343283 1.07417 121 114 104 
-0.114524 0.331105 1.05652 115 110 106 
-0.213629 0.350331 1.0778 37 29 18 
-0.266348 0.367932 1.10709 53 41 25 
-0.186122 0.343701 1.06637 24 20 8 
-0.274571 0.373855 1.11661 48 36 12 
-0.351997 0.479844 1.33025 17 12 8 
-0.341701 0.421642 1.20365 99 86 69 
-0.316422 0.401179 1.16028 29 16 0 
-0.329269 0.411309 1.17896 114 102 86 
-0.175615 0.347232 1.06154 36 29 21 
-0.356682 0.480382 1.31895 92 87 83 
-0.335641 0.421121 1.19041 115 103 89 
-0.300332 0.396154 1.13699 128 117 99 
-0.23874 0.369131 1.08708 101 93 82 
-0.116928 0.343912 1.04631 15 10 4 
-0.319921 0.410582 1.16175 37 24 8 
-0.306571 0.403753 1.14779 11 0 0 
-0.257623 0.379016 1.09994 116 107 92 
-0.292708 0.395548 1.12928 30 19 0 
-0.35167 0.450114 1.23147 101 91 81 
-0.185388 0.363258 1.06159 36 26 16 
-0.203664 0.366668 1.06179 44 37 27 
-0.192985 0.364905 1.05981 32 24 11 
-0.213437 0.370543 1.06845 47 39 28 
-0.311921 0.413599 1.14754 137 130 112 
-0.233643 0.378446 1.0804 52 42 33 
-0.283037 0.39924 1.11656 28 15 0 
-0.175684 0.364185 1.05338 32 25 17 
-0.165609 0.362999 1.05193 134 126 115 
-0.327848 0.429056 1.17175 117 109 90 
-0.272213 0.394889 1.10504 39 23 0 
-0.248699 0.38652 1.08382 17 13 4 
-0.320034 0.427879 1.15821 54 42 20 
-0.307806 0.418377 1.13752 49 37 15 
-0.118606 0.360975 1.03777 96 93 84 
-0.309967 0.425552 1.14737 64 55 38 
-0.270358 0.403715 1.09777 56 49 33 
-0.29675 0.417445 1.12131 52 38 25 
-0.181826 0.377913 1.04901 37 28 19 
-0.160857 0.373692 1.04269 37 28 19 
-0.260124 0.4022 1.08703 16 10 0 
-0.219714 0.391676 1.06355 156 149 139 
-0.238045 0.398006 1.07049 56 48 37 
-0.246331 0.404233 1.07421 43 34 27 
-0.29379 0.426691 1.11396 65 53 37 
-0.211688 0.395378 1.05496 28 18 8 
-0.185189 0.389967 1.04636 27 23 12 
-0.31501 0.44319 1.13925 89 82 64 
-0.266766 0.416927 1.08674 55 43 29 
-0.313743 0.440999 1.13243 57 44 25 
-0.159839 0.38942 1.03525 116 107 98 
-0.197301 0.397881 1.04649 143 139 128 
-0.166117 0.392793 1.03482 35 30 24 
-0.281776 0.429557 1.09886 150 142 123 
-0.302816 0.439691 1.11702 128 119 102 
-0.242686 0.414287 1.06762 119 113 101 
-0.220993 0.409672 1.05157 119 115 103 
-0.314894 0.451835 1.12123 98 89 74 
-0.189647 0.405864 1.03524 102 99 90 
-0.230229 0.416083 1.0522 54 46 35 
-0.181082 0.404425 1.03092 107 103 100 
-0.25053 0.42367 1.06016 144 131 123 
-0.306045 0.454277 1.1075 13 7 0 
-0.239095 0.423952 1.04972 114 105 100 
-0.289662 0.446785 1.09101 128 120 109 
-0.258599 0.435308 1.05844 13 8 0 
-0.147568 0.415197 1.00657 94 90 87 
-0.232888 0.438087 1.02868 119 111 100 
-0.172694 0.425543 1.00597 14 9 3 
-0.301171 0.472772 1.07669 17 7 0 
-0.236776 0.448655 1.02772 95 88 78 
-0.27267 0.465732 1.04522 36 29 19 
-0.314449 0.4958 1.0756 106 95 89 
-0.336842 0.516398 1.11073 10 0 0 
-0.2615 0.475721 1.02718 108 104 92 
-0.338592 0.522384 1.10392 73 64 49 
-0.306721 0.501558 1.06285 119 109 100 
-0.250693 0.482777 1.01528 21 15 1 
-0.288901 0.507993 1.04246 94 91 76 
-0.347299 -0.321346 1.64782 91 88 83 
-0.354078 -0.306034 1.63558 93 90 85 
-0.248796 -0.329952 1.44979 142 135 125 
-0.356631 -0.186403 1.55025 103 95 82 
-0.144096 -0.276443 1.37864 103 96 88 
-0.323453 -0.154008 1.48182 10 6 0 
-0.288714 -0.113739 1.40978 9 0 0 
-0.331738 -0.0750115 1.46341 18 6 0 
-0.351292 -0.0480992 1.56437 20 16 5 
-0.35081 -0.0385633 1.53068 105 102 87 
-0.35153 -0.0281434 1.56549 106 100 88 
-0.178276 -0.0984148 1.31769 122 113 98 
-0.350178 0.0224805 1.54936 120 116 104 
-0.315167 -0.000273077 1.39218 26 16 4 
-0.316485 0.0108614 1.38602 135 123 109 
-0.326835 0.0635045 1.43116 10 1 0 
-0.34614 0.108913 1.50734 116 108 95 
-0.0854497 -0.00902056 1.24756 130 120 108 
-0.0702402 -0.0106428 1.2475 38 32 20 
-0.339031 0.107627 1.41843 32 23 6 
-0.321397 0.0906651 1.35331 26 13 0 
-0.344725 0.141058 1.42578 105 96 81 
-0.186255 0.0749895 1.22767 137 121 108 
-0.0523512 0.0420134 1.22284 16 7 0 
-0.0594456 0.04811 1.21694 42 31 25 
-0.314094 0.143986 1.33002 108 95 79 
-0.342405 0.198345 1.38291 32 23 8 
-0.309541 0.18471 1.29771 129 117 103 
-0.336199 0.212543 1.35175 144 132 106 
-0.0771531 0.119661 1.18074 45 37 26 
-0.270532 0.175161 1.22878 40 15 0 
-0.107442 0.140238 1.16882 49 42 32 
-0.211619 0.185917 1.18479 143 122 103 
-0.336091 0.259334 1.3271 137 125 103 
-0.331066 0.251745 1.30641 69 54 31 
-0.131206 0.16789 1.16006 35 29 17 
-0.340377 0.301441 1.44688 124 122 110 
-0.212656 0.198182 1.17101 91 78 62 
-0.345398 0.300801 1.40918 90 85 79 
-0.345377 0.297194 1.37768 76 69 61 
-0.291597 0.239886 1.23297 32 16 0 
-0.17296 0.203934 1.15566 25 17 6 
-0.0936643 0.194066 1.14188 100 91 82 
-0.243432 0.260703 1.17114 135 122 103 
-0.343681 0.367195 1.34903 6 3 0 
-0.0497838 0.247976 1.11176 6 0 0 
-0.237489 0.3068 1.13611 40 33 23 
-0.156767 0.292808 1.09208 103 96 86 
-0.260663 0.326208 1.13876 148 134 123 
-0.319543 0.374058 1.17773 153 145 134 
-0.276811 0.358001 1.12783 147 134 117 
-0.260954 0.394468 1.09341 38 28 16 
-0.272138 0.438324 1.06925 117 109 98 
-0.172481 0.415863 1.01309 109 104 100 
-0.222936 0.429154 1.0319 109 106 99 
-0.261585 0.446922 1.04619 125 120 101 
-0.27863 0.45595 1.05696 92 85 79 
-0.226187 0.446342 1.01555 25 21 20 
-0.334152 0.498408 1.10731 17 14 0 
-0.321681 0.488964 1.09001 77 72 66 
-0.2887 0.474075 1.0522 74 70 59 
-0.295521 0.503142 1.05142 19 13 1 
-0.29069 -0.399315 1.62919 109 105 96 
-0.259351 -0.385123 1.51488 114 110 101 
-0.293762 -0.336213 1.52484 95 93 81 
-0.24483 -0.354916 1.46601 30 27 18 
-0.249356 -0.312328 1.43963 3 2 0 
-0.364822 -0.215273 1.61552 10 0 0 
-0.361975 -0.162724 1.57115 14 9 3 
-0.307941 -0.189226 1.46668 75 70 64 
-0.314446 -0.167753 1.47595 83 78 75 
-0.239279 -0.193943 1.38774 6 5 0 
-0.120313 -0.230415 1.36709 10 7 0 
-0.321248 -0.122103 1.47167 17 9 0 
-0.293673 -0.137142 1.42885 13 7 0 
-0.348905 -0.0925283 1.55631 11 3 0 
-0.327917 -0.10518 1.47609 10 0 0 
-0.345723 -0.0807707 1.64841 9 7 0 
-0.3528 -0.0740284 1.56251 123 120 103 
-0.349609 -0.0690074 1.6054 6 2 0 
-0.35062 -0.0652587 1.6112 11 8 0 
-0.349599 -0.0317457 1.58135 10 8 0 
-0.345008 -0.041398 1.5118 111 106 87 
-0.145389 -0.117128 1.31651 24 14 4 
-0.0905494 -0.118074 1.30591 38 28 18 
-0.138659 -0.081228 1.30347 81 49 52 
-0.300855 0.034057 1.35042 42 27 8 
-0.344832 0.0859941 1.51982 98 89 80 
-0.310348 0.0595866 1.36201 28 15 0 
-0.285118 0.0459277 1.3169 55 40 21 
-0.335493 0.0791796 1.39991 114 107 91 
-0.280643 0.0548552 1.31831 21 9 0 
-0.163298 0.0522578 1.23296 28 12 0 
-0.340436 0.144659 1.38091 29 20 3 
-0.33726 0.166311 1.41576 24 17 1 
-0.331291 0.173695 1.34372 31 14 0 
-0.0747551 0.0777315 1.20049 22 15 5 
-0.344174 0.21129 1.39671 19 11 0 
-0.278612 0.174064 1.24712 23 11 0 
-0.335473 0.242248 1.33285 32 21 3 
-0.311601 0.2216 1.26279 31 14 0 
-0.343936 0.275867 1.36884 28 18 6 
-0.341494 0.270109 1.31647 35 19 3 
-0.342227 0.289026 1.3297 14 5 0 
-0.23491 0.227934 1.17619 126 114 100 
-0.32738 0.305732 1.3268 11 0 0 
-0.335084 0.351805 1.4376 134 131 122 
-0.342627 0.338444 1.38328 10 1 0 
-0.227915 0.243579 1.1568 46 34 22 
-0.343319 0.352366 1.39018 143 141 129 
-0.335913 0.380006 1.42311 24 23 18 
-0.259293 0.277888 1.17825 25 13 1 
-0.0780571 0.234892 1.11934 34 25 18 
-0.256448 0.296975 1.16378 39 26 7 
-0.284991 0.331623 1.16599 126 110 95 
-0.260392 0.328018 1.1449 81 65 49 
-0.20148 0.306425 1.09912 30 20 11 
-0.252861 0.32518 1.1281 50 44 22 
-0.274076 0.338681 1.1436 133 121 109 
-0.351238 0.453618 1.34794 20 19 15 
-0.298975 0.371461 1.14517 38 26 10 
-0.345727 0.433481 1.2085 103 97 83 
-0.221985 0.367557 1.07501 58 49 40 
-0.330933 0.437139 1.17602 19 12 0 
-0.356201 0.499894 1.28808 149 144 138 
-0.286417 0.411 1.10907 48 37 19 
-0.22808 0.388085 1.06521 16 14 2 
-0.196477 0.382983 1.05311 26 19 9 
-0.277709 0.414765 1.10834 56 43 24 
-0.312003 0.452285 1.12836 114 108 92 
-0.157018 0.404984 1.02006 38 35 30 
-0.326287 0.473101 1.11304 45 37 26 
-0.201754 0.432717 1.01417 75 69 69 
-0.253877 0.465495 1.02728 84 77 67 
-0.213193 0.459316 1.00841 8 3 0 
-0.15002 -0.267918 1.37062 5 4 2 
-0.330412 -0.0700679 1.46936 24 11 2 
-0.0542235 0.0697748 1.20786 35 27 16 
-0.0904834 0.0965839 1.19586 37 24 15 
-0.298633 0.249618 1.23676 39 25 0 
-0.299374 0.302081 1.25363 29 17 0 
-0.236449 0.28509 1.14769 125 113 97 
-0.249899 0.341969 1.1036 32 28 19 
-0.328775 0.385463 1.18703 21 13 0 
-0.324726 0.446051 1.15969 108 101 82 
-0.330726 0.457889 1.15736 35 23 11 
-0.273609 0.424838 1.08762 132 123 106 
-0.172814 0.397207 1.03518 24 17 9 
-0.256217 0.421285 1.07082 92 82 70 
-0.36475 0.534078 1.22691 29 29 21 
-0.31405 0.477851 1.10186 107 97 88 
-0.249925 0.454057 1.03492 88 86 74 
-0.346057 -0.185878 1.51735 5 4 2 
-0.176574 -0.229265 1.38516 12 10 11 
-0.367681 -0.124036 1.63877 2 2 0 
-0.0958889 -0.0743098 1.27709 41 28 12 
-0.339362 0.0613897 1.57777 3 3 0 
-0.167703 0.04636 1.23161 127 112 89 
-0.283085 0.134658 1.26033 151 140 120 
-0.301887 0.267345 1.22617 15 11 0 
-0.334792 0.352839 1.39604 162 154 141 
-0.269212 0.267025 1.17288 129 117 103 
-0.255857 0.337123 1.1139 30 24 12 
-0.130521 0.345132 1.0514 100 95 89 
-0.193344 0.432848 1.00839 92 91 87 
-0.199844 0.476929 0.98997 12 9 0 
-0.122195 -0.23918 1.37535 7 5 8 
-0.349062 -0.12771 1.5712 6 7 9 
-0.112062 -0.0898076 1.29593 35 22 14 
-0.298423 0.26913 1.23072 13 9 0 
-0.200889 0.427899 1.00278 85 84 79 
-0.19465 0.458105 0.98066 21 16 10 
0.237058 0.510891 0.991996 65 65 65 
-0.268792 -0.147729 1.42206 42 33 26 
-0.255653 -0.0824858 1.36911 27 17 5 
-0.29986 0.351105 1.17104 35 27 14 
-0.29122 0.360624 1.14283 20 12 0 
-0.269994 0.468644 1.0308 77 74 67 
-0.276902 -0.402967 1.6263 21 12 7 
-0.212807 -0.20423 1.39344 23 20 13 
-0.283369 0.227812 1.22992 70 55 34 
-0.323248 0.373558 1.19234 151 144 134 
-0.334464 0.168101 1.38537 113 103 93 
-0.295885 0.165096 1.28425 27 13 0 
-0.195406 0.446949 0.99019 86 83 78 
-0.274946 -0.231129 1.44195 8 4 5 
-0.277883 -0.193219 1.43638 8 8 8 
-0.287808 -0.193802 1.46891 28 24 12 
-0.327095 -0.0903183 1.49454 22 12 2 
-0.32853 -0.0164144 1.46103 92 85 69 
-0.337406 0.0202224 1.48457 31 22 7 
-0.339893 0.101299 1.47505 108 98 86 
-0.289819 0.136071 1.29673 81 68 51 
-0.270907 0.158176 1.25826 147 133 107 
-0.334819 0.209553 1.38186 115 106 91 
-0.312342 0.217557 1.29284 54 43 23 
-0.335608 0.275737 1.33857 125 112 96 
-0.336464 0.307734 1.3285 90 76 63 
-0.107258 0.214224 1.13664 39 29 19 
-0.339189 0.339837 1.38818 11 2 0 
-0.0973697 0.231191 1.12531 29 19 10 
-0.334249 0.332899 1.29061 32 25 9 
-0.294498 0.347572 1.16014 72 63 48 
-0.345255 0.410259 1.22482 52 42 30 
-0.352675 0.4684 1.33775 29 20 13 
-0.20518 0.360894 1.06914 16 7 0 
-0.347807 0.476771 1.1985 29 21 10 
-0.349812 0.54458 1.09505 91 86 82 
-0.334994 -0.0803741 1.52352 50 40 30 
-0.331003 -0.0657689 1.50098 22 14 1 
-0.331745 -0.0470604 1.49173 118 111 95 
-0.332283 0.199163 1.36487 33 24 7 
-0.125506 0.306323 1.07198 31 26 20 
-0.356961 0.461812 1.29036 25 20 16 
-0.302122 -0.177081 1.47512 5 1 0 
-0.34643 -0.141258 1.71267 38 35 28 
-0.262918 0.367802 1.10744 20 9 0 
-0.303128 0.39303 1.14723 46 35 17 
-0.324091 0.405962 1.1663 34 22 6 
-0.256707 0.396919 1.08079 99 90 81 
-0.318246 -0.131245 1.49418 34 24 15 
-0.271356 -0.441785 1.65995 112 106 94 
-0.313697 -0.415129 1.71516 35 28 18 
-0.323191 -0.394893 1.80419 8 3 0 
-0.272688 -0.401296 1.61165 31 28 21 
-0.328814 -0.334217 1.63498 92 89 80 
-0.272973 -0.282231 1.45987 22 18 9 
-0.29693 -0.267272 1.48156 99 94 90 
-0.336657 -0.240614 1.53784 8 1 0 
-0.325222 -0.239127 1.51366 18 11 1 
-0.362587 -0.216354 1.61988 15 5 4 
-0.359288 -0.216471 1.59911 33 21 5 
-0.336293 -0.228583 1.52755 16 8 0 
-0.366382 -0.20323 1.66794 29 25 22 
-0.319928 -0.214871 1.48658 86 81 75 
-0.329395 -0.20256 1.49774 78 74 65 
-0.243726 -0.236524 1.41032 4 2 0 
-0.362967 -0.164929 1.64244 84 74 64 
-0.278477 -0.163803 1.42789 7 0 0 
-0.271352 -0.163928 1.4171 6 0 0 
-0.310371 -0.141132 1.4631 38 34 22 
-0.214543 -0.184055 1.38471 106 99 89 
-0.337499 -0.122135 1.5175 16 6 0 
-0.341641 -0.103185 1.53008 98 89 80 
-0.238465 -0.154688 1.38275 101 97 88 
-0.346295 -0.0794832 1.59098 4 1 0 
-0.259099 -0.12908 1.38813 170 161 144 
-0.326391 -0.0929715 1.4709 111 103 92 
-0.335159 -0.0726611 1.48614 24 14 4 
-0.280286 -0.0971975 1.39368 27 17 5 
-0.261607 -0.104885 1.37604 85 75 63 
-0.293537 -0.0883388 1.40621 15 7 0 
-0.215076 -0.118649 1.34808 135 128 118 
-0.264001 -0.0932894 1.37539 116 104 90 
-0.328882 -0.0570303 1.45797 45 42 27 
-0.191593 -0.120696 1.33827 110 107 92 
-0.349012 -0.0332259 1.54835 45 43 28 
-0.271987 -0.0811709 1.37707 87 75 61 
-0.344345 -0.0307262 1.50886 34 27 11 
-0.268179 -0.0710834 1.36585 15 7 0 
-0.280698 -0.0627428 1.37665 130 118 106 
-0.345408 -0.0215349 1.50292 35 28 12 
-0.257781 -0.0706295 1.35605 114 103 83 
-0.342325 -0.0216704 1.48797 17 11 0 
-0.287004 -0.0503706 1.37554 115 106 91 
-0.252292 -0.0657327 1.34783 23 11 0 
-0.260728 -0.0585796 1.3514 54 41 24 
-0.316421 -0.0271808 1.41011 29 22 4 
-0.306324 -0.0326074 1.3927 14 1 0 
-0.247354 -0.0590314 1.33847 128 118 106 
-0.266137 -0.0481881 1.35128 40 36 24 
-0.334819 -0.00680949 1.4536 30 21 6 
-0.290076 -0.0342941 1.37195 17 4 0 
-0.272074 -0.0390505 1.35391 112 96 81 
-0.238251 -0.0540948 1.32758 96 92 81 
-0.304878 -0.0223627 1.38767 49 37 21 
-0.348109 0.0143918 1.52652 91 87 75 
-0.345643 0.0211417 1.55619 119 115 103 
-0.201787 -0.0629328 1.30997 109 100 95 
-0.276744 -0.0230447 1.34853 125 115 103 
-0.249386 -0.034641 1.32793 36 24 2 
-0.298271 -0.0105043 1.37223 116 103 87 
-0.251248 -0.0215336 1.32355 115 98 80 
-0.114242 -0.0647749 1.2969 89 55 46 
-0.242478 -0.0189757 1.31464 145 132 113 
-0.26433 -0.00800917 1.32653 118 100 86 
-0.276146 -0.00103764 1.33763 129 118 98 
-0.347509 0.0595537 1.52171 113 107 95 
-0.283098 0.0102356 1.34043 38 28 16 
-0.25688 0.00343833 1.31211 133 120 103 
-0.274506 0.0145926 1.32947 111 94 76 
-0.237066 -0.00169937 1.30035 31 21 9 
-0.265959 0.0131634 1.31909 65 52 35 
-0.281246 0.0286804 1.32996 120 108 92 
-0.237514 0.0104991 1.29334 27 21 9 
-0.307594 0.048441 1.35649 39 26 10 
-0.269687 0.0430621 1.30715 105 97 86 
-0.343482 0.113306 1.514 32 23 6 
-0.290484 0.0607632 1.32442 124 109 88 
-0.27362 0.0556066 1.30609 52 44 25 
-0.342008 0.107137 1.42846 22 16 0 
-0.29235 0.073316 1.32125 159 148 128 
-0.268423 0.0627514 1.29477 30 18 2 
-0.282121 0.0728424 1.30645 122 109 90 
-0.289859 0.0809547 1.31017 20 11 0 
-0.296442 0.0890896 1.31828 33 18 0 
-0.319325 0.106351 1.35233 34 19 0 
-0.261805 0.0805644 1.2793 103 89 76 
-0.282705 0.091199 1.29633 138 126 110 
-0.321331 0.118876 1.34689 40 27 8 
-0.298709 0.11316 1.30498 35 24 6 
-0.313166 0.134282 1.32034 144 132 110 
-0.300124 0.128139 1.29921 64 51 35 
-0.343749 0.178751 1.41343 83 71 55 
-0.29983 0.139577 1.29722 51 33 11 
-0.217586 0.115679 1.22331 74 62 38 
-0.205228 0.114703 1.21837 58 46 22 
-0.310367 0.164904 1.30052 35 23 0 
-0.293201 0.179644 1.26364 87 75 51 
-0.346193 0.25168 1.40118 103 95 84 
-0.306527 0.219829 1.26367 43 28 7 
-0.329553 0.267813 1.29014 23 7 0 
-0.273317 0.256316 1.19674 79 68 46 
-0.340501 0.32724 1.30182 120 106 93 
-0.34487 0.366888 1.30398 30 21 12 
-0.331477 0.357301 1.24277 31 22 7 
-0.316291 0.361981 1.17623 119 109 97 
-0.31233 0.430023 1.12764 150 126 100 
-0.271007 0.500147 0.966639 101 95 79 
-0.361602 -0.203361 1.60431 27 23 12 
-0.331379 -0.140271 1.4998 101 98 83 
-0.23723 -0.0936617 1.34831 4 0 0 
-0.268361 -0.028461 1.32104 133 120 103 
-0.255335 -0.012719 1.31954 97 85 69 
-0.28439 0.122862 1.28208 19 6 0 
-0.310329 0.196891 1.28249 89 77 53 
-0.286418 -0.404564 1.64911 115 109 97 
-0.308521 -0.174668 1.46923 3 2 0 
-0.34834 -0.0661679 1.61534 11 8 0 
-0.254256 -0.0974234 1.36166 90 83 67 
-0.257161 -0.084747 1.36004 112 95 87 
-0.293188 -0.0428641 1.37912 124 115 100 
-0.346277 -0.000808868 1.51435 147 142 123 
-0.320708 0.154658 1.56902 89 79 69 
-0.28924 0.1387 1.27632 16 7 0 
-0.318833 0.349562 1.20575 62 53 38 
-0.346704 0.432848 1.20752 103 97 83 
-0.0730907 0.345194 1.04112 15 12 7 
-0.29307 0.461236 1.05428 100 91 86 
-0.309927 0.489145 1.05774 24 16 3 
-0.258362 0.491917 1.00303 109 97 83 
-0.0315969 -1.33704 2.32621 220 224 225 
-0.360641 -0.139466 1.64882 9 6 0 
-0.335246 0.0573994 1.5988 3 4 0 
-0.261036 0.133873 1.2407 35 21 0 
-0.335554 0.195325 1.3564 122 115 99 
-0.223574 0.213424 1.16104 29 5 0 
-0.173423 0.476022 0.967698 100 88 74 
-0.354933 -0.174296 1.53325 9 8 6 
-0.150324 -0.683617 1.77022 44 40 29 
-0.248556 -0.606415 1.87475 54 53 51 
-0.231592 -0.590286 1.73922 92 94 89 
-0.169766 -0.620791 1.71014 25 23 11 
-0.318832 -0.524442 1.89826 215 220 216 
-0.18361 -0.564365 1.66184 45 38 28 
-0.184049 -0.547667 1.64202 31 27 18 
-0.236195 -0.507662 1.70447 31 25 11 
-0.244471 -0.474714 1.66506 33 29 18 
-0.227768 -0.469492 1.62741 104 100 89 
-0.234052 -0.428045 1.56873 35 31 22 
-0.217887 -0.428204 1.54049 122 118 109 
-0.225659 -0.4023 1.51311 52 49 40 
-0.27699 -0.365872 1.56406 100 97 92 
-0.0328429 -0.490775 1.55168 110 107 100 
-0.264881 -0.35431 1.50533 43 39 30 
-0.282976 -0.337846 1.5211 31 27 18 
-0.292292 -0.326406 1.50644 104 96 93 
-0.340404 -0.24771 1.55616 6 1 0 
-0.310004 -0.249633 1.49582 28 24 15 
-0.17332 -0.322459 1.42474 26 21 17 
-0.355576 -0.205954 1.61104 28 22 10 
-0.23264 -0.270335 1.4208 28 25 20 
-0.335268 -0.155529 1.7576 37 36 31 
-0.356218 -0.159037 1.59382 83 77 65 
-0.342793 -0.116625 1.70887 22 18 15 
-0.240369 -0.195364 1.41345 85 81 70 
-0.304467 -0.157054 1.47903 77 74 67 
-0.333064 -0.120651 1.52751 21 12 0 
-0.342169 -0.102185 1.63801 63 60 51 
-0.330444 -0.118984 1.51697 101 97 85 
-0.326423 -0.122182 1.50452 111 107 96 
-0.336497 -0.0945068 1.65904 34 31 16 
-0.33932 -0.0953474 1.56787 11 3 0 
-0.334806 -0.103829 1.51262 19 11 0 
-0.338391 -0.0795354 1.63716 15 12 0 
-0.329789 -0.082127 1.50571 12 9 0 
-0.339917 -0.0609509 1.5232 16 8 0 
-0.340605 -0.0500048 1.58202 89 80 73 
-0.339635 -0.0524692 1.50923 36 29 13 
-0.302447 -0.0308131 1.73488 42 35 25 
-0.338351 -0.0439642 1.52078 22 19 2 
-0.341672 -0.040129 1.52975 82 75 57 
-0.333663 -0.0274458 1.62225 35 33 20 
-0.344994 -0.0343114 1.55261 29 26 9 
-0.243527 -0.0971095 1.35686 96 92 80 
-0.336583 -0.0356543 1.49745 99 90 73 
-0.325319 -0.0451119 1.46569 97 88 73 
-0.34389 -0.0153201 1.57606 116 112 100 
-0.341666 -0.0224802 1.53278 96 93 76 
-0.323841 -0.0422091 1.44809 121 109 95 
-0.338742 -0.00774517 1.58053 118 114 103 
-0.34231 -0.00823098 1.53588 130 128 115 
-0.329193 0.00492204 1.63326 34 32 17 
-0.316279 0.0109766 1.66995 23 16 0 
-0.337502 -0.0117181 1.48514 33 23 11 
-0.298716 0.0173372 1.71696 72 63 54 
-0.341698 0.0056338 1.55418 101 97 86 
-0.337603 -0.00882378 1.47222 13 1 0 
-0.341044 0.00490436 1.53078 88 86 73 
-0.339323 0.0143825 1.57204 98 95 80 
-0.334136 0.000690198 1.46102 113 106 88 
-0.332365 0.0289268 1.60884 92 88 76 
-0.340612 0.0224151 1.54002 116 112 101 
-0.345486 0.0203958 1.519 12 8 0 
-0.335608 0.00974644 1.47845 31 22 7 
-0.330001 0.00245362 1.4481 20 11 0 
-0.321903 -0.004242 1.42207 28 15 0 
-0.328921 0.0397515 1.61303 7 3 0 
-0.339146 0.0232278 1.50343 12 11 0 
-0.344836 0.034113 1.51783 75 72 57 
-0.341066 0.0335623 1.50333 24 23 5 
-0.342223 0.0467893 1.52706 94 90 78 
-0.337613 0.031077 1.45543 34 26 13 
-0.342185 0.0476185 1.49907 107 104 87 
-0.341984 0.0475757 1.4848 86 85 67 
-0.335605 0.0400424 1.46036 80 72 59 
-0.344598 0.0592699 1.52457 108 106 93 
-0.341786 0.0574107 1.5115 92 85 69 
-0.313336 0.0783193 1.64453 46 36 24 
-0.337096 0.0533807 1.47318 9 1 0 
-0.337644 0.0506197 1.45325 15 7 0 
-0.341241 0.0614593 1.46668 84 75 58 
-0.325971 0.0470848 1.41715 19 7 0 
-0.332465 0.0536596 1.42599 136 131 112 
-0.340604 0.0692883 1.47906 92 85 69 
-0.34201 0.0861774 1.51968 88 80 67 
-0.345082 0.0849788 1.48473 95 87 74 
-0.342234 0.0859013 1.46902 35 28 10 
-0.337349 0.0990437 1.52889 124 112 100 
-0.187049 -0.0032324 1.2673 33 23 11 
-0.339928 0.0890918 1.45265 12 5 0 
-0.339694 0.108364 1.52161 29 23 9 
-0.301843 0.0582567 1.3509 103 88 69 
-0.335158 0.0885217 1.41618 21 9 0 
-0.313795 0.127347 1.57469 28 0 0 
-0.342266 0.115658 1.48578 141 131 119 
-0.343632 0.111407 1.45924 98 90 77 
-0.338424 0.115682 1.43421 28 18 6 
-0.333957 0.108696 1.39465 111 100 82 
-0.339119 0.132997 1.44538 33 21 7 
-0.340517 0.143753 1.48123 34 24 15 
-0.339975 0.127646 1.41249 112 100 86 
-0.318926 0.172642 1.58705 43 33 23 
-0.336101 0.133604 1.40096 54 41 24 
-0.338608 0.162046 1.49604 104 96 85 
-0.339102 0.145643 1.42463 36 24 8 
-0.342289 0.154426 1.43214 108 99 84 
-0.303477 0.193183 1.61042 47 37 25 
-0.213487 0.0728814 1.24595 54 43 23 
-0.317532 0.18844 1.56778 12 2 0 
-0.34312 0.172086 1.45702 29 19 7 
-0.33928 0.158694 1.39493 10 2 0 
-0.327535 0.151995 1.36105 18 3 0 
-0.238902 0.0970696 1.23963 44 31 15 
-0.343833 0.180861 1.42517 130 117 100 
-0.312206 0.209363 1.54456 102 93 86 
-0.332898 0.164505 1.36557 33 18 0 
-0.0570599 0.0552019 1.22046 35 26 17 
-0.343187 0.19311 1.44318 113 100 91 
-0.335747 0.174247 1.35891 42 29 12 
-0.31706 0.227013 1.54804 101 89 77 
-0.197361 0.106876 1.21605 136 118 104 
-0.33649 0.189036 1.37286 126 114 98 
-0.341898 0.197095 1.39437 17 10 0 
-0.337981 0.219374 1.46622 30 23 7 
-0.311529 0.242535 1.56053 102 92 82 
-0.342499 0.209264 1.42059 20 8 0 
-0.343112 0.229479 1.45404 39 29 20 
-0.246003 0.140697 1.2267 146 132 105 
-0.315178 0.254002 1.54889 119 106 97 
-0.34573 0.22839 1.40651 119 106 97 
-0.334177 0.211811 1.33752 109 98 78 
-0.302569 0.276722 1.56012 55 49 35 
-0.344371 0.232875 1.38068 85 76 59 
-0.344144 0.24635 1.41874 137 129 118 
-0.33631 0.227321 1.34385 43 32 14 
-0.343264 0.238728 1.3623 37 23 10 
-0.321896 0.283419 1.51032 40 33 23 
-0.33213 0.241745 1.33095 123 109 96 
-0.202662 0.171388 1.17696 136 125 107 
-0.342399 0.266143 1.37601 86 74 62 
-0.339137 0.26096 1.34831 107 98 83 
-0.346397 0.277185 1.38197 98 88 79 
-0.18783 0.181953 1.17014 86 77 62 
-0.345798 0.28445 1.36573 30 20 10 
-0.318907 0.325353 1.49496 54 53 48 
-0.307073 0.335161 1.52424 118 115 110 
-0.346962 0.298652 1.36273 73 63 53 
-0.343576 0.290933 1.33326 102 91 73 
-0.316142 0.344548 1.49228 89 88 84 
-0.336488 0.292577 1.29892 117 104 85 
-0.337008 0.298612 1.27943 57 48 33 
-0.321102 0.369065 1.47477 50 46 43 
-0.338447 0.310141 1.29245 112 104 93 
-0.313567 0.377476 1.48496 51 48 41 
-0.338482 0.309295 1.27385 54 36 14 
-0.340701 0.328351 1.29959 30 18 4 
-0.333525 0.375173 1.42623 98 98 88 
-0.307858 0.397752 1.48571 12 1 0 
-0.341847 0.373253 1.39201 14 5 0 
-0.334357 0.327094 1.27124 25 16 1 
-0.323663 0.394339 1.44559 48 43 39 
-0.329118 0.39765 1.42708 98 96 84 
-0.30948 0.321922 1.22622 43 25 5 
-0.347447 0.355157 1.29453 107 99 88 
-0.312773 0.431697 1.45122 130 125 119 
-0.307832 0.43729 1.46031 5 1 0 
-0.144494 0.281298 1.09603 34 30 21 
-0.337322 0.422301 1.38819 30 26 17 
-0.342644 0.370768 1.24281 100 90 78 
0.000160197 0.276657 1.10177 71 71 73 
-0.346324 0.426998 1.35856 116 112 103 
-0.34273 0.437787 1.36967 124 121 116 
-0.341076 0.445043 1.38105 87 84 77 
-0.355806 0.423223 1.32072 32 29 20 
-0.350071 0.393355 1.24215 90 80 70 
-0.347227 0.451522 1.37359 103 105 94 
-0.351323 0.396966 1.22967 35 29 15 
-0.339156 0.471817 1.39171 11 10 6 
-0.341339 0.394699 1.19221 110 101 86 
-0.357385 0.469124 1.32702 24 20 9 
-0.351659 0.479661 1.35092 88 85 78 
-0.195967 0.342087 1.06065 23 14 5 
-0.336592 0.510019 1.39007 115 111 108 
-0.358285 0.481399 1.31973 18 15 10 
-0.183203 0.351326 1.05095 40 31 24 
-0.335982 0.51933 1.38433 17 13 10 
-0.350926 0.509053 1.34892 26 27 21 
-0.362048 0.491246 1.28878 115 106 97 
-0.361323 0.496916 1.29725 57 50 40 
-0.230847 0.396551 1.04649 162 152 142 
-0.147338 0.383641 1.01918 34 29 25 
-0.180886 0.389422 1.02698 40 33 25 
-0.152534 0.405496 1.0037 104 100 99 
-0.242453 0.424004 1.02197 102 97 93 
-0.191296 0.420513 0.996611 6 5 0 
-0.293792 0.456569 1.0346 45 36 29 
-0.217293 0.44768 0.985993 70 66 63 
-0.197343 0.454719 0.974817 103 94 85 
-0.27276 0.475268 1.00303 13 6 0 
-0.204802 0.463952 0.97587 92 83 76 
-0.318273 0.494576 1.03733 35 29 17 
-0.224055 0.469746 0.979878 83 80 75 
-0.286225 0.495138 0.960826 84 80 68 
-0.205037 -0.528468 1.65403 116 108 97 
-0.296068 -0.387366 1.80598 20 16 7 
-0.282945 -0.32719 1.87424 11 8 0 
-0.332472 -0.228925 1.54397 14 1 0 
-0.264659 -0.258941 1.45366 10 1 0 
-0.325521 -0.107166 1.76027 37 36 34 
-0.341665 -0.0697618 1.61274 69 70 56 
-0.324077 -0.0602164 1.69487 36 34 22 
-0.342014 -0.0536092 1.5599 106 98 87 
-0.313413 -0.0639029 1.43717 102 90 78 
-0.291164 -0.0635025 1.39674 90 77 60 
-0.333209 -0.00704277 1.62904 124 120 108 
-0.341082 -0.0147704 1.54951 25 21 9 
-0.30872 0.0187942 1.68877 51 41 31 
-0.341788 0.0262019 1.52701 111 109 97 
-0.323877 0.0410135 1.62824 108 105 90 
-0.342645 0.034659 1.54996 15 11 0 
-0.324278 0.0549621 1.61291 20 20 10 
-0.324348 0.0467139 1.42713 109 101 82 
-0.333561 0.0773934 1.42145 107 95 79 
-0.317869 0.120295 1.60718 112 100 86 
-0.314087 0.148058 1.59492 16 3 0 
-0.334819 0.146427 1.52681 25 6 0 
-0.33554 0.212499 1.35245 138 128 101 
-0.320796 0.270741 1.49911 20 16 4 
-0.344934 0.254562 1.38028 74 64 52 
-0.332126 0.259131 1.30105 60 46 20 
-0.345955 0.29364 1.32245 9 0 0 
-0.343336 0.331031 1.41821 29 20 11 
-0.174558 0.246635 1.12484 8 0 0 
-0.154468 0.266228 1.10914 17 8 0 
-0.331584 0.417577 1.41075 31 28 21 
-0.323742 0.427694 1.41749 24 21 12 
-0.334275 0.477262 1.40531 30 29 25 
-0.354169 0.467909 1.33656 26 22 13 
-0.188963 0.411531 1.0047 98 93 89 
-0.215206 0.420368 1.00418 78 74 71 
-0.181659 0.427 0.986463 86 82 79 
-0.249161 0.452985 1.00257 13 8 4 
-0.270157 0.468552 1.0109 17 8 0 
-0.187594 0.47138 0.96145 110 101 86 
-0.273869 0.487019 0.996108 98 89 72 
-0.275546 -0.493853 1.99068 24 24 26 
-0.297997 -0.355402 1.82621 10 6 0 
-0.239958 -0.395526 1.53563 92 89 84 
-0.323442 -0.335305 1.63895 100 97 88 
-0.305684 -0.341711 1.59806 89 86 81 
-0.174749 -0.285983 1.39965 40 35 31 
-0.0758416 -0.331013 1.41174 38 33 30 
-0.31904 -0.174948 1.51595 18 15 6 
-0.346112 -0.112497 1.69773 86 82 79 
-0.340012 -0.0987834 1.62467 18 14 3 
-0.338057 -0.0961173 1.53045 10 1 0 
-0.341908 -0.0809462 1.59452 4 1 0 
-0.331071 -0.0736215 1.62914 27 25 12 
-0.331357 -0.0664598 1.53298 7 0 0 
-0.338369 -0.0461459 1.54757 120 114 98 
-0.340746 -0.0303537 1.57924 86 82 70 
-0.341762 -0.0329332 1.53649 102 99 82 
-0.327486 -0.00383832 1.58997 3 1 0 
-0.34097 -0.0019524 1.5197 150 147 132 
-0.332568 0.0224919 1.62396 23 19 7 
-0.340118 0.0209411 1.56167 104 101 86 
-0.338632 0.0748443 1.50393 106 98 87 
-0.236787 0.0635192 1.25374 13 4 0 
-0.326296 0.137318 1.35961 36 28 9 
-0.287791 0.202972 1.63341 30 23 13 
-0.17623 0.090768 1.21189 42 30 16 
-0.31097 0.229593 1.56011 39 27 15 
-0.341836 0.195688 1.4045 93 85 74 
-0.193638 0.129632 1.19728 35 18 0 
-0.342113 0.221669 1.38327 96 87 72 
-0.312071 0.261722 1.5156 84 70 61 
-0.343966 0.248317 1.40386 106 96 86 
-0.224936 0.15855 1.20109 13 4 0 
-0.334309 0.238773 1.34362 47 38 21 
-0.312842 0.312476 1.5146 29 24 20 
-0.323805 0.247636 1.28469 141 124 104 
-0.320575 0.36971 1.46097 109 105 102 
-0.319447 0.388193 1.46205 25 20 16 
-0.329396 0.322306 1.24861 29 16 0 
-0.332318 0.390371 1.4197 86 83 74 
-0.33888 0.36772 1.32307 88 79 74 
-0.338871 0.384066 1.35936 104 95 88 
-0.321597 0.453481 1.4271 130 126 123 
-0.346579 0.432598 1.34958 21 18 13 
-0.350941 0.443587 1.36306 122 119 114 
-0.244714 0.320993 1.09258 43 35 24 
-0.357926 0.460746 1.31487 140 135 129 
