ply                 
format ascii 1.0    
element vertex 1268
property float x    
property float y    
property float z    
property uchar red  
property uchar green
property uchar blue 
end_header          
-0.31903 0.374083 1.43263 23 19 10 
-0.318195 0.336903 1.32604 105 96 81 
-0.312653 0.385372 1.46372 17 16 11 
-0.308105 0.326715 1.29854 116 106 94 
-0.269743 0.304479 1.24371 50 23 12 
0.0492838 0.237068 1.15752 28 24 21 
-0.301663 0.321049 1.27741 110 97 80 
-0.32644 0.368032 1.39347 79 74 68 
-0.323188 0.36019 1.37408 19 15 6 
0.00980412 0.243023 1.14325 89 84 78 
-0.17073 0.2661 1.14857 13 3 0 
-0.313585 0.343019 1.31549 53 43 31 
-0.3145 0.392092 1.45017 16 16 6 
-0.316388 0.335778 1.29292 152 140 124 
-0.237131 0.285114 1.17532 51 39 17 
-0.316595 0.340652 1.30405 60 51 36 
-0.110053 0.257591 1.1328 115 106 97 
-0.31719 0.391215 1.43359 56 53 46 
-0.214458 0.293727 1.18519 45 39 27 
-0.038222 0.253928 1.12768 17 10 2 
-0.285428 0.327096 1.25175 38 19 2 
-0.22981 0.291311 1.16951 99 91 78 
-0.318166 0.346549 1.29373 132 123 106 
-0.186612 0.281725 1.14812 118 109 94 
-0.0868558 0.263 1.12404 34 27 17 
-0.144052 0.274271 1.1375 118 108 96 
-0.131705 0.268873 1.1274 23 15 4 
-0.325368 0.360414 1.32011 110 98 86 
-0.308733 0.341656 1.27388 76 67 52 
-0.0648447 0.26206 1.12429 96 92 81 
-0.173405 0.279866 1.14168 39 31 20 
-0.329738 0.369627 1.33585 97 93 84 
-0.306346 0.341233 1.26164 46 33 14 
-0.218113 0.294054 1.1547 38 26 14 
-0.328486 0.387768 1.37548 138 133 127 
-0.196462 0.290126 1.14285 33 23 13 
-0.31491 0.412329 1.43809 142 140 128 
-0.326567 0.367485 1.31295 23 15 4 
-0.323928 0.36346 1.30237 119 110 95 
-0.0340395 0.26699 1.11795 42 37 33 
-0.326301 0.386569 1.36102 6 2 0 
0.00309278 0.266933 1.12701 38 30 27 
-0.145085 0.282538 1.12933 104 95 86 
-0.111767 0.274956 1.11526 29 21 10 
-0.269509 0.324906 1.19969 23 12 0 
-0.175614 0.288761 1.12799 48 40 29 
-0.324568 0.386228 1.34845 20 11 4 
-0.241419 0.311105 1.16769 56 44 30 
-0.328396 0.384257 1.33518 119 115 106 
-0.0811332 0.276484 1.11058 39 30 21 
-0.104019 0.278507 1.1075 45 38 28 
-0.324843 0.401342 1.37788 30 26 15 
-0.303548 0.351034 1.25004 62 55 36 
-0.0686731 0.277915 1.11377 53 47 35 
-0.314008 0.363619 1.27499 124 112 100 
-0.125962 0.284736 1.1082 37 30 22 
-0.310422 0.431915 1.44931 72 69 64 
-0.191474 0.300029 1.12933 54 48 36 
-0.325609 0.383578 1.30898 22 12 0 
-0.231673 0.319369 1.16391 126 114 98 
-0.179341 0.33845 1.22279 43 34 19 
-0.155712 0.296304 1.11795 39 31 20 
-0.309129 0.366327 1.26451 112 104 91 
-0.201294 0.306713 1.13297 27 19 8 
-0.282057 0.456911 1.50101 80 79 75 
-0.302986 0.356389 1.23402 131 123 110 
-0.31251 0.363453 1.24912 46 38 25 
-0.189419 0.308693 1.12318 29 20 5 
-0.0462805 0.287968 1.10021 98 94 93 
-0.172171 0.304468 1.11479 128 118 108 
-0.321047 0.376568 1.26687 113 105 94 
-0.100121 0.292637 1.09662 31 26 20 
-0.00439617 0.289748 1.10569 128 125 120 
0.0113189 0.29095 1.11036 24 20 19 
-0.330372 0.420855 1.36255 43 33 31 
-0.302629 0.363661 1.22182 20 11 0 
-0.160519 0.304992 1.10105 23 16 6 
-0.134891 0.302767 1.09223 116 111 107 
-0.113216 0.301143 1.09224 27 24 19 
-0.31859 0.446919 1.42004 58 55 48 
-0.149979 0.306192 1.0962 142 139 130 
-0.20373 0.319539 1.11745 138 129 120 
-0.0724679 0.299214 1.08731 90 89 84 
-0.214587 0.324808 1.11954 21 11 0 
-0.328511 0.387435 1.24884 144 140 129 
-0.328705 0.398333 1.27036 93 86 76 
-0.120755 0.310071 1.08424 30 27 22 
-0.0381054 0.303862 1.08237 15 12 7 
-0.321409 0.387778 1.24107 91 81 72 
-0.200953 0.325706 1.10704 36 27 18 
-0.33885 0.409593 1.28912 101 94 84 
-0.0120074 0.305701 1.08608 94 91 86 
-0.160264 0.319678 1.09275 132 123 114 
0.00263798 0.306924 1.08904 22 22 14 
-0.251167 0.341051 1.12656 119 111 98 
-0.209338 0.331673 1.11109 126 116 107 
0.0164893 0.30872 1.09243 78 77 75 
-0.145535 0.318893 1.08756 36 32 21 
-0.0938945 0.312746 1.07921 117 114 109 
-0.308073 0.375247 1.19594 14 8 0 
-0.190256 0.32581 1.09381 102 98 86 
-0.0733754 0.311694 1.07694 104 100 97 
-0.338912 0.410815 1.27114 119 115 104 
-0.239767 0.344684 1.12416 113 110 101 
-0.320086 0.396327 1.23121 18 12 0 
-0.227902 0.342572 1.1086 33 26 16 
-0.103876 0.321549 1.07213 94 91 86 
-0.159353 0.331614 1.08726 48 41 33 
-0.129678 0.324186 1.07286 100 96 87 
-0.311055 0.391979 1.20912 20 12 1 
-0.2662 0.358448 1.13288 19 6 0 
-0.190026 0.338649 1.09546 36 27 18 
-0.336298 0.467377 1.38213 67 66 61 
-0.350044 0.437812 1.30703 12 7 3 
0.0203492 0.322927 1.0784 93 89 86 
-0.0453778 0.322242 1.06564 84 76 73 
-0.32971 0.411157 1.23417 37 29 16 
-0.0908593 0.328743 1.06578 89 84 78 
-0.118603 0.331626 1.06565 25 22 13 
-0.148842 0.33684 1.07272 56 46 36 
-0.249544 0.359915 1.1129 107 100 84 
-0.192469 0.346598 1.08857 7 0 0 
-0.178353 0.344055 1.08188 105 97 86 
-0.233403 0.359837 1.10996 25 17 6 
-0.102871 0.333067 1.06323 30 25 19 
-0.133329 0.33952 1.06509 27 23 14 
-0.343125 0.439552 1.2728 6 6 0 
-0.335713 0.422381 1.23446 36 28 15 
-0.209 0.355795 1.08955 21 14 4 
-0.124876 0.33987 1.05701 93 89 80 
-0.165464 0.348725 1.07165 47 40 30 
-0.0540478 0.33692 1.05648 84 79 73 
-0.3295 0.421767 1.21997 66 55 35 
-0.0678168 0.338601 1.0559 15 6 1 
-0.31745 0.41689 1.20889 116 109 93 
-0.151374 0.348308 1.06352 48 43 37 
-0.111283 0.343208 1.05518 18 11 3 
-0.18204 0.357668 1.07733 23 16 6 
-0.311658 0.408198 1.17817 61 48 32 
-0.200754 0.36537 1.08234 110 102 89 
-0.236412 0.373783 1.09636 106 100 88 
-0.130829 0.353557 1.05801 124 120 111 
-0.317357 0.422955 1.19547 21 9 0 
-0.0343757 0.34907 1.05333 19 11 8 
-0.253461 0.382957 1.10772 67 54 37 
-0.180904 0.367179 1.07147 39 33 21 
-0.219797 0.378494 1.0928 36 28 17 
-0.0955229 0.354827 1.04882 28 24 13 
-0.113593 0.357446 1.04671 97 90 82 
-0.153936 0.363359 1.0532 53 46 36 
-0.139649 0.361285 1.04933 64 60 51 
-0.315059 0.431322 1.18672 137 130 112 
-0.0470299 0.36007 1.04577 54 47 39 
-0.187593 0.375687 1.06909 44 38 26 
-0.125076 0.362618 1.04133 33 26 18 
-0.164411 0.372452 1.05758 29 20 11 
-0.0936662 0.363692 1.04295 23 19 10 
-0.300452 0.419741 1.14616 63 52 32 
-0.316693 0.428621 1.15959 22 10 0 
-0.274003 0.407653 1.11419 54 43 25 
-0.184643 0.382889 1.05815 44 37 27 
-0.0399018 0.372678 1.04177 123 113 101 
-0.220203 0.392694 1.07384 10 3 0 
-0.11021 0.37283 1.03574 34 30 21 
0.0239672 0.377909 1.05145 36 28 25 
-0.130922 0.378101 1.04182 115 111 102 
-0.228017 0.400072 1.0808 43 33 21 
-0.176109 0.389359 1.05164 39 30 23 
-0.238732 0.405443 1.08256 38 31 21 
-0.120782 0.381956 1.03516 105 102 97 
-0.146788 0.38691 1.03911 103 96 86 
-0.269688 0.417834 1.1003 128 116 100 
-0.1995 0.397411 1.05786 51 41 31 
-0.284932 0.42814 1.12006 67 58 41 
-0.161902 0.390102 1.04162 47 44 35 
-0.208964 0.401321 1.06276 182 174 163 
-0.107815 0.387662 1.03215 34 31 24 
-0.277193 0.425416 1.1039 62 51 31 
-0.255205 0.416886 1.08551 55 47 36 
-0.238008 0.414675 1.07337 112 106 94 
0.035711 0.39745 1.04318 108 103 99 
-0.17132 0.398836 1.03719 48 44 33 
-0.214992 0.410361 1.05841 115 111 100 
-0.152538 0.399886 1.03077 113 109 98 
-0.110356 0.396098 1.02284 26 23 18 
-0.0775814 0.395932 1.02313 31 26 22 
-0.0559799 0.395418 1.02139 33 29 26 
-0.254394 0.427021 1.08045 32 24 11 
-0.226239 0.416103 1.05741 49 43 31 
-0.340844 0.551934 1.33679 18 19 13 
-0.13619 0.405601 1.02407 31 30 26 
-0.05943 0.399636 1.01105 100 97 92 
-0.158438 0.407878 1.02443 30 27 22 
-0.168797 0.412305 1.028 101 98 89 
-0.292758 0.443868 1.08977 134 124 112 
-0.23545 0.423977 1.04872 142 135 125 
-0.12224 0.408447 1.01513 27 24 15 
-0.260291 0.433119 1.05886 28 21 3 
-0.167722 0.416416 1.0186 108 101 93 
-0.229235 0.438209 1.03348 123 114 105 
-0.215651 0.435907 1.02258 122 119 110 
-0.207189 0.43428 1.01307 32 33 25 
-0.164446 0.434482 1.00255 91 88 81 
-0.275811 0.460824 1.04665 33 26 18 
-0.176749 0.45969 0.986156 116 108 97 
-0.200355 0.477887 0.989714 87 76 70 
-0.0543659 0.502262 0.884056 99 96 81 
-0.0186631 -0.532146 1.60559 139 137 125 
-0.0446447 -0.512676 1.60745 30 26 17 
-0.0873038 -0.479095 1.57246 98 95 86 
-0.263126 -0.37044 1.58569 94 90 87 
0.0209478 -0.484547 1.55166 55 51 42 
-0.217953 -0.366913 1.50838 40 36 25 
-0.0909219 -0.421232 1.5122 48 45 40 
-0.230031 -0.285861 1.47896 21 17 8 
-0.0673998 -0.326277 1.43864 117 108 101 
-0.15002 -0.272413 1.42831 70 65 61 
-0.241964 -0.202968 1.47198 2 2 0 
-0.164738 -0.215189 1.43346 7 2 0 
-0.225882 -0.154679 1.44935 77 67 58 
-0.254641 -0.120543 1.45398 26 13 4 
-0.314859 -0.0767501 1.62239 49 46 31 
-0.149661 -0.149829 1.39104 9 0 0 
-0.234166 -0.112702 1.42191 20 18 5 
-0.280772 -0.0819279 1.55533 108 99 90 
-0.233546 -0.101649 1.41388 21 5 0 
-0.312509 -0.0382664 1.65454 35 33 20 
-0.277038 -0.0308348 1.7833 43 39 30 
-0.316927 -0.0320395 1.61914 104 100 88 
-0.277652 -0.064719 1.43922 124 116 105 
-0.315794 -0.0343227 1.55931 112 109 92 
-0.308249 -0.0124952 1.69095 46 39 33 
-0.319585 -9.23409e-05 1.62292 102 98 89 
-0.309994 0.00840115 1.51728 35 26 9 
-0.296845 -3.11638e-05 1.47406 119 110 93 
-0.0899451 -0.0740258 1.33958 98 65 56 
-0.324166 0.0465961 1.57928 16 12 0 
-0.304624 0.0561184 1.64748 10 2 0 
-0.312983 0.058756 1.59004 27 21 9 
-0.320412 0.0573429 1.54009 27 21 7 
-0.260984 0.0309099 1.38083 126 113 94 
0.0513552 -0.060509 1.32498 112 108 97 
-0.287465 0.0615295 1.44861 121 99 85 
-0.309698 0.0679716 1.42689 134 122 106 
-0.275947 0.114283 1.70262 80 78 66 
-0.304397 0.110746 1.45649 32 20 4 
-0.266685 0.109468 1.35553 35 22 5 
-0.288755 0.122666 1.37712 27 15 0 
-0.299676 0.214316 1.5885 137 127 117 
-0.205916 0.132028 1.24803 150 140 115 
-0.283201 0.179078 1.33208 32 20 8 
0.0175507 0.0989369 1.22591 25 20 14 
-0.149534 0.128493 1.21312 133 124 107 
0.0532053 0.111207 1.23496 32 23 16 
-0.304512 0.249719 1.48173 32 23 14 
-0.112013 0.137785 1.1972 117 107 95 
-0.321542 0.245806 1.44407 28 19 10 
-0.0853795 0.143932 1.195 44 35 26 
-0.168806 0.169767 1.18889 150 138 122 
-0.185791 0.176713 1.20048 66 51 28 
0.0578329 0.144307 1.21572 35 30 26 
0.138364 0.158102 1.24693 197 197 195 
-0.317544 0.278569 1.38476 99 89 77 
-0.14898 0.19284 1.18746 125 116 101 
-0.026873 0.174195 1.17693 35 22 14 
-0.186278 0.20756 1.19181 43 22 1 
-0.297614 0.264641 1.31309 144 129 108 
-0.320523 0.306939 1.4035 101 90 84 
-0.163997 0.225033 1.20088 65 55 30 
0.0165205 0.19328 1.17452 34 27 19 
-0.0296853 0.212006 1.15429 49 40 33 
-0.156468 0.233841 1.15746 97 87 78 
-0.26333 0.289117 1.2279 107 98 81 
-0.1431 0.250638 1.15293 26 20 8 
-0.0198092 0.242155 1.13428 36 25 19 
-0.325574 0.390815 1.38653 12 8 0 
-0.31003 0.354838 1.28922 29 17 3 
0.0397732 0.273458 1.11254 102 99 94 
-0.226598 0.312847 1.1421 47 34 25 
-0.238916 0.316696 1.14794 28 22 0 
-0.141052 0.295203 1.10669 109 99 90 
-0.288363 0.353819 1.22272 123 110 93 
-0.258842 0.331667 1.14216 44 30 17 
-0.124054 0.306058 1.09468 95 91 82 
-0.314638 0.386217 1.23173 25 15 3 
-0.205984 0.337507 1.0997 124 114 105 
-0.0853961 0.33806 1.0614 19 16 11 
-0.332817 0.428033 1.2065 44 41 26 
-0.333314 0.432778 1.21547 43 37 23 
-0.302529 0.427627 1.15655 72 64 45 
-0.188755 0.392091 1.05359 27 23 12 
-0.0670178 0.389679 1.02658 120 115 109 
-0.182536 0.407054 1.04274 98 95 88 
-0.279343 0.4426 1.07767 20 10 0 
-0.24738 0.435247 1.05014 37 33 22 
-0.266532 0.449417 1.05978 37 31 17 
-0.259913 0.446137 1.0494 123 120 103 
-0.176719 0.43061 1.00542 85 84 80 
-0.190934 0.44182 1.00684 81 78 71 
-0.246115 0.463106 1.02485 84 81 74 
-0.0395542 -0.665023 1.72669 124 119 113 
-0.170813 -0.535566 1.65446 36 33 24 
-0.260615 -0.493728 2.02637 175 175 175 
-0.274503 -0.456806 1.89074 106 98 87 
-0.175813 -0.436509 1.56801 38 31 21 
-0.309426 -0.350826 1.72071 102 97 91 
-0.314893 -0.334838 1.70081 91 88 83 
-0.21028 -0.326748 1.48883 15 11 12 
0.0139598 -0.400157 1.47484 35 32 27 
-0.209821 -0.299509 1.46953 24 19 13 
-0.090696 -0.347761 1.46261 21 16 12 
-0.321601 -0.242298 1.56932 17 14 5 
-0.321289 -0.220603 1.60379 105 101 89 
-0.0498339 -0.32667 1.44248 17 12 9 
-0.184708 -0.265635 1.43276 53 45 42 
-0.0118859 -0.33097 1.44077 53 50 43 
-0.0923487 -0.292132 1.43159 116 112 103 
-0.331551 -0.186181 1.59285 19 18 0 
-0.208246 -0.234552 1.44126 5 4 0 
-0.339619 -0.172277 1.70033 25 20 16 
-0.284036 -0.197241 1.5176 14 10 7 
-0.262698 -0.202549 1.52928 71 68 59 
-0.156826 -0.246492 1.42475 57 56 54 
-0.334799 -0.164131 1.65175 34 31 24 
-0.0377991 -0.289809 1.41525 71 67 64 
-0.275666 -0.190973 1.50841 73 70 63 
-0.228517 -0.207299 1.49102 2 2 0 
-0.213506 -0.215409 1.43518 3 2 0 
-0.201915 -0.219181 1.44075 1 0 0 
-0.282749 -0.175856 1.52033 83 78 72 
-0.273553 -0.157099 1.52945 87 78 69 
-0.0210501 -0.255479 1.41259 68 67 65 
-0.00580387 -0.253931 1.42442 101 98 93 
-0.242188 -0.147658 1.43813 53 43 33 
-0.316849 -0.0954583 1.73049 94 93 88 
-0.299691 -0.110639 1.56485 13 7 0 
-0.306047 -0.0982797 1.58654 20 17 8 
-0.241076 -0.134969 1.42613 132 123 108 
-0.295961 -0.105058 1.53986 14 4 0 
-0.12802 -0.155442 1.38792 45 35 25 
0.0717483 -0.22039 1.42102 108 104 95 
-0.309974 -0.077352 1.51603 19 9 0 
-0.0369912 -0.178028 1.35874 34 25 16 
-0.265604 -0.0826692 1.48276 132 123 108 
-0.292733 -0.0520108 1.52138 34 22 10 
-0.226478 -0.0612741 1.39968 151 134 118 
-0.204299 -0.0698046 1.39002 121 111 99 
-0.310754 -0.00155547 1.63988 21 17 6 
-0.138221 -0.0914495 1.35757 20 8 0 
-0.297178 -0.0106058 1.51994 121 114 98 
-0.302408 0.0197813 1.6613 37 35 20 
-0.167294 -0.0633281 1.31012 38 24 11 
-0.291865 -0.00604335 1.42312 16 4 0 
-0.287421 0.00764601 1.48205 13 4 0 
0.104736 -0.118043 1.38095 28 19 10 
-0.055339 -0.0789674 1.31512 35 21 8 
-0.316715 0.047866 1.59409 29 25 13 
-0.284677 0.0323412 1.51416 18 6 0 
-0.230467 -0.00760225 1.31806 146 134 120 
-0.270205 0.0297669 1.41019 131 121 96 
-0.00458061 -0.0447652 1.32928 124 114 104 
-0.308977 0.0792489 1.43563 131 119 105 
-0.31677 0.103498 1.51143 101 91 79 
-0.288141 0.13222 1.61846 21 0 0 
-0.252844 0.081619 1.35493 41 28 9 
-0.20548 0.05994 1.28088 151 143 124 
-0.0468217 0.0276951 1.25517 32 20 6 
-0.31226 0.152435 1.52242 17 8 1 
-0.24019 0.0883023 1.27588 47 35 21 
-0.304637 0.152781 1.49424 8 0 0 
-0.312552 0.164997 1.46625 10 2 0 
-0.0204731 0.0499094 1.2487 110 103 97 
-0.16203 0.084559 1.25272 54 40 14 
-0.310189 0.186792 1.53792 35 23 11 
-0.323651 0.175643 1.4219 16 4 0 
-0.255421 0.126162 1.27781 137 125 103 
-0.307873 0.166369 1.38358 27 12 0 
-0.0458107 0.0778729 1.22667 33 20 14 
-0.302056 0.17211 1.37553 117 103 90 
-0.167608 0.131165 1.2264 51 37 10 
-0.29428 0.212735 1.36654 44 34 9 
-0.227575 0.163539 1.23142 131 120 98 
-0.28173 0.202749 1.33048 40 24 0 
-0.15139 0.144287 1.19913 52 40 26 
-0.299777 0.294762 1.54129 15 10 6 
-0.305629 0.244863 1.36341 57 49 26 
-0.147644 0.168293 1.18661 21 11 0 
-0.322886 0.284483 1.46558 21 17 8 
-0.300859 0.313613 1.52757 159 156 149 
-0.0538206 0.166022 1.17475 14 7 1 
-0.318972 0.286394 1.33762 134 118 95 
-0.264976 0.271827 1.26501 23 9 0 
-0.325794 0.311874 1.34448 24 10 0 
-0.0842172 0.213842 1.14171 34 24 14 
-0.310935 0.330009 1.30941 132 124 105 
-0.223614 0.277877 1.16813 30 23 13 
-0.298511 0.400386 1.48397 5 4 0 
-0.161252 0.272578 1.13486 27 21 9 
-0.240388 0.291783 1.15856 17 13 1 
-0.318078 0.4033 1.41087 138 133 127 
-0.00715407 0.276656 1.10849 38 33 29 
-0.316044 0.432864 1.42523 7 4 0 
-0.0674995 0.288568 1.10177 25 22 17 
-0.320721 0.432869 1.40513 33 28 25 
0.0983107 0.293231 1.12926 111 107 104 
-0.322485 0.416917 1.34627 27 19 16 
-0.0497493 0.305739 1.08508 10 6 3 
-0.33476 0.432308 1.34682 115 112 105 
-0.331315 0.480915 1.3962 59 59 51 
-0.247002 0.373474 1.10639 50 42 31 
-0.0896027 0.345559 1.05134 16 13 8 
-0.330534 0.43546 1.22829 104 95 78 
-0.165557 0.351433 1.04609 64 60 51 
0.0150001 0.35136 1.06309 31 26 23 
-0.2315 0.388446 1.08836 42 32 22 
-0.174359 0.379211 1.04941 37 28 21 
-0.260817 0.403593 1.09333 41 32 17 
-0.220825 0.407745 1.07039 54 46 35 
-0.319283 0.454721 1.13237 35 28 12 
-0.279347 0.446781 1.06266 45 39 23 
-0.277255 0.45128 1.07197 30 23 17 
-0.233078 0.429921 1.02203 92 88 79 
-0.353628 0.566227 1.29835 113 109 108 
-0.283416 0.464174 1.06423 92 88 79 
-0.263152 0.470886 1.03874 89 82 72 
-0.265446 0.478535 1.02432 71 67 55 
-0.564525 0.310791 0.554365 16 13 0 
0.0483202 -0.728974 1.79471 202 206 207 
-0.244488 -0.502412 2.05909 170 170 170 
-0.242496 -0.379892 1.53962 42 39 34 
-0.11292 -0.33047 1.44722 37 32 28 
-0.252352 -0.236704 1.47932 70 66 57 
-0.29503 -0.2128 1.50914 91 86 82 
-0.321026 -0.197338 1.60458 111 101 89 
-0.334672 -0.159938 1.63578 16 12 11 
-0.321692 -0.110649 1.66349 11 7 6 
-0.32107 -0.109219 1.67997 27 22 19 
-0.0492386 -0.22781 1.41041 12 11 9 
-0.320222 -0.093638 1.59259 103 97 85 
-0.312451 -0.0845783 1.72354 11 7 8 
0.128376 -0.259232 1.46518 89 88 86 
-0.282339 -0.106774 1.49586 112 100 86 
-0.321915 -0.0804319 1.53616 26 17 8 
-0.31619 -0.0770511 1.55084 17 11 0 
-0.296989 -0.0419791 1.74456 22 17 11 
-0.10318 -0.145012 1.37706 40 31 22 
-0.277899 -0.0709262 1.48769 85 76 69 
-0.285798 -0.0661486 1.49296 13 3 0 
-0.113652 -0.102057 1.32662 34 24 12 
-0.0809438 -0.10794 1.35863 41 31 19 
-0.327745 0.0335408 1.48337 123 111 97 
-0.245945 0.0377582 1.37889 21 8 0 
-0.312345 0.0807274 1.35828 28 15 0 
-0.259838 0.0838658 1.37539 24 11 0 
-0.163911 0.0890252 1.24221 143 132 112 
-0.31972 0.17041 1.3835 14 0 0 
0.00840064 0.0784267 1.27076 25 15 6 
-0.293685 0.18626 1.44071 8 0 0 
-0.290349 0.180695 1.34301 47 32 11 
-0.318557 0.264306 1.37031 16 5 0 
-0.170233 0.183791 1.18317 27 15 1 
0.0867002 0.174756 1.21399 12 8 7 
-0.305059 0.291256 1.34166 153 139 112 
-0.287668 0.282989 1.2846 37 27 2 
-0.29765 0.359751 1.43665 149 143 131 
-0.259701 0.299531 1.2501 32 15 0 
-0.267057 0.314427 1.24006 19 6 0 
-0.23367 0.336435 1.1219 26 21 15 
-0.245182 0.385868 1.09376 124 127 118 
0.0762391 0.378831 1.07253 154 127 84 
-0.121627 0.403997 1.03029 101 98 93 
-0.179289 0.408797 1.02225 96 91 85 
-0.190321 0.431707 1.01696 93 89 86 
-0.300807 0.494654 1.04323 95 91 82 
-0.201665 -0.256784 1.46387 120 119 114 
-0.34466 -0.156846 1.61931 17 16 14 
-0.251113 -0.182132 1.46849 120 110 100 
-0.0643229 -0.232168 1.41524 108 105 96 
-0.0697364 -0.16824 1.38136 25 13 1 
0.214795 -0.23737 1.51415 20 20 20 
-0.0828102 -0.0888013 1.35893 88 44 41 
-0.177592 0.0142403 1.28695 137 123 97 
-0.326511 0.11019 1.45462 48 38 26 
-0.299771 0.145304 1.42293 119 110 93 
-0.316573 0.156662 1.40908 123 112 90 
-0.306824 0.18875 1.38217 51 33 13 
0.153913 0.159055 1.25813 201 202 204 
0.120752 0.156753 1.22219 26 26 26 
-0.313575 0.305165 1.38838 11 4 0 
-0.244084 0.284634 1.24493 90 79 57 
-0.225274 0.259823 1.17439 61 51 41 
0.0445674 0.234897 1.13824 83 78 74 
-0.240161 0.298005 1.21388 61 50 32 
-0.0697647 0.25229 1.13742 28 19 12 
-0.321308 0.39351 1.42157 22 22 14 
-0.223421 0.331445 1.1115 30 21 14 
-0.122526 0.320377 1.06268 106 103 96 
-0.219958 0.386667 1.0649 44 37 27 
-0.262204 0.410699 1.07213 94 84 72 
0.152206 0.501744 1.03637 42 36 22 
-0.0561126 -0.481573 1.54101 32 29 24 
-0.181141 -0.25153 1.58256 65 56 47 
-0.257119 -0.224957 1.48229 72 64 53 
-0.313608 -0.194209 1.56247 8 6 9 
-0.294864 -0.204322 1.52271 81 72 63 
-0.306234 -0.188274 1.60779 8 7 12 
-0.322528 -0.153633 1.53793 8 4 5 
-0.345446 -0.124805 1.67398 16 15 13 
-0.312884 -0.135849 1.62749 7 7 5 
-0.289991 -0.0670232 1.7779 23 20 15 
-0.159734 -0.0203099 1.29167 39 31 20 
-0.288607 0.0670818 1.33142 142 125 109 
-0.172839 0.434571 1.02149 83 79 76 
-0.594833 0.315124 0.569946 94 87 61 
-0.182745 0.118582 1.20894 23 11 0 
-0.155112 0.346598 1.04612 80 75 69 
-0.200384 -0.0400953 1.30379 10 1 0 
-0.130308 0.179391 1.15354 14 10 0 
-0.179177 0.236926 1.13802 27 23 11 
-0.114595 0.121176 1.18031 146 132 119 
-0.154465 0.216039 1.13995 10 0 0 
-0.140475 0.242449 1.12069 110 102 91 
-0.29611 0.253255 1.24882 28 14 0 
-0.165791 -0.300876 1.40299 106 99 93 
-0.281753 -0.27375 1.47465 102 91 87 
-0.172759 -0.269556 1.39006 111 107 96 
-0.159633 -0.166552 1.34552 60 55 51 
-0.1698 -0.149981 1.34057 117 109 98 
-0.132986 -0.115169 1.31051 18 8 0 
-0.259622 -0.0706955 1.36359 9 0 0 
-0.235943 -0.0633315 1.3327 123 116 100 
-0.283132 -0.0126092 1.36322 17 5 0 
-0.317464 0.0202238 1.41954 8 0 0 
-0.18497 0.00279771 1.26525 44 35 20 
-0.169604 0.0939364 1.21229 117 104 88 
-0.176641 0.112045 1.20379 96 82 69 
-0.17022 0.135247 1.18864 43 36 20 
-0.316927 0.199084 1.32552 147 136 114 
-0.17302 0.192011 1.1583 7 0 0 
-0.266259 0.243609 1.20358 37 24 8 
-0.328657 0.285412 1.32171 101 90 72 
-0.194501 0.233454 1.14587 112 104 91 
-0.282942 0.488328 1.03495 90 85 79 
-0.180368 -0.127083 1.33311 13 5 0 
-0.115268 -0.119779 1.30917 19 9 0 
-0.206713 0.0250933 1.2678 115 101 90 
-0.268855 0.215679 1.22193 81 69 53 
-0.134682 0.223239 1.1269 24 11 5 
-0.157002 0.356102 1.04141 22 13 4 
-0.288492 0.0356895 1.34779 41 25 12 
-0.0828933 0.0114055 1.23519 108 98 86 
-0.0802971 0.163379 1.15315 3 0 0 
-0.305577 0.383601 1.15455 59 50 33 
-0.25034 -0.401782 1.54193 37 34 29 
-0.262242 -0.283224 1.44268 8 4 0 
-0.258208 -0.279175 1.43475 20 15 9 
-0.155526 -0.314845 1.39822 108 105 100 
-0.237252 -0.28066 1.42134 121 114 104 
-0.326818 -0.245759 1.51097 78 69 60 
-0.293403 -0.25649 1.46147 101 92 87 
-0.249841 -0.264086 1.42245 75 72 67 
-0.211082 -0.273972 1.40012 36 31 28 
-0.354641 -0.177933 1.55209 6 3 0 
-0.260134 -0.183773 1.41044 14 5 0 
-0.297653 -0.163155 1.44724 133 123 113 
-0.319969 -0.153628 1.48251 11 7 0 
-0.243184 -0.162059 1.37518 34 31 22 
-0.15971 -0.185581 1.35113 13 9 0 
-0.308047 -0.130757 1.44749 80 74 62 
-0.331446 -0.113271 1.49139 107 100 90 
-0.260662 -0.14078 1.38964 125 118 108 
-0.317435 -0.117317 1.4595 100 91 82 
-0.16587 -0.16662 1.34261 12 8 5 
-0.344469 -0.0917573 1.54107 104 102 89 
-0.273419 -0.116325 1.39103 104 90 77 
-0.134591 -0.156451 1.32832 115 109 97 
-0.234458 -0.12189 1.35425 13 4 0 
-0.30377 -0.0955232 1.42245 41 32 23 
-0.2847 -0.101041 1.39603 138 129 112 
-0.191354 -0.133448 1.33468 29 25 14 
-0.319169 -0.086085 1.44596 34 25 18 
-0.122416 -0.15508 1.3257 9 0 0 
-0.332211 -0.0778171 1.47322 109 100 91 
-0.273392 -0.100854 1.38134 12 3 0 
-0.338906 -0.0715979 1.49615 90 86 77 
-0.241621 -0.106061 1.35164 93 89 78 
-0.169518 -0.126625 1.32173 30 22 11 
-0.343847 -0.0573022 1.51532 89 80 71 
-0.15176 -0.127211 1.31595 24 14 4 
-0.165811 -0.118402 1.31427 97 88 79 
-0.322721 -0.0481551 1.43571 8 0 0 
-0.254089 -0.0739381 1.34564 25 16 1 
-0.227248 -0.082932 1.33019 101 92 83 
-0.335699 -0.0384471 1.46211 29 20 5 
-0.305514 -0.0503584 1.40664 43 37 21 
-0.102649 -0.117124 1.30138 24 14 4 
-0.336063 -0.0240579 1.46065 20 12 0 
-0.319076 -0.0294219 1.41673 121 117 105 
-0.208511 -0.0719553 1.31038 154 150 139 
-0.199524 -0.0733254 1.30538 121 113 102 
-0.327744 -0.0116977 1.43143 8 2 0 
-0.298909 -0.0194279 1.37045 108 96 82 
-0.284109 -0.025741 1.35425 126 114 100 
-0.269538 -0.0306407 1.33963 55 41 30 
-0.333388 0.00113879 1.44071 112 106 94 
-0.339919 0.00785432 1.45847 111 103 90 
-0.313991 -0.00586437 1.39115 133 124 109 
-0.319545 0.00662767 1.40287 124 109 90 
-0.331012 0.0132754 1.42562 10 0 0 
-0.338239 0.0226312 1.44896 36 27 12 
-0.311076 0.00893195 1.37947 35 23 7 
-0.261074 -0.011745 1.3233 117 103 90 
-0.344264 0.0379431 1.4828 103 99 87 
-0.342599 0.0356649 1.46285 42 34 21 
-0.249873 -0.00740816 1.30903 35 22 6 
-0.329966 0.0308438 1.41587 117 109 90 
-0.172666 -0.0271863 1.27132 50 39 17 
-0.118818 -0.0380334 1.27626 25 0 0 
-0.208652 -0.00458163 1.27685 12 2 0 
-0.330729 0.0475452 1.40968 17 8 0 
-0.218307 0.00681265 1.27463 105 101 89 
-0.324212 0.0541743 1.38968 117 106 88 
-0.316199 0.0516466 1.37044 109 96 79 
-0.333355 0.0628537 1.4055 31 24 6 
-0.336344 0.0709072 1.42082 15 6 0 
-0.326443 0.0637067 1.39175 22 9 0 
-0.227296 0.0214074 1.27513 136 123 107 
-0.318916 0.0634465 1.3709 118 106 90 
-0.334904 0.077741 1.40619 10 0 0 
-0.323343 0.0769615 1.37283 109 101 90 
-0.184848 0.0230794 1.24891 10 0 0 
-0.251668 0.046943 1.28068 35 23 7 
-0.33195 0.0864929 1.38829 30 18 2 
-0.320509 0.0822367 1.3652 39 29 17 
-0.342039 0.100267 1.4356 102 90 78 
-0.333498 0.0921935 1.39567 96 84 70 
-0.326917 0.087223 1.37737 120 110 98 
-0.343289 0.106924 1.44563 25 18 2 
-0.256322 0.057271 1.28009 20 12 0 
-0.333768 0.104749 1.38871 41 29 13 
-0.191052 0.0513688 1.23728 13 1 0 
-0.217274 0.060153 1.2489 118 101 91 
-0.324548 0.107071 1.36421 105 93 79 
-0.255313 0.0750158 1.26945 37 27 15 
-0.113797 0.0401733 1.21953 97 83 70 
-0.250575 0.0820479 1.26393 38 24 11 
-0.335266 0.126134 1.38663 110 96 83 
-0.297485 0.101547 1.30625 46 37 22 
-0.314155 0.111381 1.33391 110 98 82 
-0.324044 0.119381 1.35335 120 111 96 
-0.189903 0.067769 1.22968 34 19 0 
-0.265833 0.0957406 1.27235 113 101 89 
-0.224053 0.0830431 1.24058 32 29 14 
-0.208246 0.0791877 1.23247 128 115 98 
-0.338395 0.143086 1.38954 45 36 21 
-0.329986 0.137776 1.36049 43 31 15 
-0.323508 0.133939 1.34366 131 118 101 
-0.0964927 0.0573258 1.20808 126 117 110 
-0.190293 0.0841681 1.21935 117 99 75 
-0.278769 0.116917 1.27274 133 121 107 
-0.33062 0.151048 1.35605 11 0 0 
-0.270343 0.125785 1.2601 67 55 39 
-0.32659 0.15664 1.34359 119 108 88 
-0.335529 0.164434 1.36503 124 117 101 
-0.22523 0.112092 1.2281 113 97 82 
-0.320609 0.157723 1.32585 132 116 103 
-0.312723 0.156226 1.30908 104 88 73 
-0.338522 0.178523 1.37507 10 0 0 
-0.34362 0.187855 1.40446 93 83 73 
-0.341084 0.188857 1.38227 106 100 84 
-0.338093 0.187792 1.36906 118 108 96 
-0.323791 0.174956 1.3267 122 106 83 
-0.331305 0.183028 1.34462 45 29 4 
-0.204016 0.131349 1.20302 48 33 12 
-0.117049 0.110611 1.18554 32 25 15 
-0.322854 0.185277 1.31308 79 61 37 
-0.306412 0.179651 1.28628 41 29 15 
-0.190155 0.135849 1.19105 51 42 27 
-0.333633 0.210719 1.33608 108 97 79 
-0.266349 0.172939 1.23028 140 118 97 
-0.302905 0.193988 1.27083 146 139 121 
-0.201307 0.153642 1.18581 76 64 52 
-0.137214 0.13876 1.16946 22 14 1 
-0.339749 0.225987 1.35552 61 52 35 
-0.339036 0.232091 1.36082 89 82 66 
-0.181788 0.155204 1.17843 18 6 0 
-0.115275 0.139293 1.16421 42 35 27 
-0.32627 0.220467 1.31263 123 111 87 
-0.333522 0.228352 1.33277 118 109 94 
-0.239799 0.18134 1.19903 27 19 8 
-0.338008 0.242374 1.3478 16 6 0 
-0.32642 0.229853 1.30535 150 137 118 
-0.331151 0.236741 1.32148 42 30 14 
-0.315301 0.223249 1.27793 117 104 88 
-0.212735 0.182016 1.18005 25 13 1 
-0.321186 0.231939 1.28956 48 35 16 
-0.343643 0.267141 1.37327 36 26 14 
-0.324277 0.242919 1.29821 150 132 110 
-0.211746 0.194135 1.17502 10 0 0 
-0.187068 0.186391 1.16435 35 25 15 
-0.166324 0.183901 1.15568 38 28 18 
-0.333083 0.259087 1.31277 50 38 22 
-0.201198 0.194791 1.16655 118 106 82 
-0.216623 0.205487 1.1717 25 13 0 
-0.146824 0.18945 1.14611 28 19 10 
-0.191413 0.20589 1.1545 121 111 99 
-0.334603 0.274416 1.30314 48 36 12 
-0.33855 0.280443 1.31936 125 117 98 
-0.320585 0.26466 1.26551 137 129 110 
-0.0875585 0.19223 1.13571 26 18 7 
-0.203206 0.217357 1.15628 142 132 120 
-0.180492 0.214022 1.14537 109 99 89 
-0.339717 0.293621 1.31878 109 96 79 
-0.217779 0.226814 1.15929 51 39 23 
-0.193231 0.2234 1.14552 100 91 82 
-0.159955 0.215657 1.13656 11 7 0 
-0.230597 0.236113 1.16367 137 124 108 
-0.332228 0.290543 1.28514 148 136 120 
-0.337191 0.300209 1.30834 22 13 0 
-0.254599 0.251611 1.17688 132 119 102 
-0.32052 0.288422 1.25429 90 78 64 
-0.336297 0.308741 1.29281 113 107 95 
-0.219418 0.24815 1.14756 110 102 89 
-0.34185 0.324191 1.31465 130 122 111 
-0.320698 0.30336 1.2488 14 6 0 
-0.333832 0.317702 1.2765 37 28 11 
-0.10054 0.233685 1.11338 137 135 123 
-0.331962 0.328682 1.26506 129 121 108 
-0.254921 0.282518 1.15781 120 108 92 
-0.187902 0.268409 1.11876 46 40 28 
-0.341357 0.354417 1.29848 91 89 77 
-0.208458 0.275514 1.12438 114 106 95 
-0.151593 0.264487 1.10707 29 18 12 
-0.176365 0.270115 1.11322 106 100 88 
-0.196088 0.275843 1.11826 38 30 19 
-0.323924 0.33633 1.23651 22 10 0 
-0.224157 0.290164 1.12804 92 83 76 
-0.323954 0.344939 1.23085 127 120 104 
-0.324482 0.353536 1.21374 105 99 87 
-0.345452 0.392482 1.24484 93 86 78 
-0.179074 0.325582 1.06484 106 97 88 
-0.33418 0.392716 1.18979 36 32 20 
-0.340903 0.403341 1.20511 119 113 97 
-0.146563 0.329852 1.05068 28 23 19 
-0.184249 0.343971 1.05721 37 28 23 
-0.168149 0.347079 1.04903 38 34 23 
-0.264073 0.375746 1.09433 37 27 15 
-0.343446 0.442906 1.19821 40 32 21 
-0.285726 0.403259 1.10289 47 38 21 
-0.323908 0.468116 1.10783 23 13 4 
-0.281002 0.460456 1.04077 36 32 21 
-0.319064 0.491159 1.07288 93 89 78 
-0.292827 0.499021 1.03315 83 80 71 
-0.359709 -0.161709 1.56951 3 0 0 
-0.327046 -0.151439 1.49788 9 0 0 
-0.26784 -0.15661 1.40321 16 10 0 
-0.222814 -0.12337 1.34758 39 30 21 
-0.135605 -0.138878 1.31825 19 12 4 
-0.240098 -0.079783 1.33851 8 4 0 
-0.120597 -0.118594 1.3052 26 17 8 
-0.140274 -0.110655 1.30455 22 12 3 
-0.33988 0.0483923 1.44154 4 0 0 
-0.300194 0.0696533 1.33015 131 124 108 
-0.242196 0.0528948 1.26748 25 18 8 
-0.337265 0.108619 1.40812 21 13 0 
-0.238938 0.0769321 1.25082 136 124 102 
-0.298747 0.150474 1.28628 49 36 19 
-0.330178 0.18758 1.33621 60 53 37 
-0.326761 0.203463 1.32241 58 50 31 
-0.344381 0.296454 1.34575 15 5 0 
-0.13406 0.205304 1.13417 37 29 18 
-0.329582 0.284724 1.27829 57 46 26 
-0.141011 0.244727 1.1133 28 21 11 
-0.148496 0.251963 1.11055 14 4 0 
-0.326394 0.484389 1.08698 73 71 59 
-0.352305 -0.22094 1.56406 10 1 0 
-0.282586 -0.123137 1.39862 17 8 0 
-0.343576 -0.0408145 1.50967 116 113 96 
-0.337487 -0.0415808 1.47832 27 15 1 
-0.317064 0.0207528 1.38199 119 112 93 
-0.338721 0.0735865 1.43729 16 10 0 
-0.325707 0.0918693 1.36887 120 103 87 
-0.238992 0.065885 1.2579 9 3 0 
-0.306777 0.099849 1.32558 16 8 0 
-0.335343 0.142195 1.37612 119 112 96 
-0.331618 0.163283 1.35174 58 42 29 
-0.334377 0.240874 1.33205 41 32 17 
-0.170127 0.228704 1.131 24 17 7 
-0.334214 0.342633 1.27831 35 27 16 
-0.259588 0.314214 1.13708 22 14 1 
-0.168537 0.312541 1.07232 12 8 0 
-0.306926 0.413412 1.13056 65 49 34 
-0.293961 0.469193 1.04933 83 78 72 
-0.262716 0.460136 1.02293 69 64 58 
-0.271373 0.475332 1.02042 75 71 62 
-0.337341 0.0338242 1.43345 10 0 0 
-0.17496 0.0898791 1.21268 41 33 20 
-0.19566 0.145519 1.19237 121 112 97 
-0.0918798 0.173474 1.14691 142 133 126 
-0.314391 0.275778 1.25193 34 26 7 
-0.159788 0.234706 1.12611 15 8 0 
-0.347138 -0.126947 1.56925 9 4 8 
-0.295065 0.306162 1.20944 29 19 10 
-0.343333 0.427601 1.19917 35 26 19 
-0.262 -0.369398 1.50859 36 33 26 
-0.308977 -0.344356 1.59341 117 114 109 
-0.245628 -0.359248 1.47389 39 35 26 
-0.248368 -0.305159 1.44285 19 16 9 
-0.215772 -0.311636 1.43323 20 17 10 
-0.273172 -0.2798 1.45653 32 28 19 
-0.179037 -0.318956 1.41668 83 78 75 
-0.286163 -0.272253 1.4702 96 89 81 
-0.29652 -0.266855 1.48045 23 18 14 
-0.18544 -0.287171 1.40237 31 28 21 
-0.278908 -0.246383 1.44981 122 115 109 
-0.161253 -0.287017 1.3921 29 24 20 
-0.299751 -0.223979 1.45886 7 2 0 
-0.240991 -0.2474 1.41134 18 13 10 
-0.287812 -0.224233 1.44797 95 86 77 
-0.174215 -0.269409 1.38894 101 92 83 
-0.323869 -0.202949 1.48593 85 81 72 
-0.24416 -0.236288 1.40746 109 106 97 
-0.277632 -0.184644 1.43881 29 24 18 
-0.255945 -0.18524 1.4145 25 10 3 
-0.273578 -0.177004 1.42959 19 11 0 
-0.236638 -0.19339 1.38913 3 0 0 
-0.260832 -0.178415 1.40917 25 16 7 
-0.273139 -0.169655 1.4233 37 33 21 
-0.322654 -0.141278 1.49313 107 99 88 
-0.269728 -0.163247 1.41587 12 9 0 
-0.293977 -0.151319 1.4431 116 108 97 
-0.299147 -0.147445 1.4501 128 119 110 
-0.235858 -0.174312 1.38129 37 33 22 
-0.265939 -0.154135 1.4079 46 34 22 
-0.24302 -0.163612 1.3913 109 102 94 
-0.176461 -0.183804 1.36178 122 113 104 
-0.33799 -0.110387 1.51993 29 22 12 
-0.320507 -0.120202 1.47364 95 85 76 
-0.325051 -0.11458 1.48545 21 13 0 
-0.241169 -0.152699 1.38363 106 104 92 
-0.300755 -0.125642 1.44196 44 35 26 
-0.309384 -0.118383 1.4495 135 127 116 
-0.255934 -0.142287 1.39415 128 120 109 
-0.290179 -0.124587 1.42399 99 97 84 
-0.34136 -0.0925991 1.54479 103 99 90 
-0.268329 -0.129298 1.39659 128 119 104 
-0.319808 -0.104312 1.46337 92 83 74 
-0.251336 -0.134946 1.38727 110 97 89 
-0.293418 -0.114265 1.42065 105 99 87 
-0.3034 -0.108368 1.43337 109 101 90 
-0.242916 -0.134322 1.37498 111 99 85 
-0.314793 -0.101331 1.44971 11 4 0 
-0.254454 -0.124115 1.38001 97 87 75 
-0.274494 -0.115045 1.39815 136 124 112 
-0.235651 -0.131439 1.36663 14 1 0 
-0.29463 -0.103957 1.41904 26 18 7 
-0.240785 -0.120839 1.36999 29 19 9 
-0.274462 -0.10644 1.39185 151 145 131 
-0.226756 -0.126082 1.36147 6 0 0 
-0.301661 -0.0934802 1.42468 43 35 24 
-0.211544 -0.130795 1.35326 17 10 0 
-0.281027 -0.101981 1.39959 137 128 111 
-0.253311 -0.114089 1.37311 142 134 113 
-0.297156 -0.0933491 1.41527 149 136 127 
-0.18689 -0.13467 1.33838 40 32 21 
-0.265157 -0.102619 1.38274 38 25 16 
-0.22334 -0.119063 1.35398 93 84 77 
-0.308611 -0.0802105 1.42937 33 23 11 
-0.276 -0.0952991 1.38878 24 11 0 
-0.258558 -0.101828 1.37491 114 102 90 
-0.34321 -0.0574004 1.51603 98 90 77 
-0.32503 -0.0696398 1.45672 22 12 0 
-0.315914 -0.0738637 1.43791 51 41 29 
-0.304436 -0.0795017 1.42037 17 8 0 
-0.197926 -0.123818 1.33756 17 7 0 
-0.346377 -0.0484011 1.56605 30 22 11 
-0.343906 -0.053907 1.52166 23 20 3 
-0.236734 -0.10724 1.35593 106 102 93 
-0.281431 -0.0876225 1.39407 114 106 87 
-0.213182 -0.112122 1.34375 116 106 94 
-0.300179 -0.0736718 1.41022 100 92 79 
-0.2959 -0.0761423 1.40112 32 24 13 
-0.34547 -0.0442166 1.53508 117 114 97 
-0.178645 -0.121993 1.32989 21 13 2 
-0.244467 -0.0948269 1.3588 144 134 122 
-0.26729 -0.0847891 1.37688 120 107 91 
-0.308109 -0.0656362 1.42094 105 97 84 
-0.202697 -0.11028 1.33723 108 100 89 
-0.332008 -0.0513564 1.47792 140 133 117 
-0.284084 -0.0759619 1.39043 51 39 23 
-0.332556 -0.048955 1.46529 13 1 0 
-0.240377 -0.090094 1.3514 130 112 100 
-0.298171 -0.0608439 1.40468 40 28 14 
-0.320286 -0.0487723 1.4382 18 6 0 
-0.270699 -0.0725985 1.36842 100 88 76 
-0.236189 -0.0869224 1.34365 13 6 0 
-0.251462 -0.0798459 1.35593 108 100 81 
-0.305393 -0.0502439 1.4067 47 38 23 
-0.276146 -0.0630906 1.37033 33 26 8 
-0.256785 -0.0704352 1.35483 108 96 80 
-0.291044 -0.0551596 1.3867 21 9 0 
-0.321619 -0.0349689 1.4314 21 7 0 
-0.250738 -0.0654462 1.34722 36 24 12 
-0.34575 -0.0116729 1.5277 91 85 73 
-0.323099 -0.0292717 1.4372 131 122 107 
-0.311718 -0.035492 1.41204 29 21 8 
-0.207737 -0.0801798 1.32181 31 23 10 
-0.235941 -0.06676 1.3347 110 102 91 
-0.318701 -0.0291027 1.42121 21 15 0 
-0.295484 -0.0398738 1.38665 24 15 0 
-0.25931 -0.0518325 1.34893 31 22 7 
-0.221721 -0.066736 1.32303 133 125 112 
-0.28154 -0.0409698 1.36739 48 39 24 
-0.346754 0.000589453 1.52382 33 24 15 
-0.289058 -0.0372224 1.37577 18 7 0 
-0.300776 -0.026759 1.38839 36 23 7 
-0.320294 -0.0146421 1.425 53 41 25 
-0.241708 -0.0508071 1.33283 93 81 69 
-0.256168 -0.0433255 1.34095 58 43 22 
-0.269713 -0.035718 1.35315 30 14 1 
-0.295497 -0.0241403 1.37738 33 17 4 
-0.313992 -0.0126345 1.40458 127 114 98 
-0.345681 0.010639 1.49776 107 99 88 
-0.263047 -0.035044 1.34444 98 85 68 
-0.282248 -0.0260918 1.35597 135 123 109 
-0.247228 -0.0401342 1.32994 41 28 9 
-0.233233 -0.0460136 1.3195 8 0 0 
-0.34578 0.0174137 1.51085 33 32 14 
-0.344023 0.0142426 1.49086 109 102 86 
-0.300738 -0.0142209 1.38219 133 120 104 
-0.288507 -0.0201307 1.3639 140 127 111 
-0.258706 -0.0316906 1.33385 54 38 22 
-0.346041 0.0235409 1.52944 114 105 96 
-0.311681 -0.0062191 1.39343 139 127 111 
-0.274305 -0.0232504 1.34876 108 100 87 
-0.319506 0.001633 1.40472 129 116 100 
-0.345828 0.0270208 1.51832 119 115 103 
-0.235119 -0.0357143 1.31815 45 39 27 
-0.321847 0.00513984 1.41754 138 129 112 
-0.344603 0.02424 1.49355 15 12 0 
-0.339203 0.0187218 1.4671 38 30 17 
-0.30459 -0.00275781 1.38435 126 110 95 
-0.3441 0.0265198 1.5004 108 105 86 
-0.329526 0.0131395 1.42714 10 0 0 
-0.249101 -0.0243048 1.32611 127 110 94 
-0.279248 -0.0111217 1.3511 11 2 0 
-0.309708 0.00311676 1.3808 129 114 93 
-0.288797 -0.00584715 1.35919 133 119 106 
-0.272014 -0.0134382 1.3439 36 22 9 
-0.346212 0.0371552 1.51634 95 91 80 
-0.333825 0.0224043 1.43596 27 19 6 
-0.345107 0.0351924 1.48949 33 31 16 
-0.258329 -0.0152525 1.32826 19 3 0 
-0.340261 0.0302915 1.46469 102 90 78 
-0.322178 0.0166843 1.4105 134 122 108 
-0.240017 -0.0217786 1.31666 28 15 0 
-0.229546 -0.0265183 1.30637 115 99 84 
-0.31598 0.0131881 1.39701 30 20 8 
-0.296739 0.00539977 1.36583 116 103 86 
-0.288158 0.00259196 1.35423 152 139 120 
-0.345213 0.0433433 1.50531 91 89 74 
-0.307081 0.0133207 1.38392 132 119 103 
-0.236754 -0.0169486 1.30717 20 10 0 
-0.220904 -0.0215822 1.30075 130 120 108 
-0.25269 -0.00893625 1.31968 139 121 107 
-0.321698 0.0269897 1.40634 29 17 3 
-0.345341 0.048133 1.49177 110 109 88 
-0.338131 0.0402335 1.45459 94 87 69 
-0.328194 0.0307817 1.41763 118 107 89 
-0.332469 0.0343583 1.42594 63 52 34 
-0.317014 0.0236868 1.38909 138 125 109 
-0.208197 -0.0209597 1.29477 26 14 0 
-0.264927 0.0009854 1.32804 127 104 86 
-0.281342 0.00845335 1.34231 140 122 110 
-0.293006 0.0162162 1.35487 39 22 4 
-0.245188 -0.00485922 1.30838 136 119 103 
-0.258665 0.00237562 1.31831 148 131 115 
-0.286983 0.0163992 1.3455 38 29 14 
-0.307271 0.0268378 1.37346 32 17 0 
-0.343786 0.0566246 1.48226 110 103 87 
-0.190438 -0.0201675 1.27949 60 47 30 
-0.236239 -0.00274413 1.30211 130 118 104 
-0.277796 0.0152479 1.33447 128 112 97 
-0.26956 0.0130715 1.32831 155 134 115 
-0.295737 0.027025 1.35161 25 12 0 
-0.316533 0.0391268 1.38598 123 109 96 
-0.262112 0.0139141 1.31801 14 0 0 
-0.337926 0.0598234 1.45691 16 8 0 
-0.32936 0.0509636 1.41337 69 57 43 
-0.308625 0.0371433 1.36805 123 110 94 
-0.237343 0.00583318 1.29647 146 137 122 
-0.203492 -0.0053327 1.2809 18 6 0 
-0.276237 0.0252757 1.32837 53 37 22 
-0.268476 0.0228249 1.31924 112 89 73 
-0.221181 0.00528298 1.28507 147 138 121 
-0.32232 0.0526581 1.39111 26 15 0 
-0.325317 0.0561386 1.40269 53 37 21 
-0.252361 0.0199647 1.30431 119 107 91 
-0.304517 0.0453353 1.3595 115 102 85 
-0.331797 0.0627861 1.40706 17 5 0 
-0.344878 0.0861576 1.51244 94 86 75 
-0.285212 0.0378505 1.32947 111 99 83 
-0.293883 0.0429811 1.3429 59 45 32 
-0.259243 0.0272893 1.30417 127 114 97 
-0.213364 0.0108217 1.28014 116 109 93 
-0.235347 0.0195989 1.28876 28 18 9 
-0.251317 0.0289397 1.29761 35 20 0 
-0.31575 0.0606638 1.37336 115 102 85 
-0.344681 0.0882252 1.47568 114 106 93 
-0.222429 0.0207042 1.27904 136 125 105 
-0.309188 0.0593182 1.36129 29 21 2 
-0.201715 0.0156346 1.27103 133 121 99 
-0.322197 0.0679962 1.38084 77 66 48 
-0.321601 0.108529 1.58964 84 79 75 
-0.236221 0.0295977 1.28344 30 18 4 
-0.267234 0.0425886 1.30804 112 98 85 
-0.258214 0.040427 1.2999 88 76 54 
-0.248147 0.0373743 1.29198 147 136 118 
-0.313438 0.0684478 1.36441 45 32 15 
-0.285679 0.0552762 1.32308 132 119 100 
-0.20858 0.0252596 1.26637 106 93 77 
-0.305672 0.0667726 1.34903 120 109 91 
-0.295105 0.0610114 1.33276 34 21 4 
-0.32063 0.0768239 1.37546 101 92 77 
-0.238323 0.0401864 1.28222 25 14 0 
-0.328054 0.0850924 1.38614 53 40 24 
-0.250079 0.0474275 1.28976 61 44 26 
-0.339909 0.100689 1.44113 9 0 0 
-0.212633 0.0348933 1.26586 48 36 12 
-0.318629 0.0822765 1.36694 48 32 17 
-0.25756 0.053835 1.29275 149 137 121 
-0.188623 0.0292626 1.25415 107 95 73 
-0.275346 0.0630459 1.30879 158 150 131 
-0.344181 0.115193 1.48014 165 158 142 
-0.29793 0.0739736 1.33237 123 112 92 
-0.269481 0.0603395 1.30101 22 10 0 
-0.286274 0.0698475 1.31849 34 22 0 
-0.343967 0.113622 1.45462 102 92 83 
-0.321756 0.0923446 1.3742 129 112 96 
-0.263017 0.0627398 1.29394 121 109 95 
-0.320529 0.0923161 1.36432 48 31 15 
-0.308023 0.0854696 1.34418 160 149 131 
-0.34285 0.113893 1.44048 102 90 76 
-0.344092 0.121799 1.47397 139 129 117 
-0.339425 0.115031 1.43036 33 26 10 
-0.293629 0.0810147 1.3227 41 23 9 
-0.288317 0.0788285 1.31381 151 140 118 
-0.273461 0.0745472 1.30009 31 19 3 
-0.210305 0.0503346 1.25976 110 97 78 
-0.221136 0.0547668 1.26347 40 29 7 
-0.31247 0.0969051 1.3466 109 98 80 
-0.24107 0.0654636 1.27126 60 49 31 
-0.305643 0.0972736 1.33564 119 106 87 
-0.263931 0.076998 1.28584 25 9 0 
-0.341241 0.12693 1.43182 88 76 62 
-0.249748 0.0717837 1.27621 52 34 20 
-0.271143 0.0811251 1.29275 52 40 24 
-0.213021 0.0613975 1.25521 128 115 99 
-0.341927 0.132453 1.43928 44 35 20 
-0.304918 0.0999826 1.328 15 3 0 
-0.325523 0.113923 1.36593 131 115 99 
-0.344513 0.143059 1.47331 40 31 22 
-0.235954 0.0709581 1.2579 59 45 36 
-0.333834 0.12262 1.3828 61 42 25 
-0.212457 0.0640886 1.246 48 32 9 
-0.286148 0.0949934 1.30439 30 16 3 
-0.276901 0.0904473 1.29639 143 130 114 
-0.256865 0.0844924 1.27829 105 89 74 
-0.249113 0.0810481 1.27098 74 57 47 
-0.303065 0.105363 1.32085 34 22 10 
-0.293247 0.101329 1.31002 52 41 23 
-0.240554 0.0784426 1.26367 29 12 0 
-0.194044 0.062891 1.24181 28 13 0 
-0.321512 0.120339 1.3549 28 16 0 
-0.313893 0.116411 1.33935 142 130 108 
-0.22147 0.0766619 1.2497 160 146 120 
-0.277649 0.0990969 1.29076 39 28 8 
-0.343533 0.150993 1.45386 102 94 81 
-0.328851 0.128999 1.36793 73 64 47 
-0.30708 0.116358 1.32854 146 138 119 
-0.341246 0.145234 1.41717 130 121 106 
-0.26206 0.0955959 1.27544 140 128 114 
-0.24278 0.08928 1.25967 132 113 99 
-0.183287 0.0695208 1.23216 43 30 11 
-0.342285 0.163513 1.48502 33 24 15 
-0.272358 0.103408 1.28302 39 24 5 
-0.301711 0.119194 1.31537 25 12 0 
-0.331677 0.139111 1.37132 61 52 35 
-0.315593 0.127237 1.33269 22 9 0 
-0.321079 0.132954 1.34685 12 0 0 
-0.201303 0.0798968 1.23361 131 115 92 
-0.341124 0.154579 1.41854 87 79 66 
-0.222431 0.0869436 1.24032 108 94 83 
-0.212481 0.0842113 1.23632 29 17 3 
-0.282998 0.112716 1.29066 79 67 45 
-0.308492 0.126438 1.32426 62 48 22 
-0.228142 0.0924301 1.24655 168 152 137 
-0.244816 0.0987539 1.25605 141 124 106 
-0.305954 0.130373 1.31544 35 20 0 
-0.331106 0.149482 1.36682 60 46 20 
-0.293635 0.124577 1.29756 68 55 36 
-0.184194 0.0838987 1.22368 128 108 83 
-0.311711 0.136894 1.3275 109 100 85 
-0.268087 0.114074 1.27118 109 97 83 
-0.220495 0.0979045 1.23784 139 126 107 
-0.329354 0.147968 1.34635 82 66 51 
-0.285457 0.125041 1.28996 46 33 14 
-0.247106 0.108341 1.25386 70 59 41 
-0.329197 0.151129 1.35739 20 4 0 
-0.216276 0.0963484 1.2279 37 22 1 
-0.302004 0.135018 1.30598 28 15 0 
-0.200673 0.0976211 1.22442 16 0 0 
-0.34221 0.175582 1.42111 86 77 62 
-0.210671 0.101109 1.22886 27 13 0 
-0.3158 0.149237 1.32565 117 99 85 
-0.234403 0.11325 1.23927 57 43 30 
-0.324122 0.160026 1.34491 113 102 82 
-0.287572 0.137132 1.28158 46 37 22 
-0.319269 0.157112 1.33279 151 138 121 
-0.26681 0.129116 1.26171 46 33 14 
-0.31827 0.207697 1.5335 112 102 100 
-0.240993 0.120191 1.24408 139 123 98 
-0.218738 0.111612 1.22883 129 108 89 
-0.340708 0.198049 1.47297 22 12 0 
-0.344382 0.191956 1.43883 143 133 121 
-0.288786 0.142983 1.28774 55 38 22 
-0.194682 0.106148 1.21765 157 141 116 
-0.276657 0.138011 1.26737 66 54 30 
-0.295765 0.150482 1.28888 45 28 10 
-0.204065 0.113981 1.21886 73 63 36 
-0.342728 0.194525 1.42534 28 16 2 
-0.308744 0.158105 1.30814 125 113 99 
-0.321848 0.167391 1.3324 24 11 0 
-0.305479 0.157192 1.30069 17 2 0 
-0.239661 0.126747 1.2348 118 105 86 
-0.249154 0.132311 1.24542 138 122 99 
-0.319454 0.167109 1.3245 53 37 14 
-0.343208 0.197827 1.41451 34 20 7 
-0.267821 0.142659 1.25564 82 70 46 
-0.342115 0.196931 1.40703 117 108 93 
-0.313712 0.169909 1.3154 146 130 104 
-0.329102 0.183048 1.34678 40 23 0 
-0.32195 0.176589 1.3272 36 20 0 
-0.326094 0.181458 1.33809 44 26 2 
-0.238007 0.136502 1.23145 149 138 110 
-0.251992 0.142268 1.23878 151 127 101 
-0.197315 0.124098 1.20964 125 112 95 
-0.302223 0.16731 1.29236 60 45 26 
-0.288871 0.15968 1.27393 19 7 0 
-0.290913 0.164767 1.28848 58 42 27 
-0.310872 0.174863 1.30353 17 6 0 
-0.265545 0.151471 1.24844 51 37 11 
-0.342059 0.206183 1.38939 112 102 90 
-0.320011 0.183407 1.3176 51 36 15 
-0.224851 0.13873 1.21933 71 57 30 
-0.316327 0.182473 1.30731 57 44 27 
-0.186269 0.128859 1.20071 41 27 0 
-0.234724 0.144841 1.22283 48 37 19 
-0.211207 0.138156 1.20981 142 125 109 
-0.304993 0.180813 1.29114 56 47 32 
-0.308648 0.184098 1.29785 112 109 92 
-0.180565 0.134706 1.19692 132 120 106 
-0.241623 0.15683 1.22235 41 33 14 
-0.323001 0.199041 1.31974 154 142 118 
-0.343011 0.233267 1.42483 98 88 78 
-0.250351 0.16291 1.22804 51 35 12 
-0.199983 0.145385 1.1993 154 142 120 
-0.190668 0.144143 1.19691 52 43 26 
-0.318752 0.199585 1.30978 33 21 0 
-0.294681 0.18416 1.26959 142 124 104 
-0.282708 0.180103 1.25568 72 54 34 
-0.302567 0.19138 1.2817 48 32 19 
-0.310442 0.196752 1.29122 38 24 0 
-0.23095 0.160517 1.21268 124 115 98 
-0.317403 0.259764 1.50586 94 81 73 
-0.19479 0.150845 1.19275 71 63 44 
-0.29931 0.194235 1.27387 166 153 136 
-0.243781 0.17019 1.21876 156 141 112 
-0.344055 0.239925 1.39685 19 11 0 
-0.317981 0.209356 1.30194 57 36 9 
-0.339306 0.232199 1.36829 96 86 74 
-0.290248 0.192164 1.2589 48 32 7 
-0.3271 0.269685 1.50687 87 80 70 
-0.327104 0.21834 1.31967 131 119 95 
-0.164416 0.151933 1.18004 149 141 122 
-0.306181 0.208727 1.28307 56 41 22 
-0.341484 0.241719 1.37557 25 16 1 
-0.21833 0.171687 1.19735 160 149 131 
-0.322356 0.221338 1.3042 147 133 107 
-0.180997 0.161384 1.18071 64 52 38 
-0.326312 0.225479 1.31293 174 162 138 
-0.30729 0.214386 1.27631 156 141 122 
-0.234631 0.181626 1.20276 42 35 19 
-0.250293 0.188176 1.2136 137 123 97 
-0.293464 0.208156 1.25396 43 31 9 
-0.337325 0.248174 1.35289 102 94 81 
-0.324233 0.232551 1.30605 157 145 119 
-0.210343 0.179104 1.18667 68 57 37 
-0.31849 0.229775 1.29057 45 34 14 
-0.297017 0.218869 1.25503 125 112 96 
-0.219999 0.18701 1.19039 153 141 117 
-0.196789 0.180482 1.18008 48 32 7 
-0.342207 0.262064 1.36947 105 96 81 
-0.339558 0.259129 1.3515 12 4 0 
-0.234714 0.195808 1.19559 48 30 16 
-0.283465 0.216147 1.23688 150 135 114 
-0.322136 0.243165 1.30014 158 142 116 
-0.316533 0.236683 1.28139 92 66 43 
-0.225798 0.196022 1.19189 46 31 8 
-0.258665 0.208522 1.21359 153 137 114 
-0.329613 0.250195 1.30605 62 50 24 
-0.209813 0.195284 1.18123 50 37 18 
-0.178366 0.189007 1.16582 31 21 9 
-0.307967 0.239247 1.26261 135 120 99 
-0.302181 0.236024 1.254 27 15 0 
-0.149042 0.182516 1.15821 14 10 0 
-0.195536 0.195203 1.1703 129 114 91 
-0.316263 0.247055 1.27344 142 128 102 
-0.271797 0.22267 1.21747 151 135 112 
-0.322559 0.253245 1.28592 59 47 23 
-0.222694 0.205848 1.18222 42 25 5 
-0.326427 0.257998 1.29455 170 156 130 
-0.343473 0.283025 1.36577 33 25 14 
-0.310838 0.248688 1.26525 59 43 20 
-0.298158 0.241831 1.24717 78 68 43 
-0.210355 0.206059 1.17593 50 34 9 
-0.342922 0.287846 1.37223 6 0 0 
-0.305521 0.247159 1.25727 74 60 34 
-0.34064 0.281659 1.34423 104 90 79 
-0.142567 0.192529 1.15082 39 29 20 
-0.328839 0.268381 1.30224 97 80 54 
-0.28303 0.237491 1.22397 133 120 101 
-0.317549 0.259218 1.27116 145 133 111 
-0.323375 0.26416 1.2816 157 140 120 
-0.228118 0.21797 1.17875 126 107 90 
-0.250061 0.227027 1.19395 30 19 1 
-0.146953 0.199436 1.14707 49 41 28 
-0.183145 0.209724 1.15637 59 51 38 
-0.219949 0.224055 1.17078 137 124 107 
-0.34122 0.295721 1.33798 11 2 0 
-0.195974 0.21793 1.16105 148 136 120 
-0.31681 0.269859 1.26638 135 123 101 
-0.166612 0.212415 1.14865 103 93 83 
-0.332101 0.283374 1.29309 74 59 36 
-0.211416 0.225136 1.16406 65 54 32 
-0.173349 0.217454 1.14774 126 118 105 
-0.326809 0.283296 1.28213 59 47 21 
-0.236581 0.236357 1.17417 36 32 21 
-0.222541 0.232732 1.16582 135 127 108 
-0.195925 0.225889 1.15516 130 122 111 
-0.338735 0.33441 1.42318 15 4 0 
-0.343997 0.316367 1.36709 110 99 93 
-0.152733 0.216127 1.14103 15 8 0 
-0.143253 0.214659 1.14023 123 111 99 
-0.345517 0.327951 1.38704 18 7 1 
-0.315252 0.281541 1.25154 124 110 83 
-0.193042 0.230645 1.14709 40 30 21 
-0.340788 0.341072 1.41719 113 106 98 
-0.227176 0.242925 1.16653 42 25 7 
-0.319023 0.286111 1.25793 32 24 5 
-0.20798 0.238142 1.1566 72 61 39 
-0.324354 0.291099 1.26771 73 61 45 
-0.281572 0.266029 1.21034 31 23 4 
-0.173798 0.230595 1.14109 122 112 103 
-0.31828 0.295363 1.2537 138 126 110 
-0.225274 0.251967 1.15957 73 60 44 
-0.32821 0.303539 1.27233 123 112 94 
-0.216648 0.249547 1.15503 39 29 17 
