ply                 
format ascii 1.0    
element vertex 1262
property float x    
property float y    
property float z    
property uchar red  
property uchar green
property uchar blue 
end_header          
-0.318417 0.374065 1.21774 123 121 109 
-0.282136 0.351238 1.1516 61 54 44 
-0.261732 0.346177 1.127 113 109 98 
-0.30753 0.373393 1.18054 122 115 99 
-0.293665 0.367056 1.15753 28 22 10 
-0.277006 0.359881 1.13645 27 18 3 
-0.262088 0.359521 1.11734 51 41 31 
-0.145411 0.337545 1.04646 81 78 73 
-0.273497 0.375049 1.12089 54 41 24 
-0.277741 0.385723 1.12076 126 119 103 
-0.274417 0.393491 1.1132 122 113 98 
-0.267815 0.389924 1.10487 61 49 35 
-0.0501982 0.365058 1.02153 133 132 127 
-0.142232 0.369521 1.02893 38 29 22 
-0.262062 0.399766 1.09079 47 40 30 
-0.168633 -0.318294 1.42416 19 17 18 
-0.193754 -0.289114 1.42101 11 8 3 
-0.28351 -0.286675 1.51203 10 6 3 
-0.0104761 -0.180676 1.34783 35 26 19 
-0.0493113 -0.169769 1.33825 97 85 73 
-0.225233 -0.136211 1.26982 43 33 24 
-0.245788 -0.115879 1.39071 142 134 123 
-0.0417772 -0.0573814 1.2774 35 25 15 
-0.274378 -0.015124 1.37455 54 44 32 
-0.0568961 -0.0148419 1.25259 102 91 85 
-0.253709 0.0308123 1.31998 30 18 6 
-0.243961 0.0542913 1.29537 126 114 100 
-0.285839 0.0920628 1.3358 51 39 23 
-0.183082 0.077176 1.2336 27 9 0 
-0.0976519 0.0956985 1.19337 107 94 85 
-0.0834172 0.0976909 1.19268 115 104 98 
-0.0968112 0.113651 1.18455 7 0 0 
-0.115563 0.121786 1.18163 144 132 118 
-0.277325 0.196289 1.263 146 133 114 
-0.128724 0.197458 1.14313 21 11 1 
-0.309162 0.264839 1.28996 153 140 124 
-0.0695214 0.214413 1.12711 136 132 121 
-0.287178 0.270679 1.23816 134 125 108 
-0.0280617 0.23817 1.11453 71 66 62 
-0.097101 0.273643 1.09204 28 19 14 
-0.189743 0.289564 1.11198 134 130 119 
-0.0258333 0.285289 1.08305 1 0 0 
-0.270155 -0.232347 1.46438 88 84 83 
-0.276448 0.0934019 1.31598 27 19 6 
-0.24745 0.122335 1.2597 58 42 27 
-0.0847486 0.16999 1.15018 14 7 0 
-0.28193 0.237431 1.24594 154 147 129 
-0.0422178 0.226419 1.11906 6 2 0 
-0.11371 0.239731 1.11673 23 14 5 
-0.0665014 0.253176 1.10193 23 16 8 
-0.041729 0.259155 1.10358 5 2 0 
-0.263517 0.297429 1.17642 39 32 16 
-0.236956 0.288529 1.15172 19 15 3 
-0.120376 0.289671 1.07775 107 102 98 
-0.31247 0.388913 1.17982 66 60 44 
-0.305142 -0.209717 1.5054 96 91 85 
-0.22944 0.0666575 1.27146 19 12 4 
-0.0534021 0.199075 1.13614 20 15 12 
-0.199973 0.298158 1.11104 24 22 10 
-0.0673985 -0.254625 1.38312 70 69 65 
-0.0338419 -1.24918 2.26316 32 31 27 
-0.173029 -0.315306 1.43325 6 3 0 
-0.0644391 -0.296159 1.38648 108 107 105 
0.0359434 -0.290764 1.39775 28 24 21 
-0.0270245 -0.225336 1.36624 2 2 0 
-0.10092 -0.203444 1.35898 31 28 23 
-0.0713663 -0.167897 1.33462 83 74 65 
0.0020607 -0.158054 1.33487 86 82 79 
-0.174078 -0.147792 1.35961 13 6 0 
-0.0641353 -0.126653 1.31157 101 91 81 
-0.0859481 -0.120487 1.31042 10 0 0 
-0.0687414 -0.105547 1.30074 25 17 14 
0.0134421 -0.102216 1.30687 15 10 6 
-0.067832 -0.0244786 1.25693 32 19 10 
0.00864304 -0.0141733 1.25589 9 4 0 
-0.195211 0.0101554 1.28771 34 30 18 
-0.201087 0.0360938 1.27928 103 93 83 
0.0140658 0.0664641 1.21516 15 8 2 
-0.0481381 0.0984858 1.18776 7 0 0 
-0.0962199 0.123278 1.17752 115 101 92 
-0.120915 0.233366 1.12134 22 11 5 
-0.167211 0.240315 1.13689 112 108 99 
-0.037653 0.249571 1.10304 89 88 86 
-0.175637 0.293406 1.10242 17 6 0 
-0.194335 0.316422 1.09202 50 47 40 
-0.206426 0.330301 1.08883 22 17 13 
-0.0652999 0.455435 0.91263 30 23 13 
-0.00717745 -0.167551 1.33689 71 65 67 
-0.0372645 -0.0705663 1.27941 113 102 96 
-0.0628492 -0.0580669 1.27403 102 98 87 
-0.0283374 0.0785363 1.20037 6 1 0 
-0.149312 0.210551 1.14396 131 122 113 
-0.216175 0.337206 1.09374 112 103 94 
-0.0646337 0.342329 1.03076 110 104 104 
0.0116284 -0.16905 1.34247 91 87 88 
-0.108671 -0.162571 1.34043 105 97 86 
-0.203679 -0.0135625 1.30593 18 9 0 
-0.0145808 0.314482 1.04985 88 87 85 
-0.0486133 0.460707 0.907956 100 95 89 
-0.089013 0.388692 1.00201 108 107 103 
-0.162547 0.180695 1.16903 7 0 0 
-0.0972639 -0.614287 1.69497 136 127 122 
-0.0934554 -0.494373 1.57048 37 29 18 
-0.20721 -0.317284 1.45622 3 0 0 
-0.182289 -0.311222 1.43504 33 31 19 
-0.234063 -0.311649 1.46993 110 107 102 
-0.194462 -0.296001 1.43504 33 23 21 
-0.136121 -0.283768 1.39506 8 5 0 
-0.160083 -0.278715 1.40267 108 101 93 
-0.234052 -0.255225 1.44203 2 1 0 
-0.109545 -0.231333 1.3761 102 94 91 
-0.163934 -0.22896 1.39732 94 94 86 
-0.13994 -0.221021 1.38023 97 92 89 
0.00774523 -0.22551 1.37539 82 79 74 
-0.210503 -0.210308 1.41895 26 17 8 
-0.00121869 -0.217117 1.36742 15 12 5 
-0.15009 -0.199008 1.37327 103 95 92 
-0.0747014 -0.200046 1.35273 101 92 85 
-0.090393 -0.197787 1.35676 98 89 82 
-0.141213 -0.184063 1.36134 24 17 9 
-0.0861496 -0.185155 1.34825 82 75 69 
-0.0194866 -0.188777 1.34819 103 98 95 
-0.0547703 -0.185243 1.34473 124 120 109 
-0.122693 -0.176874 1.35044 80 73 63 
-0.0411618 -0.176847 1.3395 109 105 94 
-0.153632 -0.168327 1.3589 72 67 63 
-0.130501 -0.168155 1.34986 7 4 0 
-0.241125 -0.162673 1.42387 17 8 0 
-0.0910815 -0.167745 1.33848 107 97 85 
-0.122111 -0.159601 1.342 41 33 22 
-0.0880888 -0.158034 1.33273 126 116 107 
0.018579 -0.165791 1.34591 94 89 83 
-0.0809449 -0.151329 1.32948 20 11 4 
-0.0997326 -0.148902 1.32985 107 97 87 
-0.123878 -0.14631 1.3335 119 111 98 
-0.0706086 -0.149958 1.32642 123 113 104 
-0.15174 -0.143006 1.34207 109 105 96 
-0.133992 -0.138967 1.33398 7 3 0 
-0.113536 -0.137926 1.32544 45 35 25 
-0.0761652 -0.140684 1.32042 108 96 84 
-0.103865 -0.130906 1.32122 22 13 4 
-0.0828259 -0.130769 1.31598 54 49 45 
-0.214982 -0.120596 1.37362 85 81 69 
0.0184041 -0.133456 1.32881 94 84 82 
-0.107418 -0.121732 1.31725 110 100 90 
-0.204718 -0.116298 1.36235 106 96 87 
-0.0381662 -0.113855 1.30598 20 12 1 
-0.0616974 -0.111187 1.30427 114 105 98 
-0.0477328 -0.0952443 1.29536 128 116 104 
-0.0892431 -0.090245 1.29465 118 109 92 
-0.20454 -0.0718412 1.33788 20 10 0 
-0.0161729 -0.083977 1.29238 26 19 9 
-0.0757044 -0.0745338 1.28509 100 92 81 
0.0138814 -0.073072 1.29401 10 0 0 
-0.0778673 -0.0590401 1.27482 32 26 14 
-0.0951978 -0.0553223 1.27693 40 27 8 
-0.0902978 -0.044716 1.27012 11 0 0 
-0.163755 -0.0383179 1.29147 125 113 91 
-0.0504156 -0.0453126 1.2689 31 21 9 
-0.217764 -0.0265413 1.32135 105 96 79 
-0.128183 -0.0283185 1.28617 144 114 104 
0.0117119 -0.0374866 1.27143 79 72 66 
-0.183359 -0.0151663 1.28944 82 75 57 
-0.0714699 -0.0100649 1.24822 8 0 0 
-0.00639081 -0.0136096 1.25555 10 0 0 
-0.125893 -0.00362607 1.27258 109 74 68 
-0.186726 0.00311237 1.28178 11 2 0 
-0.0747808 -0.000661926 1.24386 21 12 0 
-0.207851 0.0149743 1.29094 33 21 7 
-0.015223 -0.000612598 1.24769 7 0 0 
-0.0521452 0.00997596 1.23753 45 39 27 
-0.0648947 0.0116957 1.23686 14 6 0 
-0.193422 0.0251361 1.27344 55 45 35 
-0.0953081 0.0175352 1.23667 38 26 10 
-0.0758268 0.020644 1.23094 106 96 84 
-0.177435 0.0346936 1.25868 29 13 0 
-0.0759425 0.0345438 1.22513 27 22 16 
-0.0894901 0.0391178 1.22354 49 40 23 
-0.0473944 0.0375928 1.22241 97 87 77 
-0.186193 0.0538736 1.25436 30 18 0 
-0.21661 0.071279 1.26872 13 0 0 
-0.0238943 0.0584111 1.21442 42 38 27 
-0.208771 0.0869803 1.25053 17 7 0 
-0.21699 0.095385 1.25356 41 28 12 
-0.0951489 0.0817084 1.2024 124 112 100 
-0.0705435 0.0902271 1.19483 129 120 113 
-0.041833 0.0894108 1.19511 99 95 86 
-0.221301 0.10855 1.25064 98 85 76 
-0.243799 0.134803 1.25831 153 138 115 
-0.213003 0.133867 1.22998 126 111 92 
-0.16165 0.126025 1.19878 10 0 0 
-0.0837049 0.12217 1.17806 6 0 0 
-0.126188 0.12604 1.18435 145 137 126 
-0.138537 0.129103 1.18662 7 0 0 
-0.131311 0.136051 1.17826 45 37 26 
-0.186644 0.146238 1.20144 162 150 134 
-0.232967 0.156863 1.23246 29 25 14 
-0.156732 0.153043 1.18121 7 0 0 
-0.199943 0.16093 1.20386 15 3 0 
-0.16703 0.156285 1.18429 147 133 120 
-0.0699743 0.152737 1.15884 107 100 92 
-0.110305 0.160777 1.15969 142 132 122 
-0.173516 0.169163 1.18137 135 125 113 
-0.197643 0.173116 1.19382 52 40 24 
-0.189094 0.172785 1.18806 119 106 90 
-0.103056 0.167469 1.15482 14 6 0 
-0.152895 0.188775 1.16004 12 0 0 
-0.116061 0.186907 1.14703 156 149 139 
-0.0930351 0.189608 1.14236 15 6 0 
-0.0503745 0.187719 1.13999 7 0 0 
-0.108515 0.202589 1.13906 11 6 0 
-0.20933 0.218215 1.17927 155 137 123 
-0.129131 0.20859 1.13948 17 7 0 
-0.151847 0.227456 1.13849 123 113 101 
-0.139522 0.225922 1.13305 166 158 147 
-0.0925889 0.256272 1.10044 11 4 0 
-0.188871 0.278703 1.12619 40 36 24 
-0.0865221 0.274374 1.09067 136 131 125 
-0.218181 0.309283 1.11882 10 0 0 
-0.186382 0.307823 1.09462 13 5 0 
-0.0907039 0.300217 1.0638 106 102 101 
-0.0466593 0.3047 1.05498 6 0 0 
-0.0934596 0.308948 1.05522 10 2 0 
-0.237425 0.365875 1.09415 126 119 111 
-0.229667 0.368062 1.08446 43 37 25 
-0.149372 0.352108 1.04274 117 113 102 
-0.209665 0.372249 1.0681 128 121 111 
-0.202046 0.397231 1.04673 156 153 144 
-0.222174 0.43559 1.01999 122 119 114 
0.094467 -0.630559 1.71549 18 10 8 
0.0332084 -0.177479 1.35641 88 87 85 
0.0805765 -0.180797 1.38036 28 24 21 
0.0603449 -0.155277 1.35741 99 98 94 
-0.0973865 -0.115418 1.30963 16 6 0 
0.000151415 -0.106074 1.30912 88 79 70 
-0.0793692 -0.097629 1.29632 97 88 79 
0.0356555 -0.0917879 1.31303 13 3 0 
0.0282344 -0.0851888 1.30372 21 17 6 
-0.175576 -0.058864 1.30865 99 89 79 
0.0213284 -0.0611434 1.28918 29 19 10 
-0.178835 -0.0366365 1.2981 101 89 73 
-0.0590042 -0.0287727 1.25829 49 39 29 
-0.0859927 -0.00031215 1.24504 93 80 71 
-0.00565093 0.0310388 1.23306 105 100 94 
-0.0324103 0.0484446 1.2182 28 19 12 
0.0236699 0.050691 1.22829 79 76 71 
0.0105456 0.0529211 1.22344 81 77 74 
-0.04507 0.0803537 1.20064 6 0 0 
0.031153 0.107011 1.20253 104 93 87 
-0.110341 0.178191 1.15068 28 17 13 
-0.137916 0.183084 1.15796 145 141 130 
-0.081822 0.182374 1.14309 19 10 3 
-0.103438 0.193755 1.1397 33 29 18 
-0.0832072 0.193043 1.13797 41 32 23 
-0.198003 0.249748 1.14923 107 98 91 
-0.147582 0.247783 1.12215 7 0 0 
-0.146506 0.266437 1.11195 13 4 0 
-0.184642 0.287 1.11747 37 29 18 
-0.23763 0.319194 1.1312 122 114 103 
-0.0899827 0.324242 1.04445 8 1 0 
-0.171495 -0.30112 1.42318 9 5 0 
-0.102112 -0.236881 1.37177 89 85 82 
-0.0125502 -0.232923 1.37429 92 89 82 
-0.0127597 -0.218482 1.36438 49 40 35 
-0.0729579 -0.182796 1.34344 101 97 88 
-0.0257348 -0.133885 1.31916 88 78 69 
-0.0206921 -0.100854 1.30074 158 151 141 
0.0087641 -0.0871296 1.29835 13 6 0 
-0.0299041 -0.0627801 1.27865 107 98 89 
-0.0142225 -0.0225817 1.26044 6 0 0 
0.018148 -0.0228271 1.26632 9 6 0 
-0.0385059 0.00984774 1.23715 22 15 7 
-0.0405037 0.0234109 1.22787 8 2 0 
-0.0658435 0.0268253 1.22772 99 92 86 
-0.175828 0.0930077 1.22628 39 30 13 
-0.0291167 0.144805 1.16642 13 9 0 
-0.220791 0.197105 1.20136 151 135 119 
-0.0259579 0.197654 1.13829 116 112 103 
-0.172928 0.219602 1.15242 108 99 90 
-0.226772 0.230767 1.18471 25 15 5 
-0.0296121 0.211289 1.13094 92 85 79 
-0.0551558 0.249677 1.10487 6 1 0 
-0.0635568 0.299089 1.06257 5 2 0 
-0.195642 0.40491 1.03404 94 90 87 
-0.133387 0.39424 1.00985 17 14 9 
-0.0217512 -0.304013 1.39896 3 0 0 
-0.14783 -0.274757 1.40292 81 77 74 
-0.0767858 -0.241994 1.37677 2 2 2 
-0.107654 0.291586 1.07461 132 125 115 
-0.0103851 0.352242 1.03656 20 15 11 
-0.179396 0.185068 1.17979 16 6 0 
-0.0914094 0.232449 1.11344 98 94 85 
-0.19125 0.427305 1.00487 94 91 86 
-0.013749 -0.255421 1.38088 60 56 53 
0.0215099 -1.39367 2.38535 219 220 224 
-0.0147645 -1.38039 2.38187 49 53 62 
-0.034533 -1.24904 2.2591 42 37 33 
0.00325567 -1.25227 2.25793 57 56 52 
-0.0570365 -1.23818 2.28668 26 22 21 
-0.0302488 -1.12416 2.17647 40 38 26 
-0.0279775 -1.10439 2.15569 25 20 17 
-0.0610412 -1.05221 2.11832 19 15 16 
-0.0260411 -1.02369 2.07205 92 85 79 
-0.0121906 -0.958923 2.00544 126 119 109 
-0.0465162 -0.92238 1.98272 44 40 29 
-0.0111005 -0.902811 1.94771 141 131 121 
-0.0148583 -0.878048 1.92305 134 127 111 
-0.061616 -0.835759 1.8995 116 107 100 
-0.0123834 -0.821228 1.86165 73 61 47 
-0.0319499 -0.802105 1.85256 114 104 95 
-0.0981287 -0.787703 1.86836 45 35 26 
-0.0303687 -0.773618 1.82031 39 30 23 
-0.0153017 -0.749155 1.78897 132 122 112 
-0.110431 -0.74557 1.82973 100 96 87 
-0.13857 -0.741192 1.83463 31 24 14 
-0.0652832 -0.711351 1.77315 143 133 123 
-0.150486 -0.694594 1.78942 138 135 126 
-0.0274314 -0.666149 1.70964 16 11 8 
-0.016001 -0.663281 1.69917 31 24 14 
-0.105275 -0.65128 1.72705 10 5 1 
-0.0929972 -0.6472 1.71752 66 61 55 
-0.162229 -0.628252 1.72756 117 108 103 
-0.122532 -0.633007 1.72066 99 90 81 
-0.0799142 -0.609235 1.67713 124 119 113 
0.0715887 -0.640253 1.70075 34 21 15 
0.0827799 -0.641513 1.70982 107 98 93 
-0.0909153 -0.592453 1.6637 27 22 19 
-0.100597 -0.585872 1.65914 79 76 71 
-0.0507645 -0.573367 1.62567 117 113 104 
-0.136778 -0.563934 1.65272 22 19 14 
-0.146852 -0.521987 1.61627 123 116 106 
-0.120123 -0.514604 1.5971 88 83 79 
-0.152865 -0.509422 1.60624 39 35 26 
-0.184486 -0.497143 1.60522 116 110 98 
-0.11689 -0.488082 1.56706 134 130 121 
-0.186336 -0.481298 1.59115 27 25 13 
-0.201103 -0.476216 1.59291 24 16 13 
-0.136975 -0.454627 1.54449 125 120 114 
-0.0804535 -0.458449 1.52488 115 111 108 
-0.101639 -0.452787 1.52775 99 94 91 
-0.177349 -0.434501 1.54038 102 97 93 
-0.100299 -0.436957 1.51275 30 27 22 
-0.0435002 -0.433392 1.47634 39 35 32 
-0.108443 -0.4258 1.50094 121 118 113 
-0.221263 -0.405987 1.52908 123 119 110 
-0.0355588 -0.38794 1.42587 47 42 38 
-0.115128 -0.373506 1.43181 17 13 10 
-0.206748 -0.367257 1.47182 31 28 23 
-0.221272 -0.366386 1.48346 26 23 16 
-0.232086 -0.35873 1.48658 85 85 75 
-0.172031 -0.355313 1.43123 138 129 120 
0.0324365 -0.38098 1.43611 31 28 21 
-0.0678831 -0.339246 1.40856 14 11 6 
-0.154392 -0.327734 1.41934 87 83 80 
-0.0690509 -0.332482 1.40134 1 0 0 
-0.0168067 -0.341349 1.40851 91 87 84 
-0.123638 -0.321217 1.40379 13 8 4 
0.00197716 -0.339577 1.41137 18 18 10 
-0.0253502 -0.327689 1.40079 22 15 7 
-0.161999 -0.307111 1.41078 46 43 34 
-0.151606 -0.307927 1.40686 109 105 102 
-0.251586 -0.302766 1.47823 29 25 16 
-0.146525 -0.301526 1.39937 43 40 33 
0.000139475 -0.318186 1.39896 151 144 136 
-0.141145 -0.295331 1.39382 35 30 27 
-0.0169234 -0.30957 1.39003 107 102 99 
-0.0351903 -0.305424 1.38462 33 32 28 
-0.26273 -0.285523 1.47994 18 13 7 
-0.125652 -0.287526 1.37964 9 2 0 
-0.0962039 -0.289631 1.3823 30 27 20 
-0.184759 -0.28056 1.40909 48 45 38 
-0.248655 -0.278837 1.46133 6 1 0 
-0.0589724 -0.286822 1.37754 19 14 10 
-0.182359 -0.270883 1.40237 10 1 0 
-0.240828 -0.267912 1.44705 5 2 0 
-0.0226293 -0.279294 1.37407 75 73 74 
-0.222746 -0.257926 1.42324 64 61 54 
0.0711254 -0.292561 1.41492 105 100 97 
0.0155744 -0.28029 1.38235 110 107 102 
0.0483631 -0.2746 1.3951 61 60 58 
-0.0256315 -0.254218 1.36392 63 62 58 
-0.287291 -0.231185 1.48919 83 79 70 
0.0308059 -0.237369 1.38509 97 94 89 
-0.04032 -0.223045 1.36204 122 117 114 
-0.227474 -0.202145 1.41219 113 110 103 
0.0496608 -0.228586 1.38897 66 63 56 
-0.198303 -0.190868 1.38593 88 81 75 
-0.120105 -0.193451 1.35 130 121 114 
-0.183739 -0.179717 1.36965 31 23 20 
-0.246893 -0.172076 1.4252 5 1 0 
-0.258044 -0.16956 1.43818 20 11 4 
-0.18156 -0.170351 1.36504 97 93 84 
-0.19388 -0.168345 1.37302 100 97 88 
0.000812786 -0.185914 1.34436 75 71 70 
-0.17245 -0.160846 1.35276 100 91 84 
-0.284333 -0.153087 1.47021 36 27 18 
-0.0313648 -0.172832 1.33356 12 11 6 
-0.18825 -0.156496 1.36267 32 23 14 
-0.138563 -0.159575 1.33925 26 16 7 
-0.213903 -0.150441 1.37729 95 91 82 
-0.241614 -0.146991 1.40385 23 19 10 
-0.219703 -0.141939 1.37889 78 69 60 
-0.1355 -0.148966 1.331 85 75 65 
-0.247659 -0.135069 1.40349 113 105 94 
-0.0908992 -0.144861 1.31474 26 19 11 
-0.0100917 -0.152989 1.32787 117 110 100 
-0.289782 -0.128404 1.46833 24 16 5 
-0.0247119 -0.149213 1.32308 89 79 77 
-0.228834 -0.128803 1.37395 123 123 115 
-0.282873 -0.125145 1.44989 7 3 0 
-0.301298 -0.122434 1.4915 18 9 0 
-0.238415 -0.121443 1.38308 103 93 83 
-0.247428 -0.116309 1.39067 13 5 0 
-0.265384 -0.114939 1.41398 135 127 116 
-0.291002 -0.110815 1.45909 101 97 85 
-0.00288492 -0.13657 1.31972 10 5 0 
-0.252768 -0.106015 1.39146 83 73 63 
-0.225695 -0.107921 1.36391 118 109 100 
-0.218999 -0.107645 1.35669 99 89 77 
-0.0178232 -0.12618 1.3119 100 96 87 
-0.283381 -0.0975243 1.43583 36 28 15 
-0.181237 -0.101148 1.32692 124 111 103 
-0.2247 -0.0889722 1.35255 8 0 0 
-0.260735 -0.0856179 1.39255 122 110 96 
-0.274511 -0.0827869 1.41341 113 106 90 
-0.181186 -0.0901475 1.3199 92 84 71 
-0.293174 -0.0790847 1.44433 124 114 104 
-0.194064 -0.0872602 1.32599 6 1 0 
-0.216473 -0.0848633 1.34328 115 106 97 
-0.224155 -0.0791622 1.34673 128 119 110 
-0.249649 -0.0742542 1.37033 120 111 96 
-0.0234412 -0.0924581 1.28952 30 21 12 
-0.159975 -0.073111 1.30007 115 104 84 
-0.21573 -0.063259 1.32836 24 14 4 
-0.112797 -0.073722 1.28319 78 70 51 
-0.19672 -0.050823 1.3072 7 0 0 
-0.312019 -0.0342744 1.46971 24 14 4 
-0.253125 -0.0404006 1.35442 136 124 110 
-0.234997 -0.035383 1.33229 126 117 102 
-0.309111 -0.0204196 1.45371 24 18 4 
-0.292665 -0.0228059 1.4085 45 36 21 
-0.266789 -0.0233408 1.36604 107 103 92 
-0.0696416 -0.0447088 1.26111 175 165 155 
-0.292463 -0.0122717 1.40538 33 21 7 
-0.112599 -0.0333283 1.27526 131 111 100 
-0.26336 -0.013 1.35649 38 30 19 
-0.222173 -0.0148706 1.30698 6 0 0 
-0.150019 -0.0217937 1.27921 19 1 0 
-0.296917 0.00285211 1.40626 130 121 106 
-0.29023 0.00187941 1.39449 16 4 0 
-0.0956361 -0.0220786 1.25164 116 104 92 
-0.279604 0.00272629 1.37292 141 134 116 
-0.25125 0.00388753 1.32815 134 121 104 
-0.296733 0.0131561 1.40294 136 125 107 
-0.20993 0.00258627 1.28564 48 39 24 
-0.227966 0.00626641 1.30069 105 103 90 
-0.217911 0.00535674 1.29169 136 130 116 
-0.318837 0.0294097 1.46108 43 33 23 
-0.304348 0.0358014 1.40564 135 126 111 
-0.247008 0.0394107 1.30348 124 112 96 
-0.310951 0.0555331 1.41839 124 116 97 
-0.235821 0.044515 1.28907 155 146 129 
-0.0821841 0.0268735 1.22252 46 34 18 
-0.195065 0.0414712 1.25574 28 17 0 
-0.220978 0.0477643 1.2751 104 92 76 
-0.153737 0.0479044 1.24075 27 14 0 
-0.216355 0.056318 1.26444 50 38 22 
-0.306557 0.079769 1.39169 7 0 0 
-0.247423 0.0670344 1.29071 32 19 3 
-0.257653 0.0696061 1.29896 55 42 33 
-0.230843 0.0650637 1.27177 10 6 0 
-0.243639 0.0757517 1.28117 147 137 125 
-0.276336 0.0873226 1.31907 126 114 100 
-0.228468 0.0842125 1.25874 19 2 0 
-0.295276 0.101737 1.34697 9 1 0 
-0.240012 0.100991 1.26237 31 17 4 
-0.239689 0.111501 1.25501 11 0 0 
-0.279518 0.126775 1.30288 33 21 7 
-0.232321 0.116297 1.24275 12 2 0 
-0.127201 0.105737 1.20385 53 39 28 
-0.134872 0.107178 1.19688 51 37 24 
-0.114307 0.107357 1.19063 14 8 0 
-0.304931 0.148039 1.34642 18 6 0 
-0.293879 0.145831 1.31588 59 42 22 
-0.259472 0.146692 1.26106 141 134 108 
-0.296884 0.159458 1.31617 8 0 0 
-0.168225 0.141628 1.18367 54 44 34 
-0.31429 0.186512 1.3559 61 50 32 
-0.228253 0.155901 1.21905 26 19 1 
-0.2956 0.180554 1.30372 111 104 88 
-0.306554 0.185693 1.32535 48 35 19 
-0.232401 0.165879 1.21624 126 122 110 
-0.254263 0.173741 1.23715 140 124 101 
-0.287873 0.187073 1.28377 147 134 115 
-0.299746 0.198845 1.30462 144 133 113 
-0.105741 0.157871 1.15137 14 10 0 
-0.126055 0.166845 1.15056 34 27 17 
-0.245931 0.189783 1.22092 125 108 90 
-0.165082 0.185218 1.15654 93 84 75 
-0.243135 0.20241 1.20672 170 155 134 
-0.255636 0.2089 1.21986 19 6 0 
-0.295071 0.233213 1.27097 60 47 31 
-0.234299 0.212949 1.18935 39 39 29 
-0.267858 0.224981 1.2247 141 126 107 
-0.233852 0.222645 1.18509 11 10 5 
-0.29177 0.246608 1.2561 45 34 16 
-0.277342 0.240406 1.23289 122 113 96 
-0.197556 0.226275 1.15429 124 115 106 
-0.245312 0.242551 1.18558 32 20 4 
-0.235059 0.23964 1.17613 4 0 0 
-0.175838 0.230695 1.13947 107 104 95 
-0.16427 0.229298 1.13219 15 5 0 
-0.154452 0.244963 1.11763 38 31 21 
-0.236206 0.264811 1.16264 5 0 0 
-0.153685 0.254197 1.11318 106 99 89 
-0.242496 0.302661 1.13983 125 125 117 
-0.224026 0.298904 1.12711 105 101 92 
-0.262255 0.316942 1.15381 121 113 100 
-0.150662 0.291392 1.08016 136 132 123 
-0.260051 0.322205 1.14583 120 110 100 
-0.209053 0.315366 1.09274 32 26 14 
-0.193991 0.312356 1.08294 19 15 4 
-0.181318 0.314415 1.07354 117 110 100 
-0.254476 0.334672 1.12131 124 121 106 
-0.160788 0.313164 1.0593 39 36 31 
-0.236069 0.337576 1.09746 28 23 17 
-0.196507 0.328876 1.072 29 25 16 
-0.250876 0.345721 1.10416 129 130 125 
-0.227992 0.345003 1.08753 35 32 23 
-0.146372 0.329109 1.0469 19 16 11 
-0.301014 0.387654 1.15557 70 61 46 
-0.264177 0.368231 1.10987 43 35 16 
-0.136195 0.338195 1.03573 80 77 68 
-0.27802 0.384856 1.11877 126 119 103 
-0.19588 0.370793 1.04851 15 9 0 
-0.261061 0.393398 1.0928 22 15 0 
-0.151073 0.371799 1.02477 111 111 99 
-0.319556 0.449735 1.17219 110 102 89 
-0.256716 0.409955 1.08086 46 43 28 
-0.190447 0.399865 1.02399 93 88 84 
-0.253752 0.421992 1.05963 137 129 126 
-0.103049 0.392596 0.994118 78 77 73 
-0.146044 0.397912 1.00421 95 92 87 
-0.24544 0.422603 1.04992 13 8 4 
0.0183218 -1.06825 2.12697 127 121 107 
-0.115155 -0.753303 1.83974 31 27 15 
-0.106697 -0.634072 1.70994 22 15 9 
-0.0517474 -0.55639 1.6085 119 115 106 
0.106337 -0.602031 1.70731 31 23 12 
-0.0338162 -0.457362 1.5095 8 0 0 
0.0390012 -0.346343 1.42674 52 48 47 
0.0515831 -0.339067 1.42822 9 5 4 
-0.184014 -0.30078 1.4192 22 11 5 
0.0297631 -0.328612 1.41544 103 99 96 
-0.171218 -0.285254 1.40537 103 95 92 
-0.22606 -0.275285 1.43692 96 91 85 
-0.0679729 -0.27605 1.37112 83 82 80 
-0.179626 -0.262468 1.39716 72 68 67 
-0.190614 -0.259391 1.39795 75 74 70 
-0.0303151 -0.244421 1.37106 8 3 0 
-0.064534 -0.214093 1.35728 33 26 18 
-0.289489 -0.193532 1.50054 80 77 72 
-0.248795 -0.187693 1.43261 11 2 0 
-0.131079 -0.184263 1.35231 16 11 7 
-0.253064 -0.149079 1.41669 123 119 110 
-0.124939 -0.135261 1.31654 27 20 14 
-0.206972 -0.0915502 1.33653 51 41 31 
-0.306514 -0.0525713 1.46255 118 115 100 
-0.234899 -0.0608992 1.34122 19 10 1 
-0.246118 -0.0531803 1.35649 110 103 87 
-0.0900989 -0.0407139 1.26063 22 6 0 
-0.224395 0.0143363 1.29305 14 0 0 
-0.188219 0.0220109 1.25993 101 89 75 
-0.204648 0.0254808 1.27199 131 119 105 
-0.2295 0.0312752 1.28794 7 0 0 
-0.244308 0.0540709 1.29295 126 114 100 
-0.297295 0.0719395 1.36965 131 122 105 
-0.282681 0.0682954 1.33942 64 53 35 
-0.28528 0.113597 1.32022 39 28 10 
-0.156185 0.10645 1.20614 91 84 66 
-0.308154 0.159384 1.3486 39 28 10 
-0.300918 0.161396 1.32532 13 1 0 
-0.204259 0.140813 1.20604 140 129 111 
-0.282604 0.217125 1.2564 21 10 0 
-0.11536 0.186901 1.13898 29 20 11 
-0.105176 0.203702 1.13095 15 7 0 
-0.278961 0.281279 1.21189 34 22 10 
-0.273894 0.298086 1.19163 133 121 105 
-0.103081 0.268809 1.08811 30 23 13 
-0.152916 0.349487 1.03662 112 109 102 
-0.257915 0.380295 1.09406 34 24 12 
-0.168563 0.394043 1.01632 100 97 90 
-0.236145 0.413857 1.05156 154 150 139 
-0.00237744 -1.38276 2.37878 34 38 49 
0.0236268 -1.25277 2.27504 34 31 24 
-0.0160095 -1.18732 2.23384 13 8 2 
-0.0864505 -0.870907 1.95215 59 48 44 
0.0418688 -0.696541 1.7094 53 49 38 
-0.0556457 -0.672884 1.72985 28 20 17 
-0.113483 -0.605755 1.68481 102 97 93 
-0.0380058 -0.610858 1.66435 34 30 21 
-0.254917 -0.629803 1.8466 212 215 208 
-0.166898 -0.572654 1.67655 111 105 91 
-0.175261 -0.51143 1.61603 35 31 20 
-0.0788542 -0.493534 1.55828 6 1 0 
-0.0203893 -0.46017 1.50138 113 104 95 
-0.187925 -0.405561 1.50691 20 15 9 
-0.0986536 -0.377264 1.42933 20 15 11 
0.0127849 -0.34451 1.41628 14 9 6 
-0.282875 -0.286994 1.51319 9 5 2 
0.0289981 -0.296369 1.39959 19 15 12 
0.190264 -0.300421 1.51831 3 0 0 
-0.202982 -0.228187 1.41219 6 0 0 
-0.293345 -0.178614 1.49995 5 1 0 
-0.0127331 -0.196989 1.35146 17 14 7 
0.00632483 -0.199711 1.36243 104 99 95 
-0.202065 -0.17409 1.38506 107 98 93 
-0.297957 -0.152436 1.50101 12 8 0 
-0.208299 -0.128054 1.36237 4 0 0 
-0.178911 -0.0471457 1.29329 113 105 92 
-0.251074 -0.00929256 1.34016 11 0 0 
-0.240581 -0.00691856 1.3186 10 1 0 
-0.0885994 0.0107709 1.2232 122 112 103 
-0.0790276 0.0117735 1.22869 18 7 1 
-0.234778 0.046897 1.27969 43 35 24 
-0.310699 0.0983813 1.38561 137 128 113 
-0.278631 0.140249 1.29274 26 19 1 
-0.285943 0.210279 1.26502 39 30 15 
-0.308769 0.279803 1.27966 24 13 0 
-0.254042 0.272138 1.17369 142 128 115 
-0.119573 0.257436 1.09679 98 89 82 
-0.316544 0.328577 1.28362 147 139 126 
-0.164321 0.284802 1.0931 135 128 120 
-0.234036 0.308035 1.12567 38 31 21 
-0.270371 0.42185 1.08628 128 116 104 
-0.13679 0.391295 1.00448 14 13 9 
-0.261618 0.429477 1.05987 114 108 96 
-0.0778031 0.406403 0.975564 4 3 0 
-0.0472565 -1.2388 2.2654 46 38 36 
-0.0211936 -0.821562 1.86723 37 23 12 
-0.157804 -0.59202 1.68397 16 13 6 
-0.232183 -0.590446 1.77559 83 73 63 
-0.0261734 -0.486983 1.53186 16 7 0 
0.0470218 -0.263806 1.39081 78 77 72 
-0.215311 -0.229444 1.42147 58 55 50 
-0.0212108 -0.00520246 1.24076 96 89 81 
-0.240699 0.232767 1.18708 36 29 21 
-0.314953 0.413159 1.16509 45 31 18 
-0.282766 0.436316 1.09327 22 14 3 
-0.267392 0.453205 1.03951 89 85 74 
-0.231977 0.442644 1.01244 23 19 20 
0.0969824 -0.629651 1.71415 17 7 6 
0.117052 -0.618501 1.72125 111 103 90 
-0.101829 -0.506343 1.57144 18 12 12 
-0.10093 -0.214024 1.358 12 8 5 
-0.145694 -0.142043 1.33281 96 92 83 
-0.2888 0.308023 1.21876 48 25 11 
-0.125883 -0.0985178 1.30984 19 14 8 
-0.209077 0.190331 1.16033 21 9 0 
-0.0624322 -0.554064 1.61878 40 34 20 
-0.0372592 -0.542376 1.59855 54 50 41 
-0.0628736 -0.48294 1.54914 15 8 2 
-0.157603 -0.443787 1.54607 93 89 80 
-0.13286 -0.436224 1.53115 119 116 111 
-0.0883722 -0.44763 1.52537 119 116 111 
-0.226081 -0.404308 1.53492 105 101 90 
-0.231343 -0.384585 1.51612 117 108 99 
-0.231184 -0.359294 1.48924 89 85 76 
-0.145223 -0.333351 1.42417 11 8 3 
-0.217424 -0.311486 1.45468 5 0 0 
-0.205221 -0.308853 1.44274 28 24 15 
-0.257404 -0.292544 1.48306 9 6 0 
-0.178295 -0.299045 1.42155 18 12 0 
-0.101015 -0.3164 1.4107 56 49 39 
-0.228345 -0.286807 1.45096 16 9 3 
-0.201379 -0.2918 1.43143 116 113 108 
-0.22279 -0.283596 1.44248 1 0 0 
-0.282724 -0.269735 1.50661 12 5 0 
-0.14686 -0.293772 1.40558 7 2 0 
-0.157539 -0.289703 1.40812 4 0 0 
-0.233061 -0.271099 1.4422 7 2 0 
-0.240326 -0.261164 1.44553 10 5 2 
-0.229735 -0.248753 1.43097 71 66 63 
-0.236144 -0.239944 1.42706 107 107 99 
-0.304825 -0.212794 1.50718 96 89 83 
-0.0364739 -0.256161 1.39083 86 85 80 
-0.203768 -0.214623 1.41086 15 9 0 
-0.230101 -0.205016 1.41135 20 20 8 
-0.212906 -0.208607 1.41544 95 88 82 
-0.0628131 -0.235098 1.37856 83 79 70 
-0.241268 -0.194774 1.43235 10 3 0 
-0.266612 -0.188734 1.4645 6 2 0 
-0.125371 -0.216561 1.37449 32 27 21 
-0.2626 -0.181015 1.45477 6 0 0 
-0.174547 -0.196536 1.38513 89 85 74 
-0.188629 -0.192183 1.39118 97 88 81 
-0.246323 -0.173993 1.42817 86 77 70 
-0.170299 -0.181021 1.37257 101 94 86 
-0.200184 -0.174239 1.38734 106 97 88 
-0.227908 -0.166957 1.39528 24 19 13 
-0.242622 -0.162412 1.4196 10 2 0 
-0.28552 -0.151546 1.47775 31 22 13 
-0.254591 -0.156412 1.42745 140 130 120 
-0.216551 -0.161649 1.39371 111 107 98 
-0.23102 -0.150686 1.39781 34 25 16 
-0.288191 -0.137848 1.47197 91 84 74 
-0.257081 -0.14438 1.42601 37 31 17 
-0.240465 -0.147342 1.40718 9 2 0 
-0.211821 -0.150972 1.38279 95 92 83 
-0.112773 -0.170544 1.35039 30 22 11 
-0.175527 -0.156743 1.36001 89 80 73 
-0.27743 -0.134768 1.45217 98 88 79 
-0.230041 -0.142171 1.38958 97 87 77 
-0.0756654 -0.17329 1.3466 11 1 0 
-0.218671 -0.142157 1.38174 86 78 67 
-0.202626 -0.145242 1.37226 93 83 71 
-0.292888 -0.124218 1.47512 90 84 72 
-0.258908 -0.130698 1.41919 8 0 0 
-0.298448 -0.119621 1.48533 86 77 68 
-0.225827 -0.134069 1.3805 9 2 0 
-0.27951 -0.121 1.44585 130 121 112 
-0.245614 -0.12457 1.39944 26 18 5 
-0.27429 -0.115959 1.43585 10 0 0 
-0.219445 -0.127936 1.37526 119 111 100 
-0.180794 -0.136101 1.3513 22 14 1 
-0.265976 -0.116756 1.42236 133 124 109 
-0.0425116 -0.160071 1.33801 123 114 105 
-0.283987 -0.106241 1.44436 8 0 0 
-0.232284 -0.117563 1.38224 93 88 82 
-0.213836 -0.120474 1.36778 106 93 85 
-0.256363 -0.1105 1.4049 39 30 21 
-0.0520935 -0.149068 1.33049 19 16 7 
-0.175912 -0.123225 1.34375 105 101 89 
-0.220557 -0.111619 1.36647 8 0 0 
-0.236837 -0.108351 1.38143 16 12 0 
-0.230191 -0.108509 1.37146 90 86 74 
-0.289079 -0.0940639 1.44338 27 20 4 
-0.250807 -0.103106 1.39325 110 101 86 
-0.208432 -0.110181 1.35784 16 4 0 
-0.266587 -0.096882 1.40981 23 9 0 
-0.312981 -0.0827182 1.50983 104 96 85 
-0.169795 -0.115458 1.33772 35 28 20 
-0.245674 -0.0984865 1.385 24 16 3 
-0.280385 -0.0892594 1.42554 56 47 32 
-0.145628 -0.11773 1.32717 53 41 29 
-0.235762 -0.098108 1.37561 4 0 0 
-0.297114 -0.0820579 1.45646 20 13 0 
-0.217946 -0.100725 1.35913 12 2 0 
-0.316635 -0.0742547 1.52153 93 89 80 
-0.258761 -0.0893058 1.39465 76 65 47 
-0.292824 -0.0772557 1.44205 96 90 76 
-0.229794 -0.0925826 1.36468 101 89 77 
-0.285237 -0.0780982 1.42503 8 0 0 
-0.0489859 -0.126872 1.31933 47 34 25 
-0.273631 -0.0768435 1.41133 111 102 85 
-0.259631 -0.078538 1.39064 17 5 0 
-0.225931 -0.0852135 1.35552 14 7 0 
-0.304873 -0.0634158 1.46529 82 75 59 
-0.312837 -0.0586214 1.48968 50 43 27 
-0.205126 -0.082751 1.33896 129 123 111 
-0.19078 -0.0843092 1.32928 27 18 9 
-0.24526 -0.0706439 1.36794 100 88 76 
-0.180276 -0.0845339 1.32123 103 91 77 
-0.27094 -0.0633932 1.39575 114 102 88 
-0.293775 -0.0561895 1.43774 26 18 7 
-0.290313 -0.0558591 1.42714 113 107 91 
-0.259604 -0.06283 1.3816 110 102 91 
-0.00375279 -0.110044 1.31671 95 91 80 
-0.280483 -0.0535669 1.40893 122 112 102 
-0.209777 -0.0705929 1.33463 24 16 5 
-0.196663 -0.0735497 1.32877 161 153 142 
-0.239581 -0.0625828 1.35853 10 0 0 
-0.252377 -0.0591432 1.37015 105 96 81 
-0.226634 -0.0635052 1.3422 7 0 0 
-0.305828 -0.0407848 1.45949 104 96 83 
-0.311094 -0.0345019 1.47303 32 20 6 
-0.282108 -0.0431588 1.40499 49 39 27 
-0.235013 -0.0547257 1.34853 81 71 62 
-0.256244 -0.0483371 1.37031 48 40 27 
-0.0312604 -0.091417 1.30232 99 89 79 
-0.245628 -0.0462868 1.35938 119 106 97 
-0.168516 -0.0627824 1.30818 26 13 0 
-0.301592 -0.0280749 1.43764 55 48 30 
-0.278564 -0.0351727 1.39306 22 9 0 
-0.31378 -0.0225891 1.47169 100 91 76 
-0.254754 -0.0402806 1.36294 14 1 0 
-0.208062 -0.0514697 1.32523 7 0 0 
-0.285382 -0.0308715 1.40159 57 44 28 
-0.227012 -0.0461784 1.33348 6 2 0 
-0.0606635 -0.0781759 1.29337 48 39 30 
-0.241704 -0.0396378 1.34641 148 139 124 
-0.288479 -0.023596 1.4121 66 54 40 
-0.267025 -0.0289492 1.3715 120 110 98 
-0.313157 -0.0123915 1.46306 10 2 0 
-0.277662 -0.0245626 1.38513 44 30 17 
-0.248217 -0.031907 1.35595 43 30 14 
-0.189389 -0.0450893 1.30802 22 12 0 
-0.107362 -0.057968 1.29749 21 2 0 
-0.216975 -0.0367186 1.32115 7 0 0 
-0.226668 -0.0333809 1.32773 12 5 0 
-0.263394 -0.0236497 1.36144 101 93 82 
-0.29056 -0.0143654 1.40577 116 100 85 
-0.271315 -0.0176944 1.36968 56 47 32 
-0.244526 -0.024335 1.34574 32 14 2 
-0.237849 -0.0246473 1.33405 55 44 26 
-0.221959 -0.0265002 1.32136 104 88 75 
-0.285315 -0.00875732 1.3917 96 87 72 
-0.232165 -0.0234102 1.32182 13 9 0 
-0.165974 -0.03614 1.29154 122 109 93 
-0.304268 0.00135492 1.43377 43 30 14 
-0.254994 -0.0137181 1.3482 42 30 18 
-0.213409 -0.023978 1.31284 94 84 74 
-0.178964 -0.0307687 1.29554 36 19 9 
-0.193706 -0.027489 1.29574 105 95 83 
-0.293125 0.00254739 1.401 13 6 0 
-0.315837 0.0133019 1.45841 40 33 15 
-0.206043 -0.0191762 1.30405 79 67 53 
0.00781548 -0.0553846 1.29042 162 153 144 
-0.245915 -0.00852401 1.3352 124 110 99 
-0.301095 0.0100261 1.42469 105 97 76 
-0.2785 0.00161284 1.37547 34 22 6 
-0.220188 -0.0147039 1.31208 7 0 0 
-0.18422 -0.0223265 1.29353 39 29 17 
-0.238859 -0.00760002 1.32721 31 18 1 
-0.266814 0.00251411 1.35588 132 121 101 
-0.0559317 -0.0407078 1.27191 112 102 90 
-0.307752 0.0174931 1.43379 20 10 0 
-0.296504 0.0138414 1.40837 125 116 101 
-0.0176794 -0.0443382 1.27857 13 6 0 
-0.287084 0.0113446 1.38412 22 10 0 
-0.252317 0.00086768 1.33768 128 112 97 
-0.233854 -0.00156848 1.31927 144 131 115 
-0.22468 -0.00132322 1.30955 94 85 70 
-0.284545 0.0168081 1.37465 30 14 1 
-0.278881 0.0171418 1.36376 51 39 25 
-0.262623 0.0137527 1.34483 132 119 103 
-0.23616 0.00860448 1.31471 142 129 113 
-0.255245 0.0147165 1.33352 14 0 0 
-0.198 0.00170067 1.28691 21 13 2 
-0.213019 0.0054586 1.29458 19 10 1 
-0.285046 0.0275419 1.37304 16 8 0 
-0.297808 0.0339429 1.39216 25 13 0 
-0.302567 0.0380558 1.40372 54 47 29 
-0.262524 0.0253644 1.33752 27 10 0 
-0.224386 0.0149219 1.30123 120 108 94 
-0.247031 0.0225715 1.32084 29 17 5 
-0.27924 0.0359781 1.35787 29 20 3 
-0.217146 0.0217236 1.29058 118 105 88 
-0.271726 0.0372687 1.34425 47 35 23 
-0.319875 0.0595452 1.45782 50 47 32 
-0.301322 0.0495633 1.398 124 113 95 
-0.294482 0.0465639 1.38228 92 80 66 
-0.239749 0.0299117 1.30787 18 2 0 
-0.290281 0.0491039 1.36973 41 30 12 
-0.195273 0.0249999 1.26919 57 47 35 
-0.310021 0.0631913 1.41552 131 119 103 
-0.245333 0.0398478 1.30793 125 109 93 
-0.20472 0.0304896 1.2767 8 0 0 
-0.267583 0.0495111 1.33085 40 29 11 
-0.219816 0.0365813 1.28553 127 114 97 
-0.279636 0.0585402 1.34394 121 109 95 
-0.297324 0.066729 1.37489 110 98 84 
-0.28511 0.0624065 1.35414 39 26 10 
-0.301784 0.0710494 1.38623 117 105 89 
-0.215457 0.0439742 1.28002 135 123 109 
-0.309579 0.0786725 1.40057 90 82 69 
-0.250926 0.0558378 1.30484 20 8 0 
-0.312835 0.0816261 1.41176 70 62 43 
-0.281907 0.0683878 1.34173 68 56 40 
-0.261864 0.0617973 1.31719 32 23 8 
-0.267723 0.0645657 1.32623 142 130 114 
-0.316382 0.0887194 1.42054 22 13 0 
-0.0460613 0.022786 1.23792 26 17 8 
-0.194791 0.0514333 1.26059 31 18 0 
-0.292585 0.0816084 1.36005 20 11 0 
-0.255092 0.0677336 1.30508 57 48 31 
-0.323702 0.101402 1.45511 16 8 0 
-0.212235 0.0572635 1.26865 9 1 0 
-0.266256 0.0729378 1.31836 27 18 3 
-0.309181 0.0941079 1.3943 129 113 100 
-0.278854 0.0806583 1.33409 133 124 107 
-0.011537 0.0313662 1.23736 21 14 6 
-0.184347 0.0569593 1.24783 28 15 0 
-0.23439 0.069742 1.28065 88 76 62 
-0.259269 0.0780713 1.30472 68 50 30 
-0.203904 0.0649231 1.25902 31 16 0 
-0.252719 0.0784415 1.29557 113 100 84 
-0.269353 0.0864178 1.31486 70 58 44 
-0.234793 0.0798647 1.27576 31 15 2 
-0.293032 0.101044 1.34724 10 1 0 
-0.201594 0.0723715 1.25143 131 118 99 
-0.311382 0.111617 1.39172 29 17 1 
-0.276203 0.0944482 1.31858 35 27 14 
-0.251614 0.0880207 1.29186 57 41 26 
-0.225887 0.0851927 1.2651 29 14 0 
-0.00644953 0.0501585 1.23079 14 11 6 
-0.323896 0.133287 1.4488 37 27 15 
-0.288429 0.106275 1.32449 124 115 98 
-0.270791 0.102502 1.30756 133 120 103 
-0.19712 0.0812961 1.24313 122 107 84 
-0.292696 0.112999 1.34514 24 15 0 
-0.303879 0.118993 1.36101 114 102 88 
-0.307344 0.123286 1.3755 141 134 116 
-0.239064 0.0959436 1.27166 107 94 77 
-0.250474 0.100279 1.27987 39 26 9 
-0.232761 0.0944168 1.26211 33 27 13 
-0.266191 0.105334 1.29694 40 27 8 
-0.297371 0.122056 1.34396 23 11 0 
-0.292184 0.122753 1.33437 130 121 106 
-0.0747639 0.0724637 1.20905 107 99 88 
-0.0046408 0.0667936 1.22242 17 8 1 
-0.20396 0.0953206 1.23955 138 121 103 
-0.228208 0.10321 1.25532 109 101 90 
-0.303067 0.13557 1.35033 131 119 103 
-0.273951 0.124381 1.29952 45 33 17 
-0.242589 0.113469 1.26368 89 80 65 
-0.220736 0.107377 1.24614 81 63 51 
-0.292994 0.13368 1.32793 34 18 2 
-0.106728 0.0895572 1.21578 41 28 12 
-0.28429 0.131256 1.31541 62 49 33 
-0.254982 0.121871 1.27541 148 136 120 
-0.210424 0.110517 1.23808 31 13 0 
-0.229931 0.117197 1.24864 17 9 0 
-0.219325 0.117129 1.24053 53 35 21 
-0.305723 0.150154 1.34749 119 105 94 
-0.251641 0.127245 1.2658 51 40 18 
-0.264924 0.133759 1.28279 126 118 99 
-0.292158 0.146736 1.32103 55 34 17 
-0.311944 0.160733 1.37212 123 110 91 
-0.279635 0.143618 1.30046 39 27 11 
-0.234407 0.127444 1.24932 129 113 97 
-0.321792 0.172106 1.41355 125 116 101 
-0.24687 0.131815 1.25752 66 49 33 
-0.194999 0.119388 1.22079 61 45 29 
-0.254001 0.138116 1.26483 51 36 13 
-0.305921 0.162088 1.34327 60 48 24 
-0.296824 0.159783 1.32439 61 49 35 
-0.174794 0.122135 1.20866 111 98 82 
-0.312622 0.175209 1.36891 26 10 0 
-0.323352 0.185127 1.40617 125 119 105 
-0.0669467 0.109176 1.19114 20 13 5 
-0.288365 0.159833 1.30554 139 127 105 
-0.300362 0.169637 1.32831 38 21 5 
-0.268714 0.15426 1.27605 141 128 109 
-0.230383 0.141766 1.23247 119 109 84 
-0.280381 0.162743 1.29106 33 21 5 
-0.259617 0.153816 1.2615 47 32 9 
-0.305367 0.176719 1.33856 137 122 101 
-0.295876 0.171232 1.318 149 137 113 
-0.317163 0.188294 1.38031 125 108 92 
-0.243729 0.150127 1.2465 36 15 0 
-0.191253 0.136386 1.21071 81 68 51 
-0.324289 0.199766 1.40377 45 36 21 
-0.313945 0.189263 1.36039 148 135 119 
-0.236323 0.153518 1.23749 30 14 0 
-0.213943 0.146719 1.21873 38 25 9 
-0.308573 0.187127 1.33836 68 53 32 
-0.301574 0.18302 1.32463 58 46 32 
-0.257957 0.164256 1.25529 34 23 3 
-0.275063 0.172049 1.27441 35 24 4 
-0.230225 0.157491 1.22662 122 115 96 
-0.312426 0.195651 1.3453 66 49 23 
-0.281725 0.177616 1.28141 130 118 102 
-0.245575 0.165279 1.23894 45 32 13 
-0.298866 0.189463 1.31524 146 134 118 
-0.224575 0.163302 1.22036 27 15 1 
-0.23864 0.169913 1.23015 141 126 107 
-0.250806 0.174398 1.24095 31 10 0 
-0.28901 0.191093 1.29131 64 52 36 
-0.263516 0.180225 1.25386 29 13 0 
-0.323863 0.224534 1.39665 100 97 82 
-0.281913 0.191984 1.27493 33 16 0 
-0.232608 0.174361 1.21716 8 7 2 
-0.0465429 0.144702 1.17163 153 147 135 
-0.313761 0.216379 1.34644 73 65 42 
-0.0953857 0.151994 1.16993 140 131 122 
-0.220668 0.176751 1.21023 71 59 37 
-0.276013 0.196814 1.26504 137 122 103 
-0.207701 0.173834 1.19974 33 22 4 
-0.294134 0.204308 1.28536 42 29 13 
-0.244008 0.190988 1.22564 127 109 89 
-0.151961 0.168758 1.17062 24 18 6 
-0.0820305 0.160388 1.16205 130 126 117 
-0.297772 0.21736 1.29719 24 12 0 
-0.315738 0.233135 1.34085 145 134 112 
-0.230848 0.192832 1.20701 10 1 0 
-0.279258 0.21242 1.25914 62 51 31 
-0.261792 0.205354 1.23532 113 100 83 
-0.056299 0.16903 1.15655 141 132 123 
-0.291182 0.224714 1.27367 113 105 84 
-0.237555 0.203709 1.21015 103 93 81 
-0.272718 0.221128 1.24481 31 19 3 
-0.0138803 0.175416 1.15945 78 73 67 
-0.240799 0.214735 1.20754 146 132 106 
-0.284704 0.233805 1.25864 26 17 0 
-0.24935 0.218693 1.21404 114 99 76 
-0.29638 0.241909 1.27987 140 127 111 
-0.267271 0.227331 1.23188 73 58 37 
-0.256689 0.223478 1.22044 115 102 85 
-0.319181 0.265611 1.33925 51 43 20 
-0.305243 0.252797 1.29483 129 119 94 
-0.280359 0.238492 1.24544 114 105 90 
-0.292558 0.245864 1.26585 63 51 35 
-0.298023 0.251049 1.27502 148 136 114 
-0.242206 0.225543 1.20364 63 48 27 
-0.262086 0.234159 1.22244 136 125 107 
-0.320076 0.276274 1.33142 153 141 119 
-0.305479 0.262555 1.28885 116 104 80 
-0.275273 0.245198 1.23519 136 125 105 
-0.231339 0.230752 1.1859 24 20 9 
-0.28305 0.252182 1.24265 100 93 77 
-0.256425 0.240979 1.2104 134 125 110 
-0.322861 0.291588 1.34096 101 90 72 
-0.284136 0.26233 1.23853 12 8 0 
-0.249433 0.247657 1.19896 127 116 96 
-0.218865 0.240819 1.17148 146 131 110 
-0.278323 0.264271 1.22902 82 70 54 
-0.316136 0.291739 1.30258 72 60 38 
-0.12467 0.225454 1.13454 132 120 108 
-0.315268 0.295702 1.29242 113 101 87 
-0.266569 0.269976 1.20614 139 132 106 
-0.255251 0.269014 1.18837 70 61 44 
-0.276447 0.281056 1.21594 115 108 92 
-0.158362 0.24802 1.1294 24 16 3 
-0.264949 0.278286 1.19872 114 108 94 
-0.308641 0.309934 1.2695 27 20 4 
-0.257141 0.280335 1.18706 107 98 83 
-0.270425 0.292268 1.19958 51 39 17 
-0.24113 0.283766 1.16403 10 7 0 
-0.320194 0.345145 1.29696 66 56 44 
-0.286186 0.330894 1.20188 15 7 0 
-0.299375 0.341344 1.22173 55 43 19 
-0.265237 0.322229 1.16691 41 32 17 
-0.245148 0.313261 1.14269 39 40 22 
-0.0659064 0.288949 1.07758 96 93 86 
-0.273263 0.334516 1.16561 36 26 14 
-0.25381 0.325477 1.14385 102 90 76 
-0.309001 0.365966 1.20465 43 33 23 
-0.317752 0.374091 1.21907 118 114 103 
-0.218495 0.328462 1.10074 17 8 0 
-0.290382 0.360286 1.16437 36 29 11 
-0.27922 0.355259 1.14409 50 41 24 
-0.00967207 0.317969 1.05962 6 2 0 
-0.309094 0.38295 1.17995 121 115 101 
-0.288784 0.370752 1.15006 65 56 39 
-0.102743 0.328382 1.04809 4 1 0 
-0.0710402 0.342135 1.03823 104 99 93 
-0.293237 0.397748 1.14471 115 106 91 
-0.281252 0.400543 1.12458 109 100 83 
-0.305393 0.41746 1.15844 120 108 92 
-0.3193 0.43283 1.18643 123 114 99 
-0.270792 0.406799 1.10555 102 90 76 
-0.222883 0.391314 1.06432 123 114 105 
-0.294348 0.425867 1.13158 42 29 12 
-0.0811681 0.375078 1.01931 115 112 107 
-0.318676 0.450973 1.17461 111 102 85 
-0.180328 0.397641 1.03152 51 44 36 
-0.300123 0.44559 1.12889 123 114 99 
-0.0617154 0.391622 1.00943 20 17 12 
-0.294991 0.455961 1.0991 35 32 17 
-0.269465 0.477002 1.03471 87 83 71 
-0.209808 0.473781 0.9873 9 9 0 
-0.0812177 -0.496432 1.5723 12 3 0 
-0.0542265 -0.473935 1.53435 120 116 105 
-0.205435 -0.263103 1.41827 8 4 0 
-0.235487 -0.254886 1.43785 1 0 0 
0.0746414 -0.285704 1.42449 87 83 74 
-0.197248 -0.201786 1.39709 85 84 79 
-0.291024 -0.183334 1.49917 6 3 0 
-0.207389 -0.185259 1.39979 76 72 63 
-0.27275 -0.128897 1.44109 15 8 0 
-0.303675 -0.0370924 1.44213 126 122 110 
-0.233561 -0.0355834 1.33605 120 107 88 
-0.0585601 -0.0669899 1.28634 22 13 6 
-0.0302664 -0.0251517 1.26717 12 3 0 
-0.25303 0.0306996 1.3198 27 15 1 
-0.278434 0.04861 1.34777 141 132 115 
0.0311449 0.0430229 1.24544 12 8 0 
-0.299433 0.10898 1.35943 122 110 94 
-0.319701 0.1403 1.41005 130 121 106 
-0.322228 0.20536 1.39167 116 107 90 
-0.263603 0.192056 1.24379 43 32 14 
0.00872308 0.162024 1.17293 4 1 0 
-0.249276 0.199752 1.22189 15 0 0 
-0.306679 0.237783 1.31184 140 127 108 
-0.321768 0.267336 1.35129 113 106 87 
0.0240319 0.196374 1.15981 78 74 71 
-0.303643 0.281755 1.27206 34 23 1 
-0.315565 0.340116 1.26906 118 111 95 
-0.31195 0.354819 1.2481 61 53 42 
-0.264657 0.376502 1.1127 129 122 106 
-0.106255 0.343082 1.04002 14 11 4 
-0.325417 0.42304 1.20583 100 94 78 
-0.302089 0.407522 1.15374 143 131 115 
-0.248211 0.387892 1.08841 10 7 0 
-0.00567227 0.371718 1.03191 21 17 14 
-0.2816 0.437318 1.09518 28 18 8 
-0.267376 0.448667 1.05675 36 30 16 
-0.236712 0.436586 1.02844 99 92 82 
-0.25107 0.462162 1.02254 74 69 63 
-0.149587 -0.699426 1.79753 156 154 141 
-0.110969 -0.660524 1.73422 106 101 95 
-0.137223 -0.412752 1.49826 31 27 18 
-0.0822545 -0.327872 1.41503 14 9 6 
-0.248414 -0.245695 1.45148 63 60 53 
-0.312292 -0.206839 1.52124 4 0 0 
-0.258455 -0.198468 1.4594 1 0 0 
-0.0576464 -0.164665 1.34039 44 34 24 
-0.264196 -0.051054 1.38253 134 124 114 
-0.0503525 -0.0734771 1.2921 43 33 23 
-0.0936436 -0.0101694 1.25195 31 21 9 
-0.0812604 -0.00827789 1.25693 131 119 107 
-0.0377175 -0.00667025 1.25293 97 90 80 
-0.0768921 0.0121935 1.24486 108 98 86 
-0.180588 0.0389245 1.25787 30 18 0 
-0.272634 0.138153 1.28935 25 12 0 
-0.277659 0.15114 1.28948 18 6 0 
-0.310416 0.171275 1.35564 40 27 11 
-0.263863 0.168661 1.26285 26 14 0 
-0.0775379 0.139917 1.17466 30 23 15 
-0.0791449 0.149781 1.16417 21 14 6 
-0.254597 0.191761 1.23706 59 42 24 
-0.320826 0.304935 1.31535 38 29 14 
-0.233061 0.256958 1.17347 49 45 34 
-0.218228 0.261948 1.15283 35 25 15 
-0.251466 0.274006 1.17992 126 113 96 
-0.312575 0.312531 1.28158 33 27 13 
-0.238842 0.317211 1.1332 29 20 11 
-0.242207 0.321119 1.12331 39 32 22 
-0.107086 0.30746 1.06408 3 0 0 
-0.31827 0.383299 1.21294 64 57 47 
-0.281828 0.373434 1.13874 68 60 41 
-0.0569502 0.344732 1.03768 6 1 0 
-0.239097 0.379442 1.08748 29 19 9 
-0.328618 0.442034 1.21686 111 104 94 
-0.132625 0.362449 1.03702 10 7 0 
-0.0727882 0.358788 1.02978 48 45 38 
-0.334116 0.455773 1.2181 89 82 72 
-0.309206 0.442248 1.15007 49 39 27 
-0.268976 0.423464 1.08945 124 116 105 
-0.32108 0.464319 1.17323 34 26 15 
-0.125767 0.390908 1.01383 22 17 13 
-0.0980769 0.390803 1.01176 24 21 16 
-0.204005 0.426208 1.01316 9 8 6 
-0.294373 0.465103 1.08053 91 85 73 
-0.255578 0.475203 1.02217 83 74 67 
-0.0940415 0.453558 0.96256 4 0 0 
-0.293168 0.500681 1.05436 82 80 67 
-0.193184 0.477061 0.973462 60 47 31 
-0.206881 0.467389 0.941891 95 86 77 
-0.201707 -0.280758 1.42718 11 6 3 
-0.302325 -0.191649 1.50689 12 7 1 
0.118321 0.321766 1.13869 60 62 59 
-0.276393 0.345719 1.1549 35 27 14 
-0.12416 0.344363 1.04849 81 78 71 
-0.312265 0.416363 1.17269 40 28 12 
-0.296782 0.405749 1.13746 45 33 19 
-0.318048 0.46063 1.15996 41 33 20 
-0.17223 0.428871 0.99177 98 95 90 
-0.189286 -0.255899 1.40122 60 60 52 
-0.188001 -0.207797 1.39629 61 58 53 
-0.27575 0.270572 1.22051 23 17 3 
-0.217679 0.283077 1.14304 31 21 11 
-0.318041 0.390212 1.20214 37 33 22 
-0.305863 0.460143 1.12241 29 20 13 
-0.162252 0.415055 0.999669 82 79 70 
-0.178766 -0.106351 1.33503 7 3 0 
-0.16696 0.302147 1.08031 142 140 128 
-0.23399 0.356105 1.09035 44 36 25 
-0.228094 0.382505 1.06944 44 34 22 
-0.221721 0.126385 1.23303 144 136 113 
-0.201105 0.437737 0.996847 77 77 75 
-0.238889 0.403771 1.06769 36 29 19 
-0.228152 0.425793 1.02737 103 100 93 
-0.202913 -0.123673 1.34858 176 169 159 
-0.27311 0.0226918 1.3416 31 17 4 
-0.182789 0.104969 1.21076 45 25 0 
-0.210668 0.228353 1.15854 33 25 6 
-0.273282 0.346329 1.13278 28 22 8 
-0.211549 0.358369 1.0647 6 2 0 
-0.236746 -0.33167 1.45434 117 114 107 
-0.192032 0.0328967 1.25655 44 33 15 
-0.120079 -0.230689 1.36778 12 13 8 
-0.280159 -0.275862 1.48159 102 91 87 
-0.28538 -0.260524 1.4809 118 114 103 
-0.292102 -0.166236 1.46951 38 29 20 
-0.281747 -0.157149 1.44573 119 113 101 
-0.312214 -0.087677 1.47208 86 78 65 
-0.245755 -0.0814704 1.35775 99 90 75 
-0.216169 -0.00464539 1.29172 15 6 0 
-0.175715 -0.00688762 1.26856 8 0 0 
-0.23656 0.0296967 1.28912 69 55 42 
-0.270284 0.0922993 1.29528 57 42 21 
-0.276059 0.32216 1.16722 107 95 83 
-0.213712 0.30187 1.1067 93 89 78 
-0.288815 0.345142 1.1533 26 16 6 
-0.25373 0.346164 1.10499 110 109 105 
-0.298311 0.378323 1.14646 68 59 42 
-0.316484 0.395349 1.17521 121 115 99 
-0.281872 0.415668 1.09878 61 49 33 
-0.120639 -0.295047 1.3864 24 13 7 
-0.158626 -0.130154 1.32529 12 0 0 
-0.237412 0.0213359 1.29494 132 120 106 
-0.256952 0.0406884 1.30435 21 5 0 
0.0213197 0.0191805 1.24803 102 97 91 
-0.300541 0.139471 1.3242 46 35 17 
-0.204813 0.27594 1.12461 103 100 85 
-0.281521 -0.228058 1.46335 4 0 0 
-0.172061 0.166975 1.16716 21 11 1 
-0.248154 0.291492 1.15542 46 39 23 
-0.271158 0.353412 1.1176 28 19 4 
-0.224369 0.35102 1.07574 29 25 14 
-0.188671 -0.604515 1.68401 124 120 111 
-0.0742683 -0.642555 1.6815 26 21 17 
-0.0997073 -0.592617 1.64336 130 127 122 
-0.141442 -0.272986 1.36198 101 97 94 
-0.24764 -0.206977 1.40335 73 72 68 
-0.173827 -0.232846 1.36431 20 15 11 
-0.32954 -0.151786 1.49526 10 1 0 
-0.330913 -0.137168 1.48582 50 42 29 
-0.0542353 -0.230706 1.35358 13 9 6 
-0.182416 -0.187336 1.34614 43 38 32 
-0.253046 -0.161228 1.37926 102 97 91 
-0.281345 -0.148523 1.40758 17 9 0 
-0.333272 -0.119139 1.49485 112 103 94 
-0.325289 -0.119339 1.46835 90 80 71 
-0.330878 -0.113414 1.47847 14 6 0 
-0.338365 -0.0989655 1.50119 21 14 4 
-0.34735 -0.0914517 1.53764 104 102 89 
-0.315634 -0.101594 1.45035 32 24 11 
-0.342611 -0.0829352 1.51719 84 76 65 
-0.334538 -0.0876446 1.48404 12 2 0 
-0.34732 -0.0686117 1.54942 29 21 10 
-0.33924 -0.0716151 1.49801 90 86 77 
-0.345422 -0.0623197 1.51364 21 13 2 
-0.327227 -0.0702744 1.44519 12 8 0 
-0.32201 -0.0727775 1.43032 27 19 8 
-0.345762 -0.0501518 1.52764 17 9 0 
-0.343948 -0.0482778 1.49953 20 12 0 
-0.348334 -0.0385881 1.53155 94 93 75 
-0.339111 -0.0447511 1.48111 120 112 99 
-0.316387 -0.0520199 1.41138 21 15 1 
-0.25187 -0.0766661 1.33299 18 10 0 
-0.330979 -0.0394768 1.44101 105 93 79 
-0.324261 -0.0421754 1.43065 30 21 6 
-0.339975 -0.0327592 1.47073 38 26 14 
-0.337212 -0.0303795 1.45712 38 32 18 
-0.346953 -0.0207564 1.52013 27 24 7 
-0.321571 -0.0306553 1.41393 18 12 0 
-0.339981 -0.0190711 1.45835 20 10 0 
-0.341094 -0.0161283 1.47113 38 31 15 
-0.347711 -0.00591199 1.52694 110 106 94 
-0.289903 -0.0396888 1.35681 23 13 1 
-0.344529 -0.0044892 1.47899 120 110 98 
-0.34345 0.00611876 1.46672 109 101 90 
-0.33782 0.00364258 1.44181 123 111 95 
-0.348082 0.0140344 1.48267 47 37 25 
-0.341668 0.0096525 1.45583 9 1 0 
-0.316762 -0.00554032 1.38715 133 124 109 
-0.347145 0.0178548 1.51115 39 36 21 
-0.346047 0.0187008 1.47435 9 2 0 
-0.346046 0.0286213 1.53674 31 27 18 
