ply                 
format ascii 1.0    
element vertex 1261
property float x    
property float y    
property float z    
property uchar red  
property uchar green
property uchar blue 
end_header          
-0.209048 -0.389079 1.50881 116 113 106 
-0.232239 -0.386356 1.52539 31 29 17 
-0.211148 -0.370689 1.48541 118 115 108 
0.0417064 -0.3769 1.44914 5 5 0 
-0.239462 -0.358008 1.4997 114 110 99 
-0.239942 -0.329077 1.47234 112 107 101 
0.0116145 -0.33539 1.41971 100 95 89 
-0.182388 -0.310611 1.43524 9 6 1 
-0.244135 -0.311508 1.47508 3 5 0 
-0.161941 -0.304805 1.42076 114 109 103 
-0.00834979 -0.315556 1.40463 140 133 127 
-0.0190042 -0.313805 1.40514 86 76 74 
-0.151402 -0.299481 1.41276 42 37 34 
-0.222201 -0.300035 1.45774 87 83 74 
-0.210332 -0.296547 1.4465 43 33 24 
-0.0415133 -0.303642 1.39547 42 39 34 
-0.0702272 -0.297868 1.39194 102 97 93 
0.107953 -0.326847 1.46487 24 20 17 
-0.0124943 -0.301553 1.39831 41 40 35 
-0.149701 -0.288681 1.40591 119 114 110 
-0.232732 -0.288579 1.4612 103 98 94 
-0.253831 -0.285903 1.47937 86 81 77 
-0.0807994 -0.281119 1.38365 81 77 78 
-0.0583588 -0.282885 1.38375 11 6 3 
-0.186603 -0.26888 1.41674 7 0 0 
0.116264 -0.305383 1.4602 27 24 17 
-0.237203 -0.2699 1.45508 75 72 67 
-0.221014 -0.268246 1.43708 23 20 15 
0.0418346 -0.289111 1.4088 33 28 22 
-0.030232 -0.276993 1.38027 67 65 66 
0.00882516 -0.281151 1.39321 98 88 87 
0.0323889 -0.283371 1.40054 10 7 2 
0.0871579 -0.293558 1.43262 8 4 3 
0.0721803 -0.289994 1.42449 80 75 72 
-0.288931 -0.269123 1.51988 12 7 3 
-0.22684 -0.255341 1.43701 63 59 56 
0.0836102 -0.274017 1.42051 91 90 86 
-0.253311 -0.245807 1.45761 93 85 83 
0.0979815 -0.273236 1.42893 82 78 77 
-0.301863 -0.249376 1.53447 13 11 0 
0.109439 -0.272246 1.43728 30 27 22 
-0.241188 -0.236681 1.43704 134 135 130 
-0.290518 -0.237447 1.50155 31 27 18 
-0.295601 -0.236066 1.51289 30 27 20 
-0.229393 -0.226745 1.43246 11 8 1 
-0.287201 -0.22597 1.48588 81 77 68 
0.0924444 -0.253081 1.41785 91 91 91 
-0.00276137 -0.233713 1.37972 27 18 11 
0.0782625 -0.242776 1.40885 86 85 81 
-0.308252 -0.209155 1.52106 93 90 85 
-0.24674 -0.204668 1.45118 68 63 57 
-0.0925047 -0.203252 1.35983 37 32 28 
-0.135273 -0.19646 1.37067 81 77 68 
-0.306831 -0.195839 1.51201 35 26 21 
-0.181878 -0.19339 1.38834 87 82 76 
0.00745466 -0.207983 1.3706 5 0 0 
-0.245297 -0.191714 1.44142 14 3 0 
-0.202102 -0.188499 1.39786 91 86 83 
0.0375785 -0.206815 1.37834 66 66 64 
-0.0189033 -0.199177 1.35757 39 36 27 
0.0788724 -0.210699 1.40168 12 8 7 
-0.271109 -0.184946 1.47192 14 10 0 
-0.0531819 -0.189789 1.35055 39 34 28 
-0.123317 -0.182478 1.35553 25 18 12 
-0.111495 -0.182106 1.3549 37 28 19 
-0.250763 -0.174486 1.44152 107 100 92 
0.0822199 -0.199274 1.39916 78 74 73 
-0.210922 -0.172077 1.39912 97 90 80 
-0.17977 -0.172576 1.3777 88 83 77 
-0.232788 -0.166459 1.40589 5 2 0 
-0.218671 -0.16714 1.40441 38 31 23 
-0.291719 -0.168241 1.49935 28 21 13 
-0.268671 -0.164937 1.4595 26 22 10 
-0.286783 -0.164544 1.48699 120 112 101 
-0.201214 -0.163789 1.38452 21 14 8 
0.0344508 -0.182118 1.36465 15 11 8 
-0.183449 -0.162792 1.37465 30 25 19 
-0.103285 -0.166423 1.34441 112 102 92 
-0.173221 -0.159825 1.36813 104 94 84 
-0.141563 -0.161015 1.35568 23 14 5 
-0.276746 -0.156018 1.46466 32 24 13 
-0.269806 -0.154476 1.45291 36 28 17 
0.112202 -0.185634 1.41622 81 77 74 
-0.191733 -0.154461 1.3746 31 20 14 
-0.263327 -0.15197 1.44275 17 7 0 
-0.251932 -0.150349 1.43144 29 20 11 
-0.214039 -0.14826 1.38919 8 1 0 
0.104068 -0.176325 1.40142 95 91 88 
-0.0837557 -0.153541 1.33434 19 10 3 
-0.245147 -0.143251 1.41964 116 107 98 
0.0446901 -0.163116 1.35994 100 95 92 
-0.0620267 -0.150873 1.33168 105 95 85 
0.0767293 -0.165549 1.37683 5 1 0 
-0.224696 -0.139089 1.39375 100 90 78 
-0.282527 -0.137944 1.46783 8 4 0 
-0.254256 -0.129711 1.41861 57 49 38 
-0.230921 -0.129385 1.38808 138 132 120 
-0.213242 -0.126279 1.37727 37 34 25 
-0.263701 -0.122106 1.42883 124 117 99 
-0.24065 -0.119293 1.39991 103 95 82 
-0.274579 -0.117976 1.44186 109 97 81 
0.044788 -0.139593 1.35032 16 9 0 
-0.249932 -0.116609 1.40686 27 15 3 
-0.0745067 -0.126615 1.31893 93 89 78 
-0.285086 -0.110117 1.45733 7 0 0 
-0.240854 -0.108526 1.39291 16 7 0 
-0.233174 -0.107613 1.38158 6 0 0 
-0.25897 -0.105603 1.41268 9 3 0 
-0.186674 -0.108289 1.34753 15 11 2 
-0.00132556 -0.119756 1.32121 10 6 0 
-0.220286 -0.0983934 1.37005 55 48 38 
-0.279864 -0.0948219 1.43597 59 51 38 
-0.184049 -0.0994258 1.33938 120 110 100 
-0.291982 -0.0931085 1.46087 127 119 108 
-0.229693 -0.0935507 1.37203 4 0 0 
-0.211274 -0.0946813 1.35482 27 19 8 
-0.269949 -0.0894547 1.41995 122 109 100 
-0.254362 -0.0893748 1.39818 13 1 0 
-0.287108 -0.085282 1.4473 36 26 16 
-0.198392 -0.0875995 1.34471 44 36 25 
-0.237249 -0.084403 1.37514 103 90 81 
0.102554 -0.111155 1.36274 9 6 1 
-0.073935 -0.0930421 1.30011 111 101 92 
-0.298803 -0.0777943 1.46708 131 123 112 
-0.233186 -0.0797203 1.36638 22 12 3 
-0.192771 -0.0813852 1.33611 124 114 104 
-0.0138035 -0.0950375 1.30369 95 82 76 
-0.282015 -0.0743334 1.42956 32 22 10 
-0.287012 -0.0736662 1.43918 94 90 78 
-0.270331 -0.0745547 1.41175 49 37 25 
-0.24271 -0.0748354 1.37586 20 11 0 
-0.0266143 -0.0918459 1.30323 29 19 10 
-0.303675 -0.0704079 1.47547 144 134 124 
-0.262597 -0.0719456 1.39866 6 0 0 
-0.277649 -0.0686228 1.41751 27 14 0 
-0.0725771 -0.0836221 1.29499 17 8 3 
0.0637003 -0.0948308 1.32719 17 7 0 
-0.25445 -0.0685459 1.3863 120 112 99 
-0.301277 -0.0639672 1.46415 10 2 0 
-0.162286 -0.0718416 1.31378 116 105 83 
-0.268122 -0.0624208 1.40213 116 102 91 
-0.233401 -0.0631144 1.35476 39 35 24 
-0.116181 -0.0704628 1.30852 73 54 50 
-0.258276 -0.058379 1.38705 56 49 39 
-0.217655 -0.0614311 1.34307 25 15 5 
-0.280967 -0.0553554 1.41964 11 0 0 
-0.0878419 -0.0658701 1.28648 27 14 0 
-0.268054 -0.0479703 1.39446 146 139 129 
-0.25175 -0.0493993 1.37309 67 57 45 
-0.261745 -0.0484087 1.38052 137 127 115 
-0.236606 -0.049261 1.35396 50 40 31 
0.07203 -0.0744845 1.32329 6 0 0 
-0.0656041 -0.0618151 1.2845 128 119 110 
-0.310674 -0.040929 1.47699 22 14 1 
-0.229617 -0.0440665 1.34575 3 1 0 
-0.287832 -0.0379735 1.42219 29 21 8 
-0.25734 -0.0404302 1.37369 105 97 86 
-0.196102 -0.0441169 1.31848 94 84 72 
-0.282164 -0.0352398 1.40892 10 0 0 
-0.294297 -0.0335821 1.43756 35 25 13 
-0.265501 -0.0335219 1.38195 10 0 0 
-0.220073 -0.0350124 1.33381 10 0 0 
-0.179109 -0.038318 1.30587 12 1 0 
-0.241115 -0.0325231 1.35085 122 110 94 
-0.0918411 -0.0437577 1.27788 21 9 0 
-0.0744872 -0.0453867 1.2752 9 0 0 
-0.27466 -0.0241016 1.39141 128 120 107 
-0.123701 -0.0359186 1.2945 131 97 87 
-0.25958 -0.0215332 1.36689 77 68 53 
-0.240331 -0.0228454 1.34595 76 65 45 
0.0323588 -0.0448642 1.29019 28 25 20 
-0.246481 -0.020147 1.35562 57 39 25 
-0.099846 -0.0300338 1.2702 39 32 16 
-0.208723 -0.0188739 1.31235 10 0 0 
-0.254873 -0.0132417 1.35798 133 124 109 
-0.270389 -0.010518 1.38183 87 77 65 
-0.285465 -0.00573045 1.40176 40 28 14 
-0.222899 -0.0128819 1.32578 19 9 0 
-0.278288 -0.00497901 1.39047 120 112 101 
-0.190645 -0.0142987 1.2989 112 104 85 
-0.241656 -0.0057484 1.33741 24 10 0 
-0.214475 -0.00595915 1.30963 12 5 0 
-0.264784 0.000710649 1.36365 58 45 29 
-0.175848 -0.00513716 1.28807 19 9 0 
-0.0480471 -0.0146993 1.25859 97 86 80 
-0.225568 0.0054576 1.31547 117 105 93 
-0.210616 0.00442728 1.30327 43 37 23 
-0.235531 0.00926925 1.32487 137 125 109 
-0.283577 0.0180653 1.38498 36 28 9 
-0.25401 0.0139173 1.34145 44 37 21 
-0.264983 0.0156612 1.35702 128 110 98 
-0.276593 0.0184468 1.37166 111 102 87 
-0.153914 0.00572274 1.27932 134 125 110 
-0.191218 0.00979863 1.28921 22 10 0 
-0.216699 0.0142099 1.30301 42 28 17 
-0.23117 0.016021 1.31425 136 132 121 
-0.291803 0.025962 1.39322 48 35 19 
-0.253256 0.0215627 1.33261 133 119 108 
-0.261328 0.0245039 1.34638 22 3 0 
0.0594981 -0.00321093 1.28237 14 13 11 
-0.271378 0.0272046 1.35631 41 28 11 
-0.298998 0.0361398 1.40517 24 15 0 
-0.229035 0.0269817 1.30845 114 108 96 
-0.183683 0.0223511 1.27523 111 99 83 
-0.253653 0.0323868 1.33274 11 0 0 
-0.199567 0.0270978 1.28745 40 30 20 
-0.245847 0.0333688 1.32026 79 63 47 
-0.273518 0.0391341 1.35613 44 34 22 
-0.153972 0.0255491 1.27385 11 0 0 
-0.289577 0.0433091 1.3852 12 0 0 
-0.261661 0.039089 1.33539 31 19 5 
0.0123848 0.0130406 1.25424 21 16 13 
-0.253268 0.041573 1.32688 46 30 14 
-0.285659 0.0481131 1.372 22 10 0 
-0.18479 0.0340171 1.26778 22 10 0 
-0.229313 0.040249 1.29944 122 114 101 
0.0314387 0.0201084 1.25569 26 21 17 
-0.132406 0.0328108 1.26232 110 82 78 
-0.248507 0.046611 1.31835 21 2 0 
-0.269503 0.051374 1.34324 63 52 34 
-0.291833 0.0561414 1.38016 18 8 0 
-0.24105 0.0469956 1.30866 32 20 6 
-0.195312 0.0432409 1.27319 28 17 0 
-0.261781 0.0547847 1.32852 48 40 27 
-0.221478 0.0495499 1.29115 107 93 80 
0.0434834 0.0280612 1.25853 74 69 66 
-0.281196 0.0604156 1.35649 125 114 96 
-0.213132 0.0499781 1.28191 40 28 12 
-0.253613 0.0566377 1.31889 152 142 133 
-0.28681 0.0644435 1.36587 45 32 16 
-0.231006 0.0542807 1.29394 22 16 4 
-0.290427 0.066961 1.37682 121 112 97 
-0.244265 0.0595797 1.30671 112 105 89 
-0.198715 0.0538017 1.26715 133 121 99 
0.00516128 0.0364213 1.23966 17 10 4 
-0.266673 0.0651042 1.33529 69 60 43 
-0.260328 0.06514 1.32282 22 13 0 
-0.216396 0.0610396 1.27912 155 147 128 
-0.0788619 0.0464199 1.22474 27 17 7 
-0.226704 0.0644013 1.28682 124 117 101 
-0.234589 0.0714843 1.28746 10 0 0 
0.0271274 0.0502154 1.24156 83 78 74 
-0.295533 0.0877327 1.37037 56 46 34 
-0.278143 0.0843141 1.34013 128 114 101 
-0.262899 0.0819886 1.31754 128 115 99 
-0.243993 0.0793848 1.2957 136 127 112 
-0.257202 0.0833517 1.30819 126 112 101 
-0.161697 0.0713436 1.23855 62 46 20 
-0.287349 0.0931325 1.35192 156 143 127 
0.0267525 0.0601063 1.23288 83 78 74 
-0.26984 0.093002 1.3219 33 21 7 
-0.228502 0.0852079 1.27582 89 73 58 
-0.25249 0.0910899 1.29728 30 16 5 
-0.279464 0.098672 1.33312 26 16 4 
-0.241298 0.0911517 1.28731 92 78 65 
-0.222949 0.0914549 1.26803 91 78 69 
-0.286235 0.105554 1.34008 35 26 11 
-0.27259 0.104043 1.31885 152 136 121 
-0.234447 0.0956128 1.27276 23 13 3 
0.00592581 0.0745076 1.21908 93 84 75 
-0.257297 0.103576 1.29742 123 110 94 
-0.240916 0.101701 1.27927 130 117 101 
0.0340369 0.0784369 1.22416 11 7 4 
-0.00975912 0.0810688 1.21489 6 0 0 
-0.11417 0.0905877 1.22101 100 80 69 
-0.267075 0.112602 1.30626 56 43 26 
-0.221108 0.104294 1.25957 95 79 64 
-0.231047 0.108918 1.26273 21 11 1 
-0.293664 0.124727 1.34614 151 139 123 
-0.281843 0.121479 1.32381 129 120 103 
-0.299031 0.128029 1.35723 39 27 11 
-0.0146218 0.0889064 1.20758 95 86 81 
-0.247931 0.115308 1.27974 155 143 127 
-0.239544 0.11361 1.27089 14 0 0 
-0.121762 0.100823 1.21873 94 69 62 
-0.268299 0.124139 1.30213 76 65 45 
-0.254508 0.121081 1.28527 31 23 4 
-0.0509807 0.0982934 1.19796 6 0 0 
-0.30174 0.139159 1.35821 26 19 1 
-0.287879 0.134363 1.32793 75 62 45 
-0.132531 0.108971 1.21662 31 22 7 
-0.19661 0.116048 1.23267 116 100 87 
-0.26101 0.12925 1.28786 75 63 47 
-0.297761 0.141306 1.34823 83 78 58 
-0.245335 0.127212 1.27131 55 42 23 
-0.0692903 0.106107 1.19406 18 11 1 
-0.0500301 0.108201 1.19413 19 11 0 
-0.250293 0.13713 1.27037 47 36 14 
-0.283706 0.146539 1.31491 21 9 0 
-0.270559 0.142157 1.29394 64 56 33 
-0.219616 0.13439 1.24023 154 142 126 
-0.164502 0.126461 1.20885 10 0 0 
-0.065333 0.116516 1.18773 22 13 6 
-0.235387 0.138243 1.24948 80 69 47 
-0.28798 0.155474 1.32049 22 9 0 
-0.247346 0.144921 1.26422 51 35 9 
-0.205688 0.139929 1.22827 147 132 113 
-0.271346 0.155595 1.28869 55 44 22 
-0.141932 0.132281 1.19466 107 97 85 
-0.280147 0.161861 1.30336 11 0 0 
-0.260744 0.155495 1.27331 40 26 0 
-0.0834099 0.130197 1.18319 101 96 92 
0.00196129 0.127541 1.18948 115 110 104 
-0.236997 0.153021 1.24745 40 29 9 
-0.133002 0.136965 1.1914 16 10 0 
-0.0334041 0.128987 1.18163 158 154 143 
-0.288086 0.169359 1.31319 27 16 0 
-0.296665 0.172864 1.32768 141 130 112 
-0.265967 0.162639 1.27851 47 34 17 
-0.0148055 0.132206 1.18311 157 148 141 
0.0744549 0.134622 1.21834 11 7 4 
-0.172687 0.149571 1.19926 59 43 30 
-0.250446 0.167091 1.2574 80 66 40 
-0.16172 0.149759 1.19341 124 112 100 
-0.308785 0.189239 1.35187 79 66 50 
-0.280188 0.177381 1.29346 8 0 0 
-0.226762 0.164267 1.23169 13 1 0 
-0.29936 0.187753 1.32858 18 8 0 
-0.264585 0.17506 1.26946 26 14 0 
-0.14586 0.155612 1.18323 106 100 88 
-0.243843 0.173812 1.24327 79 62 36 
-0.27623 0.18509 1.28212 82 68 55 
-0.29232 0.19471 1.30735 44 32 18 
-0.22116 0.174025 1.22069 17 7 0 
0.0439653 0.153571 1.19042 96 95 93 
-0.0627863 0.155436 1.16567 104 100 89 
-0.268167 0.190152 1.26883 142 122 97 
-0.260226 0.188441 1.25479 143 132 114 
-0.197781 0.174409 1.20398 135 122 105 
-0.0184405 0.156286 1.16936 86 77 70 
-0.251037 0.186283 1.24454 149 133 118 
-0.177379 0.170824 1.19094 11 0 0 
-0.150293 0.169713 1.17954 34 24 14 
-0.273119 0.198522 1.27303 73 61 45 
-0.291639 0.206289 1.29786 117 108 93 
-0.261667 0.19901 1.25562 62 46 23 
-0.00529772 0.166981 1.16703 12 2 0 
-0.297177 0.215331 1.30809 14 2 0 
-0.230555 0.19273 1.21995 121 114 104 
-0.189561 0.186623 1.19185 12 0 0 
-0.0900638 0.173738 1.15847 153 144 135 
0.0206301 0.170773 1.17075 88 83 79 
-0.288393 0.217328 1.29056 46 35 17 
-0.27419 0.210638 1.26341 64 52 38 
-0.261879 0.207076 1.24838 140 129 111 
-0.00710601 0.175946 1.16125 92 89 82 
-0.0319717 0.179504 1.1553 134 127 121 
-0.230497 0.205349 1.21279 57 45 29 
-0.287587 0.224791 1.28261 9 0 0 
-0.254346 0.213076 1.23648 151 138 121 
-0.141536 0.191928 1.16602 43 33 23 
-0.264639 0.216918 1.2451 26 13 0 
-0.275637 0.22532 1.26162 139 130 113 
-0.285065 0.230654 1.27426 29 17 3 
-0.241795 0.215345 1.21649 158 148 123 
-0.223473 0.214109 1.20203 35 17 0 
-0.157659 0.203877 1.16407 38 29 20 
-0.26759 0.229935 1.24222 149 135 109 
-0.283539 0.23748 1.2655 38 30 17 
0.0645476 0.191431 1.15723 75 71 70 
-0.232084 0.221681 1.2058 23 20 11 
-0.0085173 0.197443 1.14865 102 97 94 
-0.153377 0.209914 1.15661 8 0 0 
-0.262291 0.235693 1.23402 156 144 128 
-0.134643 0.20875 1.15144 116 107 98 
-0.079484 0.203258 1.14124 13 2 0 
-0.275393 0.244178 1.25277 139 126 109 
-0.227229 0.227245 1.197 24 12 0 
-0.299613 0.25552 1.29331 161 148 131 
-0.255802 0.237724 1.22474 148 134 121 
-0.292818 0.252882 1.27688 158 146 122 
-0.246319 0.23562 1.21516 33 23 13 
-0.217859 0.230833 1.18796 78 72 56 
-0.307374 0.267047 1.30491 156 145 127 
-0.273679 0.251096 1.24205 60 44 29 
-0.195785 0.229063 1.16784 21 13 2 
-0.281226 0.25584 1.25048 62 53 36 
-0.259492 0.247875 1.22433 34 22 6 
-0.0175683 0.212587 1.13812 85 78 70 
-0.233049 0.240417 1.19374 4 2 0 
-0.0768115 0.216885 1.1342 24 17 7 
-0.173253 0.232849 1.15486 26 20 8 
-0.265994 0.258602 1.2263 146 139 120 
-0.277912 0.266515 1.24244 91 82 65 
-0.254855 0.257406 1.21238 48 36 20 
-0.244928 0.254807 1.20109 137 125 109 
-0.0249591 0.224523 1.13229 76 68 66 
-0.233275 0.25529 1.18809 47 39 26 
-0.168735 0.240082 1.14563 129 122 112 
-0.182805 0.243706 1.15391 34 31 16 
-0.252158 0.263529 1.20257 59 46 27 
-0.274747 0.275558 1.23161 25 17 4 
-0.307624 0.293831 1.28805 35 26 9 
-0.241008 0.263792 1.19068 140 133 117 
-0.267767 0.274243 1.21905 152 144 121 
-0.0925093 0.238364 1.12277 23 13 11 
-0.00843809 0.236416 1.12835 69 65 62 
-0.15206 0.247362 1.13525 35 26 17 
-0.257453 0.273527 1.20526 145 137 124 
-0.248808 0.269998 1.19419 129 117 103 
-0.27807 0.287676 1.23254 126 114 100 
-0.265271 0.281814 1.21227 66 56 44 
-0.229482 0.270001 1.17418 125 112 96 
-0.254736 0.279694 1.19583 119 110 95 
-0.153224 0.256891 1.13025 20 11 2 
-0.312541 0.315125 1.29498 35 30 11 
-0.265415 0.290546 1.20648 77 65 41 
-0.246032 0.287728 1.18134 126 115 97 
-0.151185 0.265714 1.12329 104 95 86 
-0.139919 0.265981 1.11903 41 32 23 
-0.0825836 0.261682 1.10804 102 93 86 
-0.30778 0.326853 1.27625 49 37 15 
-0.255068 0.298981 1.18969 62 51 33 
0.0476932 0.260096 1.11215 13 8 4 
-0.243297 0.296571 1.17363 101 93 80 
-0.2269 0.292026 1.16019 30 20 8 
-0.0522923 0.266971 1.10324 34 29 23 
-0.276241 0.315596 1.21536 123 113 101 
-0.234536 0.300427 1.16195 106 98 87 
0.0547165 0.270251 1.11136 120 115 111 
-0.221049 0.299869 1.14889 113 106 96 
-0.266007 0.317438 1.19171 120 112 99 
-0.272503 0.32093 1.19978 45 35 25 
-0.0382697 0.276211 1.09678 177 170 162 
-0.310864 0.348242 1.27208 155 146 131 
-0.0589776 0.277192 1.09445 6 1 0 
-0.241492 0.307754 1.15683 158 155 146 
-0.1758 0.29097 1.11609 43 36 28 
-0.151283 0.287333 1.10441 137 129 118 
-0.286891 0.335588 1.21781 123 111 97 
-0.259246 0.320484 1.17543 19 13 0 
-0.166256 0.293962 1.10594 38 32 20 
-0.213599 0.306377 1.13171 58 52 38 
-0.309132 0.355779 1.26307 44 34 22 
-0.236682 0.313734 1.14792 39 32 24 
-0.222894 0.309625 1.13817 131 122 113 
0.0467617 0.284581 1.09997 19 18 14 
-0.125622 0.290495 1.09043 115 112 105 
-0.141471 0.29489 1.09331 90 85 79 
-0.0537979 0.287242 1.08292 30 25 19 
-0.278887 0.336602 1.19488 53 43 31 
-0.206815 0.309293 1.12453 146 138 127 
-0.271594 0.332959 1.18311 28 20 9 
-0.257413 0.32575 1.1629 133 123 111 
-0.132889 0.297637 1.08603 91 92 87 
-0.265276 0.333909 1.16995 132 122 110 
-0.0952464 0.293986 1.07704 106 103 98 
-0.186628 0.309235 1.10696 13 5 0 
-0.167027 0.304289 1.09436 142 140 128 
-0.241353 0.32523 1.14037 30 21 14 
0.0253037 0.295398 1.08548 38 38 28 
-0.254306 0.333135 1.15321 127 114 97 
-0.207973 0.319383 1.11302 36 27 18 
-0.2739 0.344326 1.17377 35 23 9 
-0.286587 0.350674 1.18723 20 11 4 
-0.200062 0.317012 1.10244 36 28 17 
-0.0362959 0.299994 1.07299 15 15 5 
-0.0232851 0.3005 1.07455 0 1 0 
-0.294331 0.359073 1.19975 28 22 10 
-0.260856 0.341408 1.15008 148 138 128 
-0.248742 0.336525 1.13791 54 56 42 
-0.178178 0.317585 1.09077 116 108 105 
-0.0940435 0.306368 1.06774 124 121 114 
-0.279588 0.353721 1.17055 56 44 30 
-0.209966 0.327519 1.10619 141 132 123 
-0.285908 0.358308 1.17846 62 52 40 
-0.220547 0.332837 1.11402 12 3 0 
-0.303856 0.371392 1.20696 33 25 14 
-0.263379 0.351419 1.14335 77 69 58 
-0.250066 0.346203 1.12711 65 66 58 
-0.284019 0.363269 1.16758 40 30 18 
0.0125722 0.313838 1.06994 40 36 33 
-0.276087 0.359885 1.15686 60 51 36 
-0.216594 0.337979 1.10384 115 111 100 
-0.290631 0.371286 1.17522 25 18 8 
-0.0709573 0.316762 1.05713 78 73 67 
-0.195524 0.335291 1.08841 106 97 88 
-0.261379 0.359708 1.13632 48 38 28 
-0.042486 0.31949 1.05691 87 82 79 
-0.252133 0.356691 1.12926 109 105 93 
-0.317946 0.395649 1.2196 23 17 5 
-0.305935 0.386317 1.19701 49 41 30 
-0.286461 0.374745 1.16632 40 28 14 
-0.0879467 0.323922 1.0578 84 79 73 
-0.224726 0.348991 1.10507 40 30 21 
-0.123108 0.329525 1.05995 11 7 0 
-0.27265 0.369347 1.14457 69 59 49 
-0.143281 0.33624 1.05932 13 10 3 
-0.265747 0.376089 1.13684 142 130 116 
-0.0141507 0.337452 1.05353 6 1 0 
-0.30051 0.401428 1.17696 136 124 110 
-0.262377 0.378813 1.12514 135 125 115 
-0.143786 0.347434 1.05533 28 24 13 
-0.21176 0.365256 1.08561 117 107 98 
-0.293133 0.400104 1.16145 139 132 116 
-0.274399 0.390197 1.13834 121 109 95 
-0.106477 0.351814 1.04376 53 44 37 
-0.273434 0.399244 1.13297 121 109 95 
-0.26431 0.394621 1.12263 70 58 44 
-0.165368 0.36291 1.05733 33 30 21 
-0.302645 0.416873 1.16922 133 121 109 
-0.286714 0.408833 1.15106 49 42 26 
-0.258855 0.39752 1.11416 117 107 95 
-0.227535 0.387906 1.08707 129 119 109 
-0.267885 0.405254 1.12045 56 42 31 
-0.178368 0.375877 1.05507 68 59 50 
-0.252463 0.402185 1.10165 93 84 79 
-0.221156 0.393532 1.07719 147 143 132 
-0.146501 0.377089 1.04033 37 33 24 
-0.253162 0.414295 1.097 46 38 27 
-0.172405 0.389806 1.04652 33 29 20 
-0.0912355 0.378111 1.02725 98 93 87 
-0.20116 0.398631 1.05833 156 153 144 
-0.126743 0.383573 1.02915 15 15 5 
-0.179399 0.399176 1.04351 19 16 7 
-0.155581 0.397401 1.03171 97 94 87 
-0.133104 0.395315 1.02252 11 8 3 
-0.0484932 -0.520661 1.5751 97 93 84 
-0.0892924 -0.503948 1.57377 43 34 27 
-0.169232 -0.471188 1.58001 167 162 156 
-0.13756 -0.407316 1.49354 52 49 42 
0.12498 -0.430278 1.58481 8 7 3 
0.0635609 -0.330163 1.438 27 22 19 
-0.135994 -0.296241 1.40662 22 19 14 
0.0419396 -0.312981 1.42117 25 23 24 
-0.16968 -0.285628 1.41266 20 15 11 
-0.102524 -0.286812 1.38955 22 21 16 
0.140193 -0.3218 1.48493 66 65 63 
0.101563 -0.312599 1.45288 27 23 14 
0.127917 -0.313775 1.47171 24 19 16 
-0.194632 -0.257437 1.41268 77 76 72 
-0.274205 -0.22882 1.47467 111 104 96 
0.132682 -0.254151 1.44835 47 45 48 
-0.270032 -0.206594 1.46834 63 59 56 
-0.256236 -0.188036 1.44805 17 7 0 
-0.267317 -0.177692 1.46392 7 0 0 
-0.0759123 -0.181581 1.3482 106 99 93 
-0.301413 -0.164593 1.51415 4 0 0 
-0.276288 -0.125655 1.44929 7 0 0 
0.070616 -0.129692 1.35656 20 13 3 
0.089416 -0.130091 1.36309 22 15 5 
-0.0047206 -0.110533 1.31509 100 90 81 
-0.274504 -0.0393782 1.39709 20 12 1 
-0.114594 -0.0462351 1.29184 94 74 63 
0.00690891 -0.0489315 1.28015 32 25 15 
-0.234022 -0.0153762 1.33168 36 26 14 
-0.125776 -0.0169051 1.28191 100 67 58 
-0.268872 0.0763599 1.3299 143 135 122 
-0.00708773 0.0533707 1.22545 3 0 0 
-0.19357 0.0915872 1.24194 155 142 125 
-0.156176 0.109707 1.22262 23 9 0 
-0.215095 0.12187 1.25152 124 116 95 
-0.17678 0.124749 1.21637 16 3 0 
-0.0817705 0.117385 1.18629 117 115 102 
-0.0996528 0.122277 1.19159 43 27 12 
-0.189829 0.141536 1.2129 12 0 0 
-0.191213 0.162072 1.21875 133 121 105 
-0.285222 0.272728 1.25282 137 126 108 
-0.302776 0.284962 1.2879 42 31 9 
-0.191102 0.302972 1.11458 21 11 1 
-0.0971264 0.354343 1.04003 27 27 19 
-0.279918 0.403942 1.13925 132 123 108 
-0.222247 0.413148 1.06291 17 14 5 
-0.168652 0.397576 1.03388 34 25 18 
-0.173209 -0.535196 1.64077 42 38 27 
-0.111966 -0.529259 1.61038 139 130 123 
0.0650191 -0.532079 1.63527 26 23 14 
-0.00258509 -0.447001 1.50655 20 15 9 
0.0215013 -0.407765 1.47646 43 36 26 
0.0678291 -0.31032 1.43176 111 110 106 
-0.194299 -0.24403 1.40318 70 66 65 
-0.0157091 -0.23616 1.37708 70 66 65 
-0.0339307 -0.223122 1.36996 7 4 0 
0.0290019 -0.164689 1.35378 93 90 85 
-0.276958 -0.144468 1.46075 27 19 6 
0.0220511 -0.11135 1.32637 41 34 26 
-0.218943 -0.0487246 1.33793 13 3 0 
-0.0549376 -0.0534597 1.27102 49 40 31 
-0.168896 -0.0400169 1.3004 101 91 66 
-0.287608 -0.0247518 1.4087 18 6 0 
-0.0972374 -0.0211842 1.26534 111 97 88 
0.0289768 -0.0251212 1.27924 6 1 0 
0.0173632 0.00167397 1.26019 4 0 0 
-0.285045 0.0336343 1.37888 13 0 0 
-0.181723 0.0440913 1.26569 16 6 0 
-0.0330337 0.032733 1.23376 106 97 88 
-0.239081 0.0664251 1.3003 146 132 121 
0.0586804 0.0502699 1.25297 101 97 94 
-0.209595 0.104915 1.25533 125 108 98 
-0.231922 0.118253 1.2576 8 0 0 
-0.1872 0.116775 1.22625 30 22 11 
-0.203563 0.150768 1.22251 35 21 8 
-0.271553 0.169685 1.28403 141 132 115 
-0.11531 0.142943 1.17859 14 6 0 
-0.25832 0.179751 1.26227 37 19 0 
-0.227413 0.18106 1.22883 29 12 0 
-0.237793 0.203132 1.22219 10 0 0 
0.100918 0.293573 1.12299 104 100 91 
-0.302005 0.378944 1.18952 109 101 90 
-0.236096 0.380262 1.09815 28 21 11 
-0.183225 0.383768 1.05943 55 48 40 
-0.183277 0.390227 1.05133 142 132 122 
-0.0891763 -0.527637 1.59845 18 11 5 
-0.068518 -0.51431 1.579 128 125 118 
0.0574414 -0.511691 1.61216 11 8 3 
0.128152 -0.519416 1.66652 16 13 4 
-0.207599 -0.419844 1.54874 7 2 0 
0.0610826 -0.367895 1.45078 116 116 106 
0.0928808 -0.368761 1.47825 37 33 24 
-0.0313579 -0.301211 1.40663 3 0 0 
0.024892 -0.248305 1.3874 73 70 63 
-0.225702 -0.196375 1.42957 3 0 0 
-0.193873 0.0642147 1.25327 60 47 30 
-0.171132 0.103399 1.23402 109 89 64 
-0.0598585 0.227785 1.12025 36 27 18 
-0.200409 0.369249 1.07875 48 37 31 
-0.270709 0.41619 1.11909 51 42 27 
-0.235768 0.409389 1.08189 9 5 0 
0.119523 -0.614538 1.73118 86 88 85 
0.0834432 -0.572785 1.68363 26 5 10 
0.073492 -0.564781 1.67137 102 92 90 
0.0198123 -0.480904 1.55141 7 2 0 
-0.131387 -0.214595 1.3746 88 79 72 
0.0138592 -0.190509 1.35793 112 108 105 
-0.14901 -0.143974 1.34829 17 10 4 
0.0681709 -0.151875 1.37615 8 4 1 
0.0458977 -0.109275 1.32829 20 15 11 
-0.00643899 -0.0707195 1.29652 94 87 81 
-0.1307 0.227049 1.15249 13 3 0 
-0.278565 -0.216965 1.47803 66 56 47 
0.0446871 0.300897 1.09118 94 98 107 
-0.244724 -0.304449 1.44511 94 96 91 
-0.18762 -0.277425 1.39487 75 70 66 
-0.233988 -0.264633 1.42005 5 0 0 
-0.283364 -0.237985 1.46129 19 12 6 
-0.186433 -0.214348 1.37844 11 8 0 
-0.250312 -0.201414 1.42379 74 70 61 
-0.257218 -0.165858 1.41352 5 1 0 
-0.251097 -0.141272 1.3949 105 99 87 
-0.2562 -0.126508 1.39153 152 142 130 
-0.200909 -0.128956 1.34216 126 113 107 
-0.243064 -0.122051 1.37164 10 2 0 
-0.268475 -0.11929 1.40215 33 27 11 
-0.068618 -0.13565 1.30652 16 3 0 
-0.0566989 -0.135702 1.30805 18 9 0 
-0.277603 -0.100148 1.40623 127 117 105 
-0.295872 -0.0920181 1.43467 36 28 17 
-0.30628 -0.0879601 1.45323 45 41 30 
-0.273168 -0.0886409 1.39224 124 118 104 
-0.287096 -0.0804794 1.4098 31 22 7 
-0.222152 -0.0833867 1.33386 9 0 0 
-0.257745 -0.068122 1.36116 117 109 96 
-0.268106 -0.0668193 1.37349 102 88 75 
-0.286045 -0.050994 1.39383 131 121 109 
-0.272424 -0.0270517 1.35834 106 99 83 
-0.206536 -0.0351698 1.29616 12 2 0 
-0.261111 -0.013233 1.33702 128 120 107 
-0.273285 -0.00958295 1.35374 127 124 109 
-0.297582 0.00448921 1.39035 31 22 7 
-0.271847 0.00700936 1.34144 123 110 94 
-0.0595315 -0.00119354 1.23582 131 122 115 
-0.267825 0.0402085 1.31657 64 52 38 
-0.28356 0.0529656 1.33368 20 10 0 
-0.254255 0.0468241 1.29803 14 0 0 
-0.237608 0.0536143 1.27306 35 28 18 
-0.275659 0.070616 1.31252 121 110 90 
-0.285703 0.0739595 1.32869 148 137 115 
-0.245566 0.0655468 1.28001 144 130 117 
-0.225322 0.0702387 1.25696 120 108 94 
-0.247138 0.0756508 1.27513 147 137 125 
-0.27931 0.0835396 1.31383 101 89 73 
-0.123877 0.0720496 1.2183 101 70 65 
-0.244716 0.0886227 1.26481 92 85 69 
-0.286559 0.101734 1.31383 113 105 94 
-0.223207 0.087498 1.24468 9 1 0 
-0.275298 0.101293 1.29657 140 132 111 
-0.265202 0.102956 1.28049 33 24 9 
-0.305748 0.11807 1.34894 52 42 30 
-0.255296 0.114362 1.26121 118 106 92 
-0.281981 0.125837 1.29586 33 21 7 
-0.0697006 0.0957882 1.18453 49 42 36 
-0.283357 0.141715 1.2902 21 14 0 
-0.301675 0.151733 1.32071 86 69 49 
-0.265462 0.143135 1.25986 73 65 46 
-0.298541 0.158368 1.31061 8 0 0 
-0.0533858 0.118374 1.17229 89 80 73 
-0.254263 0.147957 1.24378 61 43 19 
-0.0756869 0.125144 1.16907 15 9 0 
-0.109527 0.134042 1.16616 19 15 3 
-0.0684132 0.1327 1.16462 106 92 89 
-0.294326 0.174039 1.29755 135 123 111 
-0.276594 0.167519 1.26481 29 20 5 
-0.0963936 0.13684 1.16192 12 5 0 
-0.255467 0.162271 1.23936 80 68 42 
-0.113185 0.145246 1.16082 118 109 100 
-0.288086 0.180638 1.27782 109 93 77 
-0.284526 0.189486 1.26664 34 21 2 
-0.246416 0.178983 1.21972 36 24 0 
-0.263305 0.184096 1.23686 160 152 129 
-0.271587 0.196591 1.24381 74 62 48 
-0.206099 0.184207 1.18288 48 30 6 
-0.154214 0.17573 1.15518 108 101 93 
-0.265938 0.203525 1.23107 120 111 96 
-0.131787 0.179121 1.1487 18 9 0 
-0.105506 0.179738 1.14205 33 26 16 
-0.305109 0.225743 1.28941 54 45 30 
-0.276859 0.213461 1.2396 67 58 41 
-0.0741492 0.179187 1.1386 114 103 97 
-0.254915 0.208461 1.2144 139 131 112 
-0.289172 0.228171 1.25315 53 46 30 
-0.292454 0.244493 1.25306 45 34 16 
-0.299924 0.248258 1.26515 56 48 25 
-0.28548 0.248715 1.23494 103 94 77 
-0.169281 0.221028 1.14071 13 9 0 
-0.269737 0.249388 1.21015 61 54 28 
-0.0564856 0.216512 1.11816 24 19 13 
-0.281601 0.256555 1.22354 64 53 35 
-0.257667 0.252277 1.1938 51 44 25 
-0.247073 0.248388 1.18149 53 44 29 
-0.137584 0.22938 1.12113 24 14 5 
-0.254924 0.258474 1.1847 60 47 30 
-0.215015 0.247704 1.15227 114 110 98 
-0.129742 0.239382 1.11314 17 13 2 
-0.260082 0.268451 1.18766 146 140 126 
-0.24574 0.262966 1.17179 13 4 0 
-0.227654 0.261106 1.15482 48 36 24 
-0.2727 0.278775 1.19872 59 50 33 
-0.13911 0.250288 1.11011 113 102 96 
-0.31022 0.3043 1.26194 113 107 91 
-0.264929 0.282157 1.18522 66 50 34 
-0.257575 0.284939 1.17406 126 120 106 
-0.270369 0.300029 1.18298 19 10 0 
-0.163293 0.272964 1.10628 28 24 12 
-0.277245 0.305495 1.19055 92 86 74 
-0.134209 0.272101 1.09542 127 123 114 
-0.277021 0.31434 1.18222 46 37 22 
-0.268766 0.310958 1.17272 122 114 101 
-0.291574 0.330358 1.20364 28 19 2 
-0.282562 0.327338 1.17969 48 41 25 
-0.234372 0.312087 1.12069 122 118 106 
-0.266047 0.325376 1.15019 57 47 35 
-0.15963 0.302197 1.07467 118 115 106 
-0.236817 0.324965 1.11166 21 17 6 
-0.317588 0.369603 1.21366 123 121 109 
-0.281894 0.34775 1.14947 61 54 44 
-0.261751 0.342861 1.12547 113 109 98 
-0.30677 0.369437 1.17769 122 115 99 
-0.293108 0.363392 1.15534 28 22 10 
-0.276693 0.356435 1.13479 27 18 3 
-0.26192 0.356174 1.11614 51 41 31 
-0.146902 0.333798 1.0462 81 78 73 
-0.273019 0.371589 1.11971 54 41 24 
-0.277094 0.382172 1.11964 126 119 103 
-0.273711 0.389909 1.11229 122 113 98 
-0.267202 0.386441 1.10415 61 49 35 
-0.0530633 0.359675 1.02108 133 132 127 
-0.143299 0.365575 1.02919 38 29 22 
-0.261366 0.39631 1.09046 47 40 30 
-0.179265 -0.309734 1.40744 19 17 18 
-0.203315 -0.281234 1.40491 11 8 3 
-0.2909 -0.277684 1.49224 10 6 3 
-0.0242626 -0.17714 1.33269 35 26 19 
-0.0615047 -0.166303 1.32428 97 85 73 
-0.231426 -0.132426 1.26166 43 33 24 
-0.252027 -0.11218 1.37727 142 134 123 
-0.0523597 -0.0568834 1.26646 35 25 15 
-0.27883 -0.0135867 1.36248 54 44 32 
-0.0662775 -0.0151652 1.24309 102 91 85 
-0.257954 0.0312721 1.31032 30 18 6 
-0.248073 0.0542521 1.28673 126 114 100 
-0.288817 0.0914326 1.32592 51 39 23 
-0.187975 0.0763187 1.22685 27 9 0 
-0.104105 0.0937076 1.18714 107 94 85 
-0.0902221 0.0954898 1.18629 115 104 98 
-0.103014 0.111352 1.17869 7 0 0 
-0.121176 0.119586 1.17615 144 132 118 
-0.279172 0.193979 1.2564 146 133 114 
-0.132891 0.194377 1.13938 21 11 1 
-0.309796 0.261242 1.2827 153 140 124 
-0.0747662 0.210347 1.12324 136 132 121 
-0.288001 0.267354 1.2328 134 125 108 
-0.0339917 0.233185 1.11063 71 66 62 
-0.100692 0.269399 1.08979 28 19 14 
-0.191467 0.286233 1.11013 134 130 119 
-0.0309188 0.279821 1.08029 1 0 0 
-0.277207 -0.225237 1.44718 88 84 83 
-0.279542 0.0927665 1.30689 27 19 6 
-0.250626 0.121159 1.25275 58 42 27 
-0.0903181 0.16673 1.14557 14 7 0 
-0.28321 0.234571 1.24016 154 147 129 
-0.0479477 0.221816 1.11515 6 2 0 
-0.117532 0.235995 1.1138 23 14 5 
-0.0711289 0.248671 1.09896 23 16 8 
-0.0469439 0.254133 1.10028 5 2 0 
-0.264236 0.294152 1.17317 39 32 16 
-0.238101 0.285363 1.14904 19 15 3 
-0.123145 0.285742 1.07623 107 102 98 
-0.311477 0.384786 1.17708 66 60 44 
-0.311139 -0.202775 1.48644 96 91 85 
-0.233626 0.0663256 1.26369 19 12 4 
-0.0593286 0.194961 1.13171 20 15 12 
-0.201416 0.294866 1.10934 24 22 10 
-0.0803348 -0.248566 1.36699 70 69 65 
-0.0643861 -1.18664 2.18704 32 31 27 
-0.183025 -0.30712 1.41831 6 3 0 
-0.076519 -0.289521 1.37378 108 107 105 
0.0211786 -0.284784 1.38446 28 24 21 
-0.0392046 -0.220807 1.35444 2 2 0 
-0.111064 -0.198968 1.3475 31 28 23 
-0.0816494 -0.16457 1.32421 83 74 65 
-0.00988425 -0.155492 1.32446 86 82 79 
-0.182092 -0.144079 1.34805 13 6 0 
-0.0739897 -0.124393 1.30215 101 91 81 
-0.0952541 -0.118199 1.30103 10 0 0 
-0.0781994 -0.103745 1.29175 25 17 14 
0.0020549 -0.101121 1.29764 15 10 6 
-0.0761575 -0.0244488 1.24969 32 19 10 
-0.00122193 -0.0150185 1.24872 9 4 0 
-0.200941 0.0105108 1.27911 34 30 18 
-0.206424 0.0359793 1.271 103 93 83 
0.00530076 0.0639752 1.20952 15 8 2 
-0.0550488 0.0960809 1.18304 7 0 0 
-0.101933 0.120931 1.17308 115 101 92 
-0.124747 0.229779 1.11862 22 11 5 
-0.1704 0.236948 1.13359 112 108 99 
-0.0424845 0.24499 1.10104 89 88 86 
-0.177993 0.289641 1.10011 17 6 0 
-0.196165 0.312634 1.08993 50 47 40 
-0.207954 0.326475 1.0868 22 17 13 
-0.0658296 0.451047 0.914888 30 23 13 
-0.019002 -0.164689 1.32639 71 65 67 
-0.0468816 -0.0698095 1.27131 113 102 96 
-0.0717473 -0.0573734 1.26612 102 98 87 
-0.0359468 0.0762689 1.19524 6 1 0 
-0.153091 0.207437 1.14049 131 122 113 
-0.217544 0.333318 1.09154 112 103 94 
-0.0674445 0.33748 1.03063 110 104 104 
-0.00074379 -0.166266 1.33171 91 87 88 
-0.118117 -0.159071 1.32975 105 97 86 
-0.209558 -0.0126601 1.29659 18 9 0 
-0.0185755 0.309204 1.04935 88 87 85 
-0.0492052 0.456132 0.910357 100 95 89 
-0.0908086 0.383908 1.00248 108 107 103 
-0.166566 0.178025 1.16474 7 0 0 
-0.114033 -0.594371 1.66541 136 127 122 
-0.107979 -0.48042 1.54896 37 29 18 
-0.216025 -0.308896 1.44153 3 0 0 
-0.191506 -0.303338 1.42138 33 31 19 
-0.242253 -0.3031 1.45461 110 107 102 
-0.20325 -0.288399 1.42142 33 23 21 
-0.145864 -0.277175 1.38328 8 5 0 
-0.169282 -0.272018 1.39057 108 101 93 
-0.241574 -0.248268 1.42816 2 1 0 
-0.11928 -0.226241 1.36517 102 94 91 
-0.17256 -0.223406 1.3855 94 94 86 
-0.148907 -0.215923 1.36917 97 92 89 
-0.00489307 -0.221345 1.36413 82 79 74 
-0.218034 -0.20472 1.40619 26 17 8 
-0.0134325 -0.21314 1.35658 15 12 5 
-0.158565 -0.194368 1.36258 103 95 92 
-0.0847384 -0.196035 1.3428 101 92 85 
-0.100084 -0.193693 1.34669 98 89 82 
-0.149651 -0.179879 1.35117 24 17 9 
-0.0957363 -0.181413 1.33856 82 75 69 
-0.0307227 -0.185432 1.33831 103 98 95 
-0.0650629 -0.181743 1.33511 124 120 109 
-0.131386 -0.173035 1.34074 80 73 63 
-0.0516455 -0.173655 1.33009 109 105 94 
-0.161629 -0.164405 1.34888 72 67 63 
-0.138935 -0.164449 1.3402 7 4 0 
-0.247544 -0.157942 1.41098 17 8 0 
-0.100293 -0.164391 1.32925 107 97 85 
-0.130582 -0.156175 1.33269 41 33 22 
-0.0972209 -0.154934 1.32375 126 116 107 
0.0065898 -0.16325 1.33599 94 89 83 
-0.0901471 -0.148439 1.32063 20 11 4 
-0.108488 -0.14592 1.32102 107 97 87 
-0.132108 -0.143186 1.32456 119 111 98 
-0.0800015 -0.147188 1.31767 123 113 104 
-0.159406 -0.139708 1.33282 109 105 96 
-0.141939 -0.135918 1.32505 7 3 0 
-0.12184 -0.135085 1.31685 45 35 25 
-0.0852792 -0.13809 1.31196 108 96 84 
-0.11228 -0.128301 1.31279 22 13 4 
-0.091652 -0.128346 1.30774 54 49 45 
-0.221306 -0.117187 1.36308 85 81 69 
0.00694568 -0.131712 1.31968 94 84 82 
-0.115631 -0.119302 1.309 110 100 90 
-0.211151 -0.113093 1.35231 106 96 87 
-0.0477495 -0.112165 1.29805 20 12 1 
-0.0706943 -0.109371 1.29648 114 105 98 
-0.0567996 -0.0938889 1.28792 128 116 104 
-0.0973348 -0.0886558 1.28733 118 109 92 
-0.210409 -0.0696209 1.32895 20 10 0 
-0.0258359 -0.0831176 1.28497 26 19 9 
-0.0838453 -0.0733859 1.27815 100 92 81 
0.00356312 -0.072689 1.28643 10 0 0 
-0.0857068 -0.0581909 1.26831 32 26 14 
-0.102662 -0.0543983 1.27037 40 27 8 
-0.0976974 -0.0440431 1.26383 11 0 0 
-0.169802 -0.0371377 1.28445 125 113 91 
-0.0586606 -0.0449719 1.26257 31 21 9 
-0.222843 -0.0251393 1.31318 105 96 79 
-0.134825 -0.0276442 1.27929 144 114 104 
0.00208202 -0.037843 1.26482 79 72 66 
-0.188794 -0.0142647 1.28254 82 75 57 
-0.0787085 -0.0102124 1.24277 8 0 0 
-0.0151689 -0.0142814 1.24964 10 0 0 
-0.132231 -0.00344265 1.26625 109 74 68 
-0.191872 0.00370196 1.2752 11 2 0 
-0.0818187 -0.000951817 1.23859 21 12 0 
-0.212548 0.0155091 1.28403 33 21 7 
-0.0235825 -0.00145215 1.24212 7 0 0 
-0.0594828 0.00928872 1.23245 45 39 27 
-0.0719452 0.0110949 1.23184 14 6 0 
-0.19818 0.0253853 1.26722 55 45 35 
-0.101693 0.0171071 1.23171 38 26 10 
-0.0825065 0.0199909 1.22617 106 96 84 
-0.182295 0.0346551 1.25301 29 13 0 
-0.0824325 0.0336503 1.22058 27 22 16 
-0.0956548 0.038274 1.21907 49 40 23 
-0.0544019 0.0363799 1.21791 97 87 77 
-0.190685 0.0535772 1.24888 30 18 0 
-0.220486 0.0708953 1.26274 13 0 0 
-0.0311076 0.0566099 1.21016 42 38 27 
-0.212525 0.0863133 1.24524 17 7 0 
-0.220541 0.0946309 1.24818 41 28 12 
-0.1006 0.0802395 1.19872 124 112 100 
-0.0762984 0.0883984 1.19139 129 120 113 
-0.0481577 0.0873051 1.1916 99 95 86 
-0.224637 0.107615 1.24538 98 85 76 
-0.246543 0.133571 1.25282 153 138 115 
-0.21612 0.132521 1.22549 126 111 92 
-0.165482 0.124485 1.19534 10 0 0 
-0.0887399 0.120017 1.17523 6 0 0 
-0.130499 0.124225 1.18136 145 137 126 
-0.142629 0.12735 1.18357 7 0 0 
-0.135384 0.134162 1.17549 45 37 26 
-0.189893 0.144599 1.19794 162 150 134 
-0.235549 0.155304 1.22793 29 25 14 
-0.160254 0.15112 1.17838 7 0 0 
-0.202855 0.159165 1.2003 15 3 0 
-0.170377 0.154395 1.18136 147 133 120 
-0.074766 0.150055 1.15664 107 100 92 
-0.114332 0.158393 1.15753 142 132 122 
-0.176617 0.167154 1.17856 135 125 113 
-0.20041 0.171201 1.19061 52 40 24 
-0.191961 0.17083 1.18504 119 106 90 
-0.107095 0.164934 1.1528 14 6 0 
-0.155973 0.186401 1.15791 12 0 0 
-0.119629 0.184269 1.14529 156 149 139 
-0.0969141 0.186712 1.14074 15 6 0 
-0.0549837 0.184396 1.13839 7 0 0 
-0.111987 0.19969 1.13757 11 6 0 
-0.2114 0.215819 1.17659 155 137 123 
-0.13222 0.205826 1.13799 17 7 0 
-0.154403 0.224668 1.13706 123 113 101 
-0.142232 0.223073 1.13178 166 158 147 
-0.0954198 0.252769 1.10012 11 4 0 
-0.190312 0.275717 1.1252 40 36 24 
-0.0891783 0.270646 1.09063 136 131 125 
-0.218884 0.306303 1.11808 10 0 0 
-0.187348 0.304794 1.09454 13 5 0 
-0.0927588 0.296515 1.06451 106 102 101 
-0.0492148 0.300502 1.0559 6 0 0 
-0.0952991 0.305278 1.05616 10 2 0 
-0.237206 0.362708 1.09414 126 119 111 
-0.229464 0.364916 1.08471 43 37 25 
-0.149968 0.348768 1.04402 117 113 102 
-0.209557 0.369044 1.06877 128 121 111 
-0.201647 0.393961 1.04795 156 153 144 
-0.221021 0.432611 1.02185 122 119 114 
0.0701271 -0.610199 1.6833 18 10 8 
0.0205729 -0.174724 1.34595 88 87 85 
0.0661862 -0.178176 1.36851 28 24 21 
0.0471285 -0.153236 1.34677 99 98 94 
-0.105684 -0.113218 1.30169 16 6 0 
-0.0103283 -0.104845 1.30094 88 79 70 
-0.0877592 -0.0959672 1.28891 97 88 79 
0.0243402 -0.091148 1.30454 13 3 0 
0.0173117 -0.0846495 1.29567 21 17 6 
-0.181708 -0.0571731 1.30092 99 89 79 
0.0109997 -0.0610815 1.28179 29 19 10 
-0.184619 -0.0353604 1.29083 101 89 73 
-0.0667883 -0.0286798 1.25241 49 39 29 
-0.0928128 -0.000508677 1.23974 93 80 71 
-0.01375 0.0295223 1.22804 105 100 94 
-0.0395805 0.0468991 1.21382 28 19 12 
0.0151478 0.0485226 1.22337 79 76 71 
0.00241216 0.0508544 1.21875 81 77 74 
-0.0514796 0.0784171 1.19694 6 0 0 
0.0233268 0.103788 1.19856 104 93 87 
-0.114119 0.175597 1.14882 28 17 13 
-0.141268 0.180653 1.15589 145 141 130 
-0.0859622 0.179462 1.14143 19 10 3 
-0.107076 0.190933 1.13818 33 29 18 
-0.0871726 0.190021 1.13648 41 32 23 
-0.199746 0.247038 1.14752 107 98 91 
-0.149872 0.244813 1.12123 7 0 0 
-0.148552 0.263294 1.11133 13 4 0 
-0.186001 0.283949 1.11673 37 29 18 
-0.238057 0.316144 1.13012 122 114 103 
-0.091613 0.320474 1.04567 8 1 0 
-0.18079 -0.293652 1.41009 9 5 0 
-0.112026 -0.231745 1.36102 89 85 82 
-0.0246974 -0.228457 1.36315 92 89 82 
-0.0246401 -0.214416 1.35372 49 40 35 
-0.082779 -0.179225 1.33394 101 97 88 
-0.0359591 -0.131826 1.31062 88 78 69 
-0.0305064 -0.0995889 1.29299 158 151 141 
-0.00160927 -0.0863981 1.29061 13 6 0 
-0.0388821 -0.0622591 1.27186 107 98 89 
-0.0229685 -0.0230085 1.25436 6 0 0 
0.00856318 -0.0235408 1.2599 9 6 0 
-0.0461263 0.00903802 1.23205 22 15 7 
-0.0478439 0.0223836 1.22314 8 2 0 
-0.0726329 0.0259722 1.22305 99 92 86 
-0.179936 0.0920266 1.22186 39 30 13 
-0.0348378 0.141761 1.16389 13 9 0 
-0.223016 0.194977 1.19794 151 135 119 
-0.0309074 0.193905 1.1367 116 112 103 
-0.175348 0.217037 1.15057 108 99 90 
-0.228491 0.228311 1.18188 25 15 5 
-0.0342781 0.207425 1.1296 92 85 79 
-0.0587033 0.245775 1.10437 6 1 0 
-0.066004 0.295082 1.0633 5 2 0 
-0.19515 0.401676 1.03556 94 90 87 
-0.133482 0.390707 1.01193 17 14 9 
-0.0345887 -0.297621 1.38666 3 0 0 
-0.157289 -0.268226 1.39078 81 77 74 
-0.0874143 -0.236877 1.36572 2 2 2 
-0.109663 0.288072 1.07503 132 125 115 
-0.0128474 0.347171 1.03794 20 15 11 
-0.182247 0.182873 1.17704 16 6 0 
-0.0946138 0.229146 1.11273 98 94 85 
-0.190376 0.424267 1.00705 94 91 86 
-0.0261426 -0.250377 1.36944 60 56 53 
-0.0182597 -1.31225 2.28461 219 220 224 
-0.0519615 -1.30034 2.28245 49 53 62 
-0.0678349 -1.18182 2.17389 42 37 33 
-0.0324025 -1.18455 2.17194 57 56 52 
-0.0891757 -1.17069 2.19902 26 22 21 
-0.0617204 -1.06674 2.09988 40 38 26 
-0.0591555 -1.04872 2.08117 25 20 17 
-0.089425 -1.00074 2.0483 19 15 16 
-0.0555847 -0.974935 2.00579 92 85 79 
-0.0410738 -0.915323 1.9452 126 119 109 
-0.0729689 -0.881358 1.92527 44 40 29 
-0.0387885 -0.863532 1.89271 141 131 121 
-0.0418082 -0.840608 1.8703 134 127 111 
-0.0855582 -0.801014 1.8497 116 107 100 
-0.038142 -0.787933 1.81412 73 61 47 
-0.0564661 -0.769924 1.80616 114 104 95 
-0.119555 -0.755924 1.82187 45 35 26 
-0.0542962 -0.743432 1.77652 39 30 23 
-0.0393098 -0.720689 1.74743 132 122 112 
-0.130523 -0.716492 1.78663 100 96 87 
-0.157415 -0.712229 1.79163 31 24 14 
-0.0864764 -0.684856 1.73373 143 133 123 
-0.167996 -0.668507 1.75019 138 135 126 
-0.0491016 -0.642725 1.6744 16 11 8 
-0.0380035 -0.640176 1.66451 31 24 14 
-0.123698 -0.628113 1.69179 10 5 1 
-0.111795 -0.624373 1.68277 66 61 55 
-0.178132 -0.605936 1.69318 117 108 103 
-0.140016 -0.610647 1.68616 99 90 81 
-0.0984637 -0.588579 1.6451 124 119 113 
0.0457668 -0.617856 1.66445 34 21 15 
0.0562567 -0.618862 1.67263 107 98 93 
-0.10872 -0.572644 1.63279 27 22 19 
-0.117909 -0.566375 1.6287 79 76 71 
-0.0695549 -0.554934 1.59679 117 113 104 
-0.152427 -0.545285 1.62327 22 19 14 
-0.161411 -0.505339 1.58943 123 116 106 
-0.135407 -0.498546 1.57115 88 83 79 
-0.167002 -0.493332 1.58015 39 35 26 
-0.197385 -0.481402 1.57964 116 110 98 
-0.131746 -0.473343 1.543 134 130 121 
-0.19892 -0.466262 1.56649 27 25 13 
-0.213151 -0.461277 1.56834 24 16 13 
-0.150603 -0.441202 1.52212 125 120 114 
-0.0958756 -0.445322 1.50296 115 111 108 
-0.116298 -0.43974 1.50594 99 94 91 
-0.189405 -0.421622 1.51879 102 97 93 
-0.1147 -0.42459 1.49183 30 27 22 
-0.0593915 -0.421777 1.45686 39 35 32 
-0.122339 -0.413896 1.48083 121 118 113 
-0.231579 -0.393936 1.50871 123 119 110 
-0.0506409 -0.378277 1.40918 47 42 38 
-0.127595 -0.363881 1.41572 17 13 10 
-0.216758 -0.356991 1.45457 31 28 23 
-0.230928 -0.355957 1.46572 26 23 16 
-0.241374 -0.348428 1.4688 85 85 75 
-0.182628 -0.34594 1.41579 138 129 120 
0.0148689 -0.371603 1.41797 31 28 21 
-0.0812573 -0.330961 1.3932 14 11 6 
-0.165144 -0.319265 1.40437 87 83 80 
-0.0822371 -0.324443 1.38639 1 0 0 
-0.0318736 -0.333214 1.39255 91 87 84 
-0.135082 -0.313204 1.38932 13 8 4 
-0.0137613 -0.331533 1.39502 18 18 10 
-0.0399007 -0.319966 1.38536 22 15 7 
-0.172266 -0.299208 1.39636 46 43 34 
-0.162145 -0.300088 1.39253 109 105 102 
-0.259745 -0.293944 1.4612 29 25 16 
-0.157081 -0.29394 1.38538 43 40 33 
-0.0151655 -0.310842 1.38331 151 144 136 
-0.151745 -0.287973 1.38006 35 30 27 
-0.0314433 -0.302468 1.37507 107 102 99 
-0.0489982 -0.298398 1.37017 33 32 28 
-0.270423 -0.277083 1.46297 18 13 7 
-0.136483 -0.280559 1.36646 9 2 0 
-0.107949 -0.282737 1.36866 30 27 20 
-0.194127 -0.273218 1.39501 48 45 38 
-0.256582 -0.270791 1.44521 6 1 0 
-0.07177 -0.280223 1.36374 19 14 10 
-0.191651 -0.263846 1.38863 10 1 0 
-0.248789 -0.260296 1.43161 5 2 0 
-0.0364714 -0.273096 1.36003 75 73 74 
-0.230961 -0.250833 1.40887 64 61 54 
0.0532003 -0.286095 1.39742 105 100 97 
0.000316575 -0.274184 1.36739 110 107 102 
0.0317821 -0.268706 1.37902 61 60 58 
-0.0390169 -0.248728 1.35043 63 62 58 
-0.293829 -0.223976 1.47208 83 79 70 
0.0153266 -0.232486 1.36977 97 94 89 
-0.052945 -0.21828 1.34883 122 117 114 
-0.234971 -0.196466 1.3985 113 110 103 
0.0335108 -0.224026 1.37319 66 63 56 
-0.206296 -0.185778 1.37326 88 81 75 
-0.129938 -0.188983 1.33828 130 121 114 
-0.19189 -0.175061 1.35764 31 23 20 
-0.253669 -0.16695 1.41109 5 1 0 
-0.264565 -0.164372 1.42355 20 11 4 
-0.189646 -0.165949 1.35324 97 93 84 
-0.201685 -0.163874 1.36095 100 97 88 
-0.0125603 -0.182442 1.33155 75 71 70 
-0.180588 -0.156775 1.34146 100 91 84 
-0.290135 -0.148025 1.45423 36 27 18 
-0.043437 -0.169523 1.32168 12 11 6 
-0.196014 -0.15238 1.35106 32 23 14 
-0.147473 -0.15582 1.32825 26 16 7 
-0.221047 -0.146236 1.36524 95 91 82 
-0.248173 -0.142586 1.3908 23 19 10 
-0.226631 -0.137885 1.36682 78 69 60 
-0.144316 -0.145505 1.32036 85 75 65 
-0.253945 -0.130907 1.39054 113 105 94 
-0.100726 -0.141868 1.30441 26 19 11 
-0.0225838 -0.15034 1.31601 117 110 100 
-0.295194 -0.123944 1.45256 24 16 5 
-0.0366397 -0.14657 1.31164 89 79 77 
-0.235373 -0.125 1.36223 123 123 115 
-0.288366 -0.120858 1.435 7 3 0 
-0.306423 -0.117995 1.47466 18 9 0 
-0.244695 -0.11772 1.37104 103 93 83 
-0.253475 -0.112622 1.37836 13 5 0 
-0.271078 -0.111105 1.40073 135 127 116 
-0.296177 -0.106812 1.44386 101 97 85 
-0.0153432 -0.134405 1.30819 10 5 0 
-0.258586 -0.102528 1.37919 83 73 63 
-0.232055 -0.104643 1.35267 118 109 100 
-0.225476 -0.104437 1.34572 99 89 77 
-0.029605 -0.124179 1.30092 100 96 87 
-0.288541 -0.0939441 1.42172 36 28 15 
-0.188385 -0.0984279 1.31696 124 111 103 
-0.230833 -0.0861462 1.34185 8 0 0 
-0.266165 -0.0825448 1.38034 122 110 96 
-0.279665 -0.0796555 1.40033 113 106 90 
-0.188176 -0.087679 1.31027 92 84 71 
-0.297939 -0.0758757 1.42992 124 114 104 
-0.200755 -0.0847444 1.31621 6 1 0 
-0.222711 -0.0822039 1.33293 115 106 97 
-0.230173 -0.0765646 1.33631 128 119 110 
-0.255132 -0.071546 1.35908 120 111 96 
-0.0344339 -0.0912551 1.27966 30 21 12 
-0.167174 -0.0712022 1.29112 115 104 84 
-0.221684 -0.0610869 1.3187 24 14 4 
-0.121037 -0.0722044 1.27455 78 70 51 
-0.202868 -0.0490776 1.29831 7 0 0 
-0.315944 -0.0320449 1.45434 24 14 4 
-0.258122 -0.0384206 1.34397 136 124 110 
-0.240256 -0.0336522 1.32267 126 117 102 
-0.312932 -0.0185431 1.43914 24 18 4 
-0.296773 -0.0209449 1.39597 45 36 21 
-0.271355 -0.0216352 1.35522 107 103 92 
-0.078513 -0.0441935 1.25303 175 165 155 
-0.296464 -0.010656 1.39301 33 21 7 
-0.120399 -0.0326869 1.26698 131 111 100 
-0.267865 -0.0115407 1.34608 38 30 19 
-0.227381 -0.0136575 1.29838 6 0 0 
-0.156803 -0.0210594 1.27113 19 1 0 
-0.300667 0.00415133 1.39392 130 121 106 
-0.29411 0.00316723 1.38263 16 4 0 
-0.103503 -0.0217978 1.24422 116 104 92 
-0.283646 0.00394855 1.36197 141 134 116 
-0.255733 0.00492881 1.31892 134 121 104 
-0.300378 0.0142201 1.39078 136 125 107 
-0.215114 0.00336815 1.27785 48 39 24 
-0.232799 0.00710693 1.29244 105 103 90 
-0.222927 0.00614259 1.28372 136 130 116 
-0.321948 0.0301086 1.44638 43 33 23 
-0.307598 0.0364011 1.39349 135 126 111 
-0.251116 0.0397429 1.29533 124 112 96 
-0.313891 0.0556809 1.40574 124 116 97 
-0.240052 0.0446852 1.28142 155 146 129 
-0.0896152 0.0260845 1.21619 46 34 18 
-0.200005 0.0414201 1.24908 28 17 0 
-0.225419 0.0477743 1.2679 104 92 76 
-0.159441 0.047357 1.23434 27 14 0 
-0.220746 0.0561568 1.25764 50 38 22 
-0.309286 0.0794353 1.38032 7 0 0 
-0.251191 0.0668619 1.28313 32 19 3 
-0.261214 0.06945 1.29115 55 42 33 
-0.23488 0.0648488 1.26483 10 6 0 
-0.247356 0.0754111 1.27395 147 137 125 
-0.279414 0.0868938 1.31062 126 114 100 
-0.232299 0.0836629 1.2523 19 2 0 
-0.297905 0.101047 1.33753 9 1 0 
-0.243459 0.100222 1.25591 31 17 4 
-0.243 0.110573 1.24886 11 0 0 
-0.28208 0.125675 1.29521 33 21 7 
-0.235664 0.115278 1.23702 12 2 0 
-0.132626 0.103969 1.19871 53 39 28 
-0.140035 0.105519 1.19207 51 37 24 
-0.119869 0.105499 1.18589 14 8 0 
-0.306893 0.146472 1.33722 18 6 0 
-0.295999 0.144415 1.30785 59 42 22 
-0.262072 0.145275 1.25489 141 134 108 
-0.298808 0.157798 1.3082 8 0 0 
-0.17223 0.139823 1.17961 54 44 34 
-0.315699 0.184153 1.34649 61 50 32 
-0.231161 0.154278 1.21422 26 19 1 
-0.297303 0.178558 1.29629 111 104 88 
-0.308047 0.183535 1.31716 48 35 19 
-0.235113 0.164152 1.21157 126 122 110 
-0.256585 0.171956 1.23191 140 124 101 
-0.2896 0.185033 1.27707 147 134 115 
-0.30119 0.196525 1.29723 144 133 113 
-0.110604 0.155284 1.148 14 10 0 
-0.130393 0.16436 1.14738 34 27 17 
-0.248178 0.187751 1.21622 125 108 90 
-0.168508 0.182853 1.15346 93 84 75 
-0.245233 0.20026 1.20253 170 155 134 
-0.257503 0.206664 1.21532 19 6 0 
-0.296154 0.230514 1.26495 60 47 31 
-0.236362 0.21068 1.18572 39 39 29 
-0.269361 0.222569 1.22012 141 126 107 
-0.235805 0.220251 1.18161 11 10 5 
-0.292735 0.243779 1.25063 45 34 16 
-0.278549 0.237758 1.22814 122 113 96 
-0.19995 0.223671 1.15157 124 115 106 
-0.246868 0.239968 1.18221 32 20 4 
-0.236774 0.237076 1.17299 4 0 0 
-0.178487 0.22789 1.13707 107 104 95 
-0.167086 0.226445 1.12995 15 5 0 
-0.157179 0.241891 1.11579 38 31 21 
-0.23758 0.262011 1.15999 5 0 0 
-0.156299 0.251023 1.11148 106 99 89 
-0.243264 0.299658 1.13801 125 125 117 
-0.225063 0.295864 1.12554 105 101 92 
-0.262627 0.313815 1.15173 121 113 100 
