ply                 
format ascii 1.0    
element vertex 1265
property float x    
property float y    
property float z    
property uchar red  
property uchar green
property uchar blue 
end_header          
-0.113857 0.0907481 1.22081 100 80 69 
-0.267312 0.112819 1.30703 56 43 26 
-0.221161 0.104448 1.25985 95 79 64 
-0.231141 0.109086 1.26305 21 11 1 
-0.29404 0.125042 1.34734 151 139 123 
-0.282156 0.121751 1.32477 129 120 103 
-0.29944 0.128376 1.35856 39 27 11 
-0.0139944 0.0891507 1.20714 95 86 81 
-0.248094 0.115513 1.28023 155 143 127 
-0.239673 0.113803 1.2713 14 0 0 
-0.121487 0.10101 1.21854 94 69 62 
-0.268554 0.124401 1.30287 76 65 45 
-0.254704 0.121314 1.28583 31 23 4 
-0.0505055 0.0985168 1.1975 6 0 0 
-0.302175 0.139563 1.35955 26 19 1 
-0.288235 0.134698 1.32895 75 62 45 
-0.132306 0.109174 1.21643 31 22 7 
-0.1966 0.116233 1.23269 116 100 87 
-0.261241 0.129517 1.28846 75 63 47 
-0.298176 0.141705 1.34946 83 78 58 
-0.245502 0.127457 1.27174 55 42 23 
-0.0688892 0.106332 1.1936 18 11 1 
-0.0495682 0.108455 1.19364 19 11 0 
-0.250492 0.13741 1.27079 47 36 14 
-0.284055 0.146912 1.31579 21 9 0 
-0.270844 0.142483 1.29461 64 56 33 
-0.219704 0.134636 1.24036 154 142 126 
-0.164412 0.12668 1.20865 10 0 0 
-0.0649416 0.116772 1.18722 22 13 6 
-0.235534 0.138505 1.24971 80 69 47 
-0.288359 0.155898 1.32144 22 9 0 
-0.247543 0.145227 1.26459 51 35 9 
-0.205738 0.140189 1.22828 147 132 113 
-0.271649 0.155971 1.28931 55 44 22 
-0.141789 0.13252 1.19432 107 97 85 
-0.280497 0.162287 1.30413 11 0 0 
-0.261004 0.15585 1.27378 40 26 0 
-0.0830967 0.130473 1.18268 101 96 92 
0.00256461 0.127914 1.18889 115 110 104 
-0.237167 0.153337 1.24766 40 29 9 
-0.132839 0.137225 1.19103 16 10 0 
-0.032936 0.129311 1.18104 158 154 143 
-0.28848 0.169834 1.31407 27 16 0 
-0.297106 0.17338 1.32872 141 130 112 
-0.266257 0.163031 1.27904 47 34 17 
-0.0142771 0.132565 1.1825 157 148 141 
0.0753922 0.135158 1.21787 11 7 4 
-0.172657 0.149847 1.199 59 43 30 
-0.25068 0.167474 1.25773 80 66 40 
-0.16166 0.150036 1.1931 124 112 100 
-0.309311 0.189881 1.35318 79 66 50 
-0.280554 0.177859 1.29415 8 0 0 
-0.226913 0.164608 1.23177 13 1 0 
-0.299831 0.188341 1.32964 18 8 0 
-0.264883 0.175488 1.26991 26 14 0 
-0.145767 0.155907 1.18283 106 100 88 
-0.244063 0.174198 1.24347 79 62 36 
-0.276587 0.185579 1.2827 82 68 55 
-0.292761 0.195288 1.30819 44 32 18 
-0.221306 0.174386 1.22068 17 7 0 
0.0446903 0.154087 1.18979 96 95 93 
-0.0624665 0.155786 1.16502 104 100 89 
-0.268497 0.19064 1.26928 142 122 97 
-0.260523 0.188897 1.25511 143 132 114 
-0.197856 0.174759 1.2038 135 122 105 
-0.0179777 0.156697 1.16867 86 77 70 
-0.251297 0.186716 1.24476 149 133 118 
-0.177393 0.171155 1.19064 11 0 0 
-0.150233 0.170044 1.17911 34 24 14 
-0.273478 0.199054 1.27354 73 61 45 
-0.292089 0.206899 1.29862 117 108 93 
-0.261981 0.199512 1.25596 62 46 23 
-0.00480981 0.167439 1.1663 12 2 0 
-0.297664 0.216005 1.30894 14 2 0 
-0.230755 0.193153 1.21995 121 114 104 
-0.189632 0.186999 1.19157 12 0 0 
-0.0898557 0.174103 1.15781 153 144 135 
0.0212071 0.171282 1.17001 88 83 79 
-0.28884 0.217974 1.29124 46 35 17 
-0.274566 0.211198 1.26383 64 52 38 
-0.262204 0.207592 1.24865 140 129 111 
-0.00664552 0.17642 1.16049 92 89 82 
-0.0316038 0.179948 1.15454 134 127 121 
-0.230713 0.205802 1.21273 57 45 29 
-0.288037 0.225451 1.28322 9 0 0 
-0.25465 0.213597 1.23665 151 138 121 
-0.141487 0.192316 1.16549 43 33 23 
-0.264986 0.217466 1.24536 26 13 0 
-0.276036 0.225936 1.26202 139 130 113 
-0.28551 0.231319 1.27479 29 17 3 
-0.24206 0.215835 1.21648 158 148 123 
-0.223679 0.214576 1.20188 35 17 0 
-0.157674 0.204281 1.16356 38 29 20 
-0.267963 0.230525 1.24245 149 135 109 
-0.283984 0.238152 1.26595 38 30 17 
0.0651994 0.192028 1.15634 75 71 70 
-0.232325 0.222178 1.2057 23 20 11 
-0.00811132 0.197958 1.14782 102 97 94 
-0.153393 0.210325 1.15605 8 0 0 
-0.26265 0.236291 1.23418 156 144 128 
-0.13461 0.209165 1.15082 116 107 98 
-0.0793043 0.203691 1.14047 13 2 0 
-0.275813 0.244852 1.2531 139 126 109 
-0.227464 0.227744 1.19683 24 12 0 
-0.300153 0.256341 1.29404 161 148 131 
-0.256141 0.23831 1.22482 148 134 121 
-0.293322 0.253648 1.27746 158 146 122 
-0.246623 0.23618 1.21515 33 23 13 
-0.218071 0.23133 1.18771 78 72 56 
-0.307966 0.267951 1.30576 156 145 127 
-0.274098 0.251769 1.24229 60 44 29 
-0.195938 0.22952 1.16741 21 13 2 
-0.281681 0.256551 1.2508 62 53 36 
-0.259856 0.248497 1.22441 34 22 6 
-0.0172274 0.213114 1.13724 85 78 70 
-0.233319 0.240948 1.19355 4 2 0 
-0.0766504 0.217346 1.13338 24 17 7 
-0.173353 0.23331 1.15432 26 20 8 
-0.266394 0.259266 1.22641 146 139 120 
-0.278366 0.267249 1.24269 91 82 65 
-0.255214 0.258034 1.21236 48 36 20 
-0.245252 0.255402 1.20097 137 125 109 
-0.0246649 0.225063 1.13138 76 68 66 
-0.233563 0.255861 1.18787 47 39 26 
-0.168838 0.240544 1.14503 129 122 112 
-0.182945 0.24419 1.15338 34 31 16 
-0.252515 0.264155 1.20248 59 46 27 
-0.275198 0.276298 1.23177 25 17 4 
-0.308242 0.29481 1.28875 35 26 9 
-0.241331 0.264393 1.19049 140 133 117 
-0.26819 0.274947 1.2191 152 144 121 
-0.0924321 0.238842 1.1219 23 13 11 
-0.00811724 0.237003 1.1274 69 65 62 
-0.152135 0.247837 1.13456 35 26 17 
-0.25784 0.274193 1.2052 145 137 124 
-0.249163 0.270625 1.19404 129 117 103 
-0.278548 0.288467 1.23272 126 114 100 
-0.265694 0.282529 1.21228 66 56 44 
-0.22978 0.270586 1.17386 125 112 96 
-0.255121 0.280358 1.19569 119 110 95 
-0.153318 0.25738 1.12953 20 11 2 
-0.313209 0.316226 1.29576 35 30 11 
-0.265849 0.291276 1.20644 77 65 41 
-0.246401 0.288383 1.18109 126 115 97 
-0.151289 0.266213 1.12253 104 95 86 
-0.139999 0.266479 1.11823 41 32 23 
-0.0825281 0.262198 1.10709 102 93 86 
-0.308433 0.327944 1.27685 49 37 15 
-0.255478 0.299696 1.18951 62 51 33 
0.0481004 0.260773 1.11102 13 8 4 
-0.243668 0.297234 1.17333 101 93 80 
-0.22722 0.292645 1.15977 30 20 8 
-0.0521745 0.267524 1.10221 34 29 23 
-0.276742 0.316445 1.2154 123 113 101 
-0.234887 0.301073 1.16155 106 98 87 
0.0551328 0.270966 1.11022 120 115 111 
-0.221365 0.300484 1.14838 113 106 96 
-0.266474 0.318218 1.19156 120 112 99 
-0.272997 0.321746 1.1997 45 35 25 
-0.0381395 0.276786 1.09569 177 170 162 
-0.311553 0.349414 1.27264 155 146 131 
-0.058904 0.277738 1.09339 6 1 0 
-0.241874 0.308398 1.1564 158 155 146 
-0.176003 0.291493 1.11532 43 36 28 
-0.151432 0.287833 1.10354 137 129 118 
-0.287454 0.336516 1.21789 123 111 97 
-0.259695 0.321223 1.17515 19 13 0 
-0.166447 0.294471 1.1051 38 32 20 
-0.213909 0.30696 1.13109 58 52 38 
-0.309819 0.356953 1.26356 44 34 22 
-0.23706 0.314373 1.14742 39 32 24 
-0.223231 0.310231 1.1376 131 122 113 
0.0471095 0.285292 1.09878 19 18 14 
-0.125729 0.290987 1.08945 115 112 105 
-0.141616 0.295386 1.09236 90 85 79 
-0.0537456 0.287784 1.08179 30 25 19 
-0.279419 0.337454 1.19477 53 43 31 
-0.207114 0.309868 1.12386 146 138 127 
-0.272097 0.33376 1.18291 28 20 9 
-0.257863 0.326462 1.16254 133 123 111 
-0.133027 0.298125 1.08503 91 92 87 
-0.265759 0.33467 1.16965 132 122 110 
-0.0953075 0.294478 1.07595 106 103 98 
-0.186886 0.309769 1.10615 13 5 0 
-0.167243 0.304786 1.09345 142 140 128 
-0.241759 0.325875 1.13984 30 21 14 
0.0255446 0.296066 1.08425 38 38 28 
-0.254756 0.333841 1.15278 127 114 97 
-0.208293 0.319945 1.11228 36 27 18 
-0.274423 0.345129 1.1735 35 23 9 
-0.28716 0.35154 1.18707 20 11 4 
-0.200366 0.317537 1.10163 36 28 17 
-0.0362361 0.300558 1.07178 15 15 5 
-0.0231926 0.301086 1.07334 0 1 0 
-0.294944 0.360014 1.1997 28 22 10 
-0.261335 0.342123 1.14964 148 138 128 
-0.249181 0.33719 1.13737 54 56 42 
-0.178438 0.318094 1.08987 116 108 105 
-0.0941301 0.306861 1.0666 124 121 114 
-0.280139 0.35454 1.17027 56 44 30 
-0.210303 0.328079 1.10542 141 132 123 
-0.286486 0.359168 1.17825 62 52 40 
-0.220913 0.33343 1.1133 12 3 0 
-0.304519 0.372404 1.20699 33 25 14 
-0.263877 0.352138 1.14287 77 69 58 
-0.250522 0.346856 1.12651 65 66 58 
-0.284595 0.364106 1.16729 40 30 18 
0.0127248 0.314489 1.06865 40 36 33 
-0.276633 0.360674 1.15649 60 51 36 
-0.216961 0.338554 1.10306 115 111 100 
-0.291239 0.372176 1.17499 25 18 8 
-0.0710239 0.317271 1.05589 78 73 67 
-0.195845 0.335824 1.08753 106 97 88 
-0.261881 0.36043 1.13579 48 38 28 
-0.0424944 0.32004 1.05564 87 82 79 
-0.252606 0.357385 1.12868 109 105 93 
-0.318694 0.3968 1.21974 23 17 5 
-0.306619 0.387342 1.19696 49 41 30 
-0.287058 0.375616 1.16602 40 28 14 
-0.0880531 0.324434 1.0566 84 79 73 
-0.225124 0.349595 1.10431 40 30 21 
-0.123292 0.330017 1.05882 11 7 0 
-0.273195 0.370123 1.14412 69 59 49 
-0.143515 0.336724 1.05821 13 10 3 
-0.26628 0.376865 1.13633 142 130 116 
-0.0141211 0.338072 1.0522 6 1 0 
-0.301186 0.402431 1.17676 136 124 110 
-0.262904 0.379552 1.12455 135 125 115 
-0.144036 0.347932 1.0542 28 24 13 
-0.212153 0.365847 1.08474 117 107 98 
-0.293778 0.401041 1.16114 139 132 116 
-0.274973 0.391018 1.13785 121 109 95 
-0.106671 0.352322 1.04253 53 44 37 
-0.274015 0.400075 1.13245 121 109 95 
-0.26486 0.3954 1.12204 70 58 44 
-0.165677 0.363431 1.05625 33 30 21 
-0.303343 0.4179 1.16897 133 121 109 
-0.287347 0.409765 1.15067 49 42 26 
-0.259394 0.398277 1.1135 117 107 95 
-0.227989 0.388553 1.08623 129 119 109 
-0.268456 0.406056 1.11985 56 42 31 
-0.17872 0.376409 1.054 68 59 50 
-0.252991 0.402912 1.10092 93 84 79 
-0.221605 0.39416 1.07629 147 143 132 
-0.146803 0.3776 1.03915 37 33 24 
-0.253706 0.415039 1.09625 46 38 27 
-0.172765 0.390348 1.04541 33 29 20 
-0.0914508 0.378639 1.02594 98 93 87 
-0.20158 0.399214 1.05731 156 153 144 
-0.127027 0.384079 1.0279 15 15 5 
-0.179786 0.399721 1.04239 19 16 7 
-0.155931 0.397917 1.03051 97 94 87 
-0.133421 0.395813 1.02125 11 8 3 
-0.0466336 -0.523982 1.57836 97 93 84 
-0.0877071 -0.507208 1.57709 43 34 27 
-0.168178 -0.474362 1.58359 167 162 156 
-0.136484 -0.409742 1.49591 52 49 42 
0.127926 -0.43292 1.58802 8 7 3 
0.0655206 -0.331803 1.4394 27 22 19 
-0.135134 -0.29784 1.40801 22 19 14 
0.0437214 -0.314513 1.42243 25 23 24 
-0.168988 -0.287229 1.41419 20 15 11 
-0.10154 -0.288292 1.39071 22 21 16 
0.142745 -0.323451 1.4868 66 65 63 
0.103769 -0.314155 1.45442 27 23 14 
0.130338 -0.315359 1.47343 24 19 16 
-0.194091 -0.258926 1.41426 77 76 72 
-0.274094 -0.230364 1.47714 111 104 96 
0.135007 -0.255362 1.44986 47 45 48 
-0.269922 -0.208001 1.47076 63 59 56 
-0.256072 -0.189297 1.4502 17 7 0 
-0.267225 -0.178927 1.46628 7 0 0 
-0.0749763 -0.182485 1.34895 106 99 93 
-0.301543 -0.165848 1.51722 4 0 0 
-0.276304 -0.126596 1.45151 7 0 0 
0.0722019 -0.130218 1.35722 20 13 3 
0.0911068 -0.130603 1.36376 22 15 5 
-0.00361379 -0.111023 1.31545 100 90 81 
-0.274606 -0.0398361 1.39875 20 12 1 
-0.114045 -0.0465651 1.29218 94 74 63 
0.00791826 -0.0491435 1.2802 32 25 15 
-0.233968 -0.0156895 1.3326 36 26 14 
-0.125313 -0.0171276 1.2822 100 67 58 
-0.269076 0.076439 1.33088 143 135 122 
-0.0063591 0.0535136 1.22512 3 0 0 
-0.193516 0.0916944 1.24203 155 142 125 
-0.156026 0.109895 1.22251 23 9 0 
-0.215148 0.122091 1.25173 124 116 95 
-0.176723 0.124962 1.21625 16 3 0 
-0.0814353 0.117623 1.1858 117 115 102 
-0.0993688 0.122522 1.19116 43 27 12 
-0.189836 0.14179 1.21277 12 0 0 
-0.191242 0.162417 1.21868 133 121 105 
-0.285713 0.273514 1.25317 137 126 108 
-0.303363 0.285902 1.28858 42 31 9 
-0.191359 0.30351 1.11382 21 11 1 
-0.0973105 0.354854 1.03877 27 27 19 
-0.280524 0.40481 1.13877 132 123 108 
-0.222726 0.413768 1.06195 17 14 5 
-0.169024 0.398087 1.0327 34 25 18 
-0.172054 -0.539066 1.64524 42 38 27 
-0.110441 -0.532874 1.61427 139 130 123 
0.0678153 -0.535654 1.63925 26 23 14 
-0.000686009 -0.44955 1.50883 20 15 9 
0.0234174 -0.409965 1.47835 43 36 26 
0.0697749 -0.31184 1.43309 111 110 106 
-0.193778 -0.245435 1.40466 70 66 65 
-0.0143905 -0.237292 1.37799 70 66 65 
-0.0327224 -0.224201 1.37084 7 4 0 
0.0304081 -0.165416 1.35443 93 90 85 
-0.276958 -0.145524 1.46311 27 19 6 
0.023308 -0.111823 1.32681 41 34 26 
-0.218784 -0.0491745 1.33887 13 3 0 
-0.0541866 -0.0537559 1.27108 49 40 31 
-0.168561 -0.0403779 1.30091 101 91 66 
-0.287795 -0.0251437 1.41052 18 6 0 
-0.0966868 -0.0213991 1.26543 111 97 88 
0.0300544 -0.0252121 1.27927 6 1 0 
0.0183173 0.00167118 1.26007 4 0 0 
-0.285281 0.0335361 1.38039 13 0 0 
-0.181557 0.0440483 1.26595 16 6 0 
-0.0323604 0.0327774 1.23352 106 97 88 
-0.239149 0.0664533 1.30096 146 132 121 
0.0597342 0.0505017 1.25276 101 97 94 
-0.209607 0.105078 1.25555 125 108 98 
-0.232032 0.11845 1.25788 8 0 0 
-0.187163 0.116962 1.22621 30 22 11 
-0.203622 0.151061 1.22248 35 21 8 
-0.271874 0.170114 1.28461 141 132 115 
-0.115116 0.143219 1.1781 14 6 0 
-0.258599 0.18019 1.26265 37 19 0 
-0.227586 0.18146 1.22889 29 12 0 
-0.23803 0.203592 1.22222 10 0 0 
0.101485 0.294456 1.12186 104 100 91 
-0.302664 0.379913 1.18942 109 101 90 
-0.236559 0.380925 1.09738 28 21 11 
-0.183591 0.384336 1.05838 55 48 40 
-0.183656 0.390776 1.05025 142 132 122 
-0.0875216 -0.53116 1.60213 18 11 5 
-0.0667832 -0.517632 1.58235 128 125 118 
0.0600958 -0.515034 1.61582 11 8 3 
0.131508 -0.522995 1.67091 16 13 4 
-0.206866 -0.422621 1.55197 7 2 0 
0.0630985 -0.369764 1.4523 116 116 106 
0.0951733 -0.370696 1.48009 37 33 24 
-0.0299849 -0.302727 1.40786 3 0 0 
0.02644 -0.249471 1.38835 73 70 63 
-0.225374 -0.19762 1.43143 3 0 0 
-0.193784 0.0642259 1.25343 60 47 30 
-0.171017 0.103565 1.23402 109 89 64 
-0.0596903 0.228259 1.11933 36 27 18 
-0.200783 0.369837 1.07782 48 37 31 
-0.271301 0.417022 1.11849 51 42 27 
-0.236267 0.410069 1.08104 9 5 0 
0.123142 -0.619149 1.73661 86 88 85 
0.0865785 -0.576872 1.68835 26 5 10 
0.0765018 -0.568755 1.67591 102 92 90 
0.0220031 -0.483814 1.55425 7 2 0 
-0.130627 -0.215745 1.37569 88 79 72 
0.0152247 -0.191371 1.35862 112 108 105 
-0.148432 -0.144789 1.34919 17 10 4 
0.0698274 -0.152526 1.377 8 4 1 
0.04726 -0.109715 1.3287 20 15 11 
-0.00542198 -0.0710365 1.29672 94 87 81 
-0.130672 0.227532 1.15187 13 3 0 
-0.278492 -0.218453 1.48056 66 56 47 
0.0449838 0.301619 1.08993 94 98 107 
-0.244283 -0.30642 1.44776 94 96 91 
-0.186865 -0.279136 1.39717 75 70 66 
-0.233535 -0.266322 1.42243 5 0 0 
-0.283257 -0.239595 1.46391 19 12 6 
-0.185764 -0.215676 1.38052 11 8 0 
-0.250043 -0.202749 1.4261 74 70 61 
-0.257038 -0.166985 1.41566 5 1 0 
-0.250912 -0.142245 1.39684 105 99 87 
-0.256065 -0.127404 1.39341 152 142 130 
-0.20046 -0.129799 1.34375 126 113 107 
-0.242859 -0.122903 1.37337 10 2 0 
-0.268421 -0.12016 1.40408 33 27 11 
-0.0673724 -0.136412 1.30824 16 3 0 
-0.0553696 -0.136457 1.30983 18 9 0 
-0.277627 -0.100922 1.40816 127 117 105 
-0.296023 -0.092769 1.43682 36 28 17 
-0.306506 -0.0886997 1.45554 45 41 30 
-0.273179 -0.0893467 1.39403 124 118 104 
-0.287202 -0.0811557 1.41171 31 22 7 
-0.221887 -0.0840118 1.33526 9 0 0 
-0.257694 -0.0687045 1.36268 117 109 96 
-0.268114 -0.0674048 1.3751 102 88 75 
-0.286179 -0.0515121 1.39556 131 121 109 
-0.272505 -0.0274423 1.35974 106 99 83 
-0.206263 -0.035548 1.29723 12 2 0 
-0.261148 -0.0135519 1.33826 128 120 107 
-0.273393 -0.00988935 1.35508 127 124 109 
-0.297851 0.00424756 1.39195 31 22 7 
-0.271968 0.00677847 1.34265 123 110 94 
-0.0585331 -0.00125931 1.23681 131 122 115 
-0.267964 0.0401195 1.31755 64 52 38 
-0.283798 0.0529322 1.33474 20 10 0 
-0.254334 0.0467658 1.29889 14 0 0 
-0.237616 0.053583 1.27375 35 28 18 
-0.275876 0.0706513 1.31341 121 110 90 
-0.285978 0.0740159 1.32969 148 137 115 
-0.245627 0.0655645 1.28073 144 130 117 
-0.225296 0.0702789 1.25755 120 108 94 
-0.247221 0.0757041 1.27579 147 137 125 
-0.279562 0.0836302 1.31471 101 89 73 
-0.123369 0.072209 1.21889 101 70 65 
-0.244805 0.0887213 1.26539 92 85 69 
-0.28687 0.101895 1.31467 113 105 94 
-0.223197 0.0875977 1.24516 9 1 0 
-0.27555 0.101444 1.2973 140 132 111 
-0.265407 0.103107 1.28112 33 24 9 
-0.306189 0.118334 1.35002 52 42 30 
-0.255468 0.114547 1.2617 118 106 92 
-0.282297 0.126084 1.29654 33 21 7 
-0.0689821 0.0960914 1.185 49 42 36 
-0.283698 0.142019 1.29081 21 14 0 
-0.302127 0.152108 1.32151 86 69 49 
-0.265718 0.143419 1.26029 73 65 46 
-0.298982 0.158757 1.31133 8 0 0 
-0.0526294 0.118782 1.17269 89 80 73 
-0.254474 0.14825 1.24411 61 43 19 
-0.0750661 0.125533 1.16938 15 9 0 
-0.109095 0.134399 1.16635 19 15 3 
-0.0677716 0.133126 1.16492 106 92 89 
-0.294763 0.174478 1.29816 135 123 111 
-0.276932 0.167893 1.26522 29 20 5 
-0.0959067 0.137224 1.16212 12 5 0 
-0.255701 0.162609 1.23964 80 68 42 
-0.112793 0.14563 1.16096 118 109 100 
-0.288496 0.181073 1.27828 109 93 77 
-0.284928 0.189939 1.26702 34 21 2 
-0.246634 0.179362 1.21987 36 24 0 
-0.263602 0.184501 1.23708 160 152 129 
-0.271937 0.197045 1.24404 74 62 48 
-0.206161 0.184602 1.18288 48 30 6 
-0.15406 0.176135 1.15514 108 101 93 
-0.26627 0.203985 1.23123 120 111 96 
-0.131543 0.179569 1.14867 18 9 0 
-0.10515 0.180227 1.14205 33 26 16 
-0.305658 0.226362 1.28987 54 45 30 
-0.277252 0.213959 1.23977 67 58 41 
-0.073644 0.17973 1.13866 114 103 97 
-0.255207 0.208921 1.21447 139 131 112 
-0.28964 0.228736 1.25338 53 46 30 
-0.292957 0.245115 1.25326 45 34 16 
-0.300468 0.248914 1.26542 56 48 25 
-0.285953 0.249317 1.23502 103 94 77 
-0.169263 0.221526 1.14051 13 9 0 
-0.270142 0.249956 1.2101 61 54 28 
-0.0559785 0.217183 1.1181 24 19 13 
-0.282066 0.257162 1.22355 64 53 35 
-0.258027 0.252835 1.19368 51 44 25 
-0.247386 0.24892 1.18132 53 44 29 
-0.137463 0.229923 1.12088 24 14 5 
-0.25528 0.259034 1.18451 60 47 30 
-0.21521 0.248222 1.15199 114 110 98 
-0.12961 0.239954 1.11285 17 13 2 
-0.260472 0.269043 1.18748 146 140 126 
-0.246068 0.263523 1.17155 13 4 0 
-0.227914 0.261647 1.15452 48 36 24 
-0.273153 0.279407 1.19857 59 50 33 
-0.139035 0.250865 1.10977 113 102 96 
-0.310879 0.305146 1.2621 113 107 91 
-0.265355 0.282777 1.18499 66 50 34 
-0.257977 0.28555 1.17378 126 120 106 
-0.270839 0.30069 1.18271 19 10 0 
-0.163348 0.273546 1.10584 28 24 12 
-0.277749 0.306183 1.1903 92 86 74 
-0.134159 0.272715 1.09499 127 123 114 
-0.277533 0.31503 1.18191 46 37 22 
-0.269242 0.311624 1.17238 122 114 101 
-0.292167 0.331143 1.20342 28 19 2 
-0.283111 0.328048 1.17934 48 41 25 
-0.234729 0.312661 1.12013 122 118 106 
-0.266529 0.326015 1.14971 57 47 35 
-0.159738 0.30277 1.07405 118 115 106 
-0.237201 0.325538 1.11103 21 17 6 
-0.318333 0.370494 1.2134 123 121 109 
-0.282458 0.348414 1.14893 61 54 44 
-0.262239 0.343473 1.12485 113 109 98 
-0.307457 0.370212 1.17723 122 115 99 
-0.293731 0.364097 1.15479 28 22 10 
-0.277248 0.357083 1.13417 27 18 3 
-0.262425 0.356787 1.11545 51 41 31 
-0.147034 0.334389 1.04545 81 78 73 
-0.273579 0.37223 1.119 54 41 24 
-0.27768 0.382832 1.11892 126 119 103 
-0.274295 0.39057 1.11153 122 113 98 
-0.267761 0.387076 1.10337 61 49 35 
-0.0529173 0.360495 1.02038 133 132 127 
-0.143478 0.366191 1.02834 38 29 22 
-0.26192 0.39693 1.08961 47 40 30 
-0.178406 -0.311658 1.40994 19 17 18 
-0.202651 -0.282988 1.40727 11 8 3 
-0.290798 -0.279587 1.49523 10 6 3 
-0.0225979 -0.17813 1.33487 35 26 19 
-0.0601382 -0.167243 1.32623 97 85 73 
-0.231165 -0.133267 1.26244 43 33 24 
-0.251886 -0.112989 1.37901 142 134 123 
-0.0511846 -0.0572054 1.26779 35 25 15 
-0.278964 -0.0139151 1.36389 54 44 32 
-0.0652885 -0.0153028 1.24413 102 91 85 
-0.258032 0.0311495 1.31128 30 18 6 
-0.248132 0.0542237 1.2875 126 114 100 
-0.289129 0.0915617 1.32687 51 39 23 
-0.187791 0.076404 1.22731 27 9 0 
-0.103564 0.0939469 1.18753 107 94 85 
-0.0896113 0.0957591 1.18672 115 104 98 
-0.102502 0.111652 1.17901 7 0 0 
-0.120771 0.119883 1.17639 144 132 118 
-0.279553 0.194437 1.25671 146 133 114 
-0.132683 0.194856 1.13928 21 11 1 
-0.310409 0.26198 1.28307 153 140 124 
-0.0743315 0.210969 1.12317 136 132 121 
-0.288509 0.268015 1.23285 134 125 108 
-0.0334085 0.233949 1.11058 71 66 62 
-0.100506 0.270069 1.08941 28 19 14 
-0.191643 0.2868 1.10963 134 130 119 
-0.030447 0.280667 1.08002 1 0 0 
-0.277074 -0.22675 1.44966 88 84 83 
-0.279806 0.0928885 1.3077 27 19 6 
-0.250785 0.121365 1.25318 58 42 27 
-0.0898653 0.167209 1.14565 14 7 0 
-0.283657 0.235139 1.2403 154 147 129 
-0.0474105 0.222518 1.1151 6 2 0 
-0.117342 0.236585 1.11354 23 14 5 
-0.0707697 0.24937 1.09872 23 16 8 
-0.0464743 0.254913 1.1001 5 2 0 
-0.264673 0.294774 1.17286 39 32 16 
-0.238432 0.285941 1.14866 19 15 3 
-0.123092 0.286363 1.07571 107 102 98 
-0.312198 0.385594 1.17659 66 60 44 
-0.311261 -0.204217 1.48921 96 91 85 
-0.233633 0.0663445 1.26431 19 12 4 
-0.0587814 0.19558 1.13175 20 15 12 
-0.20164 0.295432 1.10881 24 22 10 
-0.0789187 -0.250044 1.36938 70 69 65 
-0.0609803 -1.20138 2.20354 32 31 27 
-0.182383 -0.308954 1.4204 6 3 0 
-0.0753738 -0.291116 1.37552 108 107 105 
0.0228869 -0.28634 1.38644 28 24 21 
-0.0379638 -0.221986 1.35602 2 2 0 
-0.110226 -0.200066 1.34891 31 28 23 
-0.0807318 -0.16545 1.32542 83 74 65 
-0.00861298 -0.156278 1.32575 86 82 79 
-0.181653 -0.144952 1.34937 13 6 0 
-0.0731086 -0.125054 1.30315 101 91 81 
-0.0944801 -0.118848 1.30199 10 0 0 
-0.0773744 -0.104307 1.29265 25 17 14 
0.00327563 -0.101607 1.29869 15 10 6 
-0.0754661 -0.0246485 1.2502 32 19 10 
-0.00020965 -0.0151004 1.24931 9 4 0 
-0.200775 0.0103434 1.27974 34 30 18 
-0.206309 0.0359093 1.27155 103 93 83 
0.00617717 0.0642161 1.20978 15 8 2 
-0.0544999 0.0963414 1.18304 7 0 0 
-0.101593 0.121207 1.17295 115 101 92 
-0.124654 0.230276 1.1181 22 11 5 
-0.170434 0.237434 1.13313 112 108 99 
-0.042184 0.245622 1.10047 89 88 86 
-0.17812 0.290176 1.09944 17 6 0 
-0.196364 0.313169 1.08919 50 47 40 
-0.208196 0.327016 1.08603 22 17 13 
-0.0660941 0.451425 0.913499 30 23 13 
-0.017765 -0.16553 1.3277 71 65 67 
-0.0459798 -0.0701814 1.27205 113 102 96 
-0.0709785 -0.0577116 1.26678 102 98 87 
-0.0352825 0.0764924 1.19535 6 1 0 
-0.153038 0.207872 1.14009 131 122 113 
-0.217814 0.333877 1.09079 112 103 94 
-0.0674216 0.338106 1.02966 110 104 104 
0.000602034 -0.167108 1.3331 91 87 88 
-0.117375 -0.159955 1.33097 105 97 86 
-0.209398 -0.0129301 1.29737 18 9 0 
-0.0183652 0.309911 1.04851 88 87 85 
-0.0494599 0.456531 0.908959 100 95 89 
-0.0909242 0.384492 1.00137 108 107 103 
-0.166507 0.178397 1.16449 7 0 0 
-0.112252 -0.599191 1.67152 136 127 122 
-0.106462 -0.483797 1.55316 37 29 18 
-0.215507 -0.310822 1.44396 3 0 0 
-0.190871 -0.30517 1.4236 33 31 19 
-0.241883 -0.305038 1.45715 110 107 102 
-0.202695 -0.290155 1.42361 33 23 21 
-0.145046 -0.278753 1.38511 8 5 0 
-0.168587 -0.273597 1.39245 108 101 93 
-0.241268 -0.249841 1.43036 2 1 0 
-0.118397 -0.227508 1.36684 102 94 91 
-0.17194 -0.224726 1.38731 94 94 86 
-0.148187 -0.217162 1.37083 97 92 89 
-0.00336014 -0.22253 1.36601 82 79 74 
-0.217659 -0.206006 1.40816 26 17 8 
-0.0119798 -0.214271 1.35835 15 12 5 
-0.157926 -0.195493 1.36414 103 95 92 
-0.0837388 -0.197093 1.34428 101 92 85 
-0.099162 -0.194754 1.34818 98 89 82 
-0.148995 -0.18091 1.35262 24 17 9 
-0.0948179 -0.182398 1.33997 82 75 69 
-0.0294446 -0.186399 1.33984 103 98 95 
-0.0639865 -0.182707 1.33654 124 120 109 
-0.130658 -0.174006 1.3421 80 73 63 
-0.0505151 -0.174563 1.33148 109 105 94 
-0.161052 -0.165365 1.35028 72 67 63 
-0.138254 -0.165382 1.34155 7 4 0 
-0.247375 -0.159009 1.41293 17 8 0 
-0.0994324 -0.165283 1.33054 107 97 85 
-0.129879 -0.157053 1.33396 41 33 22 
-0.0963637 -0.155773 1.32498 126 116 107 
0.00805764 -0.164078 1.33757 94 89 83 
-0.0892657 -0.149238 1.32184 20 11 4 
-0.107703 -0.146721 1.32221 107 97 87 
-0.131437 -0.143995 1.32575 119 111 98 
-0.0790747 -0.14797 1.31888 123 113 104 
-0.158863 -0.140529 1.33404 109 105 96 
-0.141324 -0.1367 1.32622 7 3 0 
-0.121139 -0.13584 1.31797 45 35 25 
-0.0843998 -0.138827 1.31308 108 96 84 
-0.111544 -0.129013 1.31388 22 13 4 
-0.0908226 -0.129038 1.30881 54 49 45 
-0.221066 -0.117977 1.36452 85 81 69 
0.0083391 -0.13236 1.32107 94 84 82 
-0.114928 -0.119972 1.31005 110 100 90 
-0.210872 -0.113846 1.35365 106 96 87 
-0.046732 -0.11274 1.2991 20 12 1 
-0.0698005 -0.10995 1.29747 114 105 98 
-0.0558694 -0.0943799 1.28884 128 116 104 
-0.0966105 -0.0891573 1.28818 118 109 92 
-0.210187 -0.0701563 1.33003 20 10 0 
-0.0247638 -0.0835314 1.28592 26 19 9 
-0.0830887 -0.0738038 1.27893 100 92 81 
0.00478678 -0.073029 1.28745 10 0 0 
-0.0849933 -0.0585412 1.26898 32 26 14 
-0.102028 -0.0547488 1.27103 40 27 8 
-0.0970618 -0.0443438 1.26444 11 0 0 
-0.169468 -0.0374817 1.28514 125 113 91 
-0.0578433 -0.0452383 1.26323 31 21 9 
-0.222734 -0.0254843 1.31406 105 96 79 
-0.13435 -0.0279124 1.27999 144 114 104 
0.00320344 -0.0380183 1.26561 79 72 66 
-0.188568 -0.0145315 1.28318 82 75 57 
-0.0780603 -0.010354 1.2432 8 0 0 
-0.0141995 -0.0143709 1.25025 10 0 0 
-0.131788 -0.0036074 1.26683 109 74 68 
-0.191685 0.00350469 1.27576 11 2 0 
-0.0812018 -0.00106023 1.23898 21 12 0 
-0.212455 0.0153417 1.28464 33 21 7 
-0.0226863 -0.00149748 1.24265 7 0 0 
-0.0587885 0.00924437 1.23283 45 39 27 
-0.0713099 0.0110436 1.23218 14 6 0 
-0.198048 0.0252659 1.26769 55 45 35 
-0.101193 0.0170458 1.23201 38 26 10 
-0.0819378 0.0199601 1.22644 106 96 84 
-0.18212 0.0345823 1.25337 29 13 0 
-0.0818878 0.0336698 1.2208 27 22 16 
-0.0951735 0.0382945 1.21926 49 40 23 
-0.0537435 0.0364418 1.21815 97 87 77 
-0.190567 0.0535656 1.24919 30 18 0 
-0.220496 0.0709282 1.26312 13 0 0 
-0.0303826 0.0567746 1.21037 42 38 27 
-0.212531 0.086397 1.24548 17 7 0 
-0.220585 0.0947397 1.24843 41 28 12 
-0.100217 0.0803926 1.19873 124 112 100 
-0.07584 0.088605 1.19137 129 120 113 
-0.0475813 0.087546 1.19162 99 95 86 
-0.224711 0.107764 1.2456 98 85 76 
-0.246726 0.133801 1.25305 153 138 115 
-0.2162 0.132745 1.22554 126 111 92 
-0.165395 0.124703 1.19521 10 0 0 
-0.0883933 0.120297 1.17506 6 0 0 
-0.130302 0.124469 1.18118 145 137 126 
-0.142476 0.127591 1.18338 7 0 0 
-0.135224 0.134423 1.17524 45 37 26 
-0.189911 0.144856 1.1978 162 150 134 
-0.235723 0.155587 1.22796 29 25 14 
-0.160194 0.151408 1.17812 7 0 0 
-0.202932 0.159458 1.20015 15 3 0 
-0.170353 0.154684 1.18112 147 133 120 
-0.0744326 0.150428 1.15634 107 100 92 
-0.114148 0.158734 1.15717 142 132 122 
-0.17663 0.16747 1.17827 135 125 113 
-0.200499 0.171519 1.19039 52 40 24 
-0.192024 0.171149 1.18479 119 106 90 
-0.106901 0.165299 1.15242 14 6 0 
-0.15596 0.186769 1.1575 12 0 0 
-0.119509 0.184661 1.14483 156 149 139 
-0.0967269 0.187137 1.14028 15 6 0 
-0.0546489 0.184877 1.13797 7 0 0 
-0.11187 0.200124 1.13707 11 6 0 
-0.211582 0.216236 1.17623 155 137 123 
-0.132175 0.206247 1.13747 17 7 0 
-0.154449 0.225108 1.1365 123 113 101 
-0.142245 0.223514 1.13119 166 158 147 
-0.095367 0.253291 1.09938 11 4 0 
-0.190531 0.276208 1.12449 40 36 24 
-0.0891414 0.271202 1.08983 136 131 125 
-0.219218 0.306801 1.11728 10 0 0 
-0.187614 0.305268 1.09364 13 5 0 
-0.0928069 0.297047 1.06354 106 102 101 
-0.0491611 0.301099 1.05494 6 0 0 
-0.0953784 0.305797 1.05514 10 2 0 
-0.237656 0.363226 1.09316 126 119 111 
-0.229902 0.365418 1.08368 43 37 25 
-0.150244 0.349235 1.04287 117 113 102 
-0.209963 0.369533 1.06768 128 121 111 
-0.202077 0.394433 1.04675 156 153 144 
-0.221544 0.432997 1.02049 122 119 114 
0.0736371 -0.615365 1.69027 18 10 8 
0.0221652 -0.175617 1.34766 88 87 85 
0.0681492 -0.179096 1.3706 28 24 21 
0.0488702 -0.154 1.34855 99 98 94 
-0.10495 -0.113847 1.30267 16 6 0 
-0.00911024 -0.105358 1.30208 88 79 70 
-0.0869784 -0.0964941 1.28979 97 88 79 
0.025752 -0.0915686 1.30579 13 3 0 
0.0186497 -0.085039 1.29681 21 17 6 
-0.18139 -0.0576174 1.30176 99 89 79 
0.0122398 -0.0613584 1.28278 29 19 10 
-0.184346 -0.0357118 1.29156 101 89 73 
-0.0660475 -0.0288844 1.25296 49 39 29 
-0.0922427 -0.000626955 1.24013 93 80 71 
-0.0128721 0.0296121 1.22845 105 100 94 
-0.0388756 0.0470178 1.21405 28 19 12 
0.0161362 0.0487244 1.22378 79 76 71 
0.00332232 0.0510459 1.2191 81 77 74 
-0.0508964 0.0786263 1.197 6 0 0 
0.0242306 0.104203 1.19877 104 93 87 
-0.113966 0.175977 1.1484 28 17 13 
-0.141203 0.181022 1.15548 145 141 130 
-0.0857284 0.179884 1.141 19 10 3 
-0.106932 0.191349 1.13769 33 29 18 
-0.0869627 0.190463 1.13601 41 32 23 
-0.199944 0.247495 1.14696 107 98 91 
-0.149944 0.245276 1.12055 7 0 0 
-0.148652 0.263784 1.11059 13 4 0 
-0.186223 0.284444 1.11597 37 29 18 
-0.238447 0.316675 1.12937 122 114 103 
-0.0917171 0.321 1.0446 8 1 0 
-0.180115 -0.295398 1.41219 9 5 0 
-0.111105 -0.233028 1.36266 89 85 82 
-0.0232798 -0.229688 1.36498 92 89 82 
-0.0232603 -0.215554 1.35544 49 40 35 
-0.0818029 -0.180185 1.33531 101 97 88 
-0.03483 -0.132497 1.31182 88 78 69 
-0.0294228 -0.100088 1.29402 158 151 141 
-0.000389519 -0.0868094 1.29166 13 6 0 
-0.0379295 -0.0625846 1.27265 107 98 89 
-0.0220172 -0.0231435 1.255 6 0 0 
0.00969141 -0.0236448 1.26065 9 6 0 
-0.0453718 0.00900752 1.23244 22 15 7 
-0.047131 0.0224007 1.22345 8 2 0 
-0.0720335 0.0259746 1.22331 99 92 86 
-0.179841 0.092146 1.22194 39 30 13 
-0.034324 0.142179 1.16371 13 9 0 
-0.223202 0.195357 1.19773 151 135 119 
-0.0304944 0.194454 1.13631 116 112 103 
-0.175437 0.217452 1.15008 108 99 90 
-0.228738 0.228754 1.18153 25 15 5 
-0.0339083 0.207996 1.12915 92 85 79 
-0.0585161 0.246356 1.1037 6 1 0 
-0.0659776 0.295657 1.06235 5 2 0 
-0.195585 0.402124 1.0343 94 90 87 
-0.133808 0.391163 1.01063 17 14 9 
-0.0331058 -0.299279 1.38875 3 0 0 
-0.156533 -0.269781 1.39269 81 77 74 
-0.0863442 -0.238185 1.36745 2 2 2 
-0.109731 0.288585 1.07411 132 125 115 
-0.0127728 0.347898 1.03692 20 15 11 
-0.182297 0.183231 1.17674 16 6 0 
-0.0945119 0.229637 1.11207 98 94 85 
-0.190848 0.424638 1.00567 94 91 86 
-0.0246971 -0.251737 1.37134 60 56 53 
-0.0125553 -1.33235 2.30825 219 220 224 
-0.0468644 -1.32005 2.30571 49 53 62 
-0.0633935 -1.19835 2.19365 42 37 33 
-0.0273912 -1.20125 2.19195 57 56 52 
-0.0850366 -1.18725 2.21934 26 22 21 
-0.0574892 -1.08086 2.11754 40 38 26 
-0.05495 -1.06241 2.09833 25 20 17 
-0.0857955 -1.01336 2.06431 19 15 16 
-0.0515917 -0.986923 2.02093 92 85 79 
-0.037096 -0.926057 1.95889 126 119 109 
-0.0695122 -0.891411 1.93822 44 40 29 
-0.0349753 -0.8732 1.90512 141 131 121 
-0.0381194 -0.849818 1.88216 134 127 111 
-0.0825206 -0.8095 1.86076 116 107 100 
-0.0346133 -0.796123 1.8247 73 61 47 
-0.0532052 -0.777815 1.81644 114 104 95 
-0.117034 -0.763633 1.83207 45 35 26 
-0.0511121 -0.750833 1.78616 39 30 23 
-0.0360483 -0.727685 1.75654 132 122 112 
-0.128234 -0.723521 1.79598 100 96 87 
-0.155423 -0.719193 1.80091 31 24 14 
-0.0838296 -0.691306 1.74225 143 133 123 
-0.166222 -0.674749 1.75853 138 135 126 
-0.0462299 -0.648467 1.68196 16 11 8 
-0.0350396 -0.645853 1.67195 31 24 14 
-0.121598 -0.633696 1.69924 10 5 1 
-0.109592 -0.629888 1.69011 66 61 55 
-0.176602 -0.611241 1.70032 117 108 103 
-0.138111 -0.616013 1.69339 99 90 81 
-0.0962389 -0.59358 1.65179 124 119 113 
0.0496609 -0.623484 1.6724 34 21 15 
0.060308 -0.62457 1.68081 107 98 93 
-0.10664 -0.577425 1.6392 27 22 19 
-0.115933 -0.571067 1.63498 79 76 71 
-0.0671861 -0.559426 1.60276 117 113 104 
-0.150812 -0.549727 1.62925 22 19 14 
-0.159971 -0.509284 1.59476 123 116 106 
-0.133772 -0.502379 1.57631 88 83 79 
-0.165638 -0.497134 1.5853 39 35 26 
-0.196295 -0.485081 1.58461 116 110 98 
-0.130154 -0.47686 1.5477 134 130 121 
-0.197872 -0.469769 1.57123 27 25 13 
-0.212223 -0.464743 1.57303 24 16 13 
-0.14924 -0.444379 1.52639 125 120 114 
-0.094083 -0.448492 1.5072 115 111 108 
-0.11468 -0.442867 1.51013 99 94 91 
-0.188381 -0.42462 1.5228 102 97 93 
-0.113112 -0.427555 1.4958 30 27 22 
-0.0574223 -0.424623 1.46057 39 35 32 
-0.120845 -0.416739 1.48459 121 118 113 
-0.230913 -0.396685 1.51236 123 119 110 
-0.0487716 -0.380663 1.41223 47 42 38 
-0.126315 -0.366164 1.41851 17 13 10 
-0.216066 -0.359327 1.45749 31 28 23 
-0.230327 -0.358318 1.46874 26 23 16 
-0.240852 -0.350749 1.47182 85 85 75 
-0.181753 -0.348098 1.41834 138 129 120 
0.0173095 -0.374012 1.42146 31 28 21 
-0.0797177 -0.332989 1.39588 14 11 6 
-0.164197 -0.321237 1.40683 87 83 80 
-0.080728 -0.326411 1.38897 1 0 0 
-0.0299493 -0.335269 1.39544 91 87 84 
-0.133959 -0.315104 1.3917 13 8 4 
-0.0116835 -0.333592 1.39803 18 18 10 
-0.0380756 -0.321915 1.38811 22 15 7 
-0.171401 -0.301042 1.39868 46 43 34 
-0.161216 -0.301918 1.39484 109 105 102 
-0.259416 -0.295908 1.46399 29 25 16 
-0.156136 -0.295717 1.38761 43 40 33 
-0.0131572 -0.312736 1.38615 151 144 136 
-0.150779 -0.289703 1.38225 35 30 27 
-0.0295997 -0.304283 1.37772 107 102 99 
-0.0473088 -0.300172 1.37267 33 32 28 
-0.270183 -0.27895 1.46573 18 13 7 
-0.135446 -0.282214 1.36853 9 2 0 
-0.10671 -0.284411 1.37088 30 27 20 
-0.193437 -0.274902 1.39721 48 45 38 
-0.256264 -0.272579 1.44779 6 1 0 
-0.070287 -0.281872 1.36605 19 14 10 
-0.190963 -0.265462 1.39075 10 1 0 
-0.248439 -0.261993 1.43404 5 2 0 
-0.0347415 -0.274697 1.36245 75 73 74 
-0.230521 -0.252425 1.41107 64 61 54 
0.0558243 -0.287881 1.40079 105 100 97 
0.00236238 -0.275811 1.37008 110 107 102 
0.0341276 -0.270328 1.38202 61 60 58 
-0.0373597 -0.250164 1.35271 63 62 58 
-0.293807 -0.225546 1.47483 83 79 70 
0.0174618 -0.233858 1.37256 97 94 89 
-0.0514295 -0.219538 1.35102 122 117 114 
-0.234629 -0.19774 1.40053 113 110 103 
0.0358054 -0.225348 1.37611 66 63 56 
-0.205809 -0.186946 1.37509 88 81 75 
-0.129013 -0.190087 1.34 130 121 114 
-0.191343 -0.176145 1.35933 31 23 20 
-0.253473 -0.168086 1.41318 5 1 0 
-0.264436 -0.165514 1.42575 20 11 4 
-0.189101 -0.166979 1.35489 97 93 84 
-0.201207 -0.164909 1.36265 100 97 88 
-0.0108281 -0.183454 1.3337 75 71 70 
-0.180012 -0.15774 1.343 100 91 84 
-0.290184 -0.14912 1.4567 36 27 18 
-0.041979 -0.170463 1.32356 12 11 6 
-0.195525 -0.153341 1.35265 32 23 14 
-0.146714 -0.156748 1.32977 26 16 7 
-0.220703 -0.147194 1.3669 95 91 82 
-0.24798 -0.143566 1.39265 23 19 10 
-0.226328 -0.138805 1.36847 78 69 60 
-0.143561 -0.14637 1.3218 85 75 65 
-0.253802 -0.131828 1.39235 113 105 94 
-0.0997308 -0.142673 1.30584 26 19 11 
-0.0210089 -0.151156 1.31791 117 110 100 
-0.295305 -0.124901 1.45497 24 16 5 
-0.0351851 -0.147368 1.31342 89 79 77 
-0.235139 -0.125855 1.36378 123 123 115 
-0.288436 -0.12178 1.43721 7 3 0 
-0.306618 -0.11894 1.4773 18 9 0 
-0.244521 -0.118551 1.37265 103 93 83 
-0.253355 -0.113437 1.38002 13 5 0 
-0.271057 -0.111939 1.40258 135 127 116 
-0.296315 -0.107665 1.44613 101 97 85 
-0.0137553 -0.135121 1.31002 10 5 0 
-0.258507 -0.103295 1.38083 83 73 63 
-0.231832 -0.105387 1.35411 118 109 100 
-0.225221 -0.105171 1.34711 99 89 77 
-0.0281544 -0.124842 1.3026 100 96 87 
-0.288645 -0.0947094 1.42374 36 28 15 
-0.187951 -0.099089 1.31816 124 111 103 
-0.230633 -0.086793 1.34316 8 0 0 
-0.266154 -0.0832162 1.38195 122 110 96 
-0.279733 -0.0803291 1.40213 113 106 90 
-0.187761 -0.0882857 1.3114 92 84 71 
-0.298122 -0.0765522 1.432 124 114 104 
-0.200408 -0.08535 1.31735 6 1 0 
-0.222476 -0.0828217 1.33417 115 106 97 
-0.229984 -0.0771626 1.33756 128 119 110 
-0.255078 -0.0721469 1.36048 120 111 96 
-0.0331144 -0.0917361 1.28107 30 21 12 
-0.166682 -0.0717073 1.29212 115 104 84 
-0.221478 -0.0616003 1.31979 24 14 4 
-0.120305 -0.0726677 1.27555 78 70 51 
-0.20259 -0.0495163 1.29924 7 0 0 
-0.316299 -0.0324931 1.4566 24 14 4 
-0.258128 -0.0388622 1.34518 136 124 110 
-0.24018 -0.034056 1.32371 126 117 102 
-0.313281 -0.0189167 1.44122 24 18 4 
-0.297011 -0.0213285 1.39759 45 36 21 
-0.271451 -0.0220073 1.35649 107 103 92 
-0.0776017 -0.0444821 1.25395 175 165 155 
-0.296713 -0.0109873 1.3946 33 21 7 
-0.119722 -0.0329653 1.26789 131 111 100 
-0.267956 -0.0118635 1.34726 38 30 19 
-0.227275 -0.0139631 1.2992 6 0 0 
-0.15634 -0.0213254 1.27193 19 1 0 
-0.300959 0.00389149 1.39549 130 121 106 
-0.294362 0.00290391 1.3841 16 4 0 
-0.102785 -0.0220145 1.24495 116 104 92 
-0.28384 0.00368971 1.36324 141 134 116 
-0.255787 0.00468329 1.31984 134 121 104 
-0.30068 0.0140102 1.3923 136 125 107 
-0.214979 0.00314167 1.2785 48 39 24 
-0.23275 0.00688331 1.29317 105 103 90 
-0.222832 0.00592189 1.2844 136 130 116 
-0.322416 0.0299982 1.44846 43 33 23 
-0.307969 0.0362965 1.395 135 126 111 
-0.251197 0.0396395 1.296 124 112 96 
-0.314326 0.055679 1.40735 124 116 97 
-0.240089 0.0446049 1.28199 155 146 129 
-0.0889307 0.0260775 1.21668 46 34 18 
-0.199866 0.0413506 1.24949 28 17 0 
-0.225397 0.047714 1.26839 104 92 76 
-0.159122 0.0473564 1.23474 27 14 0 
-0.220718 0.0561265 1.25804 50 38 22 
-0.309717 0.0795285 1.38164 7 0 0 
-0.251309 0.0668605 1.28366 32 19 3 
-0.261381 0.0694541 1.29172 55 42 33 
-0.234926 0.0648409 1.26524 10 6 0 
-0.247469 0.0754396 1.27441 147 137 125 
-0.279689 0.0869711 1.3113 126 114 100 
-0.232361 0.0837185 1.2526 19 2 0 
-0.298292 0.101198 1.33841 9 1 0 
-0.243592 0.100331 1.25619 31 17 4 
-0.243146 0.110711 1.24907 11 0 0 
-0.282416 0.125887 1.2957 33 21 7 
-0.235789 0.115426 1.23715 12 2 0 
-0.132293 0.104189 1.19886 53 39 28 
-0.139752 0.10572 1.19212 51 37 24 
-0.119497 0.105725 1.18596 14 8 0 
-0.307384 0.14681 1.33802 18 6 0 
-0.296426 0.144705 1.3084 59 42 22 
-0.262344 0.145525 1.25507 141 134 108 
-0.299266 0.158139 1.30873 8 0 0 
-0.172152 0.140067 1.17945 54 44 34 
-0.316285 0.184664 1.34732 61 50 32 
-0.231326 0.154534 1.21414 26 19 1 
-0.297778 0.178962 1.29669 111 104 88 
-0.308584 0.183987 1.31772 48 35 19 
-0.235308 0.164428 1.21144 126 122 110 
-0.256872 0.172266 1.23188 140 124 101 
-0.290044 0.185432 1.27731 147 134 115 
-0.301705 0.196997 1.29762 144 133 113 
-0.110316 0.155633 1.14777 14 10 0 
-0.130206 0.164698 1.14707 34 27 17 
-0.248454 0.188096 1.21608 125 108 90 
-0.168498 0.18319 1.15307 93 84 75 
-0.245518 0.200618 1.20228 170 155 134 
-0.257842 0.207052 1.21513 19 6 0 
-0.296683 0.231041 1.26502 60 47 31 
-0.236632 0.211047 1.18535 39 39 29 
-0.269767 0.222999 1.21991 141 126 107 
-0.236087 0.220638 1.18121 11 10 5 
-0.293264 0.24432 1.25058 45 34 16 
-0.279011 0.238243 1.22796 122 113 96 
-0.200117 0.224064 1.15105 124 115 106 
-0.247216 0.240396 1.18176 32 20 4 
-0.237084 0.23749 1.17251 4 0 0 
-0.178589 0.228302 1.13652 107 104 95 
-0.167151 0.226857 1.12937 15 5 0 
-0.157242 0.242329 1.11514 38 31 21 
-0.23793 0.262458 1.15939 5 0 0 
-0.156376 0.251475 1.1108 106 99 89 
-0.243689 0.30012 1.13722 125 125 117 
-0.225429 0.296317 1.12472 105 101 92 
-0.263132 0.314317 1.15096 121 113 100 
-0.152828 0.288487 1.07856 136 132 123 
-0.260874 0.319571 1.14316 120 110 100 
-0.210308 0.312758 1.09109 32 26 14 
-0.195406 0.309702 1.08144 19 15 4 
-0.18282 0.311679 1.0722 117 110 100 
-0.255145 0.332085 1.1192 124 121 106 
-0.162468 0.310344 1.05819 39 36 31 
-0.23682 0.334991 1.09582 28 23 17 
-0.197678 0.326182 1.07075 29 25 16 
-0.251411 0.343149 1.10242 129 130 125 
-0.228728 0.342342 1.08607 35 32 23 
-0.148019 0.326062 1.04601 19 16 11 
-0.300793 0.384621 1.15294 70 61 46 
-0.264386 0.365504 1.10809 43 35 16 
-0.137814 0.335042 1.03504 80 77 68 
-0.277961 0.382006 1.11686 126 119 103 
-0.196558 0.367896 1.04778 15 9 0 
-0.261015 0.390554 1.0914 22 15 0 
-0.152142 0.368588 1.02435 111 111 99 
-0.318629 0.445977 1.16937 110 102 89 
-0.256524 0.407024 1.07971 46 43 28 
-0.19079 0.39689 1.02371 93 88 84 
-0.253392 0.419162 1.05888 137 129 126 
-0.104307 0.388919 0.994164 78 77 73 
-0.146787 0.39463 1.0042 95 92 87 
-0.245119 0.419785 1.04933 13 8 4 
-0.0101186 -1.02822 2.07107 127 121 107 
-0.132944 -0.730839 1.80543 31 27 15 
-0.122686 -0.617227 1.6831 22 15 9 
-0.0678245 -0.543116 1.58648 119 115 106 
0.083312 -0.586304 1.67812 31 23 12 
-0.0485655 -0.447729 1.49213 8 0 0 
0.024068 -0.340245 1.41242 52 48 47 
0.0363224 -0.333169 1.41372 9 5 4 
-0.192943 -0.294672 1.40691 22 11 5 
0.0153713 -0.322949 1.40168 103 99 96 
-0.180202 -0.279597 1.39354 103 95 92 
-0.233989 -0.269354 1.42422 96 91 85 
-0.07892 -0.271305 1.35995 83 82 80 
-0.188183 -0.257251 1.38573 72 68 67 
-0.198918 -0.254167 1.38655 75 74 70 
-0.0419383 -0.240502 1.3596 8 3 0 
-0.0749384 -0.210643 1.34662 33 26 18 
-0.295688 -0.188621 1.48579 80 77 72 
-0.255502 -0.183366 1.42031 11 2 0 
-0.139698 -0.180993 1.3423 16 11 7 
-0.259282 -0.145511 1.40506 123 119 110 
-0.132985 -0.133011 1.30779 27 20 14 
-0.21317 -0.0894644 1.3276 51 41 31 
-0.311036 -0.0504628 1.44964 118 115 100 
-0.240339 -0.0591369 1.33232 19 10 1 
-0.251367 -0.0514731 1.34713 110 103 87 
-0.0975977 -0.0403915 1.2536 22 6 0 
-0.229134 0.0148068 1.28576 14 0 0 
-0.193324 0.0221271 1.25351 101 89 75 
-0.209518 0.0256521 1.26527 131 119 105 
-0.233977 0.0315281 1.28086 7 0 0 
-0.248364 0.0540713 1.28582 126 114 100 
-0.300611 0.0718407 1.36029 131 122 105 
-0.286168 0.0682414 1.331 64 53 35 
-0.288263 0.112891 1.3125 39 28 10 
-0.160777 0.105164 1.20121 91 84 66 
-0.310463 0.157981 1.34016 39 28 10 
-0.303249 0.16003 1.31761 13 1 0 
-0.207761 0.139499 1.20137 140 129 111 
-0.284491 0.215172 1.25078 21 10 0 
-0.119425 0.18444 1.13576 29 20 11 
-0.10921 0.200952 1.12789 15 7 0 
-0.28017 0.278745 1.2076 34 22 10 
-0.274945 0.29546 1.18786 133 121 105 
-0.106221 0.265534 1.08613 30 23 13 
-0.154229 0.346411 1.03597 112 109 102 
-0.258023 0.377539 1.0926 34 24 12 
-0.169159 0.39094 1.01613 100 97 90 
-0.236011 0.410984 1.05091 154 150 139 
-0.0350808 -1.32233 2.30269 34 38 49 
-0.00819586 -1.20109 2.2073 34 31 24 
-0.0449896 -1.13982 2.17014 13 8 2 
-0.1072 -0.842445 1.91028 59 48 44 
0.0204699 -0.678 1.68095 53 49 38 
-0.0737762 -0.654675 1.70134 28 20 17 
-0.128815 -0.590042 1.65941 102 97 93 
-0.0555331 -0.595393 1.63927 34 30 21 
-0.267159 -0.610899 1.81358 212 215 208 
-0.180312 -0.557846 1.65212 111 105 91 
-0.187509 -0.498919 1.5948 35 31 20 
-0.0931346 -0.482382 1.53901 6 1 0 
-0.0354443 -0.450597 1.48427 113 104 95 
-0.198228 -0.396598 1.49092 20 15 9 
-0.110244 -0.369932 1.41601 20 15 11 
-0.00126856 -0.338426 1.40264 14 9 6 
-0.290046 -0.280098 1.49774 9 5 2 
0.0150766 -0.291508 1.3865 19 15 12 
0.16931 -0.295404 1.49798 3 0 0 
-0.210866 -0.223427 1.40035 6 0 0 
-0.299338 -0.17399 1.48526 5 1 0 
-0.0242049 -0.194202 1.34063 17 14 7 
-0.00579082 -0.196944 1.35102 104 99 95 
-0.20935 -0.170462 1.37429 107 98 93 
-0.303633 -0.148327 1.48635 12 8 0 
-0.214938 -0.125281 1.35249 4 0 0 
-0.18499 -0.0460325 1.2857 113 105 92 
-0.255785 -0.00829545 1.33143 11 0 0 
-0.245349 -0.00601095 1.31054 10 1 0 
-0.0953553 0.0102893 1.21736 122 112 103 
-0.0860186 0.01118 1.22264 18 7 1 
-0.238985 0.0469719 1.27292 43 35 24 
-0.313604 0.0978715 1.37583 137 128 113 
-0.281387 0.139193 1.28589 26 19 1 
-0.287869 0.208401 1.25917 39 30 15 
-0.309803 0.277004 1.27362 24 13 0 
-0.255507 0.269797 1.17026 142 128 115 
-0.122624 0.254422 1.09467 98 89 82 
-0.317057 0.325091 1.27761 147 139 126 
-0.166448 0.282011 1.09125 135 128 120 
-0.235221 0.30547 1.12335 38 31 21 
-0.269945 0.418901 1.08508 128 116 104 
-0.137706 0.387954 1.00443 14 13 9 
-0.261108 0.426671 1.05914 114 108 96 
-0.0791164 0.402473 0.97587 4 3 0 
-0.0755085 -1.18843 2.19965 46 38 36 
-0.0431584 -0.796348 1.83004 37 23 12 
-0.171693 -0.576618 1.65906 16 13 6 
-0.244441 -0.573708 1.74645 83 73 63 
-0.0416222 -0.476425 1.51337 16 7 0 
0.0329589 -0.259784 1.37791 78 77 72 
-0.223001 -0.224548 1.40935 58 55 50 
-0.0296931 -0.00603215 1.23395 96 89 81 
-0.242759 0.230681 1.18319 36 29 21 
-0.314375 0.409874 1.16233 45 31 18 
-0.282111 0.433274 1.09197 22 14 3 
-0.266528 0.450514 1.03919 89 85 74 
-0.231436 0.439945 1.01248 23 19 20 
0.0740077 -0.612996 1.6847 17 7 6 
0.0932957 -0.60208 1.69111 111 103 90 
-0.115692 -0.494672 1.55174 18 12 12 
-0.110505 -0.210357 1.34756 12 8 5 
-0.153502 -0.1395 1.32362 96 92 83 
-0.289671 0.305165 1.21437 48 25 11 
-0.13356 -0.0969229 1.30135 19 14 8 
-0.211798 0.18868 1.15695 21 9 0 
-0.0810223 -0.538785 1.58991 40 34 20 
-0.0565042 -0.5277 1.57034 54 50 41 
-0.0799508 -0.470697 1.52451 15 8 2 
-0.170917 -0.432628 1.5237 93 89 80 
-0.146794 -0.425454 1.5091 119 116 111 
-0.103904 -0.43665 1.50269 119 116 111 
-0.236774 -0.394177 1.51455 105 101 90 
-0.241562 -0.375114 1.49687 117 108 99 
-0.240977 -0.350677 1.47143 89 85 76 
-0.156734 -0.326132 1.40805 11 8 3 
-0.226919 -0.304284 1.43842 5 0 0 
-0.214935 -0.301845 1.42686 28 24 15 
-0.265872 -0.285389 1.46607 9 6 0 
-0.188504 -0.292505 1.40622 18 12 0 
-0.113626 -0.309793 1.39441 56 49 39 
-0.237304 -0.280131 1.43511 16 9 3 
-0.210961 -0.28526 1.41605 116 113 108 
-0.231802 -0.277073 1.42695 1 0 0 
-0.290496 -0.26281 1.48883 12 5 0 
-0.15779 -0.287571 1.39044 7 2 0 
-0.16814 -0.283537 1.39307 4 0 0 
-0.241687 -0.264804 1.42687 7 2 0 
-0.248706 -0.255026 1.43016 10 5 2 
-0.238175 -0.243018 1.41615 71 66 63 
-0.24431 -0.234387 1.41254 107 107 99 
-0.311572 -0.207026 1.48972 96 89 83 
-0.0504593 -0.251306 1.37437 86 85 80 
-0.212453 -0.209843 1.3966 15 9 0 
-0.238005 -0.200295 1.39752 20 20 8 
-0.221335 -0.203883 1.40112 95 88 82 
-0.0755579 -0.230697 1.36324 83 79 70 
-0.248977 -0.190108 1.41769 10 3 0 
-0.273864 -0.183911 1.44865 6 2 0 
-0.135944 -0.212306 1.36054 32 27 21 
-0.269821 -0.176422 1.43935 6 0 0 
-0.183642 -0.192405 1.37159 89 85 74 
-0.197358 -0.18804 1.3776 97 88 81 
-0.253698 -0.169748 1.41381 86 77 70 
-0.179259 -0.177282 1.35955 101 94 86 
-0.208415 -0.170414 1.37416 106 97 88 
-0.235425 -0.163085 1.38219 24 19 13 
-0.249931 -0.15846 1.40559 10 2 0 
-0.292087 -0.147366 1.46152 31 22 13 
-0.261609 -0.152483 1.41326 140 130 120 
-0.224306 -0.157959 1.38052 111 107 98 
-0.238348 -0.147114 1.38466 34 25 16 
-0.294545 -0.133964 1.45606 91 84 74 
-0.263927 -0.140689 1.41194 37 31 17 
-0.247604 -0.143751 1.39375 9 2 0 
-0.219515 -0.14756 1.37003 95 92 83 
-0.123049 -0.167427 1.33738 30 22 11 
-0.184012 -0.153509 1.34768 89 80 73 
-0.283888 -0.131073 1.43711 98 88 79 
-0.237255 -0.1388 1.3768 97 87 77 
-0.0870525 -0.170334 1.3331 11 1 0 
-0.226107 -0.138881 1.36914 86 78 67 
-0.210416 -0.142032 1.35983 93 83 71 
-0.299039 -0.12059 1.45912 90 84 72 
-0.265546 -0.127293 1.40548 8 0 0 
-0.304494 -0.116033 1.46888 86 77 68 
-0.233003 -0.130909 1.36808 9 2 0 
-0.285763 -0.117595 1.43114 130 121 112 
-0.252376 -0.121423 1.38646 26 18 5 
-0.280557 -0.112716 1.42155 10 0 0 
-0.226687 -0.124952 1.36298 119 111 100 
-0.18888 -0.133266 1.33946 22 14 1 
-0.272354 -0.11358 1.4086 133 124 109 
-0.0547279 -0.157616 1.32432 123 114 105 
-0.290002 -0.103117 1.42978 8 0 0 
-0.239179 -0.114681 1.36986 93 88 82 
-0.221093 -0.117689 1.35576 106 93 85 
-0.262792 -0.10755 1.39183 39 30 21 
-0.0638053 -0.146817 1.31732 19 16 7 
-0.183945 -0.120691 1.33218 105 101 89 
-0.227559 -0.108963 1.35462 8 0 0 
-0.243539 -0.10562 1.36916 16 12 0 
-0.236971 -0.105838 1.35954 90 86 74 
-0.294867 -0.0911578 1.42893 27 20 4 
-0.257223 -0.100361 1.38063 110 101 86 
-0.215653 -0.107651 1.34618 16 4 0 
-0.272698 -0.0941237 1.39666 23 9 0 
-0.31854 -0.079815 1.49225 104 96 85 
-0.177867 -0.113126 1.32632 35 28 20 
-0.25211 -0.09588 1.3727 24 16 3 
-0.286219 -0.086536 1.41183 56 47 32 
-0.154257 -0.115537 1.31582 53 41 29 
-0.242358 -0.095593 1.36359 4 0 0 
-0.302705 -0.0793313 1.44146 20 13 0 
-0.224862 -0.0983084 1.34757 12 2 0 
-0.32211 -0.0715104 1.50336 93 89 80 
-0.264883 -0.0867731 1.3821 76 65 47 
-0.298384 -0.0746723 1.42771 96 90 76 
-0.236397 -0.0902307 1.35307 101 89 77 
-0.290864 -0.0755658 1.41141 8 0 0 
-0.0604517 -0.12514 1.30664 47 34 25 
-0.279425 -0.0744339 1.39822 111 102 85 
-0.265615 -0.0762139 1.37829 17 5 0 
-0.232493 -0.0830392 1.34425 14 7 0 
-0.310193 -0.0610227 1.44993 82 75 59 
-0.318086 -0.0562686 1.47315 50 43 27 
-0.212031 -0.0807913 1.32811 129 123 111 
-0.197964 -0.0824341 1.31862 27 18 9 
-0.251344 -0.0685937 1.35642 100 88 76 
-0.18765 -0.0827384 1.31074 103 91 77 
-0.276575 -0.0612771 1.38333 114 102 88 
-0.299117 -0.0540377 1.42362 26 18 7 
-0.295661 -0.0537404 1.41349 113 107 91 
-0.265393 -0.0608157 1.36967 110 102 91 
-0.0165101 -0.108974 1.30336 95 91 80 
-0.285915 -0.0515703 1.39602 122 112 102 
-0.216425 -0.0688285 1.32404 24 16 5 
-0.203606 -0.0718325 1.31823 161 153 142 
-0.245654 -0.0607328 1.34736 10 0 0 
-0.258217 -0.0572572 1.35864 105 96 81 
-0.232884 -0.0617407 1.33155 7 0 0 
-0.310913 -0.0388674 1.44442 104 96 83 
-0.316094 -0.0326864 1.45733 32 20 6 
-0.287391 -0.041355 1.39229 49 39 27 
-0.241047 -0.0530592 1.33773 81 71 62 
-0.261908 -0.0466269 1.35885 48 40 27 
-0.0427506 -0.0905761 1.29012 99 89 79 
-0.251435 -0.0446972 1.34826 119 106 97 
-0.175878 -0.061487 1.29808 26 13 0 
-0.306532 -0.0264419 1.42361 55 48 30 
-0.283778 -0.0335475 1.38087 22 9 0 
-0.318616 -0.0210089 1.45608 100 91 76 
-0.260331 -0.0387318 1.35179 14 1 0 
