ply                 
format ascii 1.0    
element vertex 1269
property float x    
property float y    
property float z    
property uchar red  
property uchar green
property uchar blue 
end_header          
0.063196 0.331418 1.06307 124 124 124 
0.0458735 0.32911 1.05629 23 23 23 
0.0807128 0.336725 1.06976 125 127 124 
0.0355854 0.336059 1.04729 170 174 173 
0.0591686 0.340905 1.05622 35 37 36 
0.0920665 0.347169 1.07104 138 138 140 
0.0469371 0.342431 1.04883 4 4 4 
-0.0669215 0.335867 1.01641 95 90 87 
0.0377228 0.347983 1.04182 93 93 91 
0.0603832 0.35201 1.05033 17 18 20 
0.114106 0.360729 1.06336 10 6 3 
0.0449272 0.358374 1.0406 117 117 117 
0.0020605 0.349667 1.01199 48 43 39 
0.0724991 0.370769 1.04941 93 94 86 
0.0850136 0.374765 1.05217 122 123 118 
0.0454101 0.369093 1.03529 85 80 74 
0.0679576 0.37874 1.04079 18 23 16 
0.0477937 0.379513 1.02984 90 92 91 
0.0759152 0.389648 1.03971 17 28 14 
0.109417 0.394425 1.04552 13 10 5 
-0.00186626 0.377919 0.994636 44 39 35 
0.0707249 0.396947 1.03262 102 102 110 
0.0460637 0.397082 1.0197 91 91 89 
0.0652369 0.408601 1.02649 70 70 70 
0.0113953 0.391561 0.986278 22 19 14 
0.0797225 0.41232 1.03032 76 80 81 
-0.00974628 0.392223 0.978236 105 104 99 
0.0946944 0.423785 1.03322 99 105 103 
0.0829918 0.427247 1.02307 44 46 58 
0.0708841 0.426933 1.0183 83 83 91 
0.0884471 0.439588 1.02123 12 13 18 
-0.199051 0.423682 0.992128 24 18 18 
0.0588446 0.435772 1.00855 96 99 104 
0.0755369 0.439777 1.01448 105 114 113 
-0.17617 0.422383 0.980596 90 89 84 
0.00665994 0.419484 0.956942 105 100 94 
-0.080745 0.417363 0.950656 65 64 60 
0.0826191 0.452152 1.01112 17 31 14 
-0.0438782 0.435721 0.93852 87 88 80 
-0.0735826 0.436625 0.938503 162 158 155 
0.0492709 0.461964 0.981123 2 4 0 
-0.0658648 0.444273 0.933241 124 120 119 
-0.0430154 0.453361 0.92775 67 66 61 
-0.0396914 0.447317 0.893936 60 54 40 
-0.016785 0.448141 0.89154 100 93 85 
-0.0535749 0.449947 0.889956 69 65 62 
-0.0523845 -0.783808 1.83115 24 20 8 
-0.0529523 -0.239731 1.36177 2 1 0 
-0.0336296 -0.170463 1.31638 32 32 24 
0.0561671 -0.157697 1.33533 31 28 23 
0.114605 -0.143131 1.36435 92 89 82 
-0.204678 -0.144979 1.36805 90 86 75 
0.11041 -0.0905902 1.33129 8 1 0 
-0.139208 -0.0711814 1.2979 90 54 54 
-0.150953 -0.0626596 1.3001 76 66 57 
-0.195515 -0.0608913 1.3139 7 0 0 
0.115521 -0.052785 1.31696 11 3 0 
-0.131234 -0.041062 1.28131 123 93 83 
0.0358132 -0.0298482 1.25647 79 78 76 
-0.0415543 -0.0252422 1.2395 13 6 0 
-0.027874 -0.0147174 1.2351 87 78 71 
0.133928 0.00465929 1.30139 86 82 81 
-0.0367079 0.00941744 1.2207 95 84 78 
-0.196137 0.0316948 1.26352 138 130 117 
-0.10078 0.0371392 1.21269 13 1 0 
-0.0149603 0.0445651 1.20348 88 83 79 
-0.0329207 0.0766059 1.18203 6 1 0 
-0.216387 0.100906 1.23607 102 90 78 
-0.178014 0.111284 1.20486 108 94 83 
-0.210439 0.206056 1.17391 32 19 0 
-0.137815 0.24989 1.10065 101 94 88 
-0.0730163 0.267057 1.07269 16 12 11 
-0.0238426 0.29926 1.03921 3 0 2 
0.0830472 0.354771 1.06289 121 122 117 
0.0909834 0.407309 1.0393 78 83 76 
0.111694 0.44693 0.997537 65 61 58 
-0.0991983 0.44208 0.940824 4 0 0 
0.117513 0.467139 0.845323 82 77 71 
-0.0208165 -0.87337 1.90188 114 110 99 
-0.178808 -0.259661 1.39128 68 68 66 
-0.17358 -0.184868 1.36908 107 103 92 
0.027419 -0.171827 1.3278 13 12 10 
-0.0884236 -0.109662 1.29231 11 8 0 
-0.0360218 -0.0935333 1.2752 19 10 5 
0.0887672 -0.0925657 1.31056 1 0 0 
0.0699937 -0.0854857 1.29994 8 0 0 
-0.205743 -0.0821192 1.33489 97 95 83 
0.0610381 -0.0546155 1.27828 31 27 24 
0.0964818 -0.0405664 1.29562 9 5 4 
0.143625 -0.0252176 1.3289 4 3 1 
0.0845745 -0.0120617 1.2709 90 86 83 
-0.160586 0.0209176 1.24559 95 82 73 
0.0586483 0.0451268 1.22639 74 66 64 
-0.0393475 0.0438785 1.19701 96 89 81 
-0.163054 0.0518209 1.232 32 19 2 
-0.052117 0.060964 1.19409 18 8 0 
0.0317741 0.0875273 1.19278 3 0 0 
-0.240734 0.126512 1.25133 64 52 40 
0.0134774 0.130396 1.16164 5 0 0 
-0.0524946 0.204037 1.11279 27 24 19 
0.0714363 0.339955 1.06214 108 107 105 
0.11677 0.351241 1.07101 4 0 0 
0.0889565 0.391496 1.04529 53 72 68 
0.111835 0.404541 1.03602 21 17 14 
-0.0286785 0.400465 0.967337 83 79 78 
-0.0589092 0.451867 0.928048 64 54 52 
-0.215898 -0.136957 1.37461 35 28 22 
0.0339639 -0.106506 1.29851 8 0 0 
-0.114548 -0.0880558 1.28581 28 19 10 
0.048791 -0.0865528 1.2915 6 0 0 
0.103249 -0.0664287 1.31407 5 0 0 
-0.252506 0.0615603 1.30504 40 30 20 
-0.0778021 0.0616509 1.19515 14 1 0 
0.0844086 0.126433 1.19026 54 52 53 
-0.234262 0.24679 1.17038 14 13 8 
-0.00456183 0.258676 1.06447 86 83 78 
0.096931 0.373827 1.05929 76 89 80 
-0.218714 -0.198258 1.40717 3 2 0 
-0.153347 -0.0831287 1.30233 23 14 5 
0.0376161 -0.0790624 1.28972 19 9 0 
0.0992244 0.0851625 1.23361 1 0 0 
-0.111697 0.300559 1.04622 8 2 2 
0.0963983 0.333371 1.08312 62 62 64 
0.0317546 0.359629 1.02155 159 111 13 
0.0311027 0.441344 0.953394 1 3 2 
0.087172 0.46706 1.00468 33 63 51 
-0.0793542 -0.264376 1.35778 68 67 63 
-0.133818 -0.0981842 1.29712 23 14 5 
-0.0192436 -0.0601686 1.26252 85 76 67 
-0.124061 -0.309597 1.39546 108 104 95 
-0.0800727 -0.289462 1.37647 37 34 29 
-0.251761 -0.276587 1.45663 5 0 0 
-0.170764 -0.26923 1.38896 133 124 115 
-0.211923 -0.209054 1.40473 105 96 87 
-0.259644 -0.165592 1.43073 28 19 10 
-0.244049 -0.161468 1.40914 17 8 0 
-0.20277 -0.135634 1.3561 20 10 0 
-0.218011 -0.119881 1.36024 85 81 69 
-0.186541 -0.120967 1.33721 120 113 103 
-0.206112 -0.112813 1.34614 113 100 94 
-0.251233 -0.103015 1.38493 121 110 104 
-0.200932 -0.104844 1.33717 16 9 1 
-0.249027 -0.0856109 1.37336 38 26 14 
-0.193804 -0.0736695 1.31471 133 123 113 
-0.244579 -0.066647 1.35544 27 19 8 
-0.185129 -0.0532025 1.29836 133 122 118 
-0.253478 -0.030113 1.34609 103 91 79 
-0.218019 -0.0276089 1.3075 143 134 119 
-0.200642 -0.0164839 1.2865 31 21 9 
-0.251485 -0.00728766 1.33127 61 41 30 
-0.278924 -0.00126758 1.36852 32 22 10 
-0.199522 -0.00258415 1.28067 40 30 21 
-0.274925 0.0156304 1.35023 111 102 87 
-0.186089 0.0111091 1.26434 34 22 0 
-0.247949 0.0217554 1.31273 25 12 4 
-0.209118 0.0178318 1.27701 38 23 2 
-0.240911 0.0290899 1.29959 13 0 0 
-0.208924 0.0518355 1.2595 35 23 9 
-0.253592 0.0771149 1.28787 140 124 109 
-0.183098 0.06742 1.23349 32 16 1 
-0.210073 0.0725352 1.24837 46 30 17 
-0.221804 0.0801864 1.252 111 98 79 
-0.205027 0.0906302 1.2346 26 9 0 
-0.252448 0.0999859 1.27601 14 0 0 
-0.221544 0.110972 1.23642 97 79 65 
-0.266903 0.137633 1.27224 155 144 124 
-0.183368 0.130901 1.19758 64 55 38 
-0.257096 0.153025 1.25037 54 39 18 
-0.280303 0.173853 1.2734 8 0 0 
-0.212408 0.161402 1.1998 44 35 20 
-0.240255 0.167859 1.22234 165 153 131 
-0.249586 0.199074 1.2188 36 20 0 
-0.190283 0.198474 1.16413 135 125 113 
-0.204343 0.220624 1.16248 51 38 22 
-0.220983 0.251744 1.15719 39 25 12 
-0.16694 0.256029 1.11751 15 9 0 
-0.221953 0.275209 1.14288 7 0 0 
-0.196635 0.28514 1.11725 34 25 16 
-0.202503 0.30348 1.09696 162 156 144 
-0.221986 0.314097 1.10589 158 151 141 
-0.181963 0.306834 1.08049 107 102 98 
-0.244321 0.327192 1.11529 19 14 8 
-0.16709 0.3127 1.06708 29 25 14 
-0.198002 0.321458 1.07656 23 19 10 
-0.188023 0.322287 1.07079 47 36 30 
-0.207952 0.333265 1.07738 33 24 15 
-0.165979 0.331652 1.05311 34 27 17 
-0.190509 0.340399 1.06121 31 24 14 
-0.18627 0.367366 1.04437 125 123 111 
-0.144751 0.378907 1.01854 105 98 92 
-0.162411 0.387664 1.01908 26 22 13 
-0.143517 0.397235 1.00248 1 0 0 
-0.184392 0.405792 1.01284 85 82 77 
-0.112938 -0.284937 1.37943 20 11 2 
-0.0411081 -0.285519 1.37426 9 6 1 
-0.12391 -0.0803432 1.30066 12 0 0 
-0.172945 0.00556335 1.26093 10 0 0 
-0.172546 0.0215551 1.25199 17 5 0 
-0.130798 0.147225 1.1639 17 9 0 
-0.26834 0.181745 1.24971 137 121 98 
-0.169828 0.369138 1.03489 13 6 0 
-0.196866 0.378426 1.0451 22 18 9 
-0.112721 0.376056 1.01274 18 10 7 
-0.113636 0.40289 0.986794 110 106 103 
0.016687 -0.286562 1.38555 92 88 89 
-0.00765578 -0.234972 1.36975 10 5 0 
-0.24378 0.0059334 1.31679 131 121 109 
-0.0706024 0.219362 1.11754 27 23 14 
-0.14679 -0.316482 1.40694 6 3 0 
-0.0864576 -0.278423 1.37026 81 80 76 
-0.235472 0.274691 1.15506 40 37 28 
-0.231647 0.332949 1.10472 16 9 1 
-0.189628 0.359659 1.0514 25 21 10 
-0.144447 0.279957 1.09 8 4 0 
-0.104383 -0.605933 1.67758 123 120 113 
-0.141559 -0.383067 1.45304 102 101 99 
-0.101314 -0.332779 1.40458 48 47 43 
-0.127399 -0.331688 1.41266 25 20 17 
-0.0630818 -0.326793 1.39369 13 13 11 
-0.0159612 -0.324271 1.3935 33 28 22 
-0.107489 -0.322733 1.39985 23 22 18 
-0.0643505 -0.314334 1.38745 107 103 102 
-0.0900974 -0.309103 1.39072 8 4 1 
0.00350335 -0.307847 1.38676 87 86 84 
-0.137224 -0.309404 1.40478 95 94 89 
-0.0928867 -0.297885 1.38662 2 2 0 
-0.120654 -0.295651 1.39117 25 24 19 
-0.0294447 -0.289495 1.37385 25 24 19 
-0.0123527 -0.286538 1.3735 10 10 10 
0.0233653 -0.285445 1.38242 26 22 19 
-0.182718 -0.290213 1.41824 13 12 8 
-0.127721 -0.276089 1.38272 7 6 1 
0.0658051 -0.277187 1.3953 40 40 38 
-0.19887 -0.284897 1.42674 13 13 11 
0.0292444 -0.272159 1.37907 87 86 82 
-0.0949552 -0.24904 1.37381 5 4 0 
0.0103815 -0.235062 1.37049 3 0 0 
-0.0586957 -0.231992 1.36067 100 96 93 
-0.0239247 -0.231409 1.36217 83 82 80 
-0.0999295 -0.221842 1.36249 37 38 33 
0.00997178 -0.219248 1.36209 101 97 96 
-0.000718763 -0.215008 1.35282 32 33 27 
0.0534817 -0.217048 1.37496 75 74 70 
-0.0317322 -0.213193 1.34994 26 25 21 
-0.192607 -0.207351 1.39852 1 0 0 
0.0299842 -0.199536 1.35504 83 79 76 
-0.00588025 -0.194394 1.34474 6 2 1 
0.0084245 -0.193165 1.34723 18 17 13 
0.0252694 -0.191288 1.34968 5 4 0 
-0.16094 -0.18843 1.36725 87 84 77 
-0.0260388 -0.177469 1.33073 79 78 73 
0.0906504 -0.179956 1.37771 31 27 26 
-0.149759 -0.154402 1.34402 95 90 84 
-0.157532 -0.130892 1.33442 8 3 0 
-0.0342761 -0.125431 1.30399 21 11 9 
-0.260354 -0.137477 1.43087 40 36 27 
0.0741563 -0.115554 1.32866 25 22 7 
-0.00657644 -0.0850859 1.2862 27 18 11 
-0.0501609 -0.0808224 1.27769 107 100 90 
0.0400555 -0.0524621 1.28205 8 0 0 
-0.0336533 -0.0387604 1.25652 101 92 83 
-0.190956 -0.0396114 1.30196 77 77 69 
-0.0796032 -0.0351045 1.25442 20 13 3 
-0.185037 -0.0278372 1.29354 96 90 78 
-0.254542 -0.000332065 1.34355 32 22 10 
-0.0296664 0.0235259 1.22326 11 0 0 
0.0452298 0.0638977 1.22196 5 1 0 
-0.0388674 0.0627201 1.20124 22 12 3 
0.0376325 0.0727269 1.21272 75 75 75 
-0.0550785 0.0713113 1.19534 21 17 6 
-0.256639 0.110744 1.28376 127 118 103 
-0.182821 0.105283 1.21662 64 47 27 
-0.029062 0.121259 1.16923 24 19 15 
-0.0682965 0.142043 1.15655 8 3 0 
-0.0342206 0.157578 1.14913 19 12 4 
-0.209789 0.180424 1.19331 49 39 27 
-0.17714 0.197027 1.16041 25 18 8 
-0.143075 0.198359 1.14197 97 93 84 
-0.179308 0.210066 1.15384 31 24 16 
-0.168281 0.209968 1.14798 8 0 0 
-0.0809841 0.225176 1.11033 27 18 13 
-0.25087 0.247157 1.19897 33 21 7 
-0.150375 0.234362 1.12367 78 78 68 
-0.204968 0.256597 1.14445 41 37 28 
-0.0376898 0.25706 1.09061 24 18 18 
-0.0630293 0.258669 1.0899 92 91 87 
-0.124767 0.261098 1.09845 118 111 105 
-0.0817675 0.296817 1.05331 79 73 75 
-0.151318 0.302354 1.06904 106 101 98 
-0.140641 0.307785 1.05711 96 95 93 
-0.128587 0.310545 1.04987 64 60 59 
-0.151008 0.317037 1.05379 90 87 82 
-0.178413 0.325412 1.0641 110 101 96 
-0.141597 0.323247 1.04698 145 140 136 
-0.112159 0.324376 1.03882 96 91 88 
-0.0776148 0.325694 1.02983 37 36 31 
-0.0955551 0.330619 1.03171 5 0 0 
-0.113573 0.33809 1.03032 4 0 0 
-0.0813002 0.338314 1.02556 101 96 92 
-0.201334 0.353031 1.06229 30 27 20 
-0.0955844 0.344988 1.02435 10 6 3 
-0.246234 0.370899 1.09302 89 81 78 
-0.0535123 0.34615 1.02082 82 79 74 
-0.0763499 0.347481 1.01987 106 101 97 
-0.159059 0.354343 1.03658 26 17 8 
-0.149916 0.359214 1.02976 16 11 7 
-0.0856505 0.359164 1.01478 12 4 1 
-0.243484 0.387838 1.08255 56 52 41 
-0.0984012 0.362653 1.01338 31 26 22 
-0.0661977 0.362174 1.01131 112 107 103 
-0.048493 0.362249 1.01118 104 99 96 
-0.0886637 0.369647 1.00834 153 149 146 
-0.141312 0.374958 1.01668 88 82 82 
-0.115843 0.373834 1.01071 22 18 15 
-0.165843 0.380855 1.02435 97 89 86 
-0.24868 0.404077 1.07723 20 15 12 
-0.219912 0.396464 1.0533 100 93 85 
-0.148089 0.384786 1.01335 25 21 20 
-0.105877 0.384478 1.00075 14 10 7 
-0.0700048 0.385289 0.996859 7 3 0 
-0.0319463 0.38614 0.998127 23 14 15 
-0.0830105 0.391861 0.987706 86 82 81 
-0.132102 0.398237 0.993885 88 83 79 
-0.0698683 0.40621 0.973222 91 87 84 
-0.129795 0.409233 0.980433 11 9 10 
-0.142778 0.424801 0.971899 74 70 67 
-0.171268 -0.448366 1.55434 102 99 94 
0.0315838 -0.341449 1.41178 47 47 47 
-0.0116571 -0.336596 1.40025 13 9 8 
-0.0783566 -0.317204 1.39153 10 9 7 
0.0276893 -0.302662 1.39259 1 0 0 
0.00162557 -0.297625 1.38363 5 3 4 
0.0404876 -0.270415 1.38027 59 58 56 
0.0247854 -0.234705 1.37421 81 77 76 
-0.259574 -0.198889 1.46354 8 7 3 
0.0139074 -0.176091 1.33769 24 23 19 
0.0846021 -0.132421 1.3488 105 101 90 
0.00804047 -0.123553 1.30988 8 0 0 
-0.155737 -0.112835 1.32328 15 7 0 
-0.137239 -0.0819289 1.31111 64 38 39 
-0.208067 -0.0483446 1.32185 143 139 128 
-0.175545 -0.0317558 1.28788 24 18 6 
-0.226917 -0.0313424 1.33009 105 97 86 
0.0524515 0.106088 1.20903 25 18 2 
-0.0137807 0.213138 1.12135 1 0 0 
-0.174823 0.270264 1.11374 104 101 92 
-0.160706 0.313337 1.06104 37 33 32 
0.0566095 0.329186 1.07608 15 15 15 
-0.129721 0.365979 1.01825 16 8 5 
-0.165491 0.414704 0.989946 19 15 12 
-0.0419052 -0.335763 1.39765 5 4 2 
0.00226015 -0.323802 1.39645 19 15 12 
0.0231576 -0.324911 1.403 87 86 84 
-0.0156761 -0.274146 1.36452 83 85 82 
-0.206528 -0.259517 1.41748 70 66 65 
-0.0151654 -0.20727 1.35087 3 2 0 
0.0529067 -0.206568 1.36912 8 7 3 
-0.0522224 -0.203609 1.34741 17 12 9 
-0.166824 -0.202478 1.37909 32 29 24 
-0.0308996 -0.0718985 1.27398 93 85 82 
-0.093358 0.0547162 1.20247 102 94 83 
-0.00442963 0.158398 1.15285 8 0 0 
-0.137602 0.283197 1.08176 15 7 5 
-0.137079 0.355498 1.02617 96 93 88 
-0.0167772 0.364456 1.01546 10 4 4 
-0.141445 0.399935 0.99765 99 98 93 
-0.14823 0.41211 0.984776 10 8 9 
0.0857671 0.0674382 1.24171 82 79 72 
-0.216819 0.261903 1.1552 53 43 34 
-0.114565 0.260342 1.09508 12 5 0 
0.0618058 0.405924 1.0425 93 94 98 
-0.075332 -0.250342 1.36065 60 59 55 
-0.0290042 -0.201813 1.3463 88 84 83 
-0.0651123 0.0758675 1.19615 14 3 0 
-0.128334 -0.261685 1.37208 57 57 47 
-0.0304267 -0.59267 1.63968 104 100 89 
-0.00588536 -0.582012 1.62334 25 17 4 
0.0175393 -0.587271 1.63859 95 93 80 
-0.0174292 -0.572614 1.61469 14 7 0 
0.036892 -0.588054 1.65054 102 97 94 
-0.0886566 -0.563717 1.63735 106 103 98 
-0.131587 -0.555904 1.64818 31 22 15 
-0.0174838 -0.546653 1.58618 148 144 133 
0.014551 -0.555717 1.61106 110 107 98 
-0.153398 -0.551785 1.65507 117 113 104 
-0.0196217 -0.531059 1.57506 32 28 17 
0.0244415 -0.543487 1.60922 29 27 15 
-0.116909 -0.528484 1.61649 101 96 92 
-0.0930529 -0.524678 1.59979 97 93 90 
-0.176674 -0.528313 1.64356 111 107 98 
-0.0704814 -0.519733 1.58556 143 136 126 
-0.0519808 -0.517601 1.57339 145 136 127 
-0.019757 -0.507904 1.54778 41 32 23 
-0.165296 -0.513884 1.62169 30 23 15 
-0.108155 -0.509393 1.58988 126 121 115 
-0.141893 -0.509639 1.60849 37 30 22 
-0.0890672 -0.504846 1.5775 137 134 129 
-0.0412873 -0.500953 1.55177 36 29 19 
-0.19827 -0.502743 1.6249 8 1 0 
-0.151963 -0.500703 1.6021 121 118 109 
-0.171025 -0.49984 1.61372 45 42 35 
-0.0556383 -0.490394 1.54244 129 120 115 
-0.0873826 -0.493834 1.56723 15 7 4 
-0.0198485 -0.486993 1.53014 113 107 95 
-0.153079 -0.490529 1.59301 99 91 88 
-0.163774 -0.487407 1.59491 117 114 109 
-0.111114 -0.483406 1.56136 111 104 98 
-0.127078 -0.485717 1.57822 102 95 87 
-0.0662791 -0.482035 1.54786 19 15 12 
-0.137657 -0.478115 1.57096 35 31 22 
-0.0577182 -0.474388 1.53575 33 29 26 
-0.0970812 -0.471114 1.54836 27 22 16 
-0.0456195 -0.464753 1.51742 40 36 27 
-0.185619 -0.469282 1.5878 48 43 40 
-0.14883 -0.46762 1.56907 111 104 94 
-0.0779487 -0.465159 1.53568 40 37 32 
-0.0614778 -0.460889 1.52399 23 19 16 
-0.0892965 -0.459759 1.53531 21 17 16 
-0.192894 -0.455887 1.57551 48 45 38 
-0.147035 -0.455355 1.55609 93 88 84 
0.146271 -0.508393 1.66213 109 106 101 
-0.0897531 -0.449071 1.52539 91 87 84 
-0.119874 -0.448018 1.53983 44 39 36 
-0.0328851 -0.440831 1.48847 94 90 87 
-0.172232 -0.441787 1.55493 42 38 37 
-0.133576 -0.440917 1.5389 110 105 102 
-0.187445 -0.441515 1.56481 120 113 107 
-0.215424 -0.435837 1.56856 22 20 8 
-0.217292 -0.425141 1.55943 2 2 0 
0.139921 -0.472904 1.62612 37 33 30 
-0.174371 -0.408591 1.51689 48 44 35 
-0.163461 -0.404267 1.5049 36 31 27 
-0.200648 -0.40454 1.52323 118 113 107 
-0.202359 -0.395485 1.51164 116 113 106 
-0.225887 -0.393098 1.52885 31 29 17 
-0.204726 -0.376715 1.48754 118 115 108 
0.0512607 -0.379952 1.44896 5 5 0 
-0.233549 -0.364271 1.50239 114 110 99 
-0.234379 -0.334804 1.47421 112 107 101 
0.0201677 -0.338117 1.41892 100 95 89 
-0.176349 -0.315282 1.43582 9 6 1 
-0.23882 -0.317075 1.47708 3 5 0 
-0.155754 -0.309109 1.42086 114 109 103 
-0.000334664 -0.3182 1.40355 140 133 127 
-0.0111245 -0.316551 1.40413 86 76 74 
-0.14517 -0.303569 1.4126 42 37 34 
-0.216743 -0.305124 1.45912 87 83 74 
-0.204774 -0.301414 1.44754 43 33 24 
-0.0340516 -0.306477 1.39433 42 39 34 
-0.0631642 -0.300943 1.39086 102 97 93 
0.117982 -0.328658 1.46487 24 20 17 
-0.00471226 -0.304056 1.39709 41 40 35 
-0.143586 -0.292596 1.40557 119 114 110 
-0.227535 -0.293656 1.46273 103 98 94 
-0.248933 -0.291254 1.48149 86 81 77 
-0.0740722 -0.284091 1.38241 81 77 78 
-0.0513664 -0.285627 1.3824 11 6 3 
-0.181113 -0.273017 1.41683 7 0 0 
0.126153 -0.306816 1.46006 27 24 17 
-0.232276 -0.274762 1.45646 75 72 67 
-0.215918 -0.272838 1.43788 23 20 15 
0.0501855 -0.290924 1.40759 33 28 22 
-0.0230143 -0.279345 1.37869 67 65 66 
0.0166059 -0.283174 1.39178 98 88 87 
0.0405064 -0.285185 1.39915 10 7 2 
0.0962937 -0.29503 1.43182 8 4 3 
0.081026 -0.291552 1.42354 80 75 72 
-0.284716 -0.274808 1.52343 12 7 3 
-0.22196 -0.259838 1.43784 63 59 56 
0.0923968 -0.275243 1.4194 91 90 86 
-0.248861 -0.250547 1.45912 93 85 83 
0.107015 -0.274331 1.42799 82 78 77 
-0.298073 -0.254966 1.53852 13 11 0 
0.118686 -0.273238 1.43653 30 27 22 
-0.236694 -0.241105 1.43794 134 135 130 
-0.286674 -0.242632 1.50454 31 27 18 
-0.291852 -0.241322 1.51623 30 27 20 
-0.224864 -0.230905 1.43321 11 8 1 
-0.283431 -0.230911 1.48838 81 77 68 
0.101125 -0.253963 1.4167 91 91 91 
0.00431397 -0.235294 1.37803 27 18 11 
0.0865817 -0.243659 1.40752 86 85 81 
-0.305001 -0.214183 1.52472 93 90 85 
-0.242667 -0.208787 1.45251 68 63 57 
-0.0868335 -0.205441 1.35811 37 32 28 
-0.130099 -0.19907 1.3694 81 77 68 
-0.303702 -0.200635 1.51538 35 26 21 
-0.177216 -0.196516 1.38772 87 82 76 
0.0143185 -0.209145 1.36865 5 0 0 
-0.241354 -0.195628 1.44248 14 3 0 
-0.19771 -0.191811 1.39757 91 86 83 
0.0448181 -0.20765 1.37643 66 66 64 
-0.0125022 -0.200503 1.35544 39 36 27 
0.0868141 -0.211179 1.40017 12 8 7 
-0.267578 -0.189113 1.47395 14 10 0 
-0.0472839 -0.191379 1.34841 39 34 28 
-0.118218 -0.184772 1.35383 25 18 12 
-0.106274 -0.184267 1.35315 37 28 19 
-0.247083 -0.178238 1.4426 107 100 92 
0.0900683 -0.199579 1.39758 78 74 73 
-0.206814 -0.175292 1.39889 97 90 80 
-0.175333 -0.175422 1.37682 88 83 77 
-0.228993 -0.16986 1.40597 5 2 0 
-0.214704 -0.17039 1.40435 38 31 23 
-0.288675 -0.172449 1.50229 28 21 13 
-0.265332 -0.168787 1.46116 26 22 10 
-0.283704 -0.168627 1.48953 120 112 101 
-0.197107 -0.166778 1.38387 21 14 8 
0.0413027 -0.182686 1.36245 15 11 8 
-0.17917 -0.165562 1.37368 30 25 19 
-0.0981855 -0.168309 1.34239 112 102 92 
-0.168872 -0.162441 1.36697 104 94 84 
-0.13689 -0.163279 1.35408 23 14 5 
-0.273616 -0.159842 1.4665 32 24 13 
-0.266598 -0.15819 1.45438 36 28 17 
0.120436 -0.18548 1.41497 81 77 74 
-0.187638 -0.157227 1.37367 31 20 14 
-0.260062 -0.155568 1.44391 17 7 0 
-0.248544 -0.153786 1.43221 29 20 11 
-0.210245 -0.151215 1.38872 8 1 0 
0.111963 -0.17612 1.39979 95 91 88 
-0.0786374 -0.155064 1.33197 19 10 3 
-0.241757 -0.146513 1.42007 116 107 98 
0.0514307 -0.163357 1.3576 100 95 92 
-0.056722 -0.152127 1.32918 105 95 85 
0.083983 -0.165485 1.37472 5 1 0 
-0.221124 -0.142055 1.39343 100 90 78 
-0.279681 -0.141586 1.46978 8 4 0 
-0.25113 -0.132904 1.41908 57 49 38 
-0.227535 -0.132301 1.38765 138 132 120 
-0.209698 -0.128959 1.37649 37 34 25 
-0.260778 -0.125308 1.42959 124 117 99 
-0.237484 -0.122198 1.39981 103 95 82 
-0.271843 -0.121249 1.44303 109 97 81 
0.0512085 -0.139564 1.34773 16 9 0 
-0.246904 -0.119585 1.40699 27 15 3 
-0.0696514 -0.127746 1.31619 93 89 78 
-0.282585 -0.1134 1.45897 7 0 0 
-0.237813 -0.111302 1.39265 16 7 0 
-0.230062 -0.110293 1.38098 6 0 0 
-0.256175 -0.108541 1.41298 9 3 0 
-0.183083 -0.110467 1.34592 15 11 2 
0.00420219 -0.120012 1.31817 10 6 0 
-0.217141 -0.100826 1.36911 55 48 38 
-0.277456 -0.097845 1.43699 59 51 38 
-0.180543 -0.101479 1.33758 120 110 100 
-0.289768 -0.0962326 1.46265 127 119 108 
-0.226705 -0.0960297 1.37119 4 0 0 
-0.208086 -0.0969774 1.35349 27 19 8 
-0.267472 -0.092305 1.42049 122 109 100 
-0.251695 -0.0920634 1.39808 13 1 0 
-0.28491 -0.0882506 1.44864 36 26 16 
-0.195157 -0.0896794 1.3431 44 36 25 
-0.234447 -0.0868561 1.37441 103 90 81 
0.109426 -0.110176 1.36018 9 6 1 
-0.0695223 -0.0938295 1.29693 111 101 92 
-0.296861 -0.0807745 1.46905 131 123 112 
-0.230397 -0.0820796 1.3654 22 12 3 
-0.189561 -0.08334 1.33426 124 114 104 
-0.0087677 -0.0951811 1.30033 95 82 76 
-0.279864 -0.0771129 1.43042 32 22 10 
-0.284938 -0.0764833 1.44032 94 90 78 
-0.268025 -0.0772235 1.41207 49 37 25 
-0.240078 -0.0772344 1.37515 20 11 0 
-0.0217342 -0.0920993 1.29993 29 19 10 
-0.301893 -0.0733294 1.47771 144 134 124 
-0.260226 -0.074508 1.3986 6 0 0 
-0.275502 -0.0712908 1.41802 27 14 0 
-0.0682739 -0.0843044 1.29172 17 8 3 
0.0696782 -0.0941081 1.32398 17 7 0 
-0.252021 -0.0709887 1.38589 120 112 99 
-0.299524 -0.0667821 1.46603 10 2 0 
-0.158916 -0.0733777 1.3113 116 105 83 
-0.265925 -0.064921 1.40218 116 102 91 
-0.230808 -0.0652956 1.3535 39 35 24 
-0.112377 -0.0714819 1.30575 73 54 50 
-0.256006 -0.0607389 1.38667 56 49 39 
-0.214922 -0.0634335 1.34147 25 15 5 
-0.279014 -0.0578844 1.42019 11 0 0 
-0.0839111 -0.066554 1.28309 27 14 0 
-0.266018 -0.0502989 1.39429 146 139 129 
-0.249508 -0.0515978 1.37234 67 57 45 
-0.259627 -0.0506942 1.38002 137 127 115 
-0.234203 -0.0513197 1.35269 50 40 31 
0.0778518 -0.073456 1.31994 6 0 0 
-0.0615165 -0.0622167 1.28097 128 119 110 
-0.309327 -0.0434987 1.47928 22 14 1 
-0.227203 -0.0460017 1.34425 3 1 0 
-0.286164 -0.0403453 1.42287 29 21 8 
-0.255263 -0.0425819 1.37296 105 97 86 
-0.193368 -0.0457276 1.31624 94 84 72 
-0.280448 -0.0375377 1.4092 10 0 0 
-0.292774 -0.0359385 1.43863 35 25 13 
-0.263596 -0.0356646 1.38147 10 0 0 
-0.217667 -0.0367615 1.33201 10 0 0 
-0.176291 -0.0397019 1.30328 12 1 0 
-0.238952 -0.0344444 1.34951 122 110 94 
-0.0882194 -0.0442825 1.27433 21 9 0 
-0.0706993 -0.0457403 1.27153 9 0 0 
-0.272972 -0.0262098 1.39119 128 120 107 
-0.120395 -0.0366869 1.29145 131 97 87 
-0.257741 -0.0234959 1.36602 77 68 53 
-0.238269 -0.0246566 1.3445 76 65 45 
0.037225 -0.0440103 1.28631 28 25 20 
-0.244514 -0.021974 1.35441 57 39 25 
-0.096476 -0.0305288 1.26653 39 32 16 
-0.206405 -0.0203667 1.31002 10 0 0 
-0.253075 -0.0150744 1.35686 133 124 109 
-0.2688 -0.0124311 1.38136 87 77 65 
-0.284121 -0.00769954 1.40185 40 28 14 
-0.220777 -0.0144347 1.32381 19 9 0 
-0.276858 -0.00688782 1.39026 120 112 101 
-0.188219 -0.0155753 1.2962 112 104 85 
-0.239804 -0.00739994 1.33575 24 10 0 
-0.212361 -0.00738454 1.30725 12 5 0 
-0.263255 -0.00105144 1.3627 58 45 29 
-0.1734 -0.00618321 1.28509 19 9 0 
-0.0444301 -0.0145032 1.25446 97 86 80 
-0.223688 0.00404847 1.31326 117 105 93 
-0.208586 0.00313773 1.30074 43 37 23 
-0.233789 0.0078193 1.32291 137 125 109 
-0.28247 0.0163721 1.38461 36 28 9 
-0.252511 0.0123654 1.33993 44 37 21 
-0.263625 0.0140565 1.3559 128 110 98 
-0.275401 0.0167939 1.37095 111 102 87 
-0.151397 0.00500453 1.27606 134 125 110 
-0.18908 0.00873834 1.2863 22 10 0 
-0.214839 0.0129563 1.3005 42 28 17 
-0.229465 0.0146618 1.31204 136 132 121 
-0.290889 0.0243065 1.39311 48 35 19 
-0.251836 0.0200792 1.33089 133 119 108 
-0.260028 0.0230095 1.34498 22 3 0 
0.0641405 -0.00165589 1.27821 14 13 11 
-0.270221 0.0256656 1.35521 41 28 11 
-0.298299 0.0345788 1.40539 24 15 0 
-0.227435 0.0257464 1.3061 114 108 96 
-0.181638 0.0214566 1.27199 111 99 83 
-0.252361 0.0310212 1.33099 11 0 0 
-0.197703 0.0261173 1.28453 40 30 20 
-0.244485 0.0320578 1.31822 79 63 47 
-0.27252 0.0377134 1.35502 44 34 22 
-0.151687 0.0250112 1.27046 11 0 0 
-0.288828 0.0418713 1.38486 12 0 0 
-0.260528 0.0377222 1.33375 31 19 5 
0.0162167 0.0141525 1.24973 21 16 13 
-0.252074 0.040296 1.32501 46 30 14 
-0.284908 0.0467291 1.37133 22 10 0 
-0.182898 0.0332004 1.26439 22 10 0 
-0.227871 0.0391208 1.29689 122 114 101 
0.0353756 0.0215021 1.25111 26 21 17 
-0.130032 0.0325443 1.25863 110 82 78 
-0.247322 0.0454107 1.31627 21 2 0 
-0.268595 0.0500934 1.3418 63 52 34 
-0.291253 0.0548214 1.37969 18 8 0 
-0.239797 0.0458438 1.30633 32 20 6 
-0.193607 0.0424211 1.26996 28 17 0 
-0.260826 0.05357 1.32671 48 40 27 
-0.220071 0.0485744 1.28838 107 93 80 
0.0474679 0.029674 1.25395 74 69 66 
-0.280525 0.0591691 1.35541 125 114 96 
-0.211659 0.0490625 1.27892 40 28 12 
-0.252593 0.0554955 1.31684 152 142 133 
-0.286255 0.0632224 1.36502 45 32 16 
-0.229742 0.053261 1.29126 22 16 4 
-0.28995 0.0657801 1.37626 121 112 97 
-0.243187 0.0585219 1.30435 112 105 89 
-0.197169 0.0530255 1.26381 133 121 99 
0.00859099 0.0376232 1.2349 17 10 4 
-0.265887 0.0639836 1.33365 69 60 43 
-0.259473 0.0640372 1.32089 22 13 0 
-0.215079 0.0601909 1.27608 155 147 128 
-0.0763224 0.0467291 1.2201 27 17 7 
-0.225518 0.0635051 1.28397 124 117 101 
-0.233554 0.0705821 1.28468 10 0 0 
0.0306165 0.0517958 1.23674 83 78 74 
-0.295347 0.0867281 1.36965 56 46 34 
-0.2777 0.0833151 1.33864 128 114 101 
-0.262261 0.0810235 1.31548 128 115 99 
-0.243138 0.0784965 1.2931 136 127 112 
-0.256521 0.0824196 1.3059 126 112 101 
-0.160071 0.0710247 1.2345 62 46 20 
-0.287116 0.0921944 1.35073 156 143 127 
0.0300727 0.061738 1.22789 83 78 74 
-0.2694 0.0921048 1.31995 33 21 7 
-0.227573 0.0844581 1.27274 89 73 58 
-0.251849 0.0902414 1.29473 30 16 5 
-0.279195 0.0977922 1.33146 26 16 4 
-0.240551 0.09038 1.28452 92 78 65 
-0.222043 0.0907936 1.26478 91 78 69 
-0.286122 0.104718 1.33861 35 26 11 
-0.272303 0.103227 1.31684 152 136 121 
-0.233691 0.0948907 1.26964 23 13 3 
0.00882898 0.0759792 1.21393 93 84 75 
-0.256845 0.102811 1.29489 123 110 94 
-0.240286 0.101005 1.27632 130 117 101 
0.037169 0.0802793 1.21898 11 7 4 
-0.00707736 0.0824066 1.20974 6 0 0 
-0.112404 0.0908907 1.21644 100 80 69 
-0.266824 0.111878 1.30395 56 43 26 
-0.220338 0.103738 1.25613 95 79 64 
-0.230416 0.108316 1.25939 21 11 1 
-0.293856 0.124073 1.34481 151 139 123 
-0.281853 0.120789 1.32194 129 120 103 
-0.299332 0.127422 1.35619 39 27 11 
-0.012104 0.090225 1.20233 95 86 81 
-0.247521 0.114679 1.2768 155 143 127 
-0.239039 0.113008 1.26775 14 0 0 
-0.120175 0.101124 1.21416 94 69 62 
-0.26819 0.123507 1.29974 76 65 45 
-0.254227 0.120471 1.28246 31 23 4 
-0.0489001 0.0992426 1.19271 6 0 0 
-0.3022 0.138668 1.35719 26 19 1 
-0.288103 0.133781 1.32616 75 62 45 
-0.13113 0.109215 1.21205 31 22 7 
-0.195785 0.115733 1.22863 116 100 87 
-0.260884 0.128672 1.28514 75 63 47 
-0.29819 0.140823 1.34696 83 78 58 
-0.245036 0.126689 1.26819 55 42 23 
-0.0674502 0.106901 1.18883 18 11 1 
-0.048065 0.109226 1.18881 19 11 0 
-0.250153 0.136648 1.26723 47 36 14 
-0.284015 0.146064 1.31281 21 9 0 
-0.270674 0.141649 1.29136 64 56 33 
-0.219184 0.13404 1.23641 154 142 126 
-0.163572 0.126464 1.20427 10 0 0 
-0.063605 0.117407 1.18236 22 13 6 
-0.23513 0.137813 1.2459 80 69 47 
-0.288439 0.155093 1.31853 22 9 0 
-0.247267 0.144518 1.26096 51 35 9 
-0.205211 0.139713 1.22417 147 132 113 
-0.271618 0.155193 1.28599 55 44 22 
-0.140926 0.1325 1.18973 107 97 85 
-0.280586 0.161527 1.30099 11 0 0 
-0.26091 0.155109 1.27026 40 26 0 
-0.0819821 0.130978 1.17783 101 96 92 
0.00409021 0.129279 1.18384 115 110 104 
-0.236922 0.152706 1.24381 40 29 9 
-0.131987 0.137306 1.18639 16 10 0 
-0.0316035 0.130299 1.17602 158 154 143 
-0.288698 0.169092 1.31107 27 16 0 
-0.297421 0.172643 1.32591 141 130 112 
-0.266264 0.162306 1.27558 47 34 17 
-0.0128916 0.13376 1.17743 157 148 141 
0.0773029 0.137399 1.21284 11 7 4 
-0.172097 0.149629 1.19452 59 43 30 
-0.250646 0.166836 1.254 80 66 40 
-0.16106 0.149903 1.18854 124 112 100 
-0.30989 0.189258 1.3507 79 66 50 
-0.280797 0.177157 1.29089 8 0 0 
-0.226733 0.164074 1.22772 13 1 0 
-0.300316 0.187685 1.32682 18 8 0 
-0.265007 0.174814 1.26634 26 14 0 
-0.14517 0.155917 1.17813 106 100 88 
-0.244063 0.173601 1.23957 79 62 36 
-0.276882 0.18491 1.27928 82 68 55 
-0.29326 0.194648 1.3051 44 32 18 
-0.2212 0.173912 1.2165 17 7 0 
0.0461534 0.156004 1.18458 96 95 93 
-0.0615585 0.156542 1.15993 104 100 89 
-0.268794 0.19002 1.26568 142 122 97 
-0.260757 0.188277 1.25134 143 132 114 
-0.197654 0.174442 1.1994 135 122 105 
-0.0168861 0.157914 1.16347 86 77 70 
-0.251461 0.186126 1.24088 149 133 118 
-0.177075 0.170963 1.18609 11 0 0 
-0.149801 0.170062 1.17438 34 24 14 
-0.273888 0.19846 1.27 73 61 45 
-0.292696 0.206296 1.2954 117 108 93 
-0.26233 0.198947 1.2522 62 46 23 
-0.00377714 0.168826 1.16104 12 2 0 
-0.298403 0.215459 1.30584 14 2 0 
-0.230884 0.192684 1.21576 121 114 104 
-0.189525 0.186769 1.18703 12 0 0 
-0.0892542 0.174641 1.15273 153 144 135 
0.0223253 0.172963 1.1647 88 83 79 
-0.289537 0.217436 1.2879 46 35 17 
-0.275102 0.210619 1.26017 64 52 38 
-0.262635 0.207034 1.2448 140 129 111 
-0.00572617 0.177805 1.15518 92 89 82 
-0.0308378 0.181074 1.14925 134 127 121 
-0.230971 0.205368 1.20846 57 45 29 
-0.288801 0.224928 1.27979 9 0 0 
-0.255101 0.213091 1.23266 151 138 121 
-0.141258 0.192466 1.1606 43 33 23 
-0.26553 0.216925 1.24148 26 13 0 
-0.276729 0.225422 1.25832 139 130 113 
-0.286315 0.230813 1.27124 29 17 3 
-0.242473 0.215362 1.21226 158 148 123 
-0.223996 0.214204 1.19749 35 17 0 
-0.157633 0.204318 1.15867 38 29 20 
-0.268654 0.230016 1.23853 149 135 109 
-0.284846 0.237657 1.2623 38 30 17 
0.0662289 0.194171 1.15073 75 71 70 
-0.232757 0.221783 1.20136 23 20 11 
-0.00744921 0.199368 1.14239 102 97 94 
-0.153405 0.210394 1.15109 8 0 0 
-0.263371 0.235823 1.23015 156 144 128 
-0.134544 0.209389 1.14576 116 107 98 
-0.0789927 0.204385 1.13519 13 2 0 
-0.276692 0.244409 1.24929 139 126 109 
-0.227932 0.227377 1.19238 24 12 0 
-0.301307 0.255961 1.29071 161 148 131 
-0.256849 0.237866 1.22067 148 134 121 
-0.294398 0.253224 1.27393 158 146 122 
-0.247262 0.235768 1.2109 33 23 13 
-0.218537 0.231027 1.18315 78 72 56 
-0.309293 0.26764 1.30257 156 145 127 
-0.275036 0.251323 1.23835 60 44 29 
-0.196305 0.229315 1.16262 21 13 2 
-0.282709 0.256108 1.24696 62 53 36 
-0.260684 0.248073 1.22026 34 22 6 
-0.0167815 0.214449 1.13175 85 78 70 
-0.233948 0.240575 1.18906 4 2 0 
-0.0764803 0.21809 1.12802 24 17 7 
-0.173675 0.233282 1.14937 26 20 8 
-0.267364 0.258851 1.22228 146 139 120 
-0.279482 0.266856 1.23874 91 82 65 
-0.256115 0.257642 1.20807 48 36 20 
-0.246079 0.255029 1.19656 137 125 109 
-0.0243835 0.226346 1.12585 76 68 66 
-0.234344 0.255534 1.18333 47 39 26 
-0.169226 0.240542 1.13998 129 122 112 
-0.183415 0.244114 1.14844 34 31 16 
-0.253465 0.263766 1.19809 59 46 27 
-0.276387 0.275922 1.22768 25 17 4 
-0.30983 0.294581 1.28535 35 26 9 
-0.242232 0.264047 1.18597 140 133 117 
-0.269326 0.274561 1.21489 152 144 121 
-0.0925578 0.239461 1.11648 23 13 11 
-0.00790319 0.238481 1.12177 69 65 62 
-0.152544 0.247977 1.12939 35 26 17 
-0.258916 0.273822 1.20083 145 137 124 
-0.250162 0.270255 1.18956 129 117 103 
-0.279877 0.288135 1.22863 126 114 100 
-0.266892 0.282172 1.20799 66 56 44 
-0.230696 0.270288 1.16915 125 112 96 
-0.256246 0.279992 1.19123 119 110 95 
-0.153833 0.257522 1.12431 20 11 2 
-0.31505 0.316137 1.29241 35 30 11 
-0.267135 0.290929 1.20209 77 65 41 
-0.247567 0.288056 1.17647 126 115 97 
-0.151894 0.266374 1.11724 104 95 86 
-0.140572 0.266728 1.11288 41 32 23 
-0.0828816 0.262932 1.10151 102 93 86 
-0.31035 0.327856 1.27326 49 37 15 
-0.256799 0.29939 1.18496 62 51 33 
0.0482145 0.26281 1.10507 13 8 4 
-0.244913 0.29693 1.16862 101 93 80 
-0.228352 0.292396 1.15491 30 20 8 
-0.052491 0.268551 1.09651 34 29 23 
-0.278338 0.316187 1.21112 123 113 101 
-0.236135 0.300801 1.15672 106 98 87 
0.0551712 0.273112 1.10422 120 115 111 
-0.222555 0.300262 1.14342 113 106 96 
-0.268032 0.317915 1.18703 120 112 99 
-0.274623 0.321451 1.19525 45 35 25 
-0.0385196 0.27795 1.08989 177 170 162 
-0.313702 0.349405 1.26897 155 146 131 
-0.0593668 0.278687 1.08763 6 1 0 
-0.243227 0.308057 1.15153 158 155 146 
-0.176958 0.291473 1.11002 43 36 28 
-0.15228 0.287968 1.09809 137 129 118 
-0.289307 0.336286 1.21362 123 111 97 
-0.261251 0.320894 1.17046 19 13 0 
-0.16741 0.294494 1.0997 38 32 20 
-0.215145 0.306731 1.12597 58 52 38 
-0.312027 0.35695 1.25979 44 34 22 
-0.238454 0.314051 1.14246 39 32 24 
-0.224531 0.309966 1.13255 131 122 113 
0.0469343 0.287349 1.09272 19 18 14 
-0.126547 0.291301 1.08384 115 112 105 
-0.142524 0.295578 1.08681 90 85 79 
-0.0543236 0.288751 1.07594 30 25 19 
-0.281233 0.337148 1.19027 53 43 31 
-0.208357 0.309673 1.11867 146 138 127 
-0.273836 0.333425 1.17829 28 20 9 
-0.259463 0.326093 1.15773 133 123 111 
-0.133947 0.298365 1.0794 91 92 87 
-0.267477 0.334312 1.1649 132 122 110 
-0.0960927 0.295022 1.07017 106 103 98 
-0.188071 0.309659 1.10079 13 5 0 
-0.168326 0.304767 1.08796 142 140 128 
-0.243289 0.32551 1.13482 30 21 14 
0.0251373 0.297862 1.07815 38 38 28 
-0.256417 0.333473 1.14788 127 114 97 
-0.209649 0.319705 1.107 36 27 18 
-0.276286 0.344763 1.16879 35 23 9 
-0.28915 0.351176 1.1825 20 11 4 
-0.201678 0.317294 1.09626 36 28 17 
-0.036915 0.301684 1.0658 15 15 5 
-0.0238337 0.302352 1.06732 0 1 0 
-0.297062 0.359709 1.19524 28 22 10 
-0.263106 0.341709 1.14472 148 138 128 
-0.250854 0.33679 1.13234 54 56 42 
-0.179694 0.317994 1.08436 116 108 105 
-0.0950553 0.307402 1.06074 124 121 114 
-0.28212 0.354143 1.16553 56 44 30 
-0.211752 0.327809 1.10008 141 132 123 
-0.288546 0.358788 1.17358 62 52 40 
-0.222449 0.333129 1.10803 12 3 0 
-0.306814 0.372129 1.2026 33 25 14 
-0.265759 0.351697 1.13788 77 69 58 
-0.252298 0.346409 1.12138 65 66 58 
-0.286691 0.363696 1.16253 40 30 18 
0.0120439 0.316131 1.06248 40 36 33 
-0.278657 0.360244 1.15162 60 51 36 
-0.218539 0.338244 1.09771 115 111 100 
-0.29345 0.371794 1.17029 25 18 8 
-0.0720124 0.318007 1.0499 78 73 67 
-0.197335 0.335609 1.08204 106 97 88 
-0.263837 0.36 1.13074 48 38 28 
-0.0434311 0.321068 1.04956 87 82 79 
-0.254495 0.356983 1.12356 109 105 93 
-0.321317 0.396623 1.21548 23 17 5 
-0.309068 0.387053 1.19246 49 41 30 
-0.28928 0.375228 1.16123 40 28 14 
-0.089154 0.325037 1.05066 84 79 73 
-0.22684 0.349261 1.09898 40 30 21 
-0.124542 0.330305 1.05297 11 7 0 
-0.275296 0.369685 1.13913 69 59 49 
-0.144891 0.33683 1.05241 13 10 3 
-0.268419 0.376476 1.13127 142 130 116 
-0.0151636 0.339426 1.046 6 1 0 
-0.303748 0.402127 1.17206 136 124 110 
-0.265055 0.37912 1.1194 135 125 115 
-0.145529 0.348049 1.04837 28 24 13 
-0.213997 0.365574 1.07923 117 107 98 
-0.296284 0.400684 1.15629 139 132 116 
-0.277289 0.390622 1.1328 121 109 95 
-0.108126 0.352746 1.03654 53 44 37 
-0.276417 0.399693 1.12735 121 109 95 
-0.267177 0.395008 1.11685 70 58 44 
-0.167381 0.363406 1.05047 33 30 21 
-0.306066 0.417602 1.1642 133 121 109 
-0.289907 0.409442 1.14573 49 42 26 
-0.261719 0.397887 1.10824 117 107 95 
-0.23011 0.388231 1.08075 129 119 109 
-0.270893 0.405664 1.11465 56 42 31 
-0.180591 0.376286 1.04822 68 59 50 
-0.255338 0.402515 1.09557 93 84 79 
-0.223765 0.39385 1.07073 147 143 132 
-0.148617 0.377693 1.03322 37 33 24 
-0.256177 0.414653 1.09085 46 38 27 
-0.174766 0.390277 1.03956 33 29 20 
-0.0931566 0.37919 1.0198 98 93 87 
-0.203739 0.398982 1.05159 156 153 144 
-0.12887 0.384311 1.02187 15 15 5 
-0.181901 0.399594 1.03655 19 16 7 
-0.157979 0.397929 1.02454 97 94 87 
-0.135407 0.39597 1.01519 11 8 3 
-0.0378083 -0.527692 1.57929 97 93 84 
-0.0794071 -0.511188 1.57814 43 34 27 
-0.160904 -0.4789 1.585 167 162 156 
-0.129732 -0.413059 1.49557 52 49 42 
0.137483 -0.434154 1.58854 8 7 3 
0.0728193 -0.332354 1.43744 27 22 19 
-0.129637 -0.300092 1.40622 22 19 14 
0.0506285 -0.315122 1.42027 25 23 24 
-0.163813 -0.289761 1.4126 20 15 11 
-0.09595 -0.290113 1.38857 22 21 16 
0.150787 -0.323293 1.48533 66 65 63 
0.111258 -0.314243 1.45257 27 23 14 
0.13813 -0.31523 1.47177 24 19 16 
-0.18937 -0.261514 1.41271 77 76 72 
-0.270223 -0.233619 1.47676 111 104 96 
0.142158 -0.254708 1.44783 47 45 48 
-0.26624 -0.211039 1.47029 63 59 56 
-0.252472 -0.192038 1.44935 17 7 0 
-0.263817 -0.181704 1.46568 7 0 0 
-0.0703505 -0.183331 1.34612 106 99 93 
-0.298563 -0.168874 1.51758 4 0 0 
-0.27349 -0.129051 1.45068 7 0 0 
0.0772709 -0.129274 1.35401 20 13 3 
0.0963176 -0.129469 1.36055 22 15 5 
0.000636208 -0.11073 1.31193 100 90 81 
-0.272643 -0.0416656 1.39704 20 12 1 
-0.111105 -0.0470123 1.28867 94 74 63 
0.011505 -0.0484147 1.27618 32 25 15 
-0.231984 -0.0170651 1.32989 36 26 14 
-0.122743 -0.0175323 1.27858 100 67 58 
-0.268236 0.0753216 1.32814 143 135 122 
-0.0040284 0.0545371 1.22049 3 0 0 
-0.192433 0.0911248 1.23809 155 142 125 
-0.154961 0.109727 1.21825 23 9 0 
-0.214473 0.121513 1.2479 124 116 95 
-0.175915 0.124644 1.21197 16 3 0 
-0.0801822 0.118093 1.18097 117 115 102 
-0.0982261 0.12286 1.18644 43 27 12 
-0.189261 0.141417 1.20847 12 0 0 
-0.190871 0.16217 1.21442 133 121 105 
-0.286936 0.273147 1.24933 137 126 108 
-0.304831 0.285656 1.28516 42 31 9 
-0.19249 0.303378 1.10853 21 11 1 
-0.0987732 0.355353 1.03273 27 27 19 
-0.283001 0.404435 1.13373 132 123 108 
-0.22509 0.413416 1.05628 17 14 5 
-0.171106 0.397986 1.02678 34 25 18 
-0.164086 -0.544554 1.64796 42 38 27 
-0.102003 -0.537507 1.61614 139 130 123 
0.0780564 -0.538662 1.64104 26 23 14 
0.00754825 -0.451856 1.50828 20 15 9 
0.0313314 -0.411613 1.47718 43 36 26 
0.0768832 -0.312195 1.431 111 110 106 
-0.189197 -0.247915 1.40297 70 66 65 
-0.00877424 -0.2379 1.37537 70 66 65 
-0.0273674 -0.224903 1.36819 7 4 0 
0.0355312 -0.165109 1.35132 93 90 85 
-0.27396 -0.148133 1.46247 27 19 6 
0.0277715 -0.111262 1.32336 41 34 26 
-0.21637 -0.0506067 1.33621 13 3 0 
-0.0509108 -0.0536815 1.26716 49 40 31 
-0.165971 -0.0413153 1.29766 101 91 66 
-0.286078 -0.0269741 1.40901 18 6 0 
-0.0939593 -0.0215764 1.26155 111 97 88 
0.0335306 -0.0241293 1.27516 6 1 0 
0.0213952 0.00274983 1.25576 4 0 0 
-0.284128 0.0321015 1.37838 13 0 0 
-0.179917 0.0434009 1.26225 16 6 0 
-0.0299271 0.0334575 1.22906 106 97 88 
-0.238029 0.0654731 1.29779 146 132 121 
0.062528 0.0522438 1.2482 101 97 94 
-0.20873 0.104472 1.25176 125 108 98 
-0.231406 0.117707 1.25416 8 0 0 
-0.186316 0.116535 1.22206 30 22 11 
-0.203198 0.15064 1.21828 35 21 8 
-0.271986 0.169404 1.28122 141 132 115 
-0.114273 0.143449 1.17329 14 6 0 
-0.258735 0.179574 1.25898 37 19 0 
-0.227579 0.181001 1.22479 29 12 0 
-0.238299 0.203119 1.21805 10 0 0 
0.101516 0.297233 1.11575 104 100 91 
-0.305013 0.379568 1.18486 109 101 90 
-0.238628 0.38057 1.092 28 21 11 
-0.185549 0.384232 1.05264 55 48 40 
-0.185687 0.390633 1.04446 142 132 122 
-0.0789176 -0.535483 1.60369 18 11 5 
-0.0581854 -0.521512 1.58341 128 125 118 
0.0699608 -0.517813 1.61718 11 8 3 
0.142425 -0.525418 1.67316 16 13 4 
-0.200486 -0.426962 1.55285 7 2 0 
0.0707979 -0.370636 1.45055 116 116 106 
0.103268 -0.371353 1.47872 37 33 24 
-0.0237346 -0.303966 1.40575 3 0 0 
0.0324727 -0.249764 1.38574 73 70 63 
-0.221471 -0.200104 1.43018 3 0 0 
-0.192423 0.0635341 1.24961 60 47 30 
-0.169948 0.103255 1.22992 109 89 64 
-0.0596052 0.229141 1.1138 36 27 18 
-0.202634 0.369648 1.07225 48 37 31 
-0.273858 0.416646 1.11328 51 42 27 
-0.23863 0.409717 1.07552 9 5 0 
0.135264 -0.623031 1.74042 86 88 85 
0.097658 -0.58039 1.6912 26 5 10 
0.087333 -0.572212 1.67849 102 92 90 
0.030943 -0.486381 1.55448 7 2 0 
-0.125965 -0.217369 1.37339 88 79 72 
0.0205112 -0.191377 1.3556 112 108 105 
-0.144619 -0.14613 1.34657 17 10 4 
0.0751868 -0.151749 1.37408 8 4 1 
0.0518454 -0.108901 1.32518 20 15 11 
-0.00163599 -0.0705432 1.29295 94 87 81 
-0.130769 0.227887 1.14679 13 3 0 
-0.274776 -0.221663 1.48025 66 56 47 
0.0445979 0.303657 1.08377 94 98 107 
-0.239257 -0.310158 1.44814 94 96 91 
-0.181619 -0.282056 1.39696 75 70 66 
-0.228834 -0.269577 1.42233 5 0 0 
-0.279277 -0.243119 1.46417 19 12 6 
-0.18118 -0.218046 1.3799 11 8 0 
-0.246144 -0.205627 1.42581 74 70 61 
-0.253572 -0.169628 1.41505 5 1 0 
-0.247653 -0.144633 1.39589 105 99 87 
-0.253004 -0.129725 1.39233 152 142 130 
-0.196936 -0.131629 1.34222 126 113 107 
-0.239741 -0.125072 1.37203 10 2 0 
-0.265537 -0.122538 1.40309 33 27 11 
-0.0625981 -0.137055 1.30706 16 3 0 
-0.0504626 -0.136989 1.30876 18 9 0 
-0.275019 -0.103235 1.40713 127 117 105 
-0.29366 -0.0951721 1.43615 36 28 17 
-0.304284 -0.0911543 1.45514 45 41 30 
-0.270652 -0.0915392 1.39276 124 118 104 
-0.284877 -0.0834042 1.41063 31 22 7 
-0.21902 -0.0857226 1.33336 9 0 0 
-0.255257 -0.0706257 1.36096 117 109 96 
-0.265772 -0.0694037 1.3735 102 88 75 
-0.284147 -0.053543 1.39415 131 121 109 
-0.27061 -0.0292197 1.35778 106 99 83 
-0.203805 -0.0368251 1.29476 12 2 0 
-0.25931 -0.0151593 1.336 128 120 107 
-0.271684 -0.0115608 1.353 127 124 109 
-0.296484 0.00251047 1.39028 31 22 7 
-0.270419 0.00520906 1.34035 123 110 94 
-0.0552891 -0.000916675 1.23434 131 122 115 
-0.26673 0.0387475 1.31482 64 52 38 
-0.282809 0.0515285 1.33214 20 10 0 
-0.253074 0.0455256 1.29596 14 0 0 
-0.236321 0.0524852 1.27056 35 28 18 
-0.27501 0.0693786 1.31051 121 110 90 
-0.285221 0.0727118 1.32695 148 137 115 
-0.244505 0.0644765 1.27756 144 130 117 
-0.224096 0.0693606 1.25418 120 108 94 
-0.246216 0.0746432 1.27253 147 137 125 
-0.278855 0.0824051 1.31177 101 89 73 
-0.121491 0.0722813 1.21563 101 70 65 
-0.243922 0.0877265 1.26197 92 85 69 
-0.286401 0.100706 1.31165 113 105 94 
-0.22217 0.0867585 1.24161 9 1 0 
-0.274997 0.10031 1.29411 140 132 111 
-0.264804 0.10203 1.27775 33 24 9 
-0.306038 0.117182 1.34736 52 42 30 
-0.254921 0.11357 1.25811 118 106 92 
-0.282042 0.125022 1.29324 33 21 7 
-0.0669963 0.0967837 1.18159 49 42 36 
-0.283615 0.141012 1.28739 21 14 0 
-0.30228 0.151096 1.31838 86 69 49 
-0.265533 0.142485 1.25656 73 65 46 
-0.299178 0.157776 1.30806 8 0 0 
-0.0507756 0.119744 1.16919 89 80 73 
-0.254271 0.147396 1.24023 61 43 19 
-0.07348 0.126265 1.16569 15 9 0 
-0.107874 0.134777 1.16241 19 15 3 
-0.0662176 0.133965 1.1612 106 92 89 
-0.295087 0.173576 1.2947 135 123 111 
-0.277068 0.166993 1.26143 29 20 5 
-0.0946258 0.13775 1.1582 12 5 0 
-0.255654 0.161799 1.23567 80 68 42 
-0.111727 0.146 1.15692 118 109 100 
-0.288842 0.180182 1.27457 109 93 77 
-0.28534 0.189081 1.26317 34 21 2 
-0.24671 0.178646 1.21567 36 24 0 
-0.263827 0.183703 1.23298 160 152 129 
-0.27234 0.196255 1.23996 74 62 48 
-0.206075 0.184193 1.17848 48 30 6 
-0.153602 0.176152 1.15074 108 101 93 
-0.266712 0.203229 1.227 120 111 96 
-0.130984 0.179834 1.14432 18 9 0 
-0.10443 0.180772 1.13777 33 26 16 
-0.306581 0.225597 1.28611 54 45 30 
-0.27786 0.213173 1.23557 67 58 41 
-0.0726949 0.180629 1.13452 114 103 97 
-0.255638 0.208227 1.2101 139 131 112 
-0.290475 0.22796 1.24923 53 46 30 
-0.293979 0.244388 1.24906 45 34 16 
-0.301578 0.248191 1.26132 56 48 25 
-0.286973 0.248583 1.23063 103 94 77 
-0.169389 0.221496 1.13578 13 9 0 
-0.271078 0.249261 1.20551 61 54 28 
-0.0553419 0.218375 1.11376 24 19 13 
-0.283143 0.256442 1.21902 64 53 35 
-0.258928 0.252198 1.18896 51 44 25 
-0.248194 0.248317 1.17654 53 44 29 
-0.137517 0.230199 1.11611 24 14 5 
-0.256232 0.258401 1.1797 60 47 30 
-0.215855 0.247823 1.14708 114 110 98 
-0.129734 0.240322 1.10803 17 13 2 
-0.261553 0.268412 1.18265 146 140 126 
-0.247022 0.262939 1.16664 13 4 0 
-0.228763 0.261168 1.14954 48 36 24 
-0.274407 0.278742 1.19376 59 50 33 
-0.139334 0.251147 1.10484 113 102 96 
-0.312626 0.304581 1.25777 113 107 91 
-0.266603 0.282131 1.18008 66 50 34 
-0.259217 0.284932 1.16878 126 120 106 
-0.272299 0.300041 1.1777 19 10 0 
-0.164028 0.273596 1.10071 28 24 12 
-0.2793 0.305526 1.18532 92 86 74 
-0.134684 0.273054 1.08991 127 123 114 
-0.279173 0.314355 1.17683 46 37 22 
-0.270806 0.310969 1.16725 122 114 101 
-0.29405 0.330515 1.19845 28 19 2 
-0.284911 0.327341 1.17417 48 41 25 
-0.236155 0.312067 1.11468 122 118 106 
-0.268227 0.325288 1.14434 57 47 35 
-0.160753 0.302757 1.06861 118 115 106 
-0.238774 0.324893 1.10547 21 17 6 
-0.320755 0.36979 1.2083 123 121 109 
-0.284457 0.347565 1.14343 61 54 44 
-0.2641 0.342678 1.11924 113 109 98 
-0.3098 0.369353 1.17182 122 115 99 
-0.295941 0.36321 1.14925 28 22 10 
-0.279312 0.356218 1.12854 27 18 3 
-0.264424 0.355964 1.10973 51 41 31 
-0.148361 0.334436 1.03978 81 78 73 
-0.275781 0.371345 1.11323 54 41 24 
-0.280007 0.381929 1.1131 126 119 103 
-0.276687 0.389676 1.10565 122 113 98 
-0.270091 0.386188 1.09746 61 49 35 
-0.0540549 0.361674 1.01491 133 132 127 
-0.145146 0.366252 1.0225 38 29 22 
-0.26433 0.396033 1.0836 47 40 30 
-0.172724 -0.314811 1.41009 19 17 18 
-0.197504 -0.286092 1.40713 11 8 3 
-0.286483 -0.283584 1.49613 10 6 3 
-0.0168054 -0.17871 1.33454 35 26 19 
-0.0549118 -0.168067 1.32546 97 85 73 
-0.227926 -0.135429 1.25953 43 33 24 
-0.248943 -0.115167 1.37768 142 134 123 
-0.04719 -0.0571258 1.26593 35 25 15 
-0.277257 -0.0156535 1.36193 54 44 32 
-0.0619406 -0.0151101 1.24175 102 91 85 
-0.256635 0.0298064 1.30855 30 18 6 
-0.24691 0.0530608 1.28444 126 114 100 
-0.288573 0.0903282 1.32403 51 39 23 
-0.186426 0.0758243 1.22376 27 9 0 
-0.101831 0.0942503 1.18396 107 94 85 
-0.0877882 0.0962255 1.18321 115 104 98 
-0.100965 0.112034 1.1753 7 0 0 
-0.119463 0.120092 1.17253 144 132 118 
-0.279976 0.193612 1.25275 146 133 114 
-0.132309 0.195132 1.13479 21 11 1 
-0.311723 0.261322 1.2791 153 140 124 
-0.0737542 0.211935 1.1188 136 132 121 
-0.289734 0.267332 1.22837 134 125 108 
-0.032792 0.23546 1.10625 71 66 62 
-0.100811 0.27078 1.08446 28 19 14 
-0.192604 0.286574 1.10436 134 130 119 
-0.0303987 0.28225 1.07531 1 0 0 
-0.27317 -0.230091 1.44966 88 84 83 
-0.279196 0.0916932 1.30464 27 19 6 
-0.250281 0.120443 1.2495 58 42 27 
-0.0888903 0.167886 1.14152 14 7 0 
-0.28452 0.234391 1.23601 154 147 129 
-0.0467708 0.223825 1.11077 6 2 0 
-0.117352 0.237094 1.1088 23 14 5 
-0.0706342 0.25042 1.09405 23 16 8 
-0.0462117 0.256302 1.09556 5 2 0 
-0.266042 0.294107 1.1678 39 32 16 
-0.239588 0.285395 1.14351 19 15 3 
-0.123736 0.286764 1.07049 107 102 98 
-0.31472 0.384732 1.17111 66 60 44 
-0.307912 -0.207709 1.48968 96 91 85 
-0.232446 0.0653354 1.261 19 12 4 
-0.0578991 0.196704 1.12759 20 15 12 
-0.202741 0.295109 1.10347 24 22 10 
-0.0729119 -0.251767 1.36939 70 69 65 
-0.0435379 -1.22298 2.22759 32 31 27 
-0.176965 -0.312045 1.42032 6 3 0 
-0.0693559 -0.293022 1.37486 108 107 105 
0.0297239 -0.287362 1.38613 28 24 21 
-0.0323826 -0.222979 1.355 2 2 0 
-0.105437 -0.201543 1.34762 31 28 23 
-0.0761181 -0.166386 1.32377 83 74 65 
-0.00354299 -0.156476 1.32421 86 82 79 
-0.177921 -0.146681 1.34788 13 6 0 
-0.0688927 -0.12563 1.30112 101 91 81 
-0.0904767 -0.119582 1.29991 10 0 0 
-0.0734183 -0.104784 1.29044 25 17 14 
0.00780459 -0.101294 1.29668 15 10 6 
-0.0723854 -0.0246312 1.2473 32 19 10 
0.00326867 -0.0142843 1.24648 9 4 0 
-0.198756 0.00940968 1.27698 34 30 18 
-0.204581 0.0350609 1.26863 103 93 83 
0.00877788 0.0655027 1.20634 15 8 2 
-0.052659 0.0971082 1.17917 7 0 0 
-0.100269 0.121587 1.16889 115 101 92 
-0.124611 0.230684 1.11331 22 11 5 
-0.170627 0.237468 1.12842 112 108 99 
-0.0419789 0.246885 1.09556 89 88 86 
-0.178893 0.29015 1.09434 17 6 0 
-0.197433 0.312967 1.08396 50 47 40 
-0.20944 0.326716 1.08074 22 17 13 
-0.0684739 0.451724 0.907161 30 23 13 
-0.012669 -0.165883 1.32618 71 65 67 
-0.0421996 -0.0701438 1.26954 113 102 96 
-0.0675023 -0.0578385 1.26415 102 98 87 
-0.0331025 0.0773849 1.19167 6 1 0 
-0.15286 0.207993 1.13551 131 122 113 
-0.219154 0.333529 1.08552 112 103 94 
