ply                 
format ascii 1.0    
element vertex 1263
property float x    
property float y    
property float z    
property uchar red  
property uchar green
property uchar blue 
end_header          
-0.166312 0.305957 1.50766 151 144 134 
-0.298627 0.320192 1.58177 126 122 113 
-0.127293 0.320126 1.48395 18 13 9 
-0.176779 0.326731 1.493 95 86 79 
-0.278757 0.361562 1.52377 20 13 7 
-0.0011493 -0.00629451 1.63367 107 100 92 
-0.116732 0.000765304 1.65112 108 103 97 
0.0113364 -0.345365 1.791 112 109 104 
-0.251338 -0.400304 1.87444 98 94 91 
-0.087102 -0.533123 1.86388 24 19 15 
-0.134927 -0.570112 1.88486 4 0 0 
-0.20478 0.115478 1.62308 92 87 81 
-0.153933 0.433841 1.43369 143 139 130 
-0.252022 0.479587 1.44093 116 112 103 
-0.00180062 -0.41226 1.81941 18 10 7 
-0.00831961 0.1741 1.54469 151 143 130 
-0.126558 0.560835 1.29325 112 108 96 
-0.0116789 -0.209953 1.72336 4 0 0 
0.0194954 -0.0237222 1.64854 110 101 92 
-0.18772 0.178029 1.58464 109 100 91 
-0.173785 0.296378 1.52247 79 72 66 
-0.0273722 -0.296304 1.76269 8 3 0 
-0.0100917 -0.236515 1.73928 12 4 1 
-0.0120097 -0.113729 1.68024 121 111 109 
-0.103382 0.39807 1.44122 25 18 12 
-0.14923 -0.422829 1.84767 4 0 0 
-0.0232571 0.456544 1.40642 132 128 119 
-0.137633 -0.121729 1.70846 130 125 121 
-0.00342444 -0.16708 1.70606 22 18 9 
0.0540381 0.329993 1.49243 113 106 96 
-0.235107 -0.596046 1.92226 10 5 2 
-0.228094 0.289349 1.55456 23 14 7 
-0.265141 0.61089 1.31337 105 93 81 
-0.197983 0.613702 1.28067 95 86 71 
-0.198742 0.575971 1.30203 89 84 78 
-0.135866 -0.482859 1.85695 89 84 78 
0.0299518 -0.33892 1.79225 98 93 89 
-0.106287 0.0181314 1.64238 19 19 11 
-0.0385473 -0.244039 1.7342 27 18 13 
-0.247158 0.138801 1.62602 99 96 87 
-0.0171198 0.190728 1.54044 20 13 7 
-0.153338 -0.0133386 1.66038 11 2 0 
-0.181106 -0.000860792 1.68468 154 145 136 
-0.214411 0.0429475 1.66476 196 186 177 
-0.394174 0.0145048 1.82008 9 2 0 
-0.270432 0.0996498 1.65609 139 135 124 
0.00364884 -0.123773 1.69445 11 6 2 
-0.314795 0.115754 1.67911 119 114 110 
-0.0218765 -0.13693 1.69005 4 0 0 
-0.338045 -0.116568 1.79775 135 127 124 
-0.376125 0.192433 1.71655 109 104 98 
-0.448095 -0.166757 2.01642 13 5 0 
-0.35976 0.214745 1.69436 7 0 0 
-0.431383 0.473004 1.69901 144 148 149 
-0.325774 -0.19266 1.82423 1 0 0 
-0.438231 0.456222 1.73559 16 10 10 
-0.0488171 0.188724 1.54836 127 122 116 
-0.360173 0.275349 1.65874 5 0 0 
-0.358674 -0.247772 1.89168 102 101 99 
-0.444073 0.309021 1.74181 106 102 101 
-0.432118 0.327233 1.71249 18 13 7 
-0.35782 0.311114 1.63982 120 116 107 
-0.0556172 -0.337375 1.77513 8 5 0 
-0.339615 -0.288341 1.8882 110 109 105 
-0.233362 0.293047 1.54795 166 157 148 
-0.179415 -0.33035 1.8153 129 125 122 
-0.421658 -0.311943 2.00741 123 122 117 
-0.286448 0.337588 1.54051 141 136 132 
-0.406345 0.397175 1.67019 127 133 133 
-0.4129 0.404062 1.67934 31 40 49 
-0.424447 0.413598 1.6988 140 145 151 
-0.443859 0.429398 1.74353 96 96 94 
-0.41413 0.414927 1.68271 38 42 54 
-0.263111 -0.385886 1.87712 115 111 108 
-0.431872 0.425216 1.72086 22 26 35 
-0.408515 0.412718 1.67062 21 25 36 
-0.414036 0.090994 1.84815 131 125 111 
-0.440197 0.438865 1.73711 134 135 139 
-0.425703 0.429685 1.69165 139 143 154 
-0.431649 0.442731 1.71327 146 146 154 
-0.429028 0.444857 1.69492 158 158 156 
-0.420434 0.443789 1.6812 35 37 36 
-0.41045 0.444952 1.65899 151 153 152 
-0.41722 0.455574 1.67422 68 67 62 
-0.260513 -0.0396035 1.72312 88 79 72 
-0.424155 0.459525 1.6846 25 24 20 
-0.420965 0.470744 1.67789 30 31 33 
-0.426574 0.478053 1.68593 146 151 147 
-0.432257 0.494402 1.70559 19 21 18 
-0.416308 0.482506 1.66141 45 43 44 
-0.429346 0.501967 1.69192 50 49 44 
-0.413616 0.491579 1.65489 112 113 108 
-0.424479 0.503144 1.68027 131 130 126 
-0.1883 -0.525832 1.88462 111 110 105 
-0.442261 0.521196 1.70087 72 35 0 
-0.418126 0.508209 1.6503 116 116 114 
-0.338331 0.38222 1.55365 12 11 6 
-0.4525 0.528981 1.696 73 34 0 
-0.421584 0.526839 1.65976 5 10 3 
-0.217362 -0.578582 1.90618 139 136 131 
-0.406386 0.539773 1.62019 111 115 116 
-0.40553 0.554304 1.61332 129 127 132 
-0.218193 -0.670844 1.9627 41 36 17 
-0.238975 -0.666256 1.96687 18 14 3 
-0.40952 0.601655 1.61817 126 125 131 
-0.42736 0.61777 1.65296 119 119 117 
-0.198197 -0.797444 2.08416 17 16 12 
-0.122663 -0.839101 2.06746 19 9 0 
-0.431034 0.455706 1.71217 46 49 42 
-0.409285 0.436473 1.64836 128 129 131 
-0.442996 0.451859 1.72441 33 26 18 
-0.293252 -0.427957 1.91154 92 84 82 
-0.384389 -0.253267 1.9205 20 17 12 
-0.29377 -0.402828 1.90914 106 103 96 
-0.279102 0.0254483 1.69933 122 112 111 
-0.334902 -0.167348 1.81943 22 18 15 
-0.0502826 -0.478583 1.84127 11 8 1 
-0.405168 0.0785233 1.83998 129 127 114 
-0.230511 -0.437043 1.88543 95 91 88 
-0.319313 -0.393333 1.91419 8 5 0 
-0.485059 -0.422051 2.18056 110 107 102 
-0.248639 -1.02106 2.29116 37 36 31 
-0.263301 -0.0743135 1.73367 12 9 4 
-0.0990623 0.0111602 1.6417 100 98 86 
-0.310214 -0.387881 1.90495 135 134 129 
-0.482188 -0.39986 2.15846 3 0 0 
-0.173056 -0.41055 1.85142 112 113 107 
-0.467685 -0.481717 2.14171 24 15 16 
0.0111299 -0.0405792 1.65138 5 0 0 
-0.31896 -0.381493 1.90832 17 12 9 
-0.244856 -1.23303 2.47272 33 27 13 
-0.335224 0.0589695 1.73082 11 8 1 
-0.435122 0.476045 1.71582 106 104 105 
-0.175041 -0.397076 1.8462 5 4 0 
-0.425693 -0.250582 1.98999 3 0 0 
-0.262585 0.323392 1.53834 127 123 114 
-0.391873 0.0845702 1.77822 15 10 4 
-0.418346 0.405727 1.6905 22 29 37 
-0.428941 -0.363152 2.05453 108 108 106 
-0.235031 0.343781 1.49885 120 116 107 
-0.326305 0.363772 1.55082 13 9 6 
-0.387063 0.0791125 1.79357 93 89 86 
-0.298978 -0.98629 2.28309 130 125 119 
-0.314961 -0.513619 1.93109 94 89 85 
-0.195145 -0.822121 2.09474 130 127 118 
0.0260224 -0.0510308 1.66171 4 0 0 
-0.302785 -0.342983 1.8689 9 4 0 
-0.339395 -0.121399 1.80966 4 0 0 
-0.434921 -0.344935 2.05871 3 0 0 
-0.128555 -0.816827 2.06063 23 20 11 
-0.377928 0.178895 1.72442 8 0 0 
-0.368207 -0.335013 1.93894 10 6 3 
-0.308043 0.164326 1.66702 8 3 0 
-0.29753 -0.11901 1.76154 117 110 102 
-0.123697 -0.79756 2.04586 47 44 37 
-0.45109 0.387728 1.7363 101 97 96 
-0.0597152 -0.38868 1.81021 109 110 104 
-0.323495 -0.000141627 1.74037 10 7 2 
-0.139675 -0.782963 2.04074 32 32 20 
-0.0458299 0.022703 1.63023 149 142 132 
-0.424794 0.370767 1.67341 69 64 60 
-0.279788 -0.809044 2.12779 16 15 11 
-0.434019 -0.332002 2.05197 5 2 0 
-0.278273 -0.115031 1.76686 12 7 3 
-0.402726 0.204334 1.75521 82 81 77 
-0.427071 -0.148539 1.95188 87 80 72 
-0.192706 -0.742792 2.03036 135 131 120 
-0.238141 0.316916 1.52371 4 0 0 
-0.440074 -0.482845 2.06119 3 0 0 
-0.154986 -0.731498 1.99348 34 30 18 
-0.427042 -0.165627 1.96007 89 84 80 
-0.421006 -0.175502 1.94313 20 9 3 
-0.0574818 -0.244817 1.75586 6 0 0 
-0.406484 0.568628 1.61399 114 115 119 
-0.428577 -0.310677 2.02938 19 16 11 
-0.18463 -0.889863 2.14375 41 37 26 
-0.27555 -0.503542 1.90627 100 93 87 
-0.297282 -0.879743 2.19593 31 24 16 
-0.388023 -0.204117 1.90877 111 105 105 
-0.358616 -0.20679 1.87225 113 110 105 
-0.119053 0.283092 1.51434 4 0 0 
-0.0474013 -0.269685 1.74751 118 113 107 
-0.334747 -0.300584 1.89051 115 112 105 
-0.386164 -0.220222 1.90627 4 0 0 
-0.374556 -0.0555595 1.82209 101 97 94 
-0.444184 0.519375 1.718 119 104 97 
-0.120547 -0.942968 2.15671 124 120 109 
-0.393493 -0.506226 2.0077 104 101 94 
-0.46917 -0.314349 2.20023 3 0 0 
-0.146652 -1.05572 2.2749 35 26 17 
-0.396965 -0.22206 1.89653 18 10 7 
-0.221407 0.0946477 1.62737 11 7 0 
-0.360361 0.498601 1.51481 91 82 77 
-0.330154 -0.236282 1.86575 25 21 12 
-0.213761 0.0880564 1.63189 128 123 120 
-0.41563 -0.281207 1.99861 113 108 104 
-0.279294 -0.0552082 1.72959 6 0 0 
-0.366581 -0.51528 1.97626 93 94 86 
-0.324048 -0.0310494 1.76385 34 30 27 
-0.40133 0.119027 1.79339 7 0 0 
-0.42982 0.534901 1.68531 114 107 101 
-0.442673 0.52413 1.68317 34 0 0 
-0.409088 -0.266317 1.97836 8 5 0 
-0.428388 0.525361 1.67293 37 28 0 
-0.323616 -0.263996 1.84728 100 97 92 
-0.331916 -0.528338 1.95001 100 97 92 
-0.267289 -0.982051 2.27214 130 128 116 
-0.369374 -0.977231 2.38659 22 8 5 
-0.379715 -0.532758 2.002 13 10 3 
-0.399244 -0.540759 2.02715 106 101 95 
-0.429634 -0.175493 1.97534 43 33 23 
-0.367313 -0.254205 1.90059 96 88 86 
0.0283333 -0.0130506 1.64337 4 1 0 
-0.376981 0.222914 1.71175 5 0 0 
-0.280897 -0.261723 1.83101 16 8 5 
-0.221289 -1.11919 2.36035 127 123 111 
-0.314759 0.0986637 1.69551 124 117 107 
-0.311164 -0.0455794 1.75231 6 3 0 
-0.463757 -0.180969 2.12387 104 100 91 
-0.302401 -0.83182 2.15391 111 108 99 
-0.275232 -0.529641 1.91859 85 84 82 
-0.35876 -0.945515 2.34237 37 28 21 
-0.429787 -0.273361 2.03098 8 5 0 
-0.379096 -0.0736539 1.83321 8 3 0 
-0.309447 -0.453629 1.93579 96 91 87 
-0.427334 -0.239079 2.00396 123 120 111 
-0.419081 0.00667774 1.86583 107 102 96 
-0.300787 -0.0297759 1.74432 6 0 0 
-0.0532207 -0.0753498 1.65739 6 0 0 
-0.0562956 -0.286284 1.77945 6 1 0 
-0.424842 -0.186659 1.95968 7 0 0 
-0.308492 -0.573542 1.94549 14 7 0 
-0.195589 0.291167 1.53188 14 11 6 
-0.402517 -0.509665 2.02397 121 118 111 
-0.425611 -0.214348 1.97302 13 4 0 
-0.246842 -0.23137 1.79686 11 7 6 
-0.459406 -0.288752 2.11214 36 33 24 
-0.22728 -0.908705 2.185 30 27 18 
-0.491673 -0.447275 2.22635 14 13 9 
-0.316637 -0.300422 1.86813 13 10 3 
-0.207169 0.330086 1.49052 87 82 78 
-0.343778 0.327868 1.61295 4 0 0 
-0.481574 -0.444979 2.17014 25 22 17 
-0.471427 0.484311 1.80256 9 5 2 
-0.141989 -1.16674 2.35622 47 43 31 
-0.414456 -0.117738 1.92086 4 0 0 
-0.40636 -0.280763 1.9744 83 80 75 
-0.437707 -0.106863 1.96529 6 2 0 
-0.331889 0.4269 1.52735 24 21 16 
-0.409822 -0.128428 1.91415 105 100 97 
-0.35342 0.564421 1.46034 105 102 95 
-0.292765 -0.116453 1.77937 25 22 17 
-0.403706 -0.32683 1.98524 106 103 98 
-0.0894028 0.169174 1.56352 14 9 3 
-0.132925 -0.138772 1.71533 115 112 107 
-0.0934899 -0.843872 2.06751 138 130 119 
-0.397349 0.0559162 1.81992 4 0 0 
-0.196258 -1.00818 2.26051 48 41 31 
-0.408533 -0.163323 1.92966 12 1 0 
-0.172571 -0.347554 1.81789 4 0 0 
-0.304122 -0.0119528 1.72996 106 99 89 
-0.328594 0.200197 1.65061 14 9 5 
-0.244236 0.307807 1.53544 11 6 2 
-0.370924 -0.26091 1.915 107 103 100 
-0.305379 0.319875 1.57455 7 2 0 
-0.339991 -0.000275204 1.7617 12 7 1 
-0.0326836 -0.211636 1.71639 18 13 9 
-0.426559 0.424229 1.70292 17 21 33 
-0.417451 0.429506 1.67463 175 176 180 
-0.428144 0.461829 1.69641 169 170 165 
-0.413895 -0.934175 2.46759 6 3 0 
-0.418599 0.493963 1.67442 160 160 162 
-0.133255 -0.437576 1.85306 6 2 1 
-0.328073 -0.900417 2.24012 36 26 17 
0.150412 0.0250776 1.69507 12 8 0 
-0.214507 -0.698067 1.98535 17 15 3 
0.0301644 0.235703 1.52764 37 28 13 
-0.16817 -0.717921 1.98223 35 25 15 
-0.280735 -1.00163 2.28847 120 118 106 
-0.432353 0.112479 1.90195 151 147 136 
-0.371212 -0.188997 1.87802 9 1 0 
-0.18335 -0.0175997 1.68221 12 5 0 
-0.176012 -0.766974 2.04002 121 120 116 
-0.328945 0.173552 1.67719 133 128 122 
-0.0461847 -0.23559 1.74801 84 79 75 
-0.441478 -0.312878 2.05654 99 98 94 
-0.366607 0.388603 1.57395 149 147 134 
-0.21252 -1.17109 2.40395 118 114 103 
-0.401259 -0.225358 1.94694 10 0 0 
-0.440991 -0.125174 1.97796 111 98 92 
-0.238747 -1.14513 2.39252 36 33 26 
-0.294607 -0.761117 2.09976 114 116 105 
-0.388645 0.405781 1.59339 131 127 116 
-0.391773 0.0392459 1.79732 105 100 96 
-0.0538256 -0.466473 1.84032 19 16 7 
-0.298391 -0.787565 2.11509 6 5 0 
-0.412534 0.437062 1.66787 132 134 129 
0.0388738 0.214188 1.54492 37 23 10 
-0.443242 -0.142407 1.99842 16 6 0 
-0.11542 -0.850056 2.08825 19 9 0 
-0.0649417 -0.458811 1.84785 81 77 76 
-0.332305 -0.812471 2.17413 33 30 15 
-0.337597 -0.151059 1.82564 109 106 101 
-0.427506 0.609212 1.66545 89 90 92 
-0.267412 -0.147914 1.76816 24 13 7 
-0.207675 -0.840548 2.11561 123 122 117 
-0.1693 -0.583742 1.90137 105 100 97 
-0.442691 -0.244077 2.04692 16 8 5 
-0.37294 -0.547376 1.99175 15 11 8 
-0.00644703 0.174187 1.54799 149 145 133 
0.0224238 0.203155 1.53687 106 96 94 
-0.30769 -0.392937 1.91847 150 147 142 
0.0573674 0.172081 1.56496 18 9 0 
-0.438402 -0.110582 1.98049 16 9 0 
-0.47851 -0.39172 2.1511 71 70 66 
-0.423652 -0.386411 2.05877 103 102 100 
-0.315846 -0.343949 1.87913 3 0 0 
-0.20461 -0.995339 2.24844 27 24 17 
-0.419834 -0.225816 1.95885 25 12 4 
-0.359132 -0.347956 1.93347 97 93 90 
0.0383791 0.190949 1.55387 17 8 0 
-0.429039 0.542976 1.677 125 136 130 
-0.311565 -0.90589 2.23229 21 16 10 
0.125123 0.14561 1.61875 38 29 20 
-0.132952 -0.948877 2.16954 25 21 9 
-0.252568 -0.547637 1.9059 79 75 72 
-0.21688 -0.942217 2.20169 119 114 110 
-0.153116 -0.0981841 1.70672 117 114 105 
-0.396484 -0.0567545 1.85469 15 4 2 
-0.0494528 -0.341034 1.78851 8 5 0 
-0.328196 -0.291433 1.88507 110 109 105 
-0.198639 0.290606 1.51987 128 124 115 
-0.345654 0.336569 1.60652 2 1 0 
-0.43004 -0.263655 2.01525 6 5 1 
0.0560211 0.291621 1.50533 15 10 7 
-0.0412537 0.0364965 1.60842 87 77 68 
-0.441826 -0.186008 1.98548 9 0 0 
-0.310533 -0.188422 1.823 3 0 0 
-0.320287 -0.308389 1.88733 84 81 76 
-0.36741 0.45781 1.5425 109 105 96 
-0.445127 0.498244 1.72785 100 92 89 
-0.134406 -0.159291 1.72641 94 90 87 
-0.438113 -0.156915 1.98047 32 19 10 
-0.44281 0.0571496 1.93501 21 17 16 
-0.111874 -1.16014 2.34406 58 50 39 
-0.337236 0.398722 1.54417 117 114 109 
-0.359213 -0.149945 1.84119 24 19 13 
-0.392894 -0.229458 1.93275 14 9 5 
-0.365147 0.156238 1.71395 105 98 92 
-0.451586 -0.137896 2.02754 7 0 0 
-0.288897 -0.55829 1.92761 93 89 86 
-0.453276 -0.233851 2.07047 125 120 116 
-0.412379 -0.809361 2.39962 25 15 6 
-0.443581 -0.195216 2.02393 12 5 0 
-0.0619041 -0.363174 1.80893 76 72 71 
-0.414747 -0.195537 1.95211 17 7 0 
-0.330363 0.308334 1.6149 6 2 0 
-0.394746 -0.273774 1.95478 110 106 103 
-0.362847 0.483441 1.52907 74 70 67 
-0.425709 -0.234755 1.98796 121 117 106 
-0.240231 -0.553182 1.90464 112 111 107 
-0.451599 -0.519566 2.10334 20 17 10 
-0.268298 -0.289161 1.83777 4 0 1 
-0.413365 0.127879 1.85108 16 10 0 
-0.0500991 -1.05722 2.22062 43 41 29 
-0.287634 -0.372393 1.88232 4 0 0 
-0.183558 -0.907347 2.17325 116 112 101 
-0.440009 0.0624837 1.92 7 0 0 
-0.139353 -2.0187 2.9607 31 37 35 
-0.328703 -0.440064 1.93389 3 0 0 
-0.429335 0.507196 1.70742 44 39 36 
-0.454252 -0.101419 2.00569 9 2 0 
-0.313976 0.302816 1.59831 99 95 92 
-0.260877 -0.413057 1.86982 142 141 139 
-0.360665 0.328266 1.6252 110 105 99 
-0.18166 -0.839432 2.12758 131 128 119 
-0.0500763 -0.139137 1.68478 5 0 0 
-0.442641 -0.124289 1.99443 8 0 0 
-0.432152 -0.142015 1.9787 11 5 0 
-0.361792 0.375663 1.57482 20 17 12 
-0.463739 -0.340484 2.14688 0 1 0 
-0.135624 -0.846532 2.09499 38 30 17 
-0.18423 -0.326569 1.80118 120 116 113 
-0.414403 -0.0322746 1.89007 107 104 99 
-0.327919 -0.442704 1.94787 105 100 97 
-0.4265 -0.383611 2.03662 3 0 0 
-0.409673 0.113012 1.83067 29 26 11 
-0.44813 0.111885 1.91827 16 7 0 
-0.283931 -0.908679 2.21941 7 4 0 
-0.320016 -0.195828 1.8381 8 7 2 
-0.289221 -0.49154 1.91622 87 86 82 
-0.348229 -0.987622 2.31396 4 1 0 
-0.277903 0.0145572 1.69001 102 97 93 
-0.406485 0.526449 1.61566 124 126 123 
-0.415563 0.544902 1.63551 28 29 31 
-0.356985 0.365718 1.58459 26 23 16 
-0.346977 0.292401 1.63192 142 135 127 
-0.288167 0.088046 1.67619 6 1 0 
-0.490022 -0.382293 2.19509 112 111 107 
-0.449845 0.539768 1.70573 106 100 88 
-0.239659 -0.420292 1.86968 84 83 79 
-0.329831 -0.21718 1.84253 17 12 8 
-0.303115 -0.667713 2.01038 57 47 37 
-0.378592 0.00446976 1.81187 5 0 0 
-0.358179 -0.181693 1.85943 33 30 25 
-0.212312 -0.779483 2.07249 42 39 32 
-0.382369 0.0732469 1.78279 16 16 4 
0.00955086 0.29904 1.49711 27 21 21 
-0.405425 -0.22203 1.92985 10 0 0 
-0.342126 -0.421414 1.93449 85 80 74 
-0.422541 0.63316 1.42705 96 92 83 
-0.425993 -0.488018 2.05849 11 8 3 
-0.393741 -0.339968 1.96983 96 92 91 
-0.292788 -1.01571 2.31094 130 120 110 
-0.206103 -0.58125 1.9078 100 96 93 
-0.361878 -0.972527 2.34568 24 20 9 
-0.404837 -0.152252 1.9148 10 2 0 
-0.291821 0.37382 1.51913 106 103 96 
0.139906 0.0284975 1.6829 120 114 102 
-0.448303 -0.264988 2.06003 12 11 6 
-0.406208 0.416993 1.65512 115 119 122 
-0.373854 -0.24258 1.89865 17 13 10 
-0.419654 0.554446 1.64574 93 95 82 
-0.323175 -0.548292 1.94101 6 1 0 
-0.0572035 -0.407534 1.82302 111 110 105 
-0.341005 -0.99987 2.31541 19 18 13 
-0.0619754 -0.433986 1.84381 12 11 9 
-0.286746 -0.873073 2.18788 27 22 16 
-0.36721 -0.00709191 1.80909 22 17 13 
-0.0636556 0.10956 1.59517 85 84 79 
-0.056207 0.170625 1.57651 92 88 89 
-0.351648 -0.54247 1.97118 7 2 0 
-0.407543 -0.500874 2.01384 3 0 0 
-0.0345 -0.554918 1.86842 12 11 9 
-0.288943 -0.207846 1.81946 5 0 0 
-0.430525 -0.531184 2.08641 31 28 21 
-0.423176 -0.215223 1.95578 8 0 0 
0.0460776 0.224886 1.54025 48 38 26 
-0.443425 0.0976266 1.90408 88 87 82 
-0.442135 0.122702 1.89186 121 114 106 
0.00253208 0.259918 1.51232 22 18 9 
-0.403446 0.384914 1.64693 2 0 1 
-0.400284 0.412797 1.62824 107 97 95 
-0.44343 -0.389252 2.07317 102 102 102 
-0.402035 0.418342 1.64176 98 99 94 
-0.43459 0.439701 1.72487 19 23 35 
-0.401006 0.454115 1.63724 161 166 159 
-0.424113 0.486052 1.69552 13 13 11 
-0.462545 -0.568102 2.15149 43 39 27 
-0.343943 -0.704656 2.06324 69 60 51 
-0.245282 -0.542309 1.91498 15 11 8 
-0.417907 -0.923143 2.45208 11 12 7 
-0.403988 -1.03553 2.4838 215 215 213 
-0.14099 0.322608 1.48441 96 90 90 
-0.423136 0.364027 1.68489 80 75 69 
-0.442958 -0.156822 2.01055 10 5 0 
-0.430312 -0.135808 1.9612 17 10 4 
-0.453571 -0.124635 2.00119 20 10 0 
-0.330381 -0.133671 1.80127 102 97 93 
-0.252817 -0.672796 1.98472 128 125 110 
-0.157141 -0.19393 1.74176 21 14 8 
-0.336869 -0.805649 2.15909 50 47 32 
-0.0406064 0.0534008 1.60182 113 108 102 
-0.160207 -0.940355 2.18103 118 114 105 
-0.351389 -0.367365 1.92599 17 14 9 
-0.0260187 0.329588 1.46699 102 99 90 
-0.413198 0.495257 1.6433 105 106 100 
-0.304924 -0.483457 1.91608 65 65 65 
-0.26851 -0.0729377 1.72137 8 5 0 
-0.385353 -0.0391955 1.82701 109 106 101 
-0.44621 -0.201393 2.04678 114 105 98 
-0.429442 -0.483044 2.04482 41 38 33 
-0.047433 -0.473363 1.85784 47 43 32 
-0.388566 -0.514403 2.01888 18 15 10 
-0.203767 -0.942427 2.21482 0 0 0 
-0.399439 0.190145 1.759 116 111 108 
-0.305843 -0.960647 2.27165 128 122 110 
-0.411054 0.555785 1.62869 107 107 109 
-0.164639 0.246152 1.52619 97 87 78 
-0.346176 -0.240041 1.86283 14 4 0 
-0.439103 -0.283684 2.03684 32 29 22 
-0.176119 -1.06381 2.27832 115 107 94 
-0.409782 -0.284347 1.95655 7 4 0 
-0.266434 -0.0255726 1.7117 59 50 41 
-0.263988 0.435696 1.47175 129 122 116 
-0.052049 -0.190955 1.73284 102 99 94 
0.133016 0.595517 1.32707 116 113 98 
0.0428696 0.293413 1.50627 26 23 18 
-0.463564 -0.220214 2.12204 18 14 13 
-0.401869 0.2064 1.74011 96 93 88 
-0.383256 0.61677 1.39722 66 61 57 
-0.326026 -0.76618 2.11551 56 53 48 
-0.360721 0.513295 1.51262 21 11 9 
-0.139588 -1.94627 3.086 33 29 30 
-0.401243 0.433308 1.60268 22 13 4 
-0.40888 0.396281 1.6578 154 158 159 
0.067989 0.172144 1.57883 17 10 2 
0.126524 0.13532 1.62635 35 27 16 
-0.445551 0.158939 1.90669 32 25 17 
-0.45127 0.10086 1.97916 20 16 5 
-0.313593 -0.241353 1.86093 77 73 70 
-0.429683 -0.135581 1.93966 72 61 55 
-0.153593 -0.512551 1.86231 86 85 83 
-0.282366 -0.108126 1.75368 107 102 99 
-0.411649 -0.150267 1.94149 17 10 4 
-0.0464745 -0.410795 1.83149 12 11 6 
-0.20345 -0.973543 2.21055 75 72 65 
-0.345661 -0.993151 2.33449 117 114 107 
-0.414107 -0.279957 1.98521 126 118 116 
-0.417857 0.00749278 1.88896 8 4 1 
-0.330613 0.459972 1.50003 21 11 9 
-0.323622 -0.0780674 1.77258 6 2 0 
-0.140189 0.179663 1.55305 90 85 82 
-0.0283593 -0.192857 1.7239 18 12 12 
-0.13996 -0.512952 1.84964 2 1 0 
-0.461949 0.472109 1.73489 122 119 114 
-0.381835 -0.896562 2.40031 107 93 92 
-0.413367 0.456072 1.65989 39 37 38 
-0.363616 0.528872 1.50155 14 9 5 
-0.0420112 -0.368995 1.7776 15 10 6 
-0.159879 0.0530921 1.62721 7 3 0 
-0.271077 0.0741791 1.66762 109 105 96 
-0.150992 -0.218092 1.76544 111 106 100 
-0.407096 0.392655 1.68537 99 101 100 
-0.336192 -0.438734 1.95613 100 96 87 
-0.425938 0.472771 1.66374 30 36 32 
-0.252758 -0.470047 1.90542 21 20 16 
-0.384735 0.642609 1.38336 100 94 80 
0.189127 0.302287 1.59186 32 28 17 
-0.419395 -0.0300032 1.87195 98 95 90 
-0.11177 -0.0884483 1.69378 77 77 75 
-0.324724 -0.0498067 1.76063 11 7 4 
-0.288929 -0.510741 1.91397 102 101 99 
-0.232041 -0.504239 1.88551 1 0 0 
-0.0619965 -0.481467 1.86628 8 7 3 
-0.0857495 -2.02166 2.9864 109 114 110 
-0.359418 -0.347736 1.95559 100 96 93 
-0.397361 0.0580069 1.83366 86 83 76 
-0.391479 -1.0872 2.46863 74 73 68 
-0.0615845 -0.46147 1.8637 37 36 32 
-0.408646 0.060825 1.79886 57 54 47 
-0.0565164 -0.261016 1.73877 93 89 86 
-0.0669745 -0.404204 1.80785 86 85 80 
-0.481292 -0.369113 2.15538 78 77 73 
-0.0480925 -0.368036 1.79358 61 58 53 
-0.0575497 -0.444535 1.84944 94 90 87 
-0.357835 -0.987923 2.37271 41 39 26 
-0.251548 -0.210104 1.7844 100 95 91 
-0.371269 -0.972564 2.37139 23 13 14 
-0.461137 -0.414711 2.10432 3 0 0 
-0.450634 -0.429181 2.09604 2 2 0 
-0.211262 0.113953 1.60611 103 98 94 
-0.295219 -0.541047 1.93291 3 0 0 
-0.356296 0.33039 1.63708 125 120 114 
-0.44455 0.386682 1.7534 1 1 1 
0.000415913 0.296475 1.4862 20 15 12 
-0.289488 -0.256359 1.81579 5 0 0 
-0.290821 0.262274 1.59359 4 0 0 
-0.175835 -0.335401 1.80293 7 3 2 
-0.409239 -0.326789 2.00054 34 30 27 
-0.36666 -0.338241 1.95597 12 8 5 
-0.413643 0.455655 1.64468 86 88 85 
-0.351448 0.366099 1.59779 37 34 29 
-0.355724 -0.0859949 1.80794 24 19 15 
-0.00560635 0.258651 1.499 22 18 9 
-0.101065 -0.923871 2.13398 104 100 89 
-0.393633 -0.888756 2.40441 32 23 18 
-0.0487172 -0.0812325 1.67538 98 95 90 
-0.24358 -1.25332 2.50466 134 126 113 
-0.350382 -0.493058 1.94923 94 90 87 
-0.134381 -0.985695 2.19395 66 57 48 
-0.157568 -0.416955 1.82833 18 14 11 
-0.0501162 -0.069936 1.66877 91 82 77 
-0.138464 -0.497935 1.85319 80 75 72 
-0.278639 0.183717 1.63787 14 6 4 
-0.071986 0.109551 1.58191 93 92 88 
-0.252315 0.14011 1.61308 87 84 77 
-0.0124289 0.00338202 1.62753 92 89 84 
-0.0101007 -0.577457 1.88643 15 7 5 
0.137835 0.606492 1.32617 110 107 92 
0.0311002 0.193358 1.5397 106 98 87 
-0.379078 0.330064 1.61748 38 30 27 
-0.412808 -0.450095 2.01471 13 13 11 
0.141263 0.200391 1.59991 40 37 28 
-0.192146 -0.990263 2.2407 42 39 30 
-0.302308 -0.121621 1.78402 43 35 33 
-0.447614 -0.369218 2.08957 69 70 65 
-0.144615 -0.829399 2.08407 111 111 101 
-0.0440769 -1.06693 2.24051 45 42 33 
-0.287984 -0.89424 2.22201 113 106 96 
-0.124599 -0.860786 2.11932 31 27 15 
-0.47249 -0.315416 2.25079 34 34 34 
-0.407942 0.595359 1.60181 98 101 106 
-0.431489 0.604921 1.64888 84 86 85 
-0.45315 -0.418147 2.08752 81 77 76 
-0.456887 0.52259 1.68236 157 123 60 
-0.284224 -0.534544 1.8939 7 6 2 
-0.45013 0.432677 1.76288 89 85 74 
-0.241148 -0.4969 1.86963 0 0 0 
-0.37164 -0.468046 1.97901 2 0 1 
-0.363203 -0.461532 1.9436 76 73 68 
-0.435555 0.443719 1.67977 75 75 67 
-0.306276 -0.443684 1.92249 87 83 80 
-0.0485895 -0.212789 1.7398 32 32 22 
-0.360017 -0.416877 1.94759 13 12 8 
-0.319813 -0.538568 1.94954 53 50 45 
-0.303918 -0.0153259 1.71727 30 25 21 
-0.434331 0.537779 1.66001 65 78 71 
-0.404924 -0.288054 1.99795 96 93 86 
-0.110655 -1.02986 2.23678 118 116 103 
-0.0111847 -0.218614 1.73146 101 96 93 
-0.326462 -0.179892 1.81263 109 105 102 
-0.371778 0.332004 1.63725 39 31 28 
-0.415529 0.53175 1.62601 74 77 82 
-0.30165 -0.39721 1.89692 79 76 67 
-0.436266 0.515937 1.69131 51 33 33 
-0.274005 -0.969202 2.24983 120 117 108 
-0.368759 0.367646 1.59622 131 122 113 
-0.347585 -0.23994 1.88298 109 100 93 
-0.101717 -2.09442 3.08918 32 33 37 
-0.423286 0.400442 1.62461 0 3 20 
-0.419959 0.418416 1.72116 130 135 141 
-0.407787 -0.937783 2.49779 222 220 221 
-0.417156 -0.983799 2.48311 220 222 221 
-0.13637 -0.17363 1.70319 82 79 72 
-0.421444 -0.163402 1.93305 5 0 0 
-0.38957 -0.905286 2.42816 35 23 25 
-0.149917 -0.747347 2.02434 52 49 44 
-0.483676 -0.380154 2.13674 74 74 66 
-0.0735687 -0.509958 1.82286 3 3 5 
-0.295113 -0.480503 1.89875 73 70 63 
-0.285827 -0.482833 1.92616 98 94 91 
-0.129142 -0.508551 1.87812 75 70 67 
-0.252667 0.584592 1.30724 73 63 53 
-0.285452 -0.458374 1.91406 73 68 62 
-0.139885 -0.488597 1.87742 96 93 86 
-0.146269 -0.474241 1.8387 95 92 87 
-0.340912 -0.432487 1.90943 38 34 35 
-0.362243 -0.424345 1.92048 72 68 59 
-0.313014 -0.449718 1.96394 101 100 96 
-0.351583 -0.425321 1.97338 5 5 3 
-0.0670635 -0.46867 1.87256 96 95 91 
-0.241675 -0.41841 1.89424 85 82 75 
-0.46137 -0.391472 2.06279 90 86 85 
-0.0645028 -0.450138 1.85905 106 105 100 
-0.313887 0.179083 1.66318 24 19 16 
0.113182 0.176964 1.60344 61 52 43 
-0.392185 -1.12244 2.49896 190 190 190 
0.122354 -0.0461885 1.70056 39 32 24 
-0.447992 0.399852 1.74936 92 87 83 
-0.187658 -0.245573 1.79349 14 10 7 
-0.184365 -0.22461 1.77941 69 68 63 
-0.0628484 -0.23916 1.77225 92 86 86 
-0.134646 -0.193525 1.74878 109 105 102 
-0.0477174 0.072951 1.59809 9 10 5 
-0.0539799 0.126774 1.57196 73 70 65 
-0.0863276 -0.459452 1.84709 97 93 90 
-0.218837 -0.467827 1.86524 60 57 50 
-0.275308 -0.258393 1.84242 101 97 86 
-0.0223574 0.330376 1.47222 113 106 100 
-0.112741 -0.0482188 1.68101 30 26 17 
-0.191775 -0.526299 1.88744 116 111 107 
0.117286 0.186465 1.58916 132 121 101 
-0.00338743 -0.424004 1.8246 110 106 97 
-0.0546401 -0.405999 1.81965 34 32 20 
-0.164137 -0.6029 1.91192 100 95 92 
-0.0813431 -0.23951 1.76467 20 15 12 
0.0208332 0.271218 1.50637 128 121 115 
-0.218719 -0.286498 1.82077 112 105 97 
-0.105675 0.0675298 1.62186 124 117 107 
0.0395819 0.0297173 1.6341 89 82 74 
0.00577261 0.0720505 1.60388 16 12 3 
0.0301326 0.0734155 1.61007 10 3 0 
-0.0419715 -0.0422379 1.65201 91 82 73 
0.0287208 -0.446394 1.84831 39 34 28 
-0.120675 -0.574516 1.89269 13 6 0 
-0.213632 -0.558807 1.90857 90 85 81 
0.0339505 -0.180153 1.72749 120 116 105 
-0.285244 -0.0676812 1.76281 15 11 8 
0.0355139 -0.0673027 1.67759 15 11 0 
-0.115247 -0.0866299 1.69767 95 91 88 
-0.144233 -0.0914634 1.70949 12 4 1 
-0.126757 -0.153858 1.73222 6 6 0 
0.00100748 0.018867 1.62841 112 108 99 
-0.0462477 -0.311615 1.77364 51 42 35 
-0.157448 -0.303626 1.80596 14 11 4 
0.0365862 0.163532 1.56602 127 118 103 
0.0333371 -0.122959 1.70345 108 101 91 
-0.278299 -0.124486 1.78373 15 6 0 
-0.0522113 -0.340346 1.78786 34 30 21 
-0.0158939 -0.626567 1.91159 9 6 1 
-0.099967 -0.575495 1.88778 14 10 1 
-0.141113 -0.135126 1.72529 84 75 68 
-0.134847 0.15361 1.58618 101 92 83 
-0.125235 -0.13224 1.7214 17 12 6 
0.021646 -0.39112 1.8204 123 118 112 
-0.235566 -0.428765 1.88898 98 93 89 
0.0513807 -0.335432 1.80403 88 85 80 
-0.135451 0.180206 1.57694 31 24 14 
-0.152731 -0.518629 1.87672 90 86 85 
0.105957 0.178965 1.58855 15 5 0 
-0.191067 0.240159 1.56866 139 135 126 
-0.0402753 -0.213891 1.7315 134 126 115 
-0.00543214 0.246268 1.5153 101 97 85 
-0.0460533 -0.494963 1.8484 33 30 21 
-0.165964 -0.5489 1.89073 94 91 86 
-0.0186859 -0.554756 1.88046 106 102 99 
0.0589712 0.150346 1.58027 132 125 115 
-0.252478 -0.420162 1.89621 95 90 87 
0.0335175 -0.466881 1.85856 103 100 95 
-0.171211 -0.573062 1.90133 87 82 79 
-0.134826 -0.572119 1.89072 7 3 0 
-0.216526 -0.582836 1.91873 129 120 115 
-0.113217 0.299556 1.50171 98 95 90 
0.00748181 -0.598632 1.90301 102 99 92 
-0.292971 -0.209241 1.83313 22 18 9 
-0.0606524 -0.365757 1.81939 69 64 61 
0.0229993 -0.106049 1.68917 103 96 86 
0.101906 0.0814761 1.63235 116 108 97 
-0.0495018 -0.369736 1.80238 90 85 82 
-0.024943 -0.422291 1.82384 16 11 8 
-0.274899 0.428564 1.49412 136 127 118 
0.0634156 0.0506632 1.63167 116 108 97 
0.12038 -0.602623 1.95553 93 88 85 
-0.0451316 -0.0061126 1.6429 124 116 103 
-0.166218 0.177012 1.58452 80 75 71 
-0.0963389 -0.234518 1.76544 27 22 18 
-0.0167513 -0.104901 1.68167 6 1 0 
-0.079431 -0.213228 1.75207 107 103 102 
-0.0587185 -0.347046 1.80761 20 17 8 
-0.174891 -0.412182 1.859 99 95 92 
0.0404951 -0.153944 1.72061 38 29 24 
0.0210342 0.326692 1.47898 137 128 121 
0.0951929 -0.401525 1.85369 14 11 6 
-0.051254 -0.211733 1.7392 28 21 13 
0.0404412 -0.303577 1.78834 102 98 87 
0.0257109 -0.0502548 1.66356 4 0 0 
-0.266232 -0.0381718 1.73675 131 121 109 
-0.131532 -0.438389 1.85925 104 99 96 
-0.0573051 -0.429871 1.83547 38 35 26 
0.0390446 -0.372718 1.81751 113 108 102 
0.04123 0.175137 1.56082 129 124 105 
-0.202865 -0.417389 1.87029 108 105 98 
0.0543351 -0.31934 1.79982 24 19 15 
-0.0668713 -0.449993 1.85512 112 108 105 
-0.0587798 -0.479993 1.86122 80 78 66 
-0.0433327 -0.384093 1.80776 146 139 131 
-0.152792 -0.271991 1.7888 102 99 94 
-0.0573748 -0.388588 1.81992 110 107 102 
-0.0299003 0.0826334 1.59494 127 118 109 
0.0545031 -0.427416 1.84842 92 87 84 
-0.0622467 -0.463586 1.85926 100 97 90 
-0.326727 -0.449931 1.96329 40 37 32 
-0.00493122 -0.130778 1.69702 104 95 88 
0.120459 0.150469 1.60652 35 25 13 
0.127762 0.124659 1.62425 32 22 12 
0.000786322 0.210436 1.53295 117 107 98 
0.0762615 0.0892332 1.61528 7 3 0 
0.057065 -0.447141 1.85515 122 117 111 
-0.0882475 -0.0470283 1.6779 102 97 93 
-0.0869076 -0.536144 1.86795 36 31 27 
-0.295432 -0.443683 1.93897 3 0 0 
0.136985 0.201024 1.59282 19 12 4 
0.0359267 0.224444 1.5356 22 11 5 
-0.139365 0.294452 1.51176 135 126 121 
0.0683502 0.066486 1.62678 130 121 114 
-0.0186737 -0.00218833 1.63808 103 96 88 
-0.248733 0.13982 1.64173 99 96 87 
0.0617465 0.292581 1.513 16 5 0 
-0.13684 -0.184278 1.74314 16 6 7 
-0.0549747 -0.314927 1.79066 24 19 13 
0.0701682 0.13912 1.59183 28 24 12 
-0.0830352 -0.446562 1.8538 90 87 82 
-0.294192 -0.489396 1.92551 77 73 62 
-0.137648 -0.504035 1.86567 76 74 62 
-0.133182 -0.520539 1.87138 4 3 1 
-0.0906774 -0.0139483 1.6704 95 90 86 
-0.236116 -0.5055 1.89232 2 1 0 
0.0998091 0.338838 1.50728 114 106 95 
0.139473 -0.495737 1.93214 93 88 82 
-0.254975 -0.478713 1.91861 19 18 16 
-0.0388302 -0.0320585 1.64459 29 19 17 
-0.0184834 -0.207456 1.72654 10 5 2 
-0.257811 -0.65761 1.97906 148 141 125 
-0.286425 -0.981525 2.27209 28 20 17 
-0.299483 -0.984561 2.2807 128 122 110 
-0.211157 -0.57511 1.89298 133 129 120 
-0.152298 -1.04436 2.25615 55 43 31 
-0.224883 -0.6554 1.93889 25 14 0 
-0.111298 -2.09521 3.08119 243 244 249 
-0.282101 -0.803916 2.11864 19 12 6 
-0.202272 -0.76348 2.04755 5 2 0 
-0.242797 -0.660275 1.95418 25 16 1 
-0.00643507 -0.420904 1.81432 131 127 118 
-0.142735 -0.564146 1.87407 117 107 98 
-0.269166 -0.379952 1.85756 137 134 125 
-0.257822 -0.440941 1.87726 116 112 109 
-0.222048 -0.880297 2.14991 31 25 11 
-0.319724 -0.500555 1.9164 124 119 115 
-0.414785 -0.48613 2.01074 134 130 121 
-0.14293 0.140131 1.57993 128 124 113 
-0.175156 -0.566074 1.88176 110 105 99 
-0.397115 -0.912198 2.40957 120 110 108 
-0.332632 -0.801458 2.14768 29 21 10 
-0.223833 -1.16566 2.39876 150 141 134 
-0.0619507 -0.423306 1.8122 15 8 0 
-0.124871 -1.81889 2.88777 27 20 10 
-0.243784 -0.769189 2.07575 10 7 2 
-0.360685 -0.193538 1.86364 5 0 0 
0.00285573 -0.347053 1.78442 6 1 0 
-0.297123 -0.754269 2.08685 142 138 135 
-0.344472 -0.28426 1.87696 3 0 0 
-0.31636 -0.384215 1.89329 152 149 140 
-0.238218 -0.592305 1.91116 3 0 0 
-0.0582985 -0.348421 1.78139 4 0 0 
-0.214642 -0.923331 2.18102 4 0 0 
-0.308148 -0.202115 1.80703 141 136 132 
-0.207396 -0.907754 2.16439 126 122 111 
-0.188713 -0.882304 2.1303 22 12 2 
-0.162209 -0.298168 1.78276 10 6 0 
-0.361591 -0.931815 2.32113 22 9 1 
-0.402432 -0.934313 2.42728 122 118 106 
-0.398633 -0.254521 1.9328 9 4 0 
-0.388144 -0.54266 1.99545 6 3 0 
-0.179454 -0.390221 1.824 12 7 3 
-0.316301 -0.752902 2.09784 3 0 0 
-0.346083 -0.191719 1.83666 9 6 1 
-0.301139 -0.394778 1.88335 116 108 105 
-0.315951 -0.184433 1.8026 4 0 0 
-0.432153 -0.358521 2.03782 115 111 108 
-0.183092 0.198952 1.56493 141 138 131 
-0.229047 -0.442642 1.86483 103 100 95 
-0.336962 -0.305723 1.87979 100 95 89 
-0.153541 -1.8133 2.9321 58 49 42 
-0.282017 -0.267114 1.81468 8 1 0 
-0.119874 0.260117 1.52814 125 120 116 
-0.293781 -0.11861 1.75375 125 118 110 
-0.300671 -0.15645 1.78068 26 23 18 
-0.287263 -0.502808 1.89652 105 100 97 
0.039288 -0.302191 1.77677 10 1 0 
0.0190471 -1.04414 2.23701 140 125 118 
-0.10813 -2.07729 3.07227 29 29 37 
-0.0452821 -0.336409 1.77089 8 0 0 
-0.0499458 -0.230482 1.72313 134 127 119 
-0.0131288 -0.233886 1.73099 4 0 0 
-0.059187 -0.223477 1.73228 120 116 113 
0.0111814 -0.218616 1.7285 135 125 123 
0.0224427 -0.411338 1.82117 101 92 85 
-0.00724878 -0.409272 1.80884 4 0 0 
-0.221358 -0.774803 2.06233 37 35 22 
-0.0675734 -0.409481 1.82032 105 101 90 
-0.0207678 -0.13677 1.69177 119 109 107 
-0.224543 -0.9066 2.1724 137 128 119 
0.0210902 -0.441426 1.83614 34 30 21 
0.0277753 -0.114416 1.68641 28 19 10 
0.0221551 -0.454876 1.84105 125 120 116 
-0.296714 -0.726373 2.05755 166 160 148 
-0.268518 -0.719606 2.03123 141 135 121 
0.0582672 0.157171 1.57675 178 172 160 
-0.259617 -0.653262 1.95443 147 139 120 
-0.296471 -0.873363 2.17751 52 44 31 
-0.0384331 0.104259 1.57179 121 114 108 
-0.280496 -0.496797 1.88845 136 125 119 
0.0483782 -0.0120748 1.64731 18 11 1 
0.0174274 0.00219918 1.63072 8 4 0 
-0.374782 -0.544268 1.98367 21 18 13 
-0.339806 -0.544962 1.95047 22 13 4 
-0.288173 -0.545406 1.91641 100 95 91 
-0.279279 -0.525579 1.90666 72 71 67 
0.127427 0.0177256 1.67865 7 0 0 
-0.354925 -0.209511 1.85522 23 18 14 
-0.0226557 -0.549286 1.86607 111 106 100 
-0.263914 -0.372122 1.8474 111 106 102 
-0.0897657 -0.53033 1.85737 6 0 0 
0.065919 -0.225884 1.75473 7 0 0 
0.0938673 -0.52142 1.90154 8 3 0 
-0.0436142 0.33081 1.47216 115 112 105 
0.0282188 -0.177077 1.71266 130 125 119 
-0.338047 -0.678793 2.02858 31 24 18 
-0.241612 -0.430814 1.86975 107 103 94 
-0.356978 -0.299121 1.90214 112 108 99 
0.108412 0.185682 1.58974 106 97 88 
-0.332609 -0.498471 1.93145 7 0 0 
-0.455369 -0.416339 2.06929 62 58 55 
-0.365984 -0.516794 1.96532 1 1 0 
-0.413341 -0.198634 1.93295 89 79 69 
-0.227456 -0.572278 1.89906 7 2 0 
-0.278911 -0.318342 1.84064 4 0 0 
-0.330499 -0.0285903 1.75404 118 113 107 
-0.364348 -0.166811 1.84623 4 0 0 
-0.0989788 -2.10054 3.07851 232 233 235 
-0.175267 -1.56721 2.71784 27 18 11 
0.130443 -0.570382 1.94629 102 97 93 
-0.251597 -0.810708 2.10698 37 33 24 
-0.131717 -0.880419 2.10385 19 10 0 
0.0543724 -0.430254 1.84344 4 0 0 
-0.059528 -0.401046 1.80258 6 0 0 
-0.133586 -0.938138 2.15133 143 135 124 
-0.336067 -0.232733 1.84831 28 19 10 
-0.0891643 -2.08539 3.07678 233 235 234 
0.0969074 -0.395871 1.84932 14 6 4 
-0.155542 -0.427937 1.83859 9 4 0 
-0.00940671 -0.490752 1.84287 4 0 0 
-0.343914 -0.991863 2.30142 15 10 7 
-0.299055 0.0672717 1.68584 129 125 116 
0.0531755 -0.321147 1.7893 95 90 84 
0.0142931 0.262654 1.51243 5 1 0 
-0.169599 -0.230554 1.75688 119 109 97 
-0.256542 -0.542662 1.89306 78 77 73 
-0.335287 -0.152972 1.81135 97 92 88 
0.0779931 -0.223701 1.75711 22 13 6 
-0.171772 -0.440344 1.84461 102 99 92 
-0.331584 -0.526525 1.93868 8 1 0 
-0.105181 -0.0342283 1.65041 84 80 77 
-0.346114 -0.0900282 1.79724 5 0 0 
-0.290017 -0.45441 1.8971 96 89 81 
-0.23551 -0.863513 2.14381 136 125 121 
-0.105621 -1.82575 2.88516 11 4 0 
-0.003001 -0.593369 1.89167 4 0 0 
0.0974064 -0.313605 1.80904 124 119 115 
0.0980044 -1.08306 2.29747 212 213 208 
-0.157304 -0.803665 2.05402 128 120 109 
0.0173452 -0.0232885 1.6438 117 110 104 
0.000940213 -1.03968 2.23014 128 118 109 
-0.0982535 -0.788721 2.01424 50 44 32 
-0.433609 0.112579 1.8924 129 123 111 
-0.177683 0.564278 1.30992 134 125 108 
-0.00313486 -0.580945 1.88714 25 21 12 
-0.0383407 0.261728 1.50371 101 92 87 
-0.0393423 -0.371049 1.78298 39 30 23 
-0.321725 -0.128637 1.78475 102 97 93 
-0.031137 -0.442431 1.81946 115 107 104 
-0.315808 -0.89715 2.2185 7 0 0 
-0.0306805 -0.294653 1.7558 9 2 0 
-0.0615547 -0.186419 1.71253 93 90 85 
-0.0100218 -0.128626 1.6811 95 91 82 
-0.290198 -0.370054 1.87177 4 0 0 
-0.431823 -0.47855 2.0313 44 41 32 
-0.388078 -0.524812 1.98676 107 104 95 
0.0319519 -0.179902 1.72481 115 110 104 
-0.0531058 -0.262395 1.74893 92 87 81 
0.00905584 -0.571607 1.88867 80 76 67 
-0.157802 -0.21834 1.74782 136 127 118 
-0.00986803 -0.0140389 1.6298 11 7 0 
0.0263826 0.203325 1.54322 115 106 97 
0.124645 0.183538 1.60011 41 28 12 
-0.0204254 -0.200147 1.71495 89 88 84 
-0.340463 -0.433366 1.93937 110 107 102 
-0.154816 -0.418193 1.83437 3 0 0 
-0.205478 -0.412426 1.84969 139 130 123 
0.0577586 -0.452474 1.85866 10 7 0 
0.0782543 0.0889156 1.62066 9 2 0 
-0.287606 -0.895276 2.19771 117 110 104 
-0.105959 -1.93346 2.93225 49 42 34 
-0.401426 0.0850211 1.81295 27 18 11 
0.0424342 0.160958 1.57082 57 48 33 
-0.291419 -0.534222 1.91341 117 113 110 
-0.467417 -0.34139 2.13848 1 0 0 
0.0242595 -0.33751 1.78405 92 89 84 
-0.395381 -1.08488 2.47369 226 225 223 
-0.148296 -0.269096 1.76627 92 87 81 
-0.106575 -1.17815 2.34841 150 140 128 
-0.148506 -0.809981 2.05866 54 49 43 
-0.210936 -0.66803 1.9754 48 40 27 
-0.0845834 -1.92211 2.91803 47 38 23 
-0.188964 0.568227 1.35392 158 147 127 
-0.437896 0.528496 1.71127 181 119 6 
-0.430989 0.463972 1.72742 116 116 118 
-0.0855814 -0.443783 1.84365 90 89 85 
-0.310621 -0.95031 2.25003 115 103 91 
-0.4219 -0.968077 2.49244 175 175 175 
-0.134404 -0.238575 1.75536 79 76 69 
-0.0510501 -0.489807 1.83456 51 47 38 
-0.215602 -0.555839 1.89257 3 0 0 
-0.19609 -0.240334 1.77345 5 1 2 
-0.340742 0.0682604 1.72131 28 23 19 
-0.19414 0.612241 1.28726 29 19 9 
-0.155744 -1.8247 2.93994 67 62 59 
-0.376983 -0.457327 1.95422 1 0 0 
-0.13252 -2.09093 3.04299 232 233 237 
-0.370133 -0.337909 1.92585 109 104 100 
-0.19161 -0.220749 1.76257 76 71 67 
-0.0886155 -1.96521 2.95375 128 119 112 
-0.0335578 -0.338508 1.77381 120 116 107 
-0.30955 -0.437774 1.9108 102 97 93 
-0.0708276 0.472797 1.39186 116 111 105 
-0.0422726 -0.0313456 1.63355 4 0 0 
-0.358534 -0.429717 1.93588 68 63 57 
-0.097719 -2.08459 3.08371 200 201 203 
-0.277927 0.0859499 1.66497 111 107 98 
-0.130649 -2.11678 3.11405 127 128 130 
-0.102088 -1.83471 2.89961 55 46 37 
-0.179857 -0.405312 1.83525 124 118 118 
-0.195123 -0.519619 1.86907 146 141 137 
-0.133334 -1.92501 2.93805 67 58 51 
-0.388185 -0.48047 1.97977 4 0 0 
-0.325632 -0.304004 1.87237 95 91 82 
-0.185138 0.282258 1.53326 150 143 135 
-0.143846 -0.025431 1.65685 10 3 0 
-0.102026 -2.12227 3.09137 42 45 38 
-0.261075 -0.42749 1.87822 138 135 130 
-0.133237 -1.82665 2.89661 145 131 120 
-0.212255 -0.272576 1.7917 105 98 90 
-0.168086 -0.17504 1.73167 117 108 99 
-0.27472 0.117832 1.64642 118 114 105 
-0.180215 -0.577772 1.89012 84 79 75 
-0.345019 -0.109619 1.80315 7 2 0 
-0.3795 -0.974913 2.38905 18 0 0 
-0.153596 -0.475571 1.84924 98 91 85 
-0.330608 -0.228363 1.83931 7 0 0 
-0.308179 -0.11835 1.76885 8 3 0 
-0.0890588 -2.14206 3.10113 225 227 226 
-0.0890545 -2.11779 3.08879 229 230 232 
-0.0940095 -2.10231 3.08507 174 175 177 
-0.0515518 -0.245509 1.73741 91 82 75 
-0.330614 -0.515959 1.94331 7 0 0 
-0.0859348 -2.11002 3.06494 91 91 93 
-0.0435634 -0.442661 1.81607 35 30 27 
-0.0536197 -0.0441563 1.64784 12 5 0 
-0.417871 -0.18835 1.93802 130 120 108 
-0.0307488 -0.215703 1.71918 131 121 111 
-0.0634577 -0.238005 1.73752 69 66 61 
-0.175505 0.608719 1.28081 42 33 24 
0.0384309 -0.420272 1.81986 98 93 89 
0.0314549 -0.377094 1.79423 132 127 123 
-0.154151 0.31672 1.50333 21 17 8 
0.0646979 -0.357399 1.79444 111 104 94 
-0.0952355 0.319788 1.48642 123 120 111 
-0.300789 -0.677416 2.01323 143 133 123 
-0.0535269 -0.506259 1.84287 16 13 8 
0.171641 -0.170234 1.77515 133 129 118 
0.118695 -0.166039 1.73477 117 113 104 
0.157887 -0.162121 1.75986 10 1 0 
0.0383064 -0.158913 1.70369 155 148 140 
-0.0379111 -0.55382 1.86086 111 107 104 
0.0306342 -0.118262 1.67674 10 1 0 
0.0948618 -0.0772775 1.68455 104 97 89 
0.0334805 -0.0669552 1.65247 103 99 90 
0.131813 -0.0451199 1.6909 7 0 0 
-0.0379431 0.310856 1.48798 86 78 76 
-0.299927 -0.0499587 1.76417 123 120 115 
-0.104606 0.0670051 1.61093 139 135 126 
0.178327 0.128049 1.64683 148 138 128 
0.157772 0.326761 1.5374 32 22 10 
0.0858243 0.127754 1.59212 10 2 0 
-0.0241667 0.133155 1.55749 128 124 115 
0.117106 0.16725 1.58862 150 143 127 
0.106562 0.602522 1.32436 130 128 113 
-0.138786 0.302661 1.51498 97 93 82 
0.119527 0.214413 1.56964 41 29 13 
0.137676 0.218558 1.57828 21 11 0 
-0.303566 -0.958369 2.27456 130 127 120 
-0.195164 -0.905928 2.16467 4 0 0 
-0.174639 0.298846 1.53325 142 135 125 
0.219924 0.328237 1.62076 7 0 0 
0.11443 0.325512 1.52219 8 0 0 
-0.21316 0.357712 1.50413 151 142 135 
0.0186191 -1.02786 2.21736 17 7 0 
-0.218729 -1.15993 2.39901 130 126 117 
0.0748026 0.446325 1.4504 145 138 128 
-0.131416 -1.63125 2.74581 32 23 14 
-0.0446215 0.531813 1.37605 18 9 0 
-0.126989 0.544551 1.37755 103 94 87 
0.067901 -0.667927 1.94332 146 138 125 
-0.126339 -0.151832 1.71142 8 5 0 
0.235669 -0.128206 1.85451 128 116 104 
0.136638 0.234345 1.5715 125 117 106 
0.178878 0.298529 1.56626 21 10 4 
-0.13288 0.151171 1.57888 18 7 1 
-0.156807 -0.30029 1.78787 14 11 6 
0.21604 0.180324 1.69504 17 11 0 
-0.264028 0.243681 1.61375 122 115 105 
-0.214172 0.139043 1.62137 5 0 0 
-0.304661 -0.963398 2.28474 145 141 132 
0.0740788 -0.203659 1.72883 6 0 0 
0.0327261 0.442536 1.44154 127 123 114 
-0.165786 0.426355 1.46184 19 15 6 
0.119477 -0.219978 1.76049 110 106 95 
0.114243 -0.214637 1.75384 110 106 97 
0.158778 -0.209473 1.78292 131 127 118 
-0.137453 0.323868 1.49197 7 6 1 
0.0622097 0.279406 1.51982 7 0 0 
0.164742 0.340861 1.54316 155 145 133 
0.152471 -0.101616 1.72856 135 126 119 
0.1277 -0.575224 1.92473 3 0 0 
-0.169358 -1.53342 2.68215 29 24 18 
0.042207 -0.118242 1.67838 121 111 102 
-0.188141 0.178867 1.59095 137 133 122 
-0.0903212 0.567529 1.3135 131 124 114 
0.14108 -0.201136 1.76443 118 114 105 
-0.274816 -0.809261 2.13068 3 0 0 
-0.147189 -0.807324 2.05619 4 0 0 
-0.0253789 0.44309 1.43693 117 115 103 
-0.204162 0.106988 1.62496 134 130 121 
0.125863 0.229812 1.56383 30 22 9 
-0.153066 0.326011 1.4982 129 126 117 
0.278276 0.328141 1.71269 29 20 3 
-0.0219147 0.160643 1.54737 127 119 108 
-0.256631 0.207801 1.62112 116 113 106 
-0.114799 0.404691 1.45906 128 124 115 
0.0591928 -0.14769 1.70068 8 1 0 
0.0984061 0.297435 1.52655 115 111 100 
0.257749 0.190342 1.74142 22 12 2 
0.0231805 -0.826282 2.08801 148 145 140 
-0.0839466 0.564253 1.36172 166 154 140 
0.114424 0.391196 1.49319 137 129 118 
0.216384 0.169528 1.69505 43 33 23 
-0.0791468 -0.210452 1.73159 113 105 103 
-0.0787033 -1.87999 2.87549 36 32 23 
0.0948721 -0.847614 2.13522 161 157 154 
0.147318 0.374706 1.52195 111 107 95 
-0.00188206 0.571931 1.31317 117 114 105 
-0.0468822 -1.03318 2.19431 4 0 0 
-0.189149 0.353392 1.49242 137 132 126 
0.0115573 0.340978 1.47705 109 98 92 
0.100048 -0.227193 1.75045 128 126 114 
0.107886 0.274063 1.54048 16 9 0 
-0.141199 0.313038 1.50332 148 144 135 
0.0353052 0.582697 1.31327 117 114 99 
0.0820662 -0.0326647 1.65592 99 95 84 
0.139287 -0.0632317 1.69884 121 114 104 
-0.12599 -2.04716 3.02987 68 72 75 
0.069815 -0.770849 2.06652 133 129 120 
-0.0306238 0.0820652 1.57807 141 134 124 
0.251718 0.248763 1.70981 25 21 10 
0.229824 0.290723 1.65651 161 151 141 
0.261477 0.398133 1.62429 14 12 0 
0.0904198 0.550569 1.39137 152 147 143 
0.120575 0.611416 1.32856 155 146 131 
0.111563 -0.419792 1.84655 6 1 0 
0.0528581 -0.162892 1.701 108 101 93 
0.0173714 -0.799685 2.066 33 30 25 
0.153547 -0.574208 1.94067 113 109 100 
-0.107949 -1.40483 2.54623 23 15 4 
-0.118571 0.554064 1.37375 138 127 121 
0.108387 -0.83685 2.13249 147 143 140 
-0.0420587 0.474385 1.40452 18 11 5 
-0.222739 0.300634 1.5603 120 113 107 
0.0651229 0.0660326 1.60791 137 133 122 
-0.253998 0.441964 1.49751 112 108 99 
-0.207944 0.421884 1.48185 149 142 134 
0.0424899 0.310466 1.4994 26 14 0 
0.161828 0.000137436 1.69222 12 3 0 
0.178432 0.00270452 1.70254 7 0 0 
0.177864 0.0453981 1.68845 47 37 25 
0.149565 0.250267 1.57306 134 124 114 
0.249021 0.179097 1.73213 22 12 0 
-0.177362 0.329568 1.50554 109 102 94 
0.0195567 0.469492 1.41724 124 117 109 
-0.132874 0.180513 1.57115 104 100 91 
-0.0974736 -1.78076 2.83615 9 7 8 
0.0408938 0.202921 1.54138 143 130 114 
-0.126998 -1.88921 2.90806 44 40 31 
-0.0527767 -0.114535 1.67628 84 79 73 
-0.330305 -0.117104 1.82305 107 104 97 
-0.118967 -1.80204 2.8836 28 20 17 
0.251974 0.308399 1.68041 9 0 0 
-0.0887718 0.308491 1.49686 136 133 128 
-0.0530866 0.027635 1.61482 88 83 80 
-0.0891538 0.549538 1.37241 29 20 11 
0.137714 0.27672 1.55218 115 107 96 
-0.0998347 0.571977 1.30786 107 103 94 
-0.110757 0.289821 1.52045 12 5 0 
0.22994 0.212106 1.69411 29 19 7 
0.225046 0.364981 1.58689 143 135 124 
0.118274 0.618282 1.32076 110 98 86 
0.0999652 0.104234 1.6048 151 141 131 
0.1471 0.294646 1.55091 137 127 115 
-0.165482 0.307873 1.5141 147 140 130 
0.173819 -0.378897 1.87002 92 89 80 
0.120475 -0.00756576 1.6693 116 107 98 
-0.0198905 0.567349 1.36221 142 128 119 
0.0115014 0.183472 1.54186 117 113 102 
0.0871004 0.576688 1.33459 104 100 89 
0.0647741 0.0943761 1.59672 8 3 0 
0.221836 -0.14786 1.8485 7 0 0 
-0.0749394 -1.79014 2.84911 25 24 22 
-0.157666 -0.83682 2.11655 128 122 110 
0.244079 0.234297 1.70476 31 21 11 
0.120023 0.362608 1.50779 105 96 87 
-0.108485 -0.0483095 1.65944 113 104 99 
-0.0200832 0.604918 1.29729 68 65 60 
0.10889 0.0907373 1.61684 111 100 94 
-0.175511 0.336371 1.49759 104 94 82 
0.159558 0.489799 1.46723 121 112 105 
0.187449 -0.470878 1.92342 116 111 107 
0.0731184 -0.521434 1.88212 111 104 98 
-0.0329706 -0.455567 1.81843 127 124 117 
0.126236 0.210135 1.58174 77 66 46 
-0.193332 0.576794 1.37009 168 156 140 
0.168407 0.371142 1.53408 122 113 96 
-0.151502 -0.498569 1.85497 89 86 81 
-0.01396 -0.356877 1.77848 90 87 82 
0.0176608 0.00254 1.63221 17 8 0 
-0.0765326 -0.455676 1.85036 73 69 66 
-0.0924176 0.223157 1.54852 135 128 118 
0.0161386 -0.0645418 1.6613 116 112 101 
-0.152379 -0.432631 1.85417 6 2 0 
0.0045517 -0.399819 1.81228 17 14 7 
0.0155167 -0.519398 1.86769 12 5 0 
0.0473996 -0.164615 1.71611 22 15 7 
2.90305e-06 0.227545 1.52384 111 102 95 
-0.119515 -0.603907 1.89843 106 103 94 
0.129702 -0.50538 1.9136 77 73 70 
0.0250471 0.194635 1.54488 126 117 108 
-0.00458856 -0.0133536 1.63331 16 7 2 
-0.145854 0.227047 1.55324 6 1 0 
-0.0727876 0.342001 1.46738 128 125 120 
-0.123504 -1.98517 3.04713 65 60 54 
0.220517 0.186883 1.68448 108 96 84 
0.206539 -0.494811 1.94373 95 90 84 
0.178501 -0.493138 1.91816 12 7 3 
0.11595 0.38637 1.47584 129 121 110 
0.164522 0.364059 1.52255 121 112 103 
0.205777 -0.153315 1.83431 163 151 137 
0.166721 -0.489861 1.90911 7 3 0 
0.225298 0.371273 1.55735 136 134 121 
0.278909 0.446479 1.60371 31 19 7 
-0.0549268 -0.508137 1.85139 10 11 5 
0.224355 -0.147246 1.85596 10 0 0 
0.188719 -0.474466 1.9209 17 14 7 
0.148112 -0.764517 2.09243 112 107 101 
0.156077 -0.471771 1.89857 115 110 106 
0.110621 0.320707 1.50818 118 111 103 
-0.0780271 0.297319 1.49871 117 116 112 
0.0273249 -0.472633 1.8443 4 0 0 
0.0579296 0.304645 1.49378 18 14 5 
-0.19571 0.295669 1.55239 154 150 141 
0.267571 0.179096 1.75572 136 128 117 
0.0304335 -0.460686 1.83926 108 103 97 
0.239712 -0.137996 1.86503 135 125 113 
0.240207 0.328907 1.62907 35 27 16 
0.036275 -0.160089 1.71284 125 120 114 
0.169479 0.473796 1.45844 110 106 97 
0.126301 0.159123 1.5973 135 126 111 
0.177022 0.296555 1.55457 133 127 115 
0.169029 0.286238 1.56056 163 151 139 
0.168911 0.479016 1.43969 188 178 168 
0.20105 -0.132651 1.81811 13 1 0 
0.162006 0.275034 1.55778 198 190 177 
0.289211 0.223829 1.77626 8 0 0 
0.127125 -0.411922 1.8639 8 5 0 
0.229477 0.288022 1.64536 150 142 129 
0.152522 0.26075 1.56112 129 119 107 
-0.298905 -0.162245 1.81733 9 6 1 
0.162312 0.505304 1.41788 122 118 109 
0.23635 -0.389174 1.97126 3 0 0 
0.119907 -0.325946 1.81486 115 111 100 
0.0858665 0.127781 1.59195 8 1 0 
0.246709 -0.117326 1.87043 27 19 8 
-0.151311 -0.710704 1.97096 32 26 14 
0.0242034 0.216802 1.52976 158 149 142 
0.133379 0.219241 1.57973 29 17 1 
0.14073 -0.17926 1.76334 16 10 0 
0.215812 -0.369297 1.92842 10 0 0 
0.138463 0.217043 1.56681 11 1 0 
0.117003 0.214993 1.57101 149 141 120 
0.252518 0.247755 1.70174 22 14 3 
0.240384 0.242024 1.67768 137 127 117 
-0.12369 0.538312 1.35311 149 146 141 
0.239318 -0.173389 1.87314 120 112 101 
-0.111984 0.544523 1.35049 132 123 116 
0.144367 -0.361982 1.84179 141 134 126 
