ply                 
format ascii 1.0    
element vertex 1271
property float x    
property float y    
property float z    
property uchar red  
property uchar green
property uchar blue 
end_header          
0.313296 0.351839 1.77558 46 40 24 
0.328113 0.42664 1.69886 20 10 0 
0.273738 -0.47872 2.06705 4 0 0 
-0.00556639 -0.598508 1.90516 103 98 94 
0.310118 0.427365 1.64957 36 27 10 
0.294985 -0.487662 2.09795 10 5 1 
0.231017 0.0850611 1.75195 146 136 126 
0.267754 0.28002 1.69802 123 113 101 
0.274058 0.107873 1.80908 14 5 0 
-0.0219109 0.0626194 1.59315 129 127 115 
0.232592 -0.181283 1.88216 154 144 132 
0.0132129 -0.510222 1.86554 111 106 100 
0.225808 0.248099 1.66018 146 136 126 
0.268731 0.149123 1.77491 10 0 0 
0.153889 -0.212015 1.80258 121 115 103 
0.268158 0.477537 1.55868 17 7 0 
0.161212 -0.534023 1.9465 5 1 0 
0.268397 0.174896 1.76563 136 126 114 
0.238971 0.231257 1.68475 41 28 19 
0.204474 -0.519849 1.9867 6 2 0 
0.320977 0.24833 1.87182 20 8 0 
0.223452 0.207267 1.67702 13 4 0 
0.260022 0.214611 1.72823 157 147 135 
0.312418 0.233556 1.84266 45 38 22 
0.256214 0.227198 1.70603 17 8 0 
0.257 0.26193 1.69651 49 39 27 
0.18905 -0.193762 1.85373 7 0 0 
0.248268 -0.115782 1.89033 29 15 2 
0.234927 -0.14088 1.87557 12 0 0 
0.206346 -0.183806 1.86835 16 4 0 
0.0411749 0.222557 1.51924 32 24 11 
0.254615 0.297142 1.6656 19 7 0 
0.277045 0.169992 1.77581 147 137 127 
0.27532 0.259333 1.72584 10 4 0 
0.110799 -0.597459 1.94678 109 104 101 
0.0399442 -0.149215 1.70663 4 0 0 
0.203364 -0.0482947 1.79363 113 104 95 
0.265265 0.212017 1.73769 160 152 139 
0.321037 0.529287 1.63517 18 9 0 
0.230824 -0.3938 1.99574 7 0 0 
0.0850272 0.398172 1.45022 120 113 103 
0.0697875 0.140325 1.57869 26 18 7 
0.0612049 -0.658548 1.94445 80 71 56 
0.218104 0.485757 1.48398 70 63 47 
0.188356 -0.135443 1.82159 118 109 102 
0.188989 0.163227 1.63398 167 159 146 
0.212921 0.203359 1.66867 36 27 18 
0.169203 -0.482739 1.93629 17 12 8 
0.293144 -0.450185 2.08423 132 124 121 
-0.0343092 0.180367 1.53644 117 115 103 
0.16999 0.470136 1.44894 121 115 103 
0.164012 0.475268 1.42661 121 111 109 
0.0281614 -0.0171949 1.62342 106 97 90 
0.258839 0.385619 1.57878 18 10 0 
0.119682 0.3192 1.50042 132 124 113 
0.0125023 0.256165 1.49566 30 26 17 
0.216012 -0.575538 2.02112 7 3 0 
0.0459262 0.159751 1.54901 55 46 29 
0.168997 -0.52942 1.95755 7 0 0 
0.212777 0.213084 1.65763 150 140 128 
0.19831 0.193013 1.64842 104 95 86 
0.204111 0.154521 1.6814 137 135 122 
0.201088 -0.324721 1.92809 127 117 108 
0.24168 0.102095 1.76512 129 119 107 
0.161025 -0.385475 1.88832 103 100 95 
0.193439 0.102988 1.70546 105 96 87 
0.172702 0.0178046 1.69167 34 26 15 
0.27373 -0.475492 2.05635 9 4 1 
0.261092 -0.0256134 1.85583 33 21 9 
0.0767316 0.0882613 1.59497 7 0 0 
0.316536 0.435514 1.68113 121 110 92 
0.183927 -0.577641 1.98847 100 96 85 
0.239891 0.487464 1.51086 125 117 104 
0.119522 -0.537505 1.92042 106 97 92 
0.000293107 -0.160642 1.70334 104 100 91 
-0.213889 0.115194 1.6501 94 94 86 
0.185413 -0.483208 1.95995 96 93 88 
0.15045 0.450135 1.44955 59 52 42 
0.223519 0.35556 1.5656 57 47 35 
0.225257 0.305589 1.62478 138 129 114 
0.236302 0.204075 1.7027 33 24 9 
0.199458 0.34596 1.54049 45 36 29 
0.188966 -0.493549 1.95432 4 0 0 
-0.0179963 -0.582344 1.90301 47 43 40 
0.00177394 -0.798317 2.08081 55 50 44 
0.196222 0.144336 1.67076 19 12 6 
-0.0704657 -0.529181 1.88408 3 2 0 
0.194552 0.112647 1.69601 122 112 100 
0.0550555 -0.680323 1.97634 144 132 118 
0.277526 0.381098 1.62671 45 35 25 
0.220671 0.330344 1.59687 54 45 36 
0.176556 -0.318152 1.85732 27 18 9 
0.236531 -0.440493 1.99384 91 86 83 
0.240387 -0.0121486 1.80408 115 102 93 
0.113508 0.12615 1.60601 96 89 79 
0.172873 0.466459 1.46273 167 163 152 
-0.0190834 -0.00216196 1.61755 110 105 101 
0.188602 0.419796 1.49978 118 109 100 
0.203453 0.209727 1.65066 114 104 95 
-0.00909341 0.450996 1.38735 16 11 7 
0.108789 -0.506966 1.91256 121 118 109 
0.23685 -0.47884 2.01325 1 0 0 
-0.0417317 -0.480709 1.83331 104 101 92 
0.233867 -0.0569435 1.83384 108 99 92 
0.192188 0.0579677 1.72161 35 25 16 
0.0228288 0.201687 1.51822 33 24 15 
0.201619 0.265606 1.6081 119 113 101 
-0.0348498 0.30103 1.48957 96 94 82 
-0.150734 -2.15305 3.19614 110 114 115 
0.205658 -0.152804 1.84259 19 7 0 
0.11038 0.538736 1.35788 153 150 143 
0.29133 0.216604 1.78916 150 140 130 
0.111848 0.584097 1.28307 137 134 117 
0.0711368 0.570153 1.27866 143 139 127 
0.0943739 0.530056 1.35823 168 163 157 
0.163205 0.502288 1.40948 125 121 112 
0.224116 0.400263 1.54437 7 0 0 
0.207289 -0.195189 1.86487 9 2 0 
-0.0697868 -1.36616 2.55565 138 131 123 
0.122336 -0.698591 2.01982 153 150 141 
0.13571 -0.906595 2.22625 148 141 133 
-0.0073562 -1.08889 2.26447 112 112 112 
0.24171 0.312174 1.64824 26 14 0 
0.209794 0.241175 1.64272 26 16 4 
-0.0935186 -1.26384 2.44804 136 129 119 
0.226759 -0.0760846 1.83556 22 12 0 
-0.0848331 -1.24672 2.43759 144 140 128 
-0.101399 -1.96231 3.00141 56 46 37 
0.144596 -0.484269 1.90281 126 122 113 
0.231377 0.0318452 1.77958 36 24 10 
0.144678 0.516606 1.3899 107 103 92 
0.203098 0.273454 1.62006 34 28 16 
0.137949 -0.53679 1.9277 8 0 0 
0.237648 -0.568653 2.0298 119 116 111 
0.0423212 -1.03974 2.26304 29 24 18 
0.246885 0.14397 1.74463 40 28 16 
0.245591 -0.145053 1.88987 11 2 0 
0.166265 -0.42674 1.90214 109 105 96 
0.194036 -0.36596 1.92861 37 29 18 
-0.17641 -0.34561 1.84353 87 83 80 
0.0910964 -0.132187 1.71649 99 90 81 
0.0596674 -0.387156 1.82154 108 104 101 
-0.157403 -2.16873 3.20992 44 48 51 
-0.118721 -1.85459 2.954 21 20 16 
0.0390897 -0.118838 1.69406 114 105 96 
0.139706 -0.38432 1.86129 11 7 4 
-0.0445284 -1.33552 2.53218 32 28 19 
0.301978 0.342908 1.74777 33 26 10 
0.163055 -0.562725 1.95836 41 37 28 
0.247616 -0.15626 1.89453 42 30 14 
0.158315 0.385033 1.49556 184 176 163 
0.294205 0.146612 1.83945 150 138 124 
0.225578 -0.185511 1.88366 166 163 146 
0.306424 0.191334 1.84465 143 134 119 
0.282891 0.243514 1.75374 135 122 106 
0.152054 -0.0208065 1.6957 13 5 0 
0.0185981 0.0604897 1.60354 123 119 108 
-0.0671023 -1.27711 2.47126 145 141 130 
-0.14236 -0.249273 1.78612 92 88 87 
-0.307466 -0.501661 1.96557 78 74 71 
-0.133822 -2.17814 3.17226 235 239 238 
-0.0893011 -1.89292 3.02539 20 13 5 
-0.0979484 -1.86785 2.97756 23 20 15 
0.123045 0.600198 1.27977 147 141 125 
0.226384 0.35887 1.56103 140 130 120 
0.0648789 -0.777367 2.08607 154 150 139 
-0.102585 -1.96856 3.0111 45 36 27 
0.233889 -0.01791 1.81276 14 4 0 
0.161595 0.483753 1.42433 169 166 161 
-0.164429 -0.175004 1.75531 4 0 0 
0.120778 0.22637 1.55651 70 59 37 
0.161065 0.446087 1.46796 140 134 120 
0.0128952 -1.04894 2.25456 129 116 108 
-0.169508 -0.101006 1.72832 24 17 7 
-0.139399 -2.16022 3.18829 73 82 79 
-0.13128 -2.13867 3.1755 233 241 244 
-0.114665 -2.11471 3.16258 199 200 204 
0.11706 0.463538 1.42077 153 147 133 
0.140739 -0.553633 1.93921 146 139 131 
0.168221 -0.471983 1.9197 39 36 31 
0.220194 -0.307675 1.93314 13 6 0 
0.0833213 -0.184049 1.73528 110 106 97 
-0.12336 -2.16369 3.18446 30 37 45 
-0.115244 -2.16505 3.16981 176 182 180 
0.125535 0.591958 1.28688 141 131 119 
-0.103709 -1.97713 3.02384 131 124 118 
0.183795 -0.467065 1.92648 32 28 19 
0.244423 -0.47398 2.01217 87 84 79 
-0.0691805 -1.99105 3.04711 118 106 106 
-0.131633 -1.96834 3.01743 46 41 38 
0.0405479 0.446876 1.40116 130 128 116 
0.246731 0.243755 1.6944 74 62 50 
0.215187 -0.222532 1.88267 118 111 101 
0.104868 -0.864737 2.17842 154 152 140 
0.120384 0.47746 1.40102 115 106 97 
0.222713 0.288572 1.63348 45 31 20 
0.302189 -0.430994 2.07638 95 95 83 
0.026834 0.462708 1.39422 117 114 105 
0.0638167 0.577155 1.29498 143 139 127 
-0.152887 0.435815 1.43858 140 135 131 
0.116066 0.608033 1.2972 145 139 123 
0.148178 0.617741 1.30258 144 141 122 
0.110058 0.598936 1.30093 25 19 7 
0.131723 0.618645 1.29382 147 144 125 
0.128732 0.576628 1.32078 134 126 113 
0.141844 0.578092 1.32549 101 97 86 
0.00654588 -0.596581 1.89251 102 94 91 
0.00109777 -0.445458 1.82155 126 123 116 
-0.120286 -1.85863 2.96159 21 20 16 
-0.12362 -1.96695 3.01208 52 43 36 
-0.102666 -2.14282 3.08657 82 86 89 
-0.103067 -1.97464 3.00906 80 73 67 
-0.115953 -1.87234 2.97113 131 121 112 
-0.12742 -1.95893 3.00449 46 41 38 
-0.101213 -2.08609 3.01687 108 112 113 
-0.101347 -2.09092 3.04378 212 216 217 
0.178142 -0.225916 1.78879 135 127 116 
-0.0953422 -2.05268 2.98919 106 110 111 
-0.095424 -2.08174 3.04449 211 214 221 
-0.0105864 -0.112386 1.66533 125 118 110 
-0.0791285 -2.02903 3.0205 103 105 102 
-0.0901686 -2.02638 3.01166 24 29 32 
-0.0783016 -2.01549 3.0127 223 225 222 
0.0133944 0.259855 1.51262 18 15 6 
0.0854028 -0.235666 1.74041 143 138 132 
0.191959 0.31782 1.56767 189 179 167 
0.294766 0.264581 1.77659 126 117 102 
0.134648 -0.402445 1.8525 90 85 81 
0.0631336 -0.224014 1.73911 155 145 136 
0.123008 0.599343 1.33135 134 130 118 
0.181663 0.62927 1.3506 143 134 125 
0.0052055 0.291095 1.49844 156 153 144 
-0.00568124 -0.232073 1.71972 7 4 0 
0.320063 0.42318 1.72863 11 1 0 
-0.0351137 -0.550493 1.85655 107 104 99 
0.113159 0.0921564 1.6109 103 96 86 
0.302219 0.142716 1.8455 135 127 114 
0.172058 -0.258386 1.79423 131 124 116 
-0.0895793 -2.07303 3.02391 201 205 208 
0.265094 0.241192 1.72608 22 14 3 
0.313411 0.261444 1.83032 146 136 124 
0.283529 0.243002 1.75369 137 127 115 
0.231449 0.384635 1.59175 34 28 16 
-0.0110717 0.174797 1.54505 174 166 155 
-0.0372762 0.330022 1.47077 116 116 108 
-0.019185 -1.37233 2.52965 20 15 9 
0.282339 0.231492 1.76533 129 120 105 
-0.0253542 0.331427 1.47526 128 125 118 
-0.0354223 0.159511 1.55265 131 129 117 
0.0343142 0.1636 1.55834 125 115 105 
0.312923 0.236737 1.847 161 152 137 
0.191896 -0.156676 1.80117 135 125 116 
0.128225 0.161651 1.58676 158 149 134 
-0.00736936 0.266257 1.50458 5 1 0 
0.295013 0.208246 1.82632 8 0 0 
0.29625 0.197801 1.79703 151 141 129 
0.102608 -0.30751 1.7761 122 118 109 
0.321547 0.198884 1.90024 14 6 0 
0.087059 0.127363 1.5841 8 0 0 
0.236362 0.4287 1.57999 131 123 112 
0.139475 -0.560604 1.90964 43 40 35 
0.270115 0.453082 1.62951 29 19 7 
0.130619 -0.557448 1.90597 116 113 108 
0.270412 0.158924 1.7718 34 25 18 
0.0179499 0.3272 1.48339 162 160 148 
0.0517916 0.330412 1.4887 128 121 111 
0.263724 0.263626 1.71265 20 10 0 
0.203303 0.438639 1.54035 135 126 119 
0.217892 0.34114 1.58961 151 143 132 
0.285271 0.368766 1.68652 25 17 4 
0.292717 -0.518595 2.05632 111 108 101 
0.274915 0.130506 1.79545 139 129 119 
-0.0138971 -0.136382 1.67576 16 12 1 
0.168916 0.0958274 1.64911 148 139 130 
0.190369 0.283387 1.58903 162 152 140 
-0.0195405 0.0623562 1.58791 139 132 124 
0.0855581 -0.514403 1.86154 133 130 121 
-0.0420562 0.0564547 1.59451 98 93 87 
0.208641 -0.493256 1.94252 107 102 96 
0.175872 -0.493434 1.91622 15 11 2 
0.260994 0.486275 1.58818 11 3 0 
0.0376581 0.217565 1.53393 39 27 11 
0.190531 -0.487989 1.92803 120 117 110 
0.12776 0.266053 1.54617 40 28 14 
-0.00814884 0.246674 1.51429 121 117 108 
-0.0227426 0.316939 1.47788 151 147 138 
0.0226087 0.217081 1.52923 154 148 136 
0.0414868 0.309698 1.4931 12 6 0 
0.0358647 -0.0481797 1.62597 7 4 0 
0.291867 0.0994587 1.88605 172 155 139 
0.289858 -0.345126 2.02731 121 117 106 
0.0180124 0.000852646 1.62324 136 129 121 
0.292161 0.616476 1.53301 141 138 129 
0.0856394 -0.440623 1.82967 123 118 112 
0.119553 -0.37264 1.8204 127 123 112 
0.0451025 -0.42459 1.80977 124 121 116 
0.161652 0.33391 1.53666 135 127 116 
0.2468 -0.0470093 1.81217 156 143 127 
0.318169 0.618151 1.58246 158 154 143 
-0.239208 -0.0954586 1.76894 140 130 129 
0.219513 -0.0256762 1.7733 10 0 0 
0.190828 -0.0380047 1.72599 9 0 0 
0.245096 0.575748 1.49141 142 135 127 
0.0310544 0.235729 1.52226 63 51 39 
0.002436 -0.416446 1.7973 121 117 108 
0.138472 -0.96178 2.2366 162 160 148 
0.300199 0.230658 1.80228 114 104 92 
0.225262 0.319321 1.64244 21 11 0 
-0.194382 0.180208 1.60263 7 4 0 
0.227643 -0.506278 1.96808 5 0 0 
0.326836 -0.00323645 1.99468 26 13 0 
0.198889 -0.393173 1.91779 20 16 5 
0.0485942 -0.0825664 1.66023 6 0 0 
0.282582 -0.218307 1.93537 140 130 120 
0.25867 -0.475913 1.99357 79 75 72 
0.314572 0.0678332 1.91009 152 140 116 
0.273103 -0.112227 1.87134 127 111 95 
0.134033 0.368946 1.49526 3 0 0 
-0.00563646 -0.459408 1.81916 7 0 0 
0.284078 -0.328739 1.99385 126 118 105 
0.152332 0.326557 1.53712 150 142 129 
0.132634 -0.406098 1.8392 23 16 8 
0.271196 0.269922 1.72509 18 9 0 
0.265682 0.106 1.77918 28 19 4 
0.136188 0.62253 1.32917 125 123 102 
0.101589 -0.296433 1.7739 111 104 94 
0.230147 -0.327272 1.90687 126 117 110 
0.231525 0.616048 1.388 121 118 109 
0.319538 0.248484 1.87527 8 0 0 
0.130449 0.585448 1.34024 126 120 108 
0.0887435 -0.389281 1.81266 110 106 97 
-0.0117786 -0.512444 1.84388 123 120 115 
0.228141 0.335618 1.61064 146 136 126 
-0.127545 0.218471 1.5664 131 127 118 
0.00781033 0.0720449 1.58987 123 119 110 
0.308616 -0.131316 1.97268 109 97 81 
0.327241 0.211958 1.91223 129 119 109 
-0.159102 -0.0999413 1.7063 10 3 0 
0.333552 -0.0720584 2.05503 19 10 0 
-0.152718 -0.218177 1.7613 37 33 24 
0.256426 0.230677 1.72246 33 26 10 
0.241195 0.633895 1.39381 136 133 114 
0.288422 -0.320982 2.00117 30 20 11 
-0.0893456 -1.24892 2.4001 133 125 114 
0.215477 0.404443 1.56719 109 100 93 
0.106708 0.18391 1.57148 102 92 82 
-0.0765738 -2.08296 3.03003 134 138 137 
-0.0872507 -2.09659 3.05384 214 218 219 
-0.062207 -2.06042 3.00829 204 208 211 
-0.0745908 -2.07147 3.02781 228 232 233 
-0.0989121 -2.06169 3.00735 96 100 101 
-0.0986604 -2.07211 3.04063 167 170 177 
-0.0811009 -2.04449 3.01693 169 171 183 
-0.115659 -2.07963 3.05773 81 82 84 
-0.0795181 -2.05298 3.05054 221 225 226 
-0.113779 -2.06645 3.0552 216 214 217 
0.255056 0.394338 1.61346 6 0 0 
0.219894 0.374287 1.57303 165 159 147 
-0.0403554 -0.33512 1.76687 3 0 0 
-0.0488317 -1.31455 2.4715 6 2 0 
0.321406 0.182978 1.88688 30 17 8 
0.247247 0.623768 1.40508 131 129 114 
-0.173101 0.310652 1.5294 155 151 148 
0.193795 0.173365 1.62772 8 5 0 
0.120655 0.149488 1.58904 29 22 6 
0.242343 -0.561522 2.00311 114 111 102 
0.275127 0.258429 1.73502 133 125 112 
-0.25738 0.368726 1.53268 117 114 107 
0.0821348 -0.339831 1.7961 144 135 128 
0.224464 0.116557 1.73067 30 17 1 
0.32789 -0.178237 2.04801 20 6 0 
-0.00241399 -0.715868 1.95809 146 143 134 
0.222973 0.275095 1.64983 170 162 151 
0.251202 -0.716794 2.1978 10 6 0 
0.230565 0.274572 1.66384 150 141 126 
0.328482 0.308572 1.89052 30 19 1 
0.331251 0.290524 1.89986 63 51 37 
0.0369202 0.190776 1.54606 24 11 0 
0.126472 0.211862 1.57003 46 38 17 
0.306083 0.432282 1.66888 21 12 0 
0.0370051 0.184366 1.55316 150 141 124 
0.297739 0.242424 1.78266 178 170 157 
0.293294 0.21617 1.79799 121 114 104 
0.245719 -0.109365 1.83637 132 123 114 
0.153286 -0.477338 1.89541 4 0 0 
0.118349 -1.01673 2.28012 115 116 111 
0.350327 -0.413788 2.16247 5 1 0 
0.124378 0.123421 1.60782 30 18 4 
0.14553 -0.176414 1.7386 109 100 95 
0.323202 0.27451 1.86573 127 114 98 
-0.0115386 -0.169475 1.69195 94 89 85 
0.122959 -0.393669 1.82535 120 116 113 
0.137571 -0.555204 1.89444 28 28 20 
0.268399 0.14916 1.77649 12 2 0 
-0.0340905 -1.41951 2.56497 129 125 122 
0.30319 0.28203 1.77938 158 148 136 
0.295083 0.157246 1.8175 147 136 118 
0.0304217 -0.44175 1.81912 147 143 134 
0.12859 0.3715 1.50747 17 13 10 
0.279297 0.274905 1.736 24 14 2 
0.333371 0.23913 1.92264 152 139 122 
0.0424303 0.203097 1.53495 158 150 131 
0.340565 0.548316 1.76022 147 137 125 
0.3211 0.0712988 1.92542 34 19 0 
0.324246 0.0109327 1.96988 41 32 17 
0.264867 0.295519 1.71673 30 20 8 
0.267813 -0.0921979 1.87268 119 105 94 
0.332794 -0.0835163 2.07515 20 10 0 
-0.144627 0.298197 1.52659 133 130 125 
-0.130385 -2.0662 3.06047 87 91 92 
0.22311 -0.330356 1.89954 125 115 105 
0.0644426 -1.17567 2.39264 126 121 117 
0.12069 0.168754 1.57687 46 34 18 
0.322081 0.597644 1.5966 139 137 125 
0.0316188 0.0727903 1.58638 12 8 0 
0.0201048 0.27405 1.50849 120 113 105 
0.0545307 -1.02153 2.22103 16 8 6 
-0.186573 0.332926 1.51952 111 107 98 
0.130357 -0.355077 1.82038 14 11 6 
0.317529 0.347932 1.80734 142 135 119 
0.295206 0.257807 1.78831 133 125 112 
0.193394 0.0505549 1.69128 16 6 0 
0.0343503 -0.117772 1.67347 18 9 4 
-0.163265 -0.171503 1.74202 104 96 93 
-0.0228264 -0.474873 1.83231 101 90 86 
-0.0966438 -2.09863 3.04188 81 85 86 
-0.0970844 -2.07463 3.00198 118 122 123 
-0.0843699 -2.07075 3.04571 188 192 195 
-0.0953856 -2.05964 3.03581 185 189 192 
-0.0926162 -2.05373 3.00024 230 234 233 
-0.105596 -2.06791 3.06345 219 222 227 
-0.102792 -2.02288 3.01995 226 232 230 
-0.100073 -2.05104 3.02989 226 230 229 
-0.08679 -2.0703 3.07861 194 198 199 
-0.120223 -2.08903 3.07085 81 82 84 
0.119668 0.181746 1.57612 38 31 5 
-0.0672467 -2.04063 3.05038 81 82 87 
0.00292646 -1.6978 2.85297 36 37 32 
-0.0998529 -2.06395 2.99522 215 219 220 
-0.0681289 -1.7974 2.86003 8 4 1 
0.13224 -0.996286 2.25885 109 109 101 
0.0371287 0.283828 1.50107 33 29 20 
0.319105 -0.0389073 1.96137 21 9 0 
0.12084 0.6103 1.3261 148 142 128 
0.238807 0.648529 1.37986 123 120 103 
0.335287 0.0314147 2.02786 9 0 0 
0.0241822 -0.715859 1.98148 45 43 31 
0.305387 0.191569 1.84822 142 132 122 
-0.0519243 -1.80024 2.87346 45 40 34 
-0.0243873 -1.77507 2.85557 29 24 21 
-0.081779 -1.77023 2.81441 21 20 18 
0.0453738 -0.362522 1.77274 112 108 99 
0.309387 0.318228 1.77252 34 24 12 
0.288005 -0.33521 2.01439 141 134 124 
-0.12388 -1.79575 2.8641 64 63 59 
0.0619056 -0.441134 1.81954 8 3 0 
0.102284 0.608205 1.3249 129 125 113 
0.32623 0.295865 1.87588 153 141 127 
0.289004 0.387407 1.67926 21 13 2 
-0.0288884 0.0822115 1.57772 123 114 107 
0.0597756 0.290542 1.5041 7 0 0 
-0.102174 -0.139275 1.70658 101 100 96 
0.300496 0.346425 1.77245 136 126 116 
0.0420492 0.174257 1.54792 130 121 104 
0.260928 0.409498 1.61679 121 117 106 
0.306427 0.212457 1.82992 36 30 14 
0.250411 -0.15495 1.87909 29 17 3 
-0.15973 0.32778 1.50724 136 131 125 
0.00511855 -0.438721 1.81449 105 101 92 
-0.137229 0.181831 1.58361 98 93 90 
0.224041 0.0542269 1.74234 50 41 26 
-0.0679863 -2.04871 2.98471 213 216 221 
-0.104881 -2.10073 3.05146 227 232 228 
-0.0661275 -2.06502 3.03007 115 119 122 
-0.112202 -2.06637 3.0382 118 119 121 
-0.116031 -2.05569 3.03206 230 231 233 
-0.0688683 -2.0271 3.02031 77 79 78 
-0.0916908 -2.00537 2.99609 15 20 23 
-0.081274 -2.00406 3.00259 169 175 171 
0.248481 0.3986 1.62322 118 111 101 
0.175502 -0.47668 1.91119 5 0 0 
0.25295 0.496048 1.5734 38 30 17 
0.0256442 0.201187 1.53231 91 87 75 
-0.0801362 -2.06349 3.01996 180 183 192 
0.285786 0.165047 1.81447 142 130 118 
0.330391 0.30612 1.9111 163 150 133 
0.0723478 -0.661434 1.92725 143 136 126 
0.150722 -0.542135 1.9013 153 146 136 
0.301883 -0.440178 2.03441 93 86 78 
0.107801 -0.225336 1.73525 122 119 112 
0.312703 0.0672501 1.92908 43 30 11 
0.304209 0.138679 1.83591 128 120 107 
0.193935 0.194721 1.6643 123 117 105 
0.308474 0.277764 1.79026 118 110 99 
0.122156 0.239509 1.54984 24 12 0 
0.158259 -0.687504 2.00195 134 125 116 
0.244788 0.373723 1.61689 11 5 0 
-0.0418605 -1.30887 2.4657 116 112 103 
-0.0547339 -0.403525 1.80243 88 84 81 
0.148227 0.391407 1.52264 190 183 167 
-0.0436423 -0.739015 1.97145 133 131 119 
0.0942697 0.460857 1.44895 144 136 125 
0.0684333 0.140206 1.58014 33 29 18 
0.323559 0.196579 1.88474 13 4 0 
0.212851 -0.135233 1.83973 19 7 0 
0.228788 0.392271 1.57993 120 110 100 
0.199046 0.542693 1.45959 126 122 110 
0.193836 -0.516659 1.94062 12 4 1 
0.332393 0.0317175 2.04004 9 0 0 
0.303968 -0.476744 2.04471 20 16 7 
0.189036 0.303194 1.57865 17 7 0 
0.111707 0.273642 1.53009 125 118 100 
0.193637 -0.382287 1.89461 27 27 19 
0.202062 -0.324819 1.91459 124 116 105 
0.306963 -0.457713 2.05635 105 100 94 
0.159926 0.631011 1.34621 151 143 130 
0.356138 -0.407394 2.19551 4 1 0 
0.195607 -0.392402 1.88673 141 138 129 
0.098265 -0.389693 1.80654 11 6 2 
-0.0796471 -2.06331 3.03589 227 231 232 
-0.0964044 -2.06129 3.02344 219 222 227 
-0.0898524 -2.03083 3.02059 37 43 43 
-0.0625491 -1.98701 2.98126 226 228 227 
-0.151965 -1.88671 2.93697 123 123 125 
0.210016 -0.549208 1.96817 105 98 92 
0.016492 -0.339582 1.76381 114 109 105 
0.196339 0.235476 1.64763 123 114 107 
0.291536 0.409342 1.66699 24 12 0 
0.310778 0.435864 1.69923 47 31 16 
0.240555 -0.172872 1.87754 125 116 101 
0.121874 -1.02062 2.31021 148 149 143 
0.134305 0.198954 1.58024 21 14 0 
0.137769 -0.950413 2.22012 150 146 135 
-0.044913 -0.490252 1.8343 29 26 19 
-0.42323 -0.466356 2.07264 96 98 97 
0.349312 0.460569 1.84469 172 162 153 
0.32473 0.268929 1.84826 15 6 0 
0.240127 0.235251 1.70749 31 23 10 
0.191251 0.00753341 1.68289 8 0 0 
-0.0259443 -1.37944 2.53758 136 131 125 
0.290359 0.214809 1.78777 102 93 86 
0.298577 0.206458 1.81115 11 2 0 
0.306824 0.198894 1.84067 25 16 1 
-0.0421408 -0.436973 1.80708 6 5 0 
0.319024 0.321196 1.85811 16 6 0 
0.126948 0.133274 1.60183 142 135 119 
-0.0884414 -1.78408 2.83376 21 20 18 
-0.0509538 -1.7613 2.80162 22 17 14 
0.322982 0.171481 1.8961 145 133 119 
0.148584 -0.762047 2.08492 119 115 104 
0.223839 -0.565165 1.98472 4 0 0 
-0.022295 -1.86644 2.88767 40 30 21 
0.411516 0.733203 1.65967 141 135 119 
0.298176 -0.443785 2.05229 101 94 86 
0.18772 0.635918 1.36792 104 100 89 
0.234817 -0.01845 1.80578 10 0 0 
0.11477 0.631937 1.30002 179 178 150 
-0.0715734 -2.05251 3.03779 97 101 102 
0.162734 0.495002 1.45342 141 134 124 
0.271254 0.464858 1.62766 29 17 5 
0.251886 -0.714374 2.18527 28 21 13 
-0.0794769 -2.04985 3.03097 98 102 103 
-0.105231 -2.03309 3.00816 78 82 83 
-0.0744912 -2.02007 3.02953 230 232 231 
0.00281065 -1.89652 2.93966 92 94 93 
-0.138028 -1.91648 2.89644 184 188 189 
-0.0163206 -1.87786 2.99596 74 78 79 
-0.0706361 -1.80594 2.86829 21 17 18 
-0.129374 -1.81576 2.89308 66 56 54 
0.0437689 0.207869 1.52487 126 117 100 
0.296513 0.174106 1.81963 133 125 106 
-0.0956496 -1.88079 2.87849 47 47 39 
0.0514319 -0.423073 1.83255 76 71 67 
0.326811 -0.361174 2.08909 3 0 0 
0.140847 0.578369 1.3999 123 116 98 
0.171713 -0.316167 1.82863 136 132 121 
0.239504 -0.0487218 1.79676 21 11 1 
0.0613191 0.170973 1.55857 33 27 13 
0.116136 0.183505 1.57639 151 143 120 
0.223583 0.232204 1.68729 135 126 111 
0.0556232 0.293318 1.51416 8 1 0 
0.034316 -0.175697 1.69504 121 116 110 
0.00214712 0.257849 1.50361 33 26 20 
0.320835 -0.503211 2.07769 34 34 26 
0.121319 -0.494404 1.87241 124 121 112 
0.232653 0.263445 1.67866 28 18 8 
0.249859 -0.438572 1.98357 14 10 7 
0.322902 0.409075 1.72641 27 14 5 
0.216309 0.436212 1.54589 103 99 88 
0.202612 0.183543 1.64484 118 108 98 
0.144482 0.54005 1.41229 14 10 1 
-0.0844954 -1.24234 2.40727 132 128 117 
0.172986 0.637591 1.33756 111 105 89 
0.275534 0.460062 1.61014 69 57 45 
0.0739587 -0.378918 1.78778 123 120 115 
0.0202446 -0.0246716 1.62586 99 92 84 
0.0230103 -0.422862 1.81943 29 24 18 
0.205277 -0.32199 1.90289 142 134 123 
0.166271 -0.236734 1.81083 119 107 95 
0.231183 -0.0552922 1.79812 31 19 7 
-0.0975657 -2.03959 3.01571 219 224 220 
-0.070814 -2.03854 3.03486 91 95 96 
-0.104974 -2.01428 3.00422 215 219 220 
-0.0470374 -1.87594 2.88009 61 54 46 
-0.0173231 -1.7631 2.82971 71 68 61 
-0.013093 -1.77317 2.87769 65 60 57 
0.192201 -0.445827 1.90583 95 91 79 
0.206924 0.352244 1.56489 32 24 13 
0.0414145 0.22357 1.52451 55 47 36 
0.321114 0.318908 1.83078 126 116 104 
0.224394 0.218359 1.70176 60 52 41 
-0.0455034 -1.02686 2.18815 29 25 22 
0.222555 -1.01329 2.54915 66 66 56 
-0.0393616 -0.226564 1.7091 109 104 100 
0.146418 0.0270994 1.64958 6 1 0 
0.192865 0.627235 1.3496 109 107 95 
0.190875 -0.304434 1.84735 104 100 89 
0.108161 0.124251 1.62367 30 23 13 
0.204277 0.149306 1.65254 90 88 76 
0.213125 0.214831 1.72555 19 12 0 
0.189426 0.253524 1.58659 15 8 0 
0.321635 -0.366163 2.11201 3 0 0 
0.332038 -0.369146 2.10202 19 19 11 
0.312921 -0.441447 2.05985 8 5 0 
0.20223 0.335532 1.60955 149 141 128 
0.304297 -0.426414 2.05553 94 91 84 
0.333428 -0.420587 2.11287 4 0 0 
0.247107 -0.414297 1.96298 2 1 0 
0.177417 0.0527362 1.67139 42 32 22 
0.190683 0.0836996 1.68854 134 127 117 
0.197132 -0.354904 1.88658 100 91 82 
0.191089 -0.366696 1.91563 82 76 62 
-0.13014 -0.515206 1.86121 1 0 0 
-0.0473825 -0.0633034 1.64641 20 16 13 
0.205654 0.625106 1.38064 117 115 100 
0.263944 0.32033 1.6719 93 83 71 
0.312272 -0.535993 2.08698 77 74 67 
-0.0376225 -0.471933 1.81875 23 20 11 
0.139177 -0.49044 1.87297 127 124 115 
-0.0901308 -2.04933 2.96626 169 173 176 
-0.0852486 -2.0265 2.96682 220 224 223 
-0.0888931 -2.05933 3.05542 215 219 220 
-0.0990721 -1.97223 2.9443 120 122 117 
0.0287263 0.238428 1.53148 123 115 92 
0.316743 0.321828 1.84686 116 106 94 
0.200521 -0.368171 1.8902 99 93 81 
0.137333 -0.992186 2.24386 102 101 97 
-0.0347645 -1.01383 2.15968 31 27 24 
0.373836 0.711932 1.43288 112 111 93 
0.185268 -0.111345 1.79825 23 15 13 
0.00901867 -0.212884 1.7044 105 104 99 
-0.0488334 -0.485911 1.85213 105 102 97 
0.130823 0.615138 1.33691 116 109 93 
0.122991 -0.493437 1.86247 118 114 103 
-0.069151 -1.73906 2.75824 35 33 38 
0.247494 -0.440827 1.99825 17 12 8 
0.252454 -0.410921 1.94053 8 7 5 
0.339723 -0.395293 2.11064 74 70 59 
0.205318 -0.391986 1.89643 91 87 76 
0.226039 -0.0482279 1.81677 132 120 108 
0.24404 -0.0557096 1.78971 117 110 102 
0.303362 0.129181 1.88315 75 66 51 
0.19374 0.176487 1.70289 20 11 2 
0.225914 0.494816 1.54478 62 54 41 
0.0983338 0.449946 1.46479 38 31 23 
0.192241 0.235993 1.66268 93 84 75 
0.133779 0.231108 1.55689 130 120 108 
0.316156 0.362671 1.79858 39 31 20 
-0.0942827 -2.16047 3.13758 108 112 115 
-0.0947648 -2.15166 3.12838 78 82 85 
0.263354 0.34336 1.65271 144 137 121 
0.171815 0.498913 1.42977 124 117 107 
-0.0346247 0.32925 1.46617 116 116 108 
0.282205 0.19824 1.77202 160 152 141 
0.222875 -0.123883 1.83948 174 161 145 
0.150998 0.136979 1.61587 12 4 0 
0.0397347 0.212929 1.53137 29 17 1 
-0.0101781 -0.135504 1.68784 123 116 110 
-0.00693837 0.247979 1.50745 127 124 115 
0.128929 0.263755 1.54276 147 135 119 
0.0280061 -0.0493885 1.64243 7 4 0 
0.0990914 -1.02392 2.26637 106 104 92 
0.224998 0.49431 1.50076 142 134 123 
0.0180755 0.00247189 1.62527 11 7 0 
0.242718 -0.0559791 1.83001 8 0 0 
0.0575459 0.482696 1.39021 151 147 138 
0.162195 0.506159 1.41856 121 121 109 
0.145347 0.157499 1.59855 4 0 0 
-0.0379946 0.541606 1.34922 15 7 0 
0.0551531 -0.467126 1.85377 118 114 111 
0.212383 -0.371697 1.94308 11 1 0 
-0.201712 -0.718894 2.01771 14 10 0 
0.0246101 0.202526 1.53349 120 116 104 
0.217337 0.490454 1.49537 38 35 20 
0.0486363 -0.0122131 1.63925 38 29 20 
0.327793 0.428948 1.70543 9 0 0 
0.16085 0.449066 1.47664 160 152 141 
0.289792 0.380246 1.65715 16 6 0 
-0.0440897 -1.33131 2.52063 57 54 49 
-0.116937 -2.17555 3.16265 229 233 232 
-0.0708513 -1.94154 2.97662 54 44 35 
0.0039765 0.253557 1.50852 14 9 5 
0.150364 0.48397 1.42569 11 5 0 
-0.0794642 0.556567 1.34392 154 144 132 
0.0141555 0.241976 1.51431 116 112 100 
-0.128874 -2.14102 3.13412 223 226 233 
-0.111774 -2.13757 3.14252 212 216 217 
-0.0785663 -1.85838 2.95909 28 25 20 
0.221019 0.228232 1.66066 56 47 32 
0.253847 0.297672 1.67183 29 21 8 
0.00116947 0.209793 1.52444 121 113 102 
-0.047803 -0.439889 1.81884 6 5 0 
0.278816 0.358166 1.67242 132 120 106 
-0.0965931 -2.14112 3.13387 119 123 126 
-0.127209 -2.14828 3.14587 18 21 30 
-0.106793 -2.12972 3.12981 227 231 232 
-0.0928163 -1.85395 2.94045 21 17 18 
0.133766 0.0288632 1.65735 118 111 101 
0.159827 0.480947 1.44125 117 109 98 
0.274724 0.150728 1.78692 22 12 0 
0.285174 -0.525962 2.075 3 0 0 
0.0268728 -0.177369 1.71109 121 116 110 
-0.0167572 0.594572 1.27527 71 71 59 
0.148186 0.453978 1.46312 45 38 28 
0.240286 -0.0122602 1.81349 133 121 109 
-0.119418 -2.13197 3.1235 25 28 37 
0.00512754 -0.344313 1.79101 107 102 98 
0.112002 -1.02826 2.30274 63 62 58 
0.219801 0.293714 1.65384 47 38 21 
0.0876345 0.356641 1.49518 97 97 85 
0.207529 0.353323 1.56596 51 43 32 
0.23946 0.241583 1.67668 165 152 144 
0.236077 0.173709 1.71003 135 125 115 
0.278374 0.446254 1.60476 29 19 7 
-0.0183725 0.315416 1.4702 151 147 138 
0.0931715 0.534186 1.36894 150 147 138 
0.150537 0.523058 1.40097 7 1 0 
0.057365 0.0128962 1.6333 107 97 95 
0.234768 0.298174 0.721911 189 189 189 
0.119045 0.255378 1.54216 127 116 98 
0.270125 0.453853 1.58645 34 25 10 
-0.0626763 -1.94995 2.86615 124 125 127 
0.138181 -0.202387 1.77328 109 103 91 
0.0235067 -0.445581 1.83544 147 143 134 
0.299036 0.566076 1.52396 128 121 111 
-0.00898619 0.174541 1.53971 173 165 154 
0.111074 0.587578 1.29404 135 129 115 
0.229082 -0.423479 1.98364 3 1 4 
-0.0180694 -0.359691 1.79428 103 100 93 
0.131109 0.592279 1.31587 134 130 118 
0.172145 0.227438 1.59332 138 128 118 
-0.000641258 0.563761 1.29355 114 110 101 
0.0135386 -0.21776 1.7231 120 116 107 
0.0463451 0.374728 1.45964 113 113 103 
0.079178 -0.368297 1.80996 109 106 99 
-0.122539 -1.85151 2.94817 21 20 18 
-0.110107 -1.87295 2.95981 141 131 121 
-0.129896 -1.95189 2.99263 47 47 39 
-0.12536 -2.02442 3.02286 119 121 118 
0.313338 0.185409 1.85884 13 0 0 
0.16917 -0.547557 1.91902 8 3 0 
0.277651 -0.530063 2.02492 132 128 119 
0.24827 -0.555239 1.98506 138 134 131 
0.24603 0.178097 1.7262 21 9 0 
0.0769353 -0.652527 1.91606 49 40 23 
0.191239 0.17979 1.66231 139 132 122 
0.292439 0.103481 1.88127 164 145 130 
0.222514 0.207342 1.68065 45 36 21 
0.107971 -0.363568 1.81605 146 137 128 
0.282281 0.231566 1.76547 129 120 105 
0.193733 0.201397 1.64644 139 132 122 
0.0320477 0.439536 1.43043 136 133 126 
0.231834 -0.375972 1.95095 8 0 0 
0.28686 -0.338286 2.02251 24 14 4 
0.118768 -0.373142 1.82244 149 142 132 
0.165585 -0.0416527 1.7238 155 144 138 
0.241649 -0.0496663 1.82748 35 19 3 
0.252642 0.043091 1.81431 31 19 5 
0.286415 0.296758 1.72618 11 3 0 
0.184621 -0.0968204 1.75951 161 153 140 
0.235615 0.330598 1.64113 48 36 22 
0.196508 -0.394298 1.92496 13 5 2 
0.226239 -0.0964044 1.83226 18 9 0 
0.280073 -0.331199 2.00889 144 136 123 
0.135991 -0.556767 1.90064 21 16 12 
0.0891157 -0.0445067 1.66816 125 117 104 
0.287066 -0.321595 2.0062 34 24 15 
0.271335 0.158681 1.76878 62 55 39 
0.136117 -0.55283 1.89069 121 113 111 
0.110168 -0.566671 1.89241 152 149 142 
0.174304 0.29731 1.56864 119 113 101 
-0.00482097 -0.458673 1.81726 11 1 0 
0.264367 -0.177254 1.91848 147 135 119 
0.356128 -0.4083 2.13984 9 0 0 
0.23047 0.380878 1.579 180 177 162 
0.0831609 -0.442278 1.83594 132 123 114 
0.191257 0.320192 1.5757 113 104 95 
0.150784 -0.692293 1.99385 143 140 131 
0.234657 0.263508 1.66473 15 6 0 
0.11809 -0.699357 1.99374 149 144 138 
0.123758 0.597428 1.29742 142 133 118 
0.275707 0.285612 1.73528 156 145 125 
0.290708 0.217363 1.79188 135 126 111 
0.266641 0.280423 1.6972 24 14 4 
-0.0375951 -0.724545 1.94873 177 173 164 
0.220272 -0.0839651 1.81687 19 9 0 
0.288895 0.20222 1.77777 140 131 116 
0.212982 -0.206902 1.86288 18 12 0 
0.264944 0.17898 1.75934 167 155 139 
0.210042 -0.492049 1.93801 104 96 93 
0.301478 0.145049 1.84946 22 15 0 
0.223906 -0.509185 1.96422 17 12 9 
0.214362 -0.370777 1.93677 10 0 0 
0.247432 0.309234 1.66204 169 161 142 
0.298974 0.210306 1.82601 23 16 0 
0.290907 -0.503649 2.04545 4 0 0 
0.265734 0.166051 1.76441 28 19 2 
0.190854 0.135828 1.68415 130 123 115 
0.298159 0.206172 1.80787 34 25 10 
0.225455 0.169337 1.70467 9 0 0 
0.309658 0.202026 1.84219 143 133 121 
0.180434 0.14516 1.64654 25 11 0 
0.16275 0.167568 1.6228 122 112 102 
0.226679 0.0897912 1.75255 152 140 126 
0.139651 -0.125584 1.74203 143 133 123 
0.214079 0.0293924 1.76256 169 160 145 
0.132934 -0.405942 1.83851 23 16 8 
0.215371 -0.319219 1.8982 29 19 9 
0.22119 -0.106566 1.83497 29 19 10 
-0.200858 0.428915 1.46365 135 131 122 
0.276697 -0.220571 1.95667 137 130 114 
0.192116 -0.0473429 1.77725 10 1 0 
0.206855 0.140696 1.70899 26 12 1 
0.324542 0.198228 1.88834 30 23 5 
0.215633 -0.13595 1.83589 173 161 147 
0.194415 0.31171 1.58022 138 134 123 
0.228848 0.0312538 1.78431 31 18 2 
0.278494 0.3257 1.69546 144 136 117 
0.277014 -0.28457 1.98075 120 113 103 
0.239652 0.607519 1.36868 122 120 107 
0.253475 0.248439 1.70376 35 25 15 
0.128548 -0.356313 1.8257 25 20 14 
0.17234 -0.129458 1.76067 125 117 106 
0.246168 -0.0326396 1.8315 39 26 10 
0.165395 0.157784 1.62761 147 135 121 
0.271825 0.164249 1.78545 54 46 33 
0.293322 -0.0528312 1.9583 38 21 3 
0.296927 0.256053 1.77158 53 45 26 
0.270582 0.107372 1.81478 26 14 0 
0.259819 0.108957 1.7923 146 134 118 
0.248075 0.14306 1.73956 58 47 29 
0.219303 0.182228 1.69757 41 31 21 
0.240151 0.00365146 1.81627 33 20 11 
0.222344 -0.3318 1.93233 132 124 113 
0.148612 0.611145 1.30497 135 128 109 
0.317656 0.180967 1.88195 140 129 111 
0.126505 0.277256 1.53954 167 158 141 
0.114535 -0.129472 1.71984 19 10 3 
0.28257 0.274058 1.73258 140 128 112 
0.167101 0.286141 1.56163 167 158 143 
0.202784 -0.212144 1.84461 171 167 156 
0.259803 0.345043 1.66361 146 137 122 
0.307702 0.317939 1.76425 8 0 0 
0.325463 0.245994 1.85246 37 25 1 
0.287856 0.169673 1.80753 143 131 117 
0.218939 0.307762 1.63359 57 45 29 
0.214028 -0.0498632 1.80213 18 11 0 
-0.16243 -0.174024 1.74658 5 0 0 
0.248212 -0.115992 1.85498 27 19 6 
0.158922 -0.748902 2.05384 147 140 134 
0.291228 0.155259 1.81738 19 5 0 
0.189941 0.102973 1.70544 145 138 130 
-0.0552353 -0.353274 1.79018 115 112 105 
0.18543 0.0567221 1.72199 16 8 0 
0.150215 0.49146 1.42995 144 140 129 
0.228055 0.604894 1.36132 119 117 105 
0.334358 0.284088 1.88365 68 55 38 
0.227171 0.229459 1.68147 155 142 126 
0.143927 0.574022 1.31444 137 134 119 
0.285415 0.244159 1.75112 40 32 13 
0.240281 0.24334 1.68112 69 58 40 
0.32726 0.0865941 1.9587 144 132 116 
0.236029 -0.10082 1.80725 87 77 65 
0.23528 -0.105306 1.85268 174 172 157 
0.191211 -0.405797 1.88492 35 26 17 
0.354694 -0.406277 2.19601 22 13 8 
0.136672 0.186237 1.60222 48 35 19 
-0.0178895 -0.1711 1.70497 93 83 82 
0.340662 -0.413919 2.10429 102 93 86 
0.195083 0.195387 1.66107 116 106 94 
0.25887 0.215186 1.72984 141 132 115 
0.351403 -0.434581 2.17422 11 6 0 
0.300406 -0.440729 2.03654 141 136 130 
0.0208547 -0.50435 1.84406 135 130 124 
0.311162 0.233391 1.84402 58 45 26 
0.264868 -0.473177 1.98673 89 84 78 
0.249584 0.304095 1.6736 152 143 128 
0.154047 -0.163215 1.76971 8 0 0 
0.285041 0.230142 1.75548 112 103 88 
0.255208 -0.712044 2.18636 17 8 0 
0.266394 -0.092358 1.87749 120 107 91 
0.23797 -0.0274685 1.80165 48 36 20 
0.173112 0.0446748 1.6917 12 0 0 
0.250074 -0.178373 1.89503 32 23 8 
0.19716 -0.513021 1.92829 4 0 0 
0.321101 0.0879174 1.97154 30 17 0 
0.287072 0.12587 1.80967 130 122 109 
0.281243 0.12778 1.81267 147 133 120 
0.320781 0.0713904 1.9266 57 40 20 
0.191977 0.328593 1.56955 31 25 11 
0.223807 0.116564 1.73264 36 21 2 
-0.0205134 0.329603 1.46654 99 95 86 
0.304312 0.141785 1.83764 166 157 140 
0.256465 0.0427207 1.80247 28 14 1 
0.252203 0.13969 1.75478 29 17 3 
0.252586 0.0270981 1.80726 59 44 25 
0.270839 0.14845 1.76855 37 25 9 
0.0698915 0.577984 1.29103 121 115 103 
0.187955 -0.0594365 1.74225 17 8 0 
0.279429 -0.219578 1.94683 153 146 130 
0.214715 0.0865377 1.73028 30 16 3 
0.24103 -0.0560636 1.83531 37 23 10 
0.170937 0.146995 1.67128 115 101 88 
0.171178 0.228014 1.59912 156 146 136 
0.212219 0.26394 1.6463 166 156 144 
0.208311 0.241435 1.64879 41 29 15 
0.00657422 -0.708096 1.93844 151 141 132 
0.346994 0.45261 1.8578 57 47 35 
0.118115 -0.577238 1.91017 116 112 111 
0.189528 -0.181242 1.82559 129 119 109 
0.23124 -0.0497426 1.82377 11 0 0 
0.108201 0.54474 1.37126 149 144 138 
0.213309 0.323367 1.61436 137 127 115 
0.292402 -0.51884 2.04839 4 0 0 
0.257532 0.335599 1.65313 42 32 20 
0.140024 0.295733 1.55734 141 133 120 
0.181986 -0.517613 1.92002 151 144 136 
0.191243 -0.202185 1.83421 124 115 106 
0.140549 0.262817 1.55875 143 130 121 
0.282786 -0.329974 1.99741 144 134 122 
-0.0507845 -0.397921 1.79942 127 120 110 
0.279169 -0.466343 2.01801 6 3 0 
0.188259 -0.162843 1.80511 105 96 87 
0.263107 0.0692373 1.80136 20 6 0 
0.189631 -0.36216 1.89109 123 114 109 
0.275937 0.258592 1.72525 25 18 2 
0.329885 0.112347 1.9731 149 134 113 
0.21614 0.0898566 1.75318 12 0 0 
0.239331 0.106021 1.76752 33 21 5 
0.269149 0.240616 1.71586 23 17 1 
0.236154 0.232414 1.6941 27 17 5 
0.313132 0.262649 1.83236 145 138 120 
0.178767 -0.383419 1.86537 22 18 9 
0.0532464 -0.413388 1.80488 105 100 96 
0.183102 -0.190681 1.79595 150 144 132 
0.241135 0.206738 1.70517 182 170 158 
0.333584 0.258122 1.94569 26 14 0 
0.298333 0.226195 1.79757 157 149 136 
0.292322 0.196396 1.80589 28 20 1 
0.274329 0.258764 1.73767 153 141 129 
0.31762 -0.0391894 1.96737 26 14 2 
0.134654 0.323315 1.52002 114 106 95 
0.269914 0.292083 1.69865 24 14 2 
0.243979 0.00397977 1.80682 33 20 11 
0.191893 0.239699 1.62491 110 103 93 
0.0540431 -0.544844 1.8617 80 75 71 
0.189004 0.015904 1.71002 11 0 0 
0.33589 -0.0851446 2.08718 21 10 0 
0.230889 -0.123733 1.85198 39 25 12 
0.292709 0.146177 1.8373 165 150 131 
0.337393 0.432728 1.73829 43 34 17 
0.139593 0.524834 1.40839 138 135 126 
0.291191 -0.525968 2.05606 132 125 115 
0.300717 -0.747866 2.40719 128 129 123 
0.35219 -0.411777 2.15363 31 24 14 
0.342201 0.549654 1.7645 55 46 29 
0.13326 0.572881 1.3133 113 110 95 
0.289471 0.102331 1.8921 165 147 133 
-0.134394 0.534669 1.36495 167 158 151 
0.198668 0.102271 1.68722 139 132 124 
0.273679 0.128506 1.79373 146 134 122 
0.352474 -0.389139 2.21541 92 87 81 
0.201511 -0.390671 1.91081 22 14 11 
0.224495 0.28925 1.65606 165 160 141 
0.281775 0.205239 1.78577 14 4 0 
0.218575 -0.570163 1.9839 87 83 82 
0.223697 -0.561433 1.9809 96 92 91 
0.212369 -0.508778 1.9431 10 0 0 
0.219056 0.228627 1.66566 69 60 45 
0.18958 0.233382 1.60502 40 30 20 
0.327648 0.25 1.90644 33 20 1 
0.207657 0.204174 1.6815 49 42 26 
-0.00154601 -0.356106 1.77933 119 110 101 
0.308901 0.340253 1.74988 139 130 113 
-0.116812 -0.829939 2.05764 6 2 0 
0.33484 -0.0825073 2.06742 39 27 15 
0.287347 0.144557 1.80865 159 144 123 
0.237896 0.211024 1.69005 62 48 37 
0.00289585 0.209468 1.52147 121 113 102 
0.327341 0.590892 1.57681 120 118 105 
-0.124701 -0.092062 1.70881 97 93 94 
0.332626 0.23745 1.94924 143 131 107 
0.2218 -0.182493 1.88077 50 41 26 
0.0489936 0.373265 1.45469 139 131 120 
0.325582 -0.179025 2.0592 67 53 40 
0.338598 0.557679 1.78135 176 164 148 
0.111123 -0.594558 1.9267 10 6 3 
0.341257 -0.411441 2.1322 109 102 94 
0.190969 -0.325345 1.87045 129 122 116 
0.332699 0.289878 1.90579 182 169 153 
0.241871 0.101927 1.7588 139 127 113 
-0.047689 -0.439959 1.81884 29 26 21 
0.321444 -0.498592 2.07511 126 122 113 
0.228798 0.357491 1.58929 142 135 125 
0.190714 -0.0867311 1.77923 126 122 113 
0.219246 0.360472 1.58419 9 1 0 
0.351095 0.533752 1.79431 13 3 0 
0.35014 0.542068 1.81229 169 160 145 
0.117415 -0.502237 1.87794 135 132 127 
-0.0561904 -0.416131 1.81511 134 127 121 
0.270413 0.255106 1.75148 135 128 112 
0.33381 0.20863 1.91118 56 45 27 
0.192243 -0.175046 1.81433 116 103 94 
0.148136 0.57372 1.38539 141 133 114 
0.0304397 -0.371254 1.80561 117 113 104 
0.191657 -0.357878 1.88069 15 6 0 
0.226091 -0.333373 1.92081 136 128 117 
0.301972 -0.478754 2.05281 6 1 0 
0.333473 0.0328738 2.03911 21 7 0 
0.172559 0.498569 1.39804 40 36 27 
0.181113 -0.315386 1.8312 68 64 55 
0.202716 -0.0806268 1.79843 158 146 132 
0.330434 0.285471 1.84249 28 12 0 
0.304376 0.344508 1.73391 168 160 141 
0.187849 0.073532 1.6799 25 17 6 
0.218691 0.612251 1.35302 126 123 106 
0.342987 0.43852 1.76614 40 33 17 
0.034811 -0.334676 1.76581 87 82 76 
0.336981 -0.310642 2.29147 4 0 0 
0.173961 -0.0930498 1.80727 41 32 23 
0.190779 -0.453607 1.9319 8 3 0 
0.0500608 0.329037 1.49008 95 91 80 
0.182253 0.42608 1.52232 145 139 127 
0.123204 -0.584332 1.89508 3 2 0 
0.165707 0.482437 1.45291 153 148 126 
0.321235 -0.365946 2.11341 4 0 0 
0.125487 0.0288221 1.67758 142 133 124 
0.189112 0.201799 1.67382 117 109 96 
0.274566 -0.337394 2.01878 141 131 119 
0.255901 0.280785 1.71371 148 135 126 
0.271241 -0.469825 1.97121 111 106 100 
0.258829 -0.481929 1.99816 28 23 19 
0.188579 0.107798 1.68825 59 53 39 
0.156735 0.483201 1.448 141 133 122 
0.239527 -0.0119367 1.81577 141 128 112 
0.192505 -0.0707567 1.78078 115 107 96 
0.18775 0.0212793 1.74324 121 114 96 
0.312211 0.220694 1.84941 138 126 110 
0.343385 -0.409319 2.12243 109 100 91 
0.145902 0.573352 1.38736 141 132 115 
0.314261 0.206199 1.83046 156 146 134 
0.142387 0.541466 1.41608 14 10 1 
0.295817 -0.398239 2.04412 24 15 10 
0.321471 0.299792 1.82598 16 7 0 
0.212645 0.364648 1.59246 159 151 140 
0.137078 0.590096 1.30587 142 135 119 
0.303045 0.28289 1.80103 67 60 44 
0.15093 0.0544271 1.74085 16 7 0 
0.128425 0.258927 1.5965 132 120 104 
0.317742 0.291422 1.88317 29 13 0 
0.247159 0.573115 1.48746 157 155 140 
0.103797 0.59318 1.3053 153 150 131 
0.267278 0.127505 1.80485 120 108 94 
0.292283 0.354157 1.73426 27 17 5 
0.188365 0.26993 1.64259 133 127 115 
0.191497 0.185799 1.67612 120 110 100 
0.190891 0.152433 1.68875 105 95 86 
-0.120546 -0.821098 2.04566 36 32 29 
0.205666 0.353235 1.56802 31 29 16 
0.226103 -0.0563371 1.80629 37 23 10 
0.196569 -0.0764982 1.80652 71 57 44 
0.189295 -0.367541 1.92097 70 61 54 
0.338634 -0.337416 2.19474 3 0 0 
0.199448 -0.385755 1.90189 116 111 108 
0.190463 0.112951 1.70386 134 132 117 
0.308718 0.127563 1.8635 79 70 53 
0.332395 0.421779 1.70738 155 143 127 
0.134705 0.292881 1.54521 131 122 113 
0.185837 0.301065 1.59385 134 128 112 
0.280789 0.168035 1.77236 140 126 113 
0.215923 -0.0440195 1.76693 142 136 124 
0.323734 0.270403 1.85555 36 23 6 
0.223988 -1.01276 2.54448 118 120 115 
0.213449 0.296421 1.6692 47 38 21 
0.181026 0.256765 1.60903 16 12 1 
0.216103 0.286172 1.67406 37 29 16 
0.310529 0.36719 1.81881 58 53 34 
0.314747 0.197695 1.9142 116 111 92 
0.314938 0.366476 1.75129 47 39 20 
0.108396 0.120373 1.63574 107 95 83 
0.216459 0.334629 1.62508 143 133 123 
0.226371 0.361295 1.56038 146 137 128 
0.345399 0.466242 1.83824 28 23 17 
-0.0142282 0.596206 1.26861 89 85 73 
0.164046 0.474198 1.48851 173 169 157 
0.331055 0.550616 1.63655 34 20 7 
0.245068 -0.469681 1.96878 6 2 0 
0.242597 -0.470767 2.003 97 91 79 
-0.043791 0.0240681 1.62193 83 74 67 
0.249748 -0.45108 1.9619 85 82 75 
0.250184 -0.454048 1.99721 103 96 86 
0.195261 -0.449853 1.92144 12 7 3 
0.179248 -0.386618 1.9266 23 20 13 
-0.123168 0.526575 1.34756 96 87 78 
0.221306 0.330971 1.59837 27 17 7 
0.181678 -0.518034 1.92036 151 144 136 
0.0846735 -0.515421 1.86456 146 142 133 
0.181732 -0.35315 1.85145 123 113 104 
0.293391 0.103408 1.87857 164 145 130 
0.110207 -0.362384 1.81134 146 137 128 
0.282347 0.231382 1.76537 129 120 105 
0.120601 -0.395093 1.83287 122 117 114 
0.0233698 -0.789031 2.04676 13 8 2 
0.169808 -0.765881 2.07903 166 163 154 
0.115208 -0.826382 2.109 176 171 168 
0.0830793 -0.365562 1.80037 122 117 111 
0.10157 -0.308241 1.77955 125 121 112 
0.18286 -0.341153 1.84357 106 99 89 
0.0848472 0.53947 1.38137 161 157 148 
0.262197 0.0460665 1.792 20 8 0 
0.229108 -0.144147 1.83872 164 151 142 
0.0303176 -0.815958 2.06826 149 146 141 
0.142912 -0.717366 2.02798 139 136 129 
0.00782984 -0.345076 1.77417 13 11 0 
0.174474 -0.41944 1.87033 128 123 120 
0.234006 -0.122647 1.84151 40 27 11 
0.193674 -0.191632 1.82586 7 0 0 
0.256638 0.32645 1.66777 166 154 138 
0.212138 -0.535524 1.95411 143 138 132 
0.248392 -0.530946 1.98597 13 9 6 
0.244991 -0.0470625 1.81919 140 124 108 
0.16446 -0.27717 1.80719 6 0 0 
0.229759 -0.0651742 1.80986 19 7 0 
0.0631258 -0.481777 1.84339 108 104 95 
0.138948 -0.472055 1.8743 103 98 92 
0.0551315 -0.495171 1.8496 4 0 0 
0.0100204 -0.123779 1.68309 29 22 12 
0.043532 -0.148024 1.69639 8 4 0 
0.139572 -0.495652 1.8817 132 130 118 
0.303907 -0.480607 2.05203 112 108 99 
0.067389 -0.478415 1.83006 17 13 4 
0.151877 -0.366861 1.83611 126 123 118 
0.223948 -0.214249 1.8644 141 131 119 
0.0938686 -0.240348 1.75261 127 122 118 
0.0828636 -0.447967 1.83432 146 136 134 
0.121227 -0.324357 1.80911 97 88 81 
0.0599087 -0.44165 1.83012 117 112 109 
0.156658 -0.0356671 1.69527 114 103 97 
0.286053 -0.462797 2.01078 85 78 72 
0.252668 -0.395791 1.97653 119 110 101 
0.243839 -0.108747 1.84724 124 112 98 
0.170355 -0.554371 1.92472 41 34 26 
0.145968 -0.528103 1.89773 7 0 0 
0.121017 -0.0187778 1.66918 133 120 112 
0.0996788 -0.297405 1.78007 104 96 93 
0.283529 0.380245 1.65815 158 151 135 
0.257455 0.466977 1.57941 162 156 144 
0.0842207 -0.389672 1.81697 23 18 12 
0.256835 -0.283553 1.9409 129 120 113 
0.156885 0.512083 1.42799 150 143 133 
0.178923 -0.143685 1.76125 32 25 17 
0.249137 -0.0319591 1.82374 39 26 10 
0.279318 -0.222774 1.94683 36 29 13 
0.185587 -0.378619 1.86 29 25 16 
-0.0153596 -0.375952 1.78424 110 101 94 
0.237087 -0.398889 1.96147 5 1 0 
0.144121 0.371971 1.51227 128 120 109 
0.114011 -0.0325314 1.67133 28 20 9 
0.250772 0.619556 1.39437 130 129 111 
0.22583 0.20215 1.68078 55 45 35 
0.169489 -0.0324701 1.70332 17 8 0 
0.0826486 -0.219605 1.73882 17 6 0 
0.181841 -0.575445 1.94283 14 4 2 
0.214093 -0.509016 1.94611 7 0 0 
0.237172 -0.504282 1.97613 4 0 0 
0.152046 -0.506229 1.89232 93 86 76 
0.291634 -0.457665 2.02901 7 3 0 
0.269266 -0.22625 1.92834 36 26 14 
0.248928 -0.115687 1.8536 55 43 27 
0.293908 0.195855 1.80066 34 26 7 
0.243081 -0.560562 1.99953 126 122 119 
0.161889 -0.208169 1.77377 137 131 119 
0.350735 -0.41357 2.15991 31 24 14 
0.144685 0.616798 1.31827 168 162 140 
0.0581264 -0.416117 1.80914 115 110 106 
0.241015 -0.38549 1.95293 3 0 0 
0.317363 0.278639 1.83896 11 0 0 
0.20455 -0.104062 1.78613 165 156 139 
0.314667 0.264035 1.82462 161 154 138 
0.00133405 -0.417744 1.80141 127 122 118 
0.273718 0.259495 1.73293 19 12 0 
0.148705 -0.418705 1.85568 126 123 118 
0.229967 -0.0753724 1.81738 30 17 8 
0.337858 -0.416242 2.11402 102 93 86 
0.276889 0.285036 1.73044 154 143 121 
0.128974 -0.460075 1.86287 118 110 107 
0.0199544 -0.505129 1.8459 135 130 124 
0.100055 0.550037 1.38485 143 138 132 
0.317982 -0.0388676 1.96773 22 10 0 
0.130103 -0.355388 1.82135 21 16 10 
0.140609 -0.488073 1.87509 39 36 27 
0.289725 -0.321139 1.99588 8 0 0 
0.286793 -0.340947 2.01988 123 115 102 
0.0695562 -0.355236 1.78883 140 135 129 
0.170028 -0.484946 1.89682 10 3 0 
0.265951 0.456691 1.59862 25 17 0 
0.154832 -0.0204865 1.68623 22 10 0 
0.177814 -0.226512 1.79291 127 117 107 
0.230088 -0.205013 1.87404 20 10 0 
0.302539 -0.718826 2.34829 154 150 139 
0.115719 0.322076 1.51646 151 145 133 
0.285335 -0.336574 2.00851 122 112 102 
0.323034 0.197722 1.89201 10 3 0 
0.305195 0.319294 1.77292 10 1 0 
0.23182 -0.333765 1.92596 25 15 5 
0.0107509 -0.587714 1.87405 115 112 103 
0.284097 -0.364512 2.01962 153 145 132 
0.176708 -0.127785 1.75773 15 7 0 
0.214516 0.494304 1.5116 32 24 11 
0.220181 0.307313 1.63633 163 151 135 
0.27406 0.420729 1.63138 130 122 111 
0.226799 -0.302707 1.90439 7 0 0 
0.276012 -0.532421 2.02867 121 117 108 
0.229161 -0.505917 1.9622 4 0 0 
0.193142 -0.201589 1.82972 124 115 106 
0.0419136 -0.364421 1.78284 116 112 103 
0.220129 -0.190749 1.84351 8 0 0 
0.324384 -0.482302 2.10379 6 0 0 
0.213613 -0.180557 1.83829 37 28 13 
0.260954 0.280478 1.70493 157 147 137 
0.146301 -0.357102 1.82888 10 10 0 
0.153153 0.0261399 1.67062 139 129 119 
0.143537 0.0325306 1.65742 26 16 7 
0.193027 -0.475198 1.92671 102 102 94 
0.191593 -0.360689 1.88614 123 114 109 
0.00156084 -0.405332 1.79436 15 11 2 
0.0941375 -0.392577 1.82006 9 4 0 
0.115476 0.60379 1.31029 158 149 134 
0.17039 -0.387671 1.85619 142 138 129 
0.255604 -0.394046 1.96372 121 112 103 
-0.0227114 -0.135341 1.68335 12 3 0 
0.257208 -0.392708 1.98752 37 28 19 
0.247489 0.00439439 1.79791 33 20 11 
0.195252 0.133364 1.68638 29 23 11 
0.244877 -0.724447 2.18614 16 13 6 
0.117131 -0.495075 1.87041 133 130 121 
0.327834 0.294348 1.86684 164 148 133 
0.247663 0.155797 1.7386 32 22 10 
0.215067 -0.0625492 1.78939 21 8 0 
0.265353 -0.0246141 1.83663 22 7 0 
0.122034 -0.052004 1.6802 169 159 150 
0.1329 -0.0443155 1.68075 7 0 0 
0.120372 -0.8198 2.10256 148 143 137 
0.101626 -0.838069 2.11367 125 121 118 
0.259093 0.322553 1.67702 53 43 31 
0.150547 -0.542784 1.90223 144 134 124 
0.384978 0.712455 1.46076 146 142 130 
0.0659456 -0.659948 1.9248 63 55 44 
0.193091 -0.320366 1.8629 19 15 6 
0.348988 -0.460274 2.1853 28 20 9 
0.326102 -0.168437 2.05517 27 10 0 
