ply                 
format ascii 1.0    
element vertex 765
property float x    
property float y    
property float z    
property uchar red  
property uchar green
property uchar blue 
end_header          
-0.135357 0.520338 1.37631 147 140 132 
-0.204308 0.0967729 1.62824 91 84 78 
-0.253699 0.192686 1.61247 148 145 136 
-0.220698 0.285904 1.55176 96 92 81 
-0.222495 0.287214 1.55387 25 18 10 
-0.219932 -0.265228 1.79335 115 111 102 
-0.254291 -0.412842 1.87274 13 10 5 
-0.236394 -0.419186 1.8636 100 97 92 
-0.15886 -0.210631 1.74954 112 103 96 
-0.208244 0.377065 1.48268 29 20 15 
-0.156224 -0.171327 1.73068 33 22 18 
-0.139427 0.195851 1.567 12 3 0 
-0.244257 -0.515777 1.88784 71 67 64 
-0.227846 -0.500833 1.87445 91 88 83 
-0.24622 0.149266 1.62376 88 83 79 
-0.26316 -0.158975 1.77182 22 13 4 
-0.303207 -0.504655 1.9161 134 130 118 
-0.302002 -0.506161 1.91939 123 121 108 
-0.146114 -0.298904 1.78685 84 73 71 
-0.137784 -0.240768 1.75744 91 86 82 
-0.0548557 -0.236508 1.73401 5 1 0 
-0.268048 -0.517412 1.89907 38 34 33 
-0.20892 -0.267655 1.79078 95 91 80 
-0.289728 -0.517414 1.90766 6 3 0 
-0.204621 0.0966285 1.62823 62 55 49 
-0.210619 0.341955 1.49849 111 102 97 
-0.208051 0.376941 1.48312 19 12 6 
-0.20338 -0.407487 1.84775 101 98 93 
-0.254638 -0.412306 1.87212 13 9 6 
-0.306986 -0.412789 1.909 97 94 89 
0.00661762 -0.214843 1.731 102 92 90 
-0.160566 -0.211919 1.74999 31 22 13 
-0.157956 -0.170434 1.73132 13 0 0 
-0.282595 -0.162658 1.78704 83 80 75 
-0.289157 -0.102959 1.76176 21 18 13 
-0.210994 0.342229 1.4988 139 132 126 
-0.155391 0.236652 1.5514 125 118 108 
-0.208155 0.376964 1.48321 19 12 6 
-0.162872 -0.579895 1.89028 6 1 0 
-0.20463 0.096699 1.62818 62 55 49 
-0.138669 0.520122 1.37584 156 152 143 
-0.136239 0.520237 1.37584 170 163 155 
-0.17287 -0.548731 1.87588 86 83 78 
-0.153147 0.312219 1.50063 124 117 109 
-0.152812 -0.212645 1.74707 35 29 17 
-0.138039 -0.188757 1.73611 107 106 102 
-0.187647 0.338996 1.49235 133 130 125 
-0.263874 -0.157917 1.77291 14 7 0 
-0.166673 0.419319 1.45101 17 10 2 
-0.0422311 -0.361547 1.78299 19 15 6 
-0.272632 -0.525464 1.90518 8 4 1 
-0.152066 -0.169987 1.72782 106 104 92 
-0.268203 -0.523002 1.90107 105 101 100 
-0.246549 0.350164 1.51388 129 125 114 
-0.2551 0.578947 1.33675 99 95 83 
-0.166242 0.419205 1.45146 6 0 0 
-0.149867 -0.170676 1.73204 90 87 78 
-0.0772982 0.594464 1.28469 104 98 86 
-0.176114 0.602868 1.29243 131 119 107 
-0.194263 0.582883 1.31258 112 104 93 
-0.050174 0.596431 1.28656 113 111 99 
-0.15526 -0.48252 1.84562 101 96 90 
-0.0563237 0.0214644 1.63234 85 80 74 
-0.274201 -0.0415041 1.73109 21 10 4 
-0.126922 -0.181204 1.73195 8 3 0 
-0.282997 -0.50379 1.90371 19 13 13 
-0.244405 0.580574 1.33051 111 103 92 
-0.157493 0.556906 1.31265 69 64 58 
-0.211709 0.100387 1.62909 100 95 91 
-0.280606 -0.162255 1.78642 112 109 104 
-0.0582742 -0.217376 1.733 42 34 32 
-0.137527 0.591968 1.2967 104 96 85 
-0.225565 0.601481 1.31357 96 89 79 
-0.245242 0.577893 1.33318 139 132 113 
-0.126966 -0.181989 1.7317 13 8 4 
-0.156811 0.557118 1.31329 84 79 73 
-0.0771905 0.59452 1.2859 110 104 92 
-0.203033 0.313342 1.51382 47 42 36 
-0.202835 0.318661 1.51533 29 24 20 
-0.165968 -0.222443 1.75915 72 63 54 
-0.287018 -0.512642 1.90718 111 107 104 
-0.231682 0.603318 1.31411 48 38 29 
-0.18838 0.530313 1.38461 49 38 32 
-0.28526 -0.439362 1.89125 76 72 61 
-0.131694 0.47255 1.40339 148 143 137 
-0.117488 0.352939 1.47115 39 36 31 
-0.107605 -0.138988 1.70836 108 103 100 
-0.204827 0.413243 1.46734 146 141 135 
-0.204449 -0.538431 1.87719 6 3 0 
-0.12375 0.206074 1.55882 104 95 86 
-0.125396 -0.0697395 1.68169 118 113 109 
-0.269546 0.00848142 1.70297 102 99 94 
-0.150343 0.165316 1.58337 11 7 0 
-0.228164 0.161528 1.61286 125 118 110 
-0.173629 0.150427 1.59607 116 107 98 
-0.157227 -0.0264393 1.66781 118 110 99 
-0.281631 0.439573 1.4968 15 11 2 
-0.164156 -0.0999322 1.70372 17 10 0 
-0.15419 0.0368504 1.6413 18 14 5 
-0.0240702 -0.497541 1.84395 126 123 118 
-0.167597 -0.250495 1.76647 104 99 93 
-0.17034 -0.237841 1.76447 13 8 4 
-0.0283248 -0.529651 1.85557 106 102 99 
-0.119959 -0.507735 1.84851 1 0 0 
-0.0486254 -0.328236 1.769 9 5 0 
-0.141881 0.119126 1.59926 4 0 0 
-0.166195 0.29489 1.51822 151 144 134 
-0.296022 0.307874 1.58844 126 122 113 
-0.127758 0.309065 1.4957 18 13 9 
-0.176336 0.315527 1.50432 95 86 79 
-0.276522 0.349375 1.53361 20 13 7 
-0.00717283 -0.0100044 1.6359 107 100 92 
-0.119207 -0.00323673 1.65244 108 103 97 
0.00196264 -0.334061 1.78024 112 109 104 
-0.250122 -0.385879 1.85692 98 94 91 
-0.0930481 -0.511702 1.84641 24 19 15 
-0.13885 -0.546508 1.86547 4 0 0 
-0.204457 0.107987 1.62665 92 87 81 
-0.15345 0.421895 1.44789 143 139 130 
-0.25012 0.467192 1.4548 116 112 103 
-0.0110801 -0.397328 1.80603 18 10 7 
-0.0125214 0.165349 1.55288 151 143 130 
-0.124984 0.551417 1.31223 112 108 96 
-0.0185514 -0.205559 1.71781 4 0 0 
0.0126203 -0.0269361 1.64925 110 101 92 
-0.187636 0.169061 1.59072 109 100 91 
-0.173631 0.28529 1.53227 79 72 66 
-0.0345809 -0.287862 1.75458 8 3 0 
-0.0176308 -0.230875 1.73319 12 4 1 
-0.0184608 -0.113499 1.67898 121 111 109 
-0.103843 0.386322 1.45507 25 18 12 
-0.152259 -0.407499 1.83225 4 0 0 
-0.024685 0.444301 1.42184 132 128 119 
-0.139957 -0.121239 1.7054 130 125 121 
-0.0106518 -0.164592 1.70271 22 18 9 
0.0491626 0.317923 1.50366 113 106 96 
-0.234592 -0.570526 1.89944 10 5 2 
-0.226951 0.278042 1.56264 23 14 7 
-0.262818 0.60129 1.33148 105 93 81 
-0.19586 0.604866 1.29977 95 86 71 
-0.196733 0.566592 1.32059 89 84 78 
-0.13953 -0.464376 1.84044 89 84 78 
0.0197175 -0.327791 1.78134 98 93 89 
-0.109 0.0135656 1.64433 19 19 11 
-0.0448451 -0.238274 1.7286 27 18 13 
-0.245718 0.130647 1.62949 99 96 87 
-0.0209777 0.181667 1.54912 20 13 7 
-0.154733 -0.0168889 1.66109 11 2 0 
-0.177689 -0.00593959 1.69398 154 145 136 
-0.210196 0.0366969 1.67518 196 186 177 
-0.382065 0.00771698 1.83225 9 2 0 
-0.264639 0.0919336 1.66814 139 135 124 
-7.03461e-05 -0.124214 1.69898 11 6 2 
-0.307302 0.107436 1.69225 119 114 110 
-0.0247378 -0.137016 1.69478 4 0 0 
-0.328123 -0.11925 1.80719 135 127 124 
-0.36619 0.182085 1.73202 109 104 98 
-0.430626 -0.168727 2.02361 13 5 0 
-0.350699 0.204124 1.70963 7 0 0 
-0.420239 0.458329 1.71999 144 148 149 
-0.315964 -0.192814 1.83171 1 0 0 
-0.426278 0.4412 1.75626 16 10 10 
-0.0506447 0.179737 1.5589 127 122 116 
-0.351635 0.263934 1.67508 5 0 0 
-0.346704 -0.246203 1.8977 102 101 99 
-0.431914 0.296305 1.76065 106 102 101 
-0.420861 0.314511 1.73117 18 13 7 
-0.349572 0.299296 1.65679 120 116 107 
-0.0570179 -0.330127 1.77642 8 5 0 
-0.328321 -0.285228 1.89354 110 109 105 
-0.229702 0.282232 1.56222 166 157 148 
-0.175343 -0.324328 1.81794 129 125 122 
-0.40533 -0.308412 2.01173 123 122 117 
-0.281534 0.326314 1.55624 141 136 132 
-0.396414 0.383795 1.68927 127 133 133 
-0.402632 0.390493 1.69872 31 40 49 
-0.413553 0.399668 1.71855 140 145 151 
-0.431625 0.414694 1.76401 96 96 94 
-0.403743 0.401164 1.70232 38 42 54 
-0.255042 -0.378268 1.87934 115 111 108 
-0.420302 0.410862 1.74118 22 26 35 
-0.398389 0.399173 1.69037 21 25 36 
-0.400722 0.0819488 1.86174 131 125 111 
-0.428189 0.424082 1.75756 134 135 139 
-0.414857 0.415669 1.71186 139 143 154 
-0.420258 0.428225 1.73373 146 146 154 
-0.418045 0.4306 1.71541 158 158 156 
-0.409873 0.429714 1.70154 35 37 36 
-0.400579 0.431115 1.67892 151 153 152 
-0.406896 0.441405 1.6945 68 67 62 
-0.254167 -0.0439753 1.73279 88 79 72 
-0.413452 0.445207 1.70522 25 24 20 
-0.410491 0.456341 1.69844 30 31 33 
-0.415802 0.463482 1.7068 146 151 147 
-0.420965 0.479337 1.72684 19 21 18 
-0.406228 0.4682 1.68205 45 43 44 
-0.418352 0.487035 1.7133 50 49 44 
-0.403682 0.477268 1.67565 112 113 108 
-0.413814 0.488356 1.70152 131 130 126 
-0.183318 -0.511556 1.88347 111 110 105 
-0.430873 0.505967 1.72271 72 35 0 
-0.40815 0.493844 1.6715 116 116 114 
-0.331981 0.370364 1.57096 12 11 6 
-0.440968 0.513886 1.71841 73 34 0 
-0.411355 0.51212 1.68128 5 10 3 
-0.210985 -0.562177 1.90434 139 136 131 
-0.397212 0.525485 1.64138 111 115 116 
-0.396506 0.539981 1.63461 129 127 132 
-0.211231 -0.649521 1.9578 41 36 17 
-0.230988 -0.645482 1.96248 18 14 3 
-0.400319 0.586819 1.6401 126 125 131 
-0.41707 0.602368 1.67592 119 119 117 
-0.191154 -0.767237 2.07164 17 16 12 
-0.119828 -0.805451 2.05313 19 9 0 
-0.419705 0.441012 1.73267 46 49 42 
-0.399646 0.422911 1.66816 128 129 131 
-0.431122 0.437146 1.74537 33 26 18 
-0.283445 -0.418913 1.91334 92 84 82 
-0.370982 -0.251717 1.92663 20 17 12 
-0.284041 -0.394719 1.91107 106 103 96 
-0.272439 0.0193184 1.71045 122 112 111 
-0.32489 -0.168366 1.8274 22 18 15 
-0.0518138 -0.464932 1.83899 11 8 1 
-0.392328 0.0698843 1.85306 129 127 114 
-0.223749 -0.426897 1.88591 95 91 88 
-0.308432 -0.385951 1.91701 8 5 0 
-0.462979 -0.414007 2.17981 110 107 102 
-0.236877 -0.974643 2.26588 37 36 31 
-0.256733 -0.0777298 1.74293 12 9 4 
-0.0990092 0.0061932 1.65003 100 98 86 
-0.299838 -0.38064 1.90779 135 134 129 
-0.460706 -0.392806 2.15859 3 0 0 
-0.168988 -0.401091 1.85202 112 113 107 
-0.447059 -0.471114 2.14069 24 15 16 
0.0071665 -0.0436943 1.65752 5 0 0 
-0.308292 -0.374489 1.91108 17 12 9 
-0.231486 -1.16753 2.432 33 27 13 
-0.326384 0.051663 1.74317 11 8 1 
-0.423571 0.461076 1.7369 106 104 105 
-0.170979 -0.388176 1.84701 5 4 0 
-0.409501 -0.249436 1.99594 3 0 0 
-0.258226 0.312289 1.55362 127 123 114 
-0.380575 0.076211 1.79177 15 10 4 
-0.407765 0.391992 1.70996 22 29 37 
-0.411521 -0.357461 2.05674 108 108 106 
-0.231879 0.332755 1.5138 120 116 107 
-0.320266 0.35216 1.56771 13 9 6 
-0.375599 0.0707932 1.8068 93 89 86 
-0.284281 -0.943767 2.26114 130 125 119 
-0.30413 -0.501169 1.93166 94 89 85 
-0.188137 -0.790402 2.08144 130 127 118 
0.0215238 -0.0537894 1.66737 4 0 0 
-0.293259 -0.337507 1.87287 9 4 0 
-0.32926 -0.123943 1.81879 4 0 0 
-0.417198 -0.340016 2.06126 3 0 0 
-0.12536 -0.784707 2.04721 23 20 11 
-0.367851 0.168766 1.73959 8 0 0 
-0.35508 -0.330273 1.94311 10 6 3 
-0.300896 0.155001 1.68061 8 3 0 
-0.287872 -0.12203 1.77487 116 113 108 
-0.12092 -0.766568 2.03306 47 44 37 
-0.438885 0.373811 1.75638 101 97 96 
-0.0609356 -0.37911 1.80979 109 110 104 
-0.314848 -0.00593133 1.75177 10 7 2 
-0.135954 -0.753296 2.02909 32 32 20 
-0.047593 0.0175593 1.63823 149 142 132 
-0.414465 0.357835 1.69252 69 64 60 
-0.268017 -0.779248 2.11579 16 15 11 
-0.416378 -0.327691 2.0552 5 2 0 
-0.270894 -0.117306 1.77513 12 7 3 
-0.391445 0.193389 1.77103 82 81 77 
-0.411554 -0.150938 1.9602 87 80 72 
-0.186366 -0.716347 2.02099 135 131 120 
-0.234591 0.306016 1.53849 4 0 0 
-0.422016 -0.472512 2.06219 3 0 0 
-0.150853 -0.705561 1.98488 34 30 18 
-0.411427 -0.167422 1.96775 89 84 80 
-0.405899 -0.17693 1.95094 20 9 3 
-0.0588097 -0.24115 1.75843 6 0 0 
-0.397357 0.554209 1.63567 114 115 119 
-0.411604 -0.307171 2.03324 19 16 11 
-0.177915 -0.853011 2.12643 41 37 26 
-0.266709 -0.491123 1.90655 100 93 87 
-0.283709 -0.8453 2.18039 31 24 16 
-0.374641 -0.204345 1.91607 111 105 105 
-0.346845 -0.206736 1.87959 113 110 105 
-0.118782 0.272535 1.527 4 0 0 
-0.0492288 -0.26506 1.74996 118 113 107 
-0.323631 -0.296946 1.89541 115 112 105 
-0.372917 -0.219875 1.91329 4 0 0 
-0.3631 -0.0602757 1.83259 101 97 94 
-0.432386 0.503895 1.73994 119 104 97 
-0.117417 -0.901317 2.13608 124 120 109 
-0.378213 -0.494664 2.00857 104 101 94 
-0.447379 -0.310494 2.19975 3 0 0 
-0.141149 -1.00497 2.24675 35 26 17 
-0.383387 -0.221872 1.90455 18 10 7 
-0.21735 0.087292 1.63894 11 7 0 
-0.354129 0.486145 1.53373 91 82 77 
-0.319568 -0.234937 1.87188 25 21 12 
-0.209906 0.0808447 1.64316 128 123 120 
-0.399781 -0.278691 2.00303 113 108 104 
-0.272236 -0.0592501 1.7395 6 0 0 
-0.353042 -0.503036 1.97667 93 94 86 
-0.315046 -0.0360772 1.77451 34 30 27 
-0.389432 0.109697 1.8076 7 0 0 
-0.418942 0.519693 1.7071 114 107 101 
-0.431551 0.509249 1.70536 34 0 0 
-0.393789 -0.264387 1.98353 8 5 0 
-0.417768 0.510488 1.69463 37 28 0 
-0.313556 -0.261693 1.85339 100 97 92 
-0.320083 -0.515395 1.95041 100 97 92 
-0.254548 -0.939121 2.24955 130 128 116 
-0.349342 -0.934584 2.36117 22 8 5 
-0.365181 -0.519792 2.00192 13 10 3 
-0.383426 -0.527617 2.02701 106 101 95 
-0.413666 -0.176956 1.9825 43 33 23 
-0.354861 -0.252496 1.90667 96 88 86 
0.0238476 -0.0169825 1.64982 4 1 0 
-0.367142 0.211976 1.72749 5 0 0 
-0.272672 -0.259103 1.83628 16 8 5 
-0.21052 -1.06396 2.32822 127 123 111 
-0.307051 0.090638 1.70822 124 117 107 
-0.302867 -0.0500609 1.76238 6 3 0 
-0.443602 -0.182561 2.1284 104 100 91 
-0.289192 -0.800789 2.14101 111 108 99 
-0.266224 -0.51604 1.91827 85 84 82 
-0.339902 -0.905633 2.31996 37 28 21 
-0.41275 -0.271257 2.03532 8 5 0 
-0.367214 -0.0779396 1.84373 8 3 0 
-0.298694 -0.443545 1.93689 96 91 87 
-0.410892 -0.238273 2.00947 123 120 111 
-0.405411 -0.000188936 1.87781 107 102 96 
-0.292814 -0.0346742 1.75475 6 0 0 
-0.0548117 -0.07762 1.66407 6 0 0 
-0.057614 -0.280946 1.78094 6 1 0 
-0.409326 -0.187714 1.96695 7 0 0 
-0.297679 -0.558401 1.94492 14 7 0 
-0.19307 0.280468 1.54565 14 11 6 
-0.386616 -0.497927 2.02448 121 118 111 
-0.409786 -0.214471 1.97973 13 4 0 
-0.24026 -0.22962 1.80256 11 7 6 
-0.439705 -0.28615 2.11486 36 33 24 
-0.217724 -0.871015 2.16687 30 27 18 
-0.468475 -0.437802 2.22333 14 13 9 
-0.306524 -0.296696 1.87314 13 10 3 
-0.20483 0.319274 1.50486 87 82 78 
-0.33633 0.31605 1.62979 4 0 0 
-0.459896 -0.435885 2.16897 25 22 17 
-0.457234 0.468153 1.82497 9 5 2 
-0.136488 -1.10603 2.32046 47 43 31 
-0.39996 -0.121 1.9298 4 0 0 
-0.391255 -0.27827 1.97932 83 80 75 
-0.421532 -0.11074 1.97442 6 2 0 
-0.326043 0.414822 1.545 24 21 16 
-0.395616 -0.131302 1.92291 105 100 97 
-0.348272 0.552309 1.47926 105 102 95 
-0.284647 -0.118819 1.78792 25 22 17 
-0.388493 -0.322571 1.9892 106 103 98 
-0.0897686 0.160545 1.57451 14 9 3 
-0.131305 -0.139424 1.72145 115 112 107 
-0.0924046 -0.809178 2.05198 138 130 119 
-0.38513 0.0480135 1.83273 4 0 0 
-0.187934 -0.961865 2.23526 48 41 31 
-0.394104 -0.165049 1.93751 12 1 0 
-0.16877 -0.340797 1.82015 4 0 0 
-0.296224 -0.0173134 1.74095 106 99 89 
-0.320987 0.19027 1.66556 14 9 5 
-0.240444 0.296925 1.55011 11 6 2 
-0.358056 -0.258999 1.92089 107 103 100 
-0.299481 0.308527 1.59051 7 2 0 
-0.330465 -0.00622341 1.7733 12 7 1 
-0.0351055 -0.209159 1.72006 18 13 9 
-0.415514 0.410104 1.72294 17 21 33 
-0.407078 0.415714 1.69474 175 176 180 
-0.417175 0.447291 1.71698 169 170 165 
-0.389928 -0.893851 2.44045 6 3 0 
-0.408197 0.47932 1.69531 160 160 162 
-0.13098 -0.426482 1.85232 6 2 1 
-0.312355 -0.864544 2.22286 36 26 17 
0.141468 0.0199317 1.69939 12 8 0 
-0.207551 -0.674969 1.97899 17 15 3 
0.0261146 0.225698 1.53829 37 28 13 
-0.163613 -0.692923 1.97425 35 25 15 
-0.267028 -0.957525 2.26521 120 118 106 
-0.417502 0.102475 1.91544 151 147 136 
-0.358917 -0.189627 1.88577 9 1 0 
-0.180059 -0.0221594 1.69112 12 5 0 
-0.170511 -0.738724 2.0293 121 120 116 
-0.321043 0.163941 1.69131 133 128 122 
-0.0479494 -0.232236 1.75079 84 79 75 
-0.423521 -0.309328 2.05998 99 98 94 
-0.359297 0.37653 1.59201 149 147 134 
-0.202007 -1.11074 2.36746 118 114 103 
-0.386777 -0.224897 1.95332 10 0 0 
-0.424523 -0.128458 1.98641 111 98 92 
-0.226569 -1.0878 2.35853 36 33 26 
-0.282422 -0.734646 2.09024 114 116 105 
-0.380521 0.393324 1.61218 131 127 116 
-0.380173 0.0319327 1.80997 105 100 96 
-0.0551169 -0.453438 1.83837 19 16 7 
-0.28587 -0.759501 2.10453 6 5 0 
-0.402405 0.423229 1.6879 132 134 129 
0.0345903 0.204511 1.55518 37 23 10 
-0.426313 -0.145144 2.00615 16 6 0 
-0.112773 -0.815307 2.0727 19 9 0 
-0.0656914 -0.446139 1.84588 81 77 76 
-0.317232 -0.782879 2.16181 33 30 15 
-0.327275 -0.152679 1.83407 109 106 101 
-0.417017 0.593592 1.68817 89 90 92 
-0.260399 -0.149103 1.77585 24 13 7 
-0.199897 -0.807579 2.10119 123 122 117 
-0.165309 -0.566222 1.89799 105 100 97 
-0.424908 -0.243133 2.05157 16 8 5 
-0.358784 -0.533879 1.99184 15 11 8 
-0.00962659 0.165524 1.55797 149 145 133 
0.018433 0.19385 1.54704 106 96 94 
-0.297255 -0.38534 1.92066 150 147 142 
0.0520787 0.163278 1.57392 18 9 0 
-0.421996 -0.114313 1.9889 16 9 0 
-0.457301 -0.385023 2.15156 71 70 66 
-0.406371 -0.37968 2.06027 103 102 100 
-0.305604 -0.338595 1.88339 3 0 0 
-0.195771 -0.950526 2.22476 27 24 17 
-0.404526 -0.225464 1.96538 25 12 4 
-0.346433 -0.342657 1.93737 97 93 90 
0.0337726 0.181769 1.56336 17 8 0 
-0.418278 0.527864 1.69908 125 136 130 
-0.296927 -0.869294 2.21442 21 16 10 
0.117676 0.137058 1.62624 38 29 20 
-0.129096 -0.906747 2.14827 25 21 9 
-0.244692 -0.53307 1.90519 79 75 72 
-0.207767 -0.901963 2.18181 119 114 110 
-0.150782 -0.100238 1.71375 117 114 105 
-0.383739 -0.0616545 1.86531 15 4 2 
-0.0511838 -0.333415 1.78898 8 5 0 
-0.317426 -0.288055 1.88996 110 109 105 
-0.196188 0.280075 1.53372 128 124 115 
-0.338309 0.324691 1.6234 2 1 0 
-0.413225 -0.262015 2.02044 6 5 1 
0.0510344 0.280495 1.51607 15 10 7 
-0.0433495 0.0310799 1.61672 87 77 68 
-0.425175 -0.18727 1.99295 9 0 0 
-0.301331 -0.188552 1.82997 3 0 0 
-0.309799 -0.304293 1.8917 84 81 76 
-0.360574 0.445378 1.5613 109 105 96 
-0.433098 0.48288 1.74958 100 92 89 
-0.1327 -0.159255 1.73204 94 90 87 
-0.421702 -0.159118 1.98827 32 19 10 
-0.427044 0.0484187 1.94733 21 17 16 
-0.108318 -1.09957 2.30849 58 50 39 
-0.331082 0.386764 1.56154 117 114 109 
-0.347991 -0.151714 1.84968 24 19 13 
-0.378964 -0.228797 1.93916 14 9 5 
-0.355625 0.146695 1.72856 105 98 92 
-0.433783 -0.140886 2.03498 7 0 0 
-0.279186 -0.543632 1.92713 93 89 86 
-0.434592 -0.233403 2.07522 125 120 116 
-0.389522 -0.777906 2.3791 25 15 6 
-0.426176 -0.19611 2.03012 12 5 0 
-0.0629736 -0.354677 1.80885 76 72 71 
-0.399668 -0.196244 1.95931 17 7 0 
-0.323214 0.296767 1.63122 6 2 0 
-0.380424 -0.27146 1.9599 110 106 103 
-0.356315 0.470919 1.54798 74 70 67 
-0.409538 -0.234192 1.99424 121 117 106 
-0.23281 -0.5383 1.90384 112 111 107 
-0.432306 -0.507462 2.10269 20 17 10 
-0.260464 -0.285428 1.84228 4 0 1 
-0.400025 0.117877 1.86503 16 10 0 
-0.051241 -1.00504 2.19219 43 41 29 
-0.278388 -0.365669 1.88555 4 0 0 
-0.176486 -0.869048 2.15451 116 112 101 
-0.424603 0.053696 1.93266 7 0 0 
-0.131026 -1.86254 2.85642 31 37 35 
-0.317153 -0.430862 1.93592 3 0 0 
-0.418043 0.491918 1.7288 44 39 36 
-0.436685 -0.105687 2.01475 9 2 0 
-0.307601 0.291473 1.61399 99 95 92 
-0.252967 -0.404456 1.87203 142 141 139 
-0.352542 0.316373 1.64262 110 105 99 
-0.175095 -0.805785 2.11192 131 128 119 
-0.0517197 -0.13936 1.69035 5 0 0 
-0.425747 -0.127665 2.00276 8 0 0 
-0.416013 -0.144645 1.98642 11 5 0 
-0.354659 0.363702 1.5924 20 17 12 
-0.443191 -0.335726 2.14775 0 1 0 
-0.13179 -0.812286 2.07976 38 30 17 
-0.180004 -0.32089 1.80461 120 116 113 
-0.400409 -0.0381103 1.901 107 104 99 
-0.316229 -0.433228 1.94928 105 100 97 
-0.40938 -0.377321 2.03951 3 0 0 
-0.396778 0.103533 1.84478 29 26 11 
-0.432502 0.101758 1.93198 16 7 0 
-0.270829 -0.871709 2.20158 7 4 0 
-0.310271 -0.195764 1.84485 8 7 2 
-0.279599 -0.479796 1.91691 87 86 82 
-0.330342 -0.945718 2.29231 4 1 0 
-0.271393 0.008753 1.7012 102 97 93 
-0.39738 0.512402 1.63676 124 126 123 
-0.405876 0.5304 1.65717 28 29 31 
-0.349702 0.353761 1.60219 26 23 16 
-0.339255 0.280945 1.64812 142 135 127 
-0.281491 0.0804384 1.68851 6 1 0 
-0.467517 -0.375855 2.19441 112 111 107 
-0.438104 0.524386 1.7284 106 100 88 
-0.232571 -0.411175 1.87139 84 83 79 
-0.319548 -0.216572 1.8496 17 12 8 
-0.2917 -0.64738 2.00608 57 47 37 
-0.36712 -0.0019429 1.82354 5 0 0 
-0.346722 -0.182414 1.86704 33 30 25 
-0.204598 -0.750788 2.06129 42 39 32 
-0.371258 0.065159 1.79589 16 16 4 
0.0061017 0.287999 1.50862 27 21 21 
-0.390996 -0.221839 1.93723 10 0 0 
-0.330051 -0.41311 1.93707 85 80 74 
-0.417048 0.622141 1.44756 96 92 83 
-0.408568 -0.477221 2.05887 11 8 3 
-0.379127 -0.335209 1.9739 96 92 91 
-0.278184 -0.970414 2.28637 130 120 110 
-0.200309 -0.56442 1.90532 100 96 93 
-0.342856 -0.930965 2.3226 24 20 9 
-0.390724 -0.154363 1.92331 10 2 0 
-0.287057 0.362326 1.53534 106 103 96 
0.131378 0.0232757 1.68765 120 114 102 
-0.430021 -0.263332 2.06436 12 11 6 
-0.396548 0.403556 1.6745 115 119 122 
-0.361234 -0.241318 1.905 17 13 10 
-0.409721 0.539671 1.66754 93 95 82 
-0.31189 -0.534416 1.94107 6 1 0 
-0.0584096 -0.397117 1.82212 111 110 105 
-0.323588 -0.956829 2.29286 19 18 13 
-0.0629284 -0.422306 1.84196 12 11 9 
-0.273839 -0.838887 2.17242 27 22 16 
-0.356147 -0.0131254 1.82032 22 17 13 
-0.0649273 0.102191 1.60456 85 84 79 
-0.0576077 0.161828 1.58674 92 88 89 
-0.338665 -0.529067 1.9714 7 2 0 
-0.391606 -0.489703 2.01504 3 0 0 
-0.0369665 -0.537222 1.86373 12 11 9 
-0.280548 -0.207173 1.8258 5 0 0 
-0.412529 -0.518182 2.08486 31 28 21 
-0.407731 -0.215339 1.96294 8 0 0 
0.0413499 0.214975 1.55023 48 38 26 
-0.428163 0.087973 1.91788 88 87 82 
-0.427198 0.112496 1.90598 121 114 106 
-0.000892234 0.249563 1.52323 22 18 9 
-0.393955 0.372069 1.66605 2 0 1 
-0.391277 0.399785 1.64738 107 97 95 
-0.425148 -0.382558 2.07475 102 102 102 
-0.392678 0.40508 1.66117 98 99 94 
-0.422946 0.425057 1.7452 19 23 35 
-0.39168 0.440466 1.65722 161 166 159 
-0.413182 0.4712 1.71646 13 13 11 
-0.441965 -0.553424 2.14836 43 39 27 
-0.330046 -0.682446 2.05732 69 60 51 
-0.237592 -0.527756 1.91386 15 11 8 
-0.394137 -0.8836 2.42557 11 12 7 
-0.380325 -0.988254 2.45342 215 215 213 
-0.140363 0.311754 1.49779 96 90 90 
-0.4126 0.351035 1.7039 80 75 69 
-0.425835 -0.15905 2.01763 10 5 0 
-0.414445 -0.138698 1.96983 17 10 4 
-0.43625 -0.128041 2.00945 20 10 0 
-0.320687 -0.13577 1.81018 102 97 93 
-0.244033 -0.651645 1.97983 128 125 110 
-0.154523 -0.192847 1.74708 21 14 8 
-0.321822 -0.776749 2.14764 50 47 32 
-0.042691 0.0475369 1.61042 113 108 102 
-0.154543 -0.899269 2.1604 118 114 105 
-0.339134 -0.361259 1.92956 17 14 9 
-0.0285952 0.318421 1.47918 102 99 90 
-0.40346 0.481121 1.6642 105 106 100 
-0.294629 -0.472311 1.9174 65 65 65 
-0.261936 -0.0763976 1.73098 8 5 0 
-0.373414 -0.0444768 1.83812 109 106 101 
-0.428292 -0.202053 2.05225 114 105 98 
-0.412151 -0.472607 2.04577 41 38 33 
-0.0490481 -0.459687 1.85484 47 43 32 
-0.373382 -0.502193 2.01878 18 15 10 
-0.195177 -0.901655 2.194 0 0 0 
-0.388088 0.179466 1.77481 116 111 108 
-0.290977 -0.919947 2.25073 128 122 110 
-0.401656 0.541195 1.6501 107 107 109 
-0.163099 0.236307 1.53908 97 87 78 
-0.335077 -0.23872 1.86941 14 4 0 
-0.421643 -0.281252 2.04108 32 29 22 
-0.168993 -1.01292 2.25027 115 107 94 
-0.394777 -0.281912 1.96238 7 4 0 
-0.260038 -0.0303294 1.72184 59 50 41 
-0.260482 0.423912 1.48788 129 122 116 
-0.053623 -0.189271 1.73644 102 99 94 
0.126009 0.581245 1.33941 116 113 98 
0.0382402 0.282264 1.51704 26 23 18 
-0.443496 -0.220294 2.12578 18 14 13 
-0.390864 0.195559 1.75616 96 93 88 
-0.378884 0.605906 1.41626 66 61 57 
-0.312131 -0.73983 2.1062 56 53 48 
-0.354628 0.500669 1.53138 21 11 9 
-0.12976 -1.79189 2.97055 33 29 30 
-0.392702 0.420426 1.62204 22 13 4 
-0.39913 0.383117 1.67697 154 158 159 
0.0626 0.163205 1.5878 17 10 2 
0.118894 0.127021 1.63344 35 27 16 
-0.430193 0.14769 1.9213 32 25 17 
-0.434282 0.0905808 1.99189 20 16 5 
-0.303686 -0.239688 1.86665 77 73 70 
-0.414366 -0.138379 1.94832 72 61 55 
-0.150372 -0.498562 1.86116 86 85 83 
-0.275008 -0.110634 1.76243 107 102 99 
-0.396903 -0.152446 1.94931 17 10 4 
-0.0479947 -0.400141 1.83032 12 11 6 
-0.195056 -0.930899 2.18927 75 72 65 
-0.327741 -0.950108 2.31096 117 114 107 
-0.39845 -0.277612 1.99038 126 118 116 
-0.403732 0.000482643 1.90068 8 4 1 
-0.325264 0.447919 1.51779 21 11 9 
-0.314474 -0.0817968 1.78272 6 2 0 
-0.13924 0.170922 1.56471 90 85 82 
-0.0307613 -0.191053 1.72768 18 12 12 
-0.137526 -0.498837 1.84844 2 1 0 
-0.449418 0.457138 1.75687 122 119 114 
-0.360834 -0.858859 2.37606 107 93 92 
-0.403465 0.442068 1.67987 39 37 38 
-0.35762 0.516352 1.52056 14 9 5 
-0.0441119 -0.360316 1.77816 15 10 6 
-0.157807 0.04689 1.63724 7 3 0 
-0.265075 0.0670005 1.67943 109 105 96 
-0.148239 -0.216174 1.77023 111 106 100 
-0.396781 0.379155 1.70463 99 101 100 
-0.324053 -0.429457 1.95754 100 96 87 
-0.415629 0.458631 1.68451 30 36 32 
-0.244765 -0.458762 1.90571 21 20 16 
-0.380637 0.631924 1.40234 100 94 80 
0.180348 0.289493 1.60111 32 28 17 
-0.405587 -0.0358653 1.88341 98 95 90 
-0.11111 -0.0905665 1.70027 77 77 75 
-0.315808 -0.0542822 1.77103 11 7 4 
-0.279322 -0.498274 1.91462 102 101 99 
-0.225276 -0.49137 1.88533 1 0 0 
-0.0630678 -0.467395 1.86283 8 7 3 
-0.0820687 -1.86154 2.87681 109 114 110 
-0.346288 -0.342383 1.95905 100 96 93 
-0.384828 0.0499526 1.8465 86 83 76 
-0.368931 -1.03632 2.43718 74 73 68 
-0.0626111 -0.448324 1.86062 37 36 32 
-0.396458 0.0528831 1.81249 57 54 47 
-0.057742 -0.256957 1.7422 93 89 86 
-0.0675916 -0.394324 1.80817 86 85 80 
-0.459792 -0.363494 2.15664 78 77 73 
-0.0498914 -0.359303 1.79365 61 58 53 
-0.0587694 -0.432246 1.84705 94 90 87 
-0.33848 -0.945 2.34821 41 39 26 
-0.244998 -0.209103 1.79056 100 95 91 
-0.351321 -0.930694 2.34723 23 13 14 
-0.441574 -0.407032 2.10512 3 0 0 
-0.431645 -0.420791 2.09647 2 2 0 
-0.207855 0.106306 1.61765 103 98 94 
-0.285195 -0.527118 1.93253 3 0 0 
-0.348198 0.318252 1.65401 125 120 114 
-0.432098 0.372509 1.77333 1 1 1 
-0.00290172 0.285646 1.49774 20 15 12 
-0.281117 -0.254087 1.82183 5 0 0 
-0.285023 0.251665 1.60866 4 0 0 
-0.172145 -0.329152 1.80555 7 3 2 
-0.393524 -0.322551 2.00433 34 30 27 
-0.353325 -0.333259 1.9595 12 8 5 
-0.404023 0.441912 1.6647 86 88 85 
-0.34411 0.353902 1.61511 37 34 29 
-0.345022 -0.0897277 1.81811 24 19 15 
-0.00870899 0.248507 1.51034 22 18 9 
-0.0990655 -0.883591 2.11461 104 100 89 
-0.371709 -0.852148 2.38146 32 23 18 
-0.0504858 -0.0832882 1.68136 98 95 90 
-0.230031 -1.18521 2.46094 134 126 113 
-0.33798 -0.481663 1.95008 94 90 87 
-0.130299 -0.940832 2.17088 66 57 48 
-0.154378 -0.407255 1.82927 18 14 11 
-0.0515513 -0.0724388 1.67556 91 82 77 
-0.135891 -0.484526 1.85233 80 75 72 
-0.272708 0.17421 1.6513 14 6 4 
-0.0731007 0.102273 1.59156 93 92 88 
-0.247547 0.131778 1.6257 87 84 77 
-0.0154545 -0.00109914 1.63494 92 89 84 
-0.0136358 -0.558223 1.8805 15 7 5 
0.131017 0.592153 1.33888 110 107 92 
0.0266002 0.184259 1.54934 106 98 87 
-0.370757 0.318309 1.63517 38 30 27 
-0.396701 -0.441005 2.01655 13 13 11 
0.133539 0.190405 1.60823 40 37 28 
-0.184007 -0.945783 2.21741 42 39 30 
-0.293896 -0.123847 1.79241 43 35 33 
-0.428872 -0.363281 2.09101 69 70 65 
-0.140402 -0.796439 2.06973 111 111 101 
-0.0453854 -1.01363 2.21085 45 42 33 
-0.274602 -0.858154 2.20443 113 106 96 
-0.121156 -0.825062 2.10245 31 27 15 
-0.449513 -0.311418 2.24875 34 34 34 
-0.399123 0.580865 1.62347 98 101 106 
-0.421225 0.589759 1.67175 84 86 85 
-0.434162 -0.410394 2.08878 81 77 76 
-0.445606 0.507824 1.70465 157 123 60 
-0.275259 -0.52107 1.89435 7 6 2 
-0.437293 0.417705 1.78378 89 85 74 
-0.23423 -0.484588 1.87015 0 0 0 
-0.357854 -0.457783 1.98005 2 0 1 
-0.350156 -0.45191 1.94614 76 73 68 
-0.424754 0.429768 1.70041 75 75 67 
-0.295929 -0.433975 1.92376 87 83 80 
-0.050246 -0.210311 1.74307 32 32 22 
-0.347134 -0.408801 1.95007 13 12 8 
-0.308492 -0.525 1.94946 53 50 45 
-0.296209 -0.0205506 1.72844 30 25 21 
-0.423919 0.52302 1.68181 65 78 71 
-0.389427 -0.285215 2.00213 96 93 86 
-0.107556 -0.980909 2.21034 118 116 103 
-0.0144571 -0.215686 1.73426 101 96 93 
-0.31666 -0.180564 1.82094 109 105 102 
-0.363295 0.319914 1.65464 39 31 28 
-0.406104 0.517514 1.64728 74 77 82 
-0.291843 -0.389451 1.89932 79 76 67 
-0.425069 0.500962 1.71332 51 33 33 
-0.261311 -0.927463 2.22843 120 117 108 
-0.361021 0.355558 1.6141 131 122 113 
-0.336105 -0.238591 1.88913 109 100 93 
-0.0957194 -1.9232 2.96846 32 33 37 
-0.413861 0.387822 1.64431 0 3 20 
-0.408666 0.404064 1.74096 130 135 141 
-0.383724 -0.896282 2.46808 222 220 221 
-0.392799 -0.94006 2.45406 220 222 221 
-0.134829 -0.173156 1.70925 82 79 72 
-0.406407 -0.165309 1.94166 5 0 0 
-0.367765 -0.866557 2.40213 35 23 25 
-0.145952 -0.719775 2.01363 52 49 44 
-0.462498 -0.374168 2.13838 74 74 66 
-0.074369 -0.495331 1.82107 3 3 5 
-0.285449 -0.469506 1.90039 73 70 63 
-0.2762 -0.471299 1.92653 98 94 91 
-0.126912 -0.49418 1.87579 75 70 67 
-0.251907 0.574178 1.32234 73 63 53 
-0.276017 -0.447915 1.91501 73 68 62 
-0.137347 -0.475062 1.8751 96 93 86 
-0.143651 -0.461899 1.83826 95 92 87 
-0.32946 -0.423744 1.91202 38 34 35 
-0.349675 -0.416262 1.92388 72 68 59 
-0.301801 -0.439496 1.96396 101 100 96 
-0.338503 -0.41672 1.97507 5 5 3 
-0.0677607 -0.455211 1.86926 96 95 91 
-0.234376 -0.409038 1.89478 85 82 75 
-0.442453 -0.385196 2.06599 90 86 85 
-0.0653506 -0.4376 1.85641 106 105 100 
-0.306469 0.169467 1.67751 24 19 16 
0.106514 0.167634 1.61196 61 52 43 
-0.369108 -1.06851 2.46496 190 190 190 
0.114571 -0.0490037 1.70486 39 32 24 
-0.435571 0.385538 1.7695 92 87 83 
-0.183358 -0.242838 1.7978 14 10 7 
-0.180336 -0.222614 1.78416 69 68 63 
-0.0635385 -0.235836 1.77509 92 86 86 
-0.13287 -0.19226 1.75339 109 105 102 
-0.0494611 0.0665469 1.60714 9 10 5 
-0.0555664 0.11912 1.5819 73 70 65 
-0.0863534 -0.446832 1.84506 97 93 90 
-0.21277 -0.456522 1.86591 60 57 50 
-0.267089 -0.255828 1.84741 101 97 86 
