ply                 
format ascii 1.0    
element vertex 1264
property float x    
property float y    
property float z    
property uchar red  
property uchar green
property uchar blue 
end_header          
-0.420199 0.471767 1.67905 30 31 33 
-0.425813 0.479099 1.68713 146 151 147 
-0.431494 0.495511 1.70691 19 21 18 
-0.415547 0.48352 1.66248 45 43 44 
-0.428588 0.503063 1.69316 50 49 44 
-0.412858 0.492597 1.65592 112 113 108 
-0.423721 0.504223 1.68144 131 130 126 
-0.186181 -0.527653 1.88831 111 110 105 
-0.441521 0.522337 1.70215 72 35 0 
-0.417381 0.50924 1.6513 116 116 114 
-0.337531 0.382964 1.55423 12 11 6 
-0.451782 0.530117 1.69725 73 34 0 
-0.420839 0.527917 1.66082 5 10 3 
-0.215324 -0.580632 1.91001 139 136 131 
-0.405649 0.540798 1.62104 111 115 116 
-0.404798 0.555335 1.61414 129 127 132 
-0.216028 -0.673457 1.96709 41 36 17 
-0.236913 -0.668823 1.97122 18 14 3 
-0.408792 0.602763 1.61903 126 125 131 
-0.426634 0.618975 1.65399 119 119 117 
-0.19567 -0.801128 2.0899 17 16 12 
-0.119672 -0.843134 2.0734 19 9 0 
-0.430259 0.456758 1.71352 46 49 42 
-0.408517 0.437395 1.64936 128 129 131 
-0.442237 0.452917 1.72583 33 26 18 
-0.29162 -0.429322 1.91502 92 84 82 
-0.383166 -0.253958 1.92367 20 17 12 
-0.292153 -0.404093 1.91258 106 103 96 
-0.277878 0.0256913 1.70096 122 112 111 
-0.333633 -0.16767 1.82189 22 18 15 
-0.0475484 -0.480316 1.84504 11 8 1 
-0.404169 0.0788761 1.84231 129 127 114 
-0.228636 -0.438457 1.8889 95 91 88 
-0.3178 -0.394549 1.91759 8 5 0 
-0.48403 -0.423787 2.18597 110 107 102 
-0.246024 -1.02674 2.29915 37 36 31 
-0.261941 -0.0743284 1.73562 12 9 4 
-0.0973367 0.0113795 1.64338 100 98 86 
-0.308676 -0.389068 1.90829 135 134 129 
-0.48116 -0.401455 2.16364 3 0 0 
-0.170983 -0.411859 1.85477 112 113 107 
-0.466584 -0.483641 2.14681 24 15 16 
0.0133784 -0.0405188 1.65346 5 0 0 
-0.317457 -0.382654 1.91167 17 12 9 
-0.241878 -1.24105 2.48323 33 27 13 
-0.334129 0.0592813 1.73253 11 8 1 
-0.434356 0.477138 1.71719 106 104 105 
-0.172994 -0.398322 1.84949 5 4 0 
-0.424568 -0.251338 1.99365 3 0 0 
-0.26166 0.324089 1.53895 127 123 114 
-0.39089 0.0849345 1.78013 15 10 4 
-0.417556 0.406661 1.69174 22 29 37 
-0.427756 -0.364433 2.05883 108 108 106 
-0.234121 0.344471 1.4993 120 116 107 
-0.325485 0.364497 1.5514 13 9 6 
-0.386053 0.0794661 1.7956 93 89 86 
-0.296712 -0.991585 2.29073 130 125 119 
-0.313365 -0.51533 1.93474 94 89 85 
-0.19257 -0.825982 2.10063 130 127 118 
0.0283766 -0.0510099 1.66391 4 0 0 
-0.301279 -0.343951 1.87194 9 4 0 
-0.338168 -0.121579 1.81201 4 0 0 
-0.433762 -0.346147 2.06302 3 0 0 
-0.125627 -0.820698 2.06646 23 20 11 
-0.376983 0.179455 1.72596 8 0 0 
-0.366882 -0.336024 1.94237 10 6 3 
-0.306987 0.164852 1.66832 8 3 0 
-0.296538 -0.119003 1.76278 117 110 102 
-0.120778 -0.801285 2.05153 47 44 37 
-0.450331 0.388678 1.73779 101 97 96 
-0.0571669 -0.389962 1.8136 109 110 104 
-0.322338 3.13006e-05 1.7422 10 7 2 
-0.136872 -0.786555 2.04629 32 32 20 
-0.0439322 0.0229513 1.63196 149 142 132 
-0.424024 0.371612 1.67455 69 64 60 
-0.277665 -0.812764 2.13365 16 15 11 
-0.432864 -0.333152 2.05621 5 2 0 
-0.276898 -0.115175 1.76903 12 7 3 
-0.401817 0.204957 1.75691 82 81 77 
-0.426002 -0.148903 1.95515 87 80 72 
-0.190259 -0.74602 2.03554 135 131 120 
-0.237189 0.317603 1.52427 4 0 0 
-0.4389 -0.484609 2.0656 3 0 0 
-0.15239 -0.734629 1.99846 34 30 18 
-0.425963 -0.166056 1.96341 89 84 80 
-0.419916 -0.175948 1.94636 20 9 3 
-0.0551477 -0.245472 1.75869 6 0 0 
-0.405755 0.56968 1.61481 114 115 119 
-0.427421 -0.311712 2.03341 19 16 11 
-0.181878 -0.894311 2.15025 41 37 26 
-0.273817 -0.505205 1.90983 100 93 87 
-0.295148 -0.884064 2.20251 31 24 16 
-0.386837 -0.204629 1.91181 111 105 105 
-0.357361 -0.207279 1.87507 113 110 105 
-0.11783 0.283792 1.51505 4 0 0 
-0.0450173 -0.270425 1.75034 118 113 107 
-0.333355 -0.301419 1.8936 115 112 105 
-0.38497 -0.220784 1.90931 4 0 0 
-0.373447 -0.0555594 1.82441 101 97 94 
-0.443436 0.520546 1.71939 119 104 97 
-0.117315 -0.947958 2.1637 124 120 109 
-0.392157 -0.508003 2.01178 104 101 94 
-0.468084 -0.315656 2.20581 3 0 0 
-0.14333 -1.06186 2.28323 35 26 17 
-0.395816 -0.22261 1.89947 18 10 7 
-0.220155 0.0950463 1.62864 11 7 0 
-0.359653 0.499392 1.51519 91 82 77 
-0.328795 -0.236871 1.86861 25 21 12 
-0.212476 0.0884435 1.6332 128 123 120 
-0.414453 -0.282092 2.00239 113 108 104 
-0.277998 -0.0551694 1.73147 6 0 0 
-0.365157 -0.517046 1.98014 93 94 86 
-0.322855 -0.030961 1.76584 34 30 27 
-0.400367 0.119474 1.79538 7 0 0 
-0.429071 0.536041 1.68651 114 107 101 
-0.441946 0.525237 1.68435 34 0 0 
-0.407905 -0.267121 1.98197 8 5 0 
-0.427644 0.526459 1.67405 37 28 0 
-0.322243 -0.264653 1.85004 100 97 92 
-0.330366 -0.530133 1.95378 100 97 92 
-0.264836 -0.987357 2.27979 130 128 116 
-0.367448 -0.982754 2.39515 22 8 5 
-0.378318 -0.534643 2.00608 13 10 3 
-0.397906 -0.542719 2.03141 106 101 95 
-0.428551 -0.17597 1.97881 43 33 23 
-0.366046 -0.25488 1.90365 96 88 86 
0.0306161 -0.0129103 1.64542 4 1 0 
-0.376055 0.223555 1.7132 5 0 0 
-0.279386 -0.262376 1.83375 16 8 5 
-0.218344 -1.12591 2.3694 127 123 111 
-0.313663 0.0990634 1.69701 124 117 107 
-0.30994 -0.0455243 1.75427 6 3 0 
-0.462716 -0.181612 2.12862 104 100 91 
-0.300365 -0.835707 2.15997 111 108 99 
-0.273471 -0.531436 1.92228 85 84 82 
-0.356818 -0.950678 2.35042 37 28 21 
-0.428644 -0.274257 2.035 8 5 0 
-0.377986 -0.0737089 1.83561 8 3 0 
-0.307845 -0.455127 1.93945 96 91 87 
-0.426209 -0.239813 2.00773 123 120 111 
-0.418085 0.00683281 1.86836 107 102 96 
-0.299548 -0.0296777 1.74623 6 0 0 
-0.0512165 -0.0753748 1.65937 6 0 0 
-0.0538726 -0.287123 1.7825 6 1 0 
-0.423751 -0.187158 1.96304 7 0 0 
-0.306828 -0.575537 1.94934 14 7 0 
-0.194522 0.291853 1.53256 14 11 6 
-0.401205 -0.511487 2.02817 121 118 111 
-0.424507 -0.214956 1.97651 13 4 0 
-0.245263 -0.231901 1.79942 11 7 6 
-0.458329 -0.289815 2.11685 36 33 24 
-0.224724 -0.913317 2.19178 30 27 18 
-0.490649 -0.449219 2.23224 14 13 9 
-0.315201 -0.301233 1.8711 13 10 3 
-0.206215 0.330768 1.49097 87 82 78 
-0.342909 0.328613 1.61383 4 0 0 
-0.480529 -0.446795 2.17547 25 22 17 
-0.470686 0.485557 1.80445 9 5 2 
-0.138432 -1.17404 2.36568 47 43 31 
-0.413374 -0.117979 1.92388 4 0 0 
-0.405166 -0.281614 1.97799 83 80 75 
-0.436677 -0.107099 1.96862 6 2 0 
-0.33112 0.427659 1.5278 24 21 16 
-0.408728 -0.128699 1.91714 105 100 97 
-0.352768 0.565161 1.46051 105 102 95 
-0.291422 -0.116607 1.7816 25 22 17 
-0.40248 -0.327867 1.98896 106 103 98 
-0.087919 0.169732 1.56462 14 9 3 
-0.131086 -0.138993 1.71754 115 112 107 
-0.0903048 -0.848008 2.07359 138 130 119 
-0.396338 0.0562109 1.82212 4 0 0 
-0.193339 -1.0138 2.26838 48 41 31 
-0.407413 -0.163719 1.9328 12 1 0 
-0.17059 -0.348566 1.82092 4 0 0 
-0.302918 -0.0118053 1.73176 106 99 89 
-0.327619 0.200774 1.65176 14 9 5 
-0.243273 0.308492 1.53606 11 6 2 
-0.369655 -0.261625 1.91817 107 103 100 
-0.304482 0.320585 1.57528 7 2 0 
-0.338858 -0.000108445 1.76364 12 7 1 
-0.0303434 -0.212147 1.71898 18 13 9 
-0.425779 0.425211 1.70423 17 21 33 
-0.416678 0.430455 1.67577 175 176 180 
-0.427376 0.462865 1.69767 169 170 165 
-0.412197 -0.939686 2.47696 6 3 0 
-0.417834 0.495019 1.67556 160 160 162 
-0.130969 -0.439045 1.85659 6 2 1 
-0.326063 -0.904959 2.24707 36 26 17 
0.153434 0.025312 1.69777 12 8 0 
-0.212275 -0.700885 1.98999 17 15 3 
0.0319238 0.236416 1.52874 37 28 13 
-0.165678 -0.720918 1.98704 35 25 15 
-0.278341 -1.00709 2.29627 120 118 106 
-0.431395 0.112929 1.90468 151 147 136 
-0.370001 -0.189432 1.88085 9 1 0 
-0.181831 -0.0174571 1.68396 12 5 0 
-0.17344 -0.770394 2.04539 121 120 116 
-0.32793 0.174094 1.67851 133 128 122 
-0.0438198 -0.236211 1.7508 84 79 75 
-0.440355 -0.313958 2.06078 99 98 94 
-0.36583 0.389367 1.57461 149 147 134 
-0.209423 -1.17842 2.41365 118 114 103 
-0.400083 -0.225982 1.95027 10 0 0 
-0.43996 -0.125481 1.98141 111 98 92 
-0.235871 -1.15214 2.40192 36 33 26 
-0.29262 -0.764462 2.10524 114 116 105 
-0.387887 0.406583 1.59413 131 127 116 
-0.390762 0.0395003 1.79939 105 100 96 
-0.0511225 -0.468146 1.84406 19 16 7 
-0.296396 -0.791089 2.12074 6 5 0 
-0.411757 0.438016 1.66898 132 134 129 
0.0407314 0.214874 1.54616 37 23 10 
-0.442201 -0.142789 2.00204 16 6 0 
-0.112336 -0.854249 2.09444 19 9 0 
-0.0622899 -0.460451 1.8516 81 77 76 
-0.330419 -0.81627 2.18027 33 30 15 
-0.336337 -0.151338 1.82812 109 106 101 
-0.42677 0.610434 1.66655 89 90 92 
-0.265985 -0.148155 1.7704 24 13 7 
-0.205135 -0.844555 2.12167 123 122 117 
-0.167025 -0.585881 1.90532 105 100 97 
-0.441595 -0.24488 2.05104 16 8 5 
-0.371519 -0.549301 1.99578 15 11 8 
-0.004715 0.174776 1.54919 149 145 133 
0.0242095 0.203807 1.53805 106 96 94 
-0.306124 -0.394171 1.92193 150 147 142 
0.0594004 0.172695 1.56641 18 9 0 
-0.437363 -0.110842 1.98395 16 9 0 
-0.477472 -0.393268 2.15621 71 70 66 
-0.422436 -0.387796 2.06314 103 102 100 
-0.314378 -0.344927 1.88222 3 0 0 
-0.201771 -1.0008 2.25612 27 24 17 
-0.418715 -0.226448 1.96224 25 12 4 
-0.357772 -0.349011 1.93688 97 93 90 
0.040286 0.191592 1.55519 17 8 0 
-0.428296 0.544112 1.67815 125 136 130 
-0.309465 -0.910467 2.23922 21 16 10 
0.127645 0.146203 1.62072 38 29 20 
-0.129781 -0.953919 2.17661 25 21 9 
-0.250713 -0.549504 1.90957 79 75 72 
-0.214218 -0.947119 2.20872 119 114 110 
-0.151398 -0.0982736 1.70878 117 114 105 
-0.395413 -0.0567728 1.85721 15 4 2 
-0.0469332 -0.342101 1.79172 8 5 0 
-0.326788 -0.292233 1.88813 110 109 105 
-0.1976 0.291277 1.52048 128 124 115 
-0.344797 0.337318 1.60737 2 1 0 
-0.428911 -0.264492 2.01912 6 5 1 
0.0577719 0.292433 1.50633 15 10 7 
-0.0393983 0.0367818 1.61001 87 77 68 
-0.440779 -0.186528 1.98902 9 0 0 
-0.309169 -0.18882 1.82556 3 0 0 
-0.31884 -0.309256 1.89044 84 81 76 
-0.366677 0.458605 1.543 109 105 96 
-0.444374 0.499394 1.72929 100 92 89 
-0.132539 -0.159583 1.72871 94 90 87 
-0.437062 -0.157331 1.98396 32 19 10 
-0.441852 0.0574393 1.938 21 17 16 
-0.108104 -1.16745 2.35353 58 50 39 
-0.336448 0.399473 1.54471 117 114 109 
-0.358008 -0.150229 1.84375 24 19 13 
-0.391698 -0.230081 1.93599 14 9 5 
-0.364175 0.15675 1.71545 105 98 92 
-0.450559 -0.138286 2.0314 7 0 0 
-0.287173 -0.560204 1.93135 93 89 86 
-0.45221 -0.234641 2.07477 125 120 116 
-0.410753 -0.813839 2.40803 25 15 6 
-0.442514 -0.19581 2.02781 12 5 0 
-0.0593889 -0.364349 1.81227 76 72 71 
-0.413623 -0.19606 1.95544 17 7 0 
-0.329462 0.309059 1.61582 6 2 0 
-0.393526 -0.274578 1.95823 110 106 103 
-0.362126 0.484242 1.52951 74 70 67 
-0.42459 -0.235453 1.99159 121 117 106 
-0.238317 -0.555087 1.90835 112 111 107 
-0.45044 -0.521574 2.10814 20 17 10 
-0.266718 -0.289922 1.84062 4 0 1 
-0.412392 0.128361 1.85345 16 10 0 
-0.0461512 -1.06344 2.2288 43 41 29 
-0.286038 -0.373501 1.88553 4 0 0 
-0.18074 -0.91202 2.18009 116 112 101 
-0.439053 0.0627897 1.92288 7 0 0 
-0.134316 -2.03752 2.98036 31 37 35 
-0.327189 -0.441485 1.93747 3 0 0 
-0.428567 0.508333 1.70874 44 39 36 
-0.453256 -0.101664 2.00932 9 2 0 
-0.313059 0.303524 1.59916 99 95 92 
-0.259168 -0.414314 1.87305 142 141 139 
-0.359816 0.329016 1.62613 110 105 99 
-0.178939 -0.843543 2.13387 131 128 119 
-0.0479478 -0.139371 1.68702 5 0 0 
-0.441606 -0.124605 1.99801 8 0 0 
-0.431085 -0.142381 1.98218 11 5 0 
-0.361003 0.376415 1.57549 20 17 12 
-0.46265 -0.341817 2.15195 0 1 0 
-0.132662 -0.850678 2.10116 38 30 17 
-0.182341 -0.327467 1.80403 120 116 113 
-0.413366 -0.032238 1.89281 107 104 99 
-0.326385 -0.444166 1.95156 105 100 97 
-0.425312 -0.38494 2.04078 3 0 0 
-0.408702 0.113451 1.8329 29 26 11 
-0.447209 0.112332 1.9211 16 7 0 
-0.281679 -0.913289 2.22633 7 4 0 
-0.318666 -0.196262 1.84075 8 7 2 
-0.28754 -0.493163 1.91981 87 86 82 
-0.346236 -0.992935 2.32175 4 1 0 
-0.276684 0.0147772 1.69159 102 97 93 
-0.405752 0.527444 1.61649 124 126 123 
-0.414829 0.54596 1.63644 28 29 31 
-0.356178 0.366473 1.58531 26 23 16 
-0.346083 0.29311 1.63292 142 135 127 
-0.287023 0.0884257 1.67762 6 1 0 
-0.489017 -0.383879 2.20061 112 111 107 
-0.449118 0.540945 1.70703 106 100 88 
-0.237856 -0.421599 1.87298 84 83 79 
-0.328503 -0.217679 1.8452 17 12 8 
-0.301314 -0.670306 2.0149 57 47 37 
-0.377522 0.00463415 1.81407 5 0 0 
-0.356942 -0.182091 1.86214 33 30 25 
-0.209894 -0.783 2.07803 42 39 32 
-0.381354 0.0735863 1.78476 16 16 4 
0.011105 0.299825 1.49796 27 21 21 
-0.404279 -0.222619 1.93303 10 0 0 
-0.340674 -0.422752 1.93802 85 80 74 
-0.421968 0.633817 1.42711 96 92 83 
-0.424761 -0.489811 2.06292 11 8 3 
-0.392485 -0.341032 1.97346 96 92 91 
-0.29044 -1.02132 2.31896 130 120 110 
-0.204006 -0.583333 1.91167 100 96 93 
-0.359944 -0.977857 2.35378 24 20 9 
-0.40372 -0.152599 1.91782 10 2 0 
-0.290987 0.374535 1.5196 106 103 96 
0.142828 0.0287455 1.68549 120 114 102 
-0.447216 -0.265886 2.06427 12 11 6 
-0.405427 0.417898 1.65617 115 119 122 
-0.372616 -0.243211 1.90167 17 13 10 
-0.418918 0.555539 1.64673 93 95 82 
-0.321591 -0.550153 1.94475 6 1 0 
-0.0546001 -0.40892 1.82654 111 110 105 
-0.338963 -1.00528 2.32326 19 18 13 
-0.0593338 -0.435517 1.84751 12 11 9 
-0.284563 -0.877351 2.19441 27 22 16 
-0.366105 -0.00695674 1.81131 22 17 13 
-0.061969 0.110013 1.59656 85 84 79 
-0.0545816 0.171203 1.57776 92 88 89 
-0.350156 -0.54435 1.97508 7 2 0 
-0.406262 -0.50263 2.01793 3 0 0 
-0.0315564 -0.557083 1.87258 12 11 9 
-0.287499 -0.208309 1.82206 5 0 0 
-0.429282 -0.533221 2.09112 31 28 21 
-0.422075 -0.215814 1.95914 8 0 0 
0.0479461 0.225594 1.54147 48 38 26 
-0.442496 0.0980318 1.90682 88 87 82 
-0.441215 0.123174 1.89449 121 114 106 
0.00413673 0.260649 1.51327 22 18 9 
-0.402663 0.385756 1.64793 2 0 1 
-0.399514 0.413656 1.62915 107 97 95 
-0.442286 -0.390662 2.07762 102 102 102 
-0.401259 0.41923 1.64273 98 99 94 
-0.433812 0.440743 1.7263 19 23 35 
-0.400237 0.45505 1.63818 161 166 159 
-0.423341 0.487132 1.69678 13 13 11 
-0.461396 -0.570437 2.15677 43 39 27 
-0.342269 -0.707512 2.06813 69 60 51 
-0.243382 -0.544189 1.91875 15 11 8 
-0.416249 -0.928507 2.46121 11 12 7 
-0.402187 -1.04179 2.49351 215 215 213 
-0.139903 0.323316 1.48492 96 90 90 
-0.422354 0.364878 1.68609 80 75 69 
-0.441906 -0.157266 2.01428 10 5 0 
-0.429252 -0.136137 1.96453 17 10 4 
-0.45257 -0.124956 2.00481 20 10 0 
-0.32913 -0.13388 1.80359 102 97 93 
-0.250797 -0.675422 1.98919 128 125 110 
-0.155318 -0.194331 1.74414 21 14 8 
-0.335026 -0.809346 2.16505 50 47 32 
-0.0387773 0.0537276 1.60336 113 108 102 
-0.157205 -0.945317 2.1881 118 114 105 
-0.350001 -0.368481 1.92938 17 14 9 
-0.0246755 0.330361 1.46761 102 99 90 
-0.41245 0.496258 1.64426 105 106 100 
-0.303314 -0.485028 1.91961 65 65 65 
-0.267184 -0.072941 1.72323 8 5 0 
-0.384277 -0.0391525 1.82934 109 106 101 
-0.445138 -0.202035 2.05086 114 105 98 
-0.428234 -0.484781 2.04911 41 38 33 
-0.0446501 -0.475114 1.86176 47 43 32 
-0.387198 -0.516247 2.02308 18 15 10 
-0.200999 -0.947423 2.22206 0 0 0 
-0.398518 0.19074 1.76073 116 111 108 
-0.303644 -0.965721 2.2791 128 122 110 
-0.410317 0.55685 1.62959 107 107 109 
-0.163489 0.246785 1.52691 97 87 78 
-0.344875 -0.24063 1.86564 14 4 0 
-0.437989 -0.284623 2.0409 32 29 22 
-0.173004 -1.06992 2.28655 115 107 94 
-0.408613 -0.285182 1.95999 7 4 0 
-0.265135 -0.0254536 1.71347 59 50 41 
-0.263194 0.43642 1.47202 129 122 116 
-0.0497802 -0.191401 1.73546 102 99 94 
0.134228 0.596481 1.32721 116 113 98 
0.0445745 0.29422 1.50724 26 23 18 
-0.462514 -0.221012 2.12679 18 14 13 
-0.400971 0.207017 1.74171 96 93 88 
-0.382688 0.617372 1.39718 66 61 57 
-0.324185 -0.769543 2.12103 56 53 48 
-0.360014 0.514098 1.513 21 11 9 
-0.134338 -1.96547 3.10799 33 29 30 
-0.400498 0.434154 1.60346 22 13 4 
-0.408098 0.397155 1.65886 154 158 159 
0.0701017 0.172769 1.58037 17 10 2 
0.129089 0.135887 1.62838 35 27 16 
-0.444638 0.159517 1.90941 32 25 17 
-0.450322 0.101286 1.98248 20 16 5 
-0.312176 -0.241961 1.86381 77 73 70 
-0.428635 -0.135891 1.94282 72 61 55 
-0.151347 -0.514316 1.86592 86 85 83 
-0.281025 -0.10824 1.75575 107 102 99 
-0.410534 -0.150631 1.9447 17 10 4 
-0.0437916 -0.412225 1.83512 12 11 6 
-0.200673 -0.978705 2.21777 75 72 65 
-0.343631 -0.998594 2.34253 117 114 107 
-0.412935 -0.280817 1.98888 126 118 116 
-0.416841 0.00764508 1.89166 8 4 1 
-0.329879 0.460719 1.50037 21 11 9 
-0.322402 -0.0781052 1.77466 6 2 0 
-0.138885 0.180217 1.55399 90 85 82 
-0.0259964 -0.193315 1.72653 18 12 12 
-0.137668 -0.514709 1.8532 2 1 0 
-0.461222 0.47321 1.73635 122 119 114 
-0.379998 -0.901624 2.40892 107 93 92 
-0.412598 0.457044 1.66096 39 37 38 
-0.362927 0.529665 1.50188 14 9 5 
-0.0394554 -0.37016 1.78078 15 10 6 
-0.158421 0.053411 1.62862 7 3 0 
-0.269893 0.0745316 1.66904 109 105 96 
-0.149086 -0.2186 1.76802 111 106 100 
-0.40629 0.393565 1.68659 99 101 100 
-0.334686 -0.44019 1.95986 100 96 87 
-0.425191 0.473767 1.66482 30 36 32 
-0.250938 -0.471606 1.90901 21 20 16 
-0.384178 0.643189 1.38329 100 94 80 
0.1917 0.3033 1.59362 32 28 17 
-0.418388 -0.0299528 1.87454 98 95 90 
-0.10992 -0.0885149 1.69585 77 77 75 
-0.32353 -0.0497648 1.76261 11 7 4 
-0.287242 -0.512432 1.91755 102 101 99 
-0.23014 -0.505913 1.88904 1 0 0 
-0.0592723 -0.483251 1.87022 8 7 3 
-0.0800574 -2.0411 3.00697 109 114 110 
-0.358038 -0.348829 1.95919 100 96 93 
-0.39634 0.0583071 1.83596 86 83 76 
-0.389595 -1.09375 2.47823 74 73 68 
-0.0588779 -0.463161 1.8676 37 36 32 
-0.407685 0.0611304 1.8009 57 54 47 
-0.0542049 -0.261706 1.7415 93 89 86 
-0.0644593 -0.405533 1.81121 86 85 80 
-0.480268 -0.370571 2.16051 78 77 73 
-0.0455341 -0.369219 1.79686 61 58 53 
-0.0548636 -0.446129 1.85321 94 90 87 
-0.355845 -0.993482 2.38117 41 39 26 
-0.250013 -0.210552 1.78684 100 95 91 
-0.36937 -0.977986 2.37975 23 13 14 
-0.460043 -0.416274 2.10903 3 0 0 
-0.449496 -0.430794 2.10071 2 2 0 
-0.210024 0.114388 1.60726 103 98 94 
-0.293524 -0.542897 1.93666 3 0 0 
-0.355424 0.331162 1.63809 125 120 114 
-0.443768 0.387659 1.75499 1 1 1 
0.00191492 0.297239 1.48698 20 15 12 
-0.288032 -0.256968 1.8184 5 0 0 
-0.289854 0.262927 1.59446 4 0 0 
-0.1739 -0.336341 1.80583 7 3 2 
-0.408023 -0.327848 2.00438 34 30 27 
-0.365312 -0.339295 1.95955 12 8 5 
-0.412887 0.456598 1.64567 86 88 85 
-0.350616 0.366877 1.59859 37 34 29 
-0.354563 -0.0860714 1.81022 24 19 15 
-0.00406637 0.259363 1.49987 22 18 9 
-0.0977508 -0.928712 2.1408 104 100 89 
-0.391867 -0.893766 2.41302 32 23 18 
-0.0466468 -0.0812868 1.67749 98 95 90 
-0.240541 -1.26167 2.51562 134 126 113 
-0.348924 -0.494691 1.95292 94 90 87 
-0.131155 -0.991062 2.20133 66 57 48 
-0.155459 -0.418261 1.83157 18 14 11 
-0.0480789 -0.0699522 1.67082 91 82 77 
-0.136167 -0.499642 1.85677 80 75 72 
-0.277557 0.184275 1.63903 14 6 4 
-0.0703591 0.109999 1.58321 93 92 88 
-0.251187 0.140584 1.61418 87 84 77 
-0.0103831 0.00357772 1.62935 92 89 84 
-0.00694866 -0.579821 1.89086 15 7 5 
0.139038 0.607464 1.32629 110 107 92 
0.0329397 0.193996 1.54093 106 98 87 
-0.378268 0.330798 1.61835 38 30 27 
-0.411563 -0.451648 2.01875 13 13 11 
0.143746 0.201126 1.60173 40 37 28 
-0.189236 -0.995694 2.24834 42 39 30 
-0.300989 -0.12179 1.78627 43 35 33 
-0.446482 -0.370575 2.09415 69 70 65 
-0.141739 -0.833385 2.09007 111 111 101 
-0.0400306 -1.07333 2.24898 45 42 33 
-0.285758 -0.89877 2.22892 113 106 96 
-0.12151 -0.865136 2.12581 31 27 15 
-0.471395 -0.316809 2.2569 34 34 34 
-0.407223 0.596421 1.60259 98 101 106 
-0.430772 0.606092 1.64989 84 86 85 
-0.45203 -0.419695 2.09209 81 77 76 
-0.456182 0.523684 1.68354 157 123 60 
-0.282532 -0.536283 1.89736 7 6 2 
-0.44936 0.433758 1.76453 89 85 74 
-0.239315 -0.498494 1.873 0 0 0 
-0.370249 -0.469629 1.98287 2 0 1 
-0.361813 -0.463018 1.94718 76 73 68 
-0.434811 0.44469 1.68093 75 75 67 
-0.30468 -0.445118 1.92604 87 83 80 
-0.0462724 -0.213319 1.7425 32 32 22 
-0.358625 -0.418209 1.95118 13 12 8 
-0.318207 -0.540418 1.95335 53 50 45 
-0.302728 -0.0151824 1.71899 30 25 21 
-0.433605 0.538867 1.66107 65 78 71 
-0.403704 -0.288968 2.00175 96 93 86 
-0.107151 -1.03577 2.24481 118 116 103 
-0.00869582 -0.219183 1.73423 101 96 93 
-0.325169 -0.180247 1.81507 109 105 102 
-0.370936 0.33277 1.63824 39 31 28 
-0.414799 0.532769 1.6269 74 77 82 
-0.300083 -0.398423 1.90023 79 76 67 
-0.435524 0.51705 1.69253 51 33 33 
-0.271631 -0.974311 2.25717 120 117 108 
-0.367959 0.368412 1.59699 131 122 113 
-0.346269 -0.240555 1.88594 109 100 93 
-0.095966 -2.11548 3.11168 32 33 37 
-0.422555 0.401263 1.62548 0 3 20 
-0.419153 0.419421 1.72258 130 135 141 
-0.406028 -0.943462 2.50758 222 220 221 
-0.415456 -0.989685 2.49271 220 222 221 
-0.134547 -0.173941 1.70535 82 79 72 
-0.420367 -0.163798 1.93619 5 0 0 
-0.387757 -0.910501 2.4371 35 23 25 
-0.147228 -0.750672 2.02964 52 49 44 
-0.482668 -0.381622 2.14169 74 74 66 
-0.0709807 -0.511744 1.82645 3 3 5 
-0.293484 -0.482035 1.90217 73 70 63 
-0.284122 -0.484449 1.92983 98 94 91 
-0.126743 -0.510375 1.88194 75 70 67 
-0.252136 0.585072 1.30696 73 63 53 
-0.283771 -0.459868 1.91761 73 68 62 
-0.137556 -0.490319 1.88118 96 93 86 
-0.144052 -0.475807 1.84211 95 92 87 
-0.339477 -0.433814 1.91276 38 34 35 
-0.360884 -0.425645 1.92384 72 68 59 
-0.311396 -0.451259 1.96783 101 100 96 
-0.350129 -0.426748 1.97721 5 5 3 
-0.0643637 -0.470404 1.87652 96 95 91 
-0.239846 -0.419758 1.89772 85 82 75 
-0.460304 -0.392856 2.0671 90 86 85 
-0.0618307 -0.451766 1.86289 106 105 100 
-0.312856 0.179633 1.66443 24 19 16 
0.115562 0.17763 1.60523 61 52 43 
-0.390272 -1.12937 2.50899 190 190 190 
0.125308 -0.0461951 1.70331 39 32 24 
-0.44722 0.400847 1.75094 92 87 83 
-0.18584 -0.246183 1.7962 14 10 7 
-0.182569 -0.225135 1.782 69 68 63 
-0.0605107 -0.23981 1.77516 92 86 86 
-0.132715 -0.193946 1.75127 109 105 102 
-0.0459405 0.0733236 1.59957 9 10 5 
-0.0523266 0.12726 1.57323 73 70 65 
-0.0837937 -0.461062 1.85076 97 93 90 
-0.216925 -0.469329 1.86862 60 57 50 
-0.273762 -0.259055 1.84526 101 97 86 
-0.0210979 0.331222 1.47269 113 106 100 
-0.110807 -0.0482503 1.6843 30 26 17 
-0.189379 -0.529261 1.8946 116 111 107 
0.119566 0.187333 1.59105 132 121 101 
-0.00018993 -0.426093 1.83047 110 106 97 
-0.0517563 -0.407969 1.82542 34 32 20 
-0.161474 -0.606457 1.91958 100 95 92 
-0.0788926 -0.240462 1.76935 20 15 12 
0.0223735 0.272074 1.50726 128 121 115 
-0.216751 -0.287856 1.82651 112 105 97 
-0.103967 0.0679066 1.62426 124 117 107 
0.0418837 0.03005 1.63668 89 82 74 
0.00779616 0.0724946 1.60605 16 12 3 
0.0322669 0.0738825 1.61232 10 3 0 
-0.0398622 -0.0422079 1.65493 91 82 73 
0.0322106 -0.448694 1.85458 39 34 28 
-0.117822 -0.577792 1.89994 13 6 0 
-0.211298 -0.562075 1.91616 90 85 81 
0.0367738 -0.180738 1.73158 120 116 105 
-0.283804 -0.0679146 1.76749 15 11 8 
0.0380528 -0.0673478 1.68086 15 11 0 
-0.113249 -0.0868243 1.70124 95 91 88 
-0.142314 -0.091698 1.71324 12 4 1 
-0.124664 -0.154376 1.73635 6 6 0 
0.00314771 0.0191396 1.63095 112 108 99 
-0.0435434 -0.312947 1.77858 51 42 35 
-0.155203 -0.305016 1.81141 14 11 4 
0.0384952 0.164237 1.56765 127 118 103 
0.0360146 -0.123258 1.70713 108 101 91 
-0.276767 -0.124995 1.78878 15 6 0 
-0.0494684 -0.341864 1.79305 34 30 21 
-0.0122977 -0.630284 1.91919 9 6 1 
-0.0970051 -0.578756 1.89494 14 10 1 
-0.139111 -0.135559 1.72932 84 75 68 
-0.133387 0.154195 1.58807 101 92 83 
-0.12318 -0.13265 1.72536 17 12 6 
0.0249415 -0.393005 1.82615 123 118 112 
-0.233471 -0.431137 1.89605 98 93 89 
0.054732 -0.336957 1.80945 88 85 80 
-0.134035 0.18085 1.57868 31 24 14 
-0.150144 -0.521488 1.88364 90 86 85 
0.108197 0.179799 1.59043 15 5 0 
-0.189853 0.240907 1.5703 139 135 126 
-0.0377588 -0.214657 1.73569 134 126 115 
-0.00390997 0.247064 1.51629 101 97 85 
-0.0429592 -0.497558 1.85477 33 30 21 
-0.163398 -0.552012 1.89794 94 91 86 
-0.0152739 -0.557855 1.88743 106 102 99 
0.0610264 0.151047 1.58208 132 125 115 
-0.250469 -0.422513 1.90342 95 90 87 
0.0370932 -0.469342 1.86503 103 100 95 
-0.168635 -0.576377 1.90877 87 82 79 
-0.132063 -0.575374 1.89794 7 3 0 
-0.214174 -0.586309 1.92654 129 120 115 
-0.112037 0.300341 1.50252 98 95 90 
0.011175 -0.602125 1.91043 102 99 92 
-0.291388 -0.210249 1.83908 22 18 9 
-0.0578331 -0.367495 1.82507 69 64 61 
0.0255612 -0.106267 1.69264 103 96 86 
0.104412 0.0820293 1.63487 116 108 97 
-0.0466747 -0.371452 1.80783 90 85 82 
-0.0218702 -0.424368 1.8297 16 11 8 
-0.274109 0.429438 1.4949 136 127 118 
0.0657853 0.0510829 1.6342 116 108 97 
0.125066 -0.606416 1.96387 93 88 85 
-0.0430932 -0.00594963 1.64564 124 116 103 
-0.164863 0.17764 1.58639 80 75 71 
-0.0939599 -0.235452 1.77014 27 22 18 
-0.0143893 -0.105123 1.68504 6 1 0 
-0.0770295 -0.214031 1.75654 107 103 102 
-0.0559408 -0.348649 1.81308 20 17 8 
-0.172537 -0.414331 1.86546 99 95 92 
0.0432999 -0.154397 1.72456 38 29 24 
0.0224246 0.327593 1.47953 137 128 121 
0.0990705 -0.403575 1.85998 14 11 6 
-0.0487646 -0.212503 1.74349 28 21 13 
0.0436416 -0.30489 1.79347 102 98 87 
0.0281393 -0.0502302 1.66662 4 0 0 
-0.264771 -0.0382556 1.74098 131 121 109 
-0.128925 -0.440682 1.86571 104 99 96 
-0.054367 -0.432026 1.84152 38 35 26 
0.0424121 -0.374489 1.82319 113 108 102 
0.0431247 0.17587 1.56239 129 124 105 
-0.200634 -0.419617 1.87698 108 105 98 
0.0576719 -0.320765 1.80515 24 19 15 
-0.0639091 -0.452331 1.86149 112 108 105 
-0.0557291 -0.482537 1.86775 80 78 66 
-0.0404444 -0.385903 1.81331 146 139 131 
-0.150588 -0.273177 1.79396 102 99 94 
-0.0545185 -0.390457 1.82566 110 107 102 
-0.0280399 0.083084 1.59699 127 118 109 
0.0581319 -0.429603 1.85467 92 87 84 
-0.0592348 -0.466022 1.86572 100 97 90 
-0.32504 -0.452746 1.97185 40 37 32 
-0.00244284 -0.131117 1.70062 104 95 88 
0.122864 0.151248 1.60866 35 25 13 
0.130302 0.125375 1.62663 32 22 12 
0.00241928 0.211186 1.53417 117 107 98 
0.0785812 0.0897851 1.61758 7 3 0 
0.0607541 -0.449473 1.86154 122 117 111 
-0.0862305 -0.0470429 1.68113 102 97 93 
-0.0839557 -0.53907 1.87471 36 31 27 
-0.293591 -0.44635 1.94702 3 0 0 
0.139348 0.20196 1.59475 19 12 4 
0.0376629 0.225262 1.53684 22 11 5 
-0.138209 0.29523 1.51269 135 126 121 
0.0707055 0.066962 1.62923 130 121 114 
-0.016556 -0.00199884 1.64075 103 96 88 
-0.247472 0.140367 1.64443 99 96 87 
0.0634121 0.293537 1.51392 16 5 0 
-0.134741 -0.184953 1.74749 16 6 7 
-0.0522567 -0.316315 1.79584 24 19 13 
0.0723217 0.139808 1.59379 28 24 12 
-0.0801703 -0.448877 1.86016 90 87 82 
-0.29234 -0.492322 1.93343 77 73 62 
-0.135014 -0.506758 1.87237 76 74 62 
-0.130496 -0.523384 1.8782 4 3 1 
-0.0887167 -0.0138354 1.67347 95 90 86 
-0.233974 -0.50837 1.8996 2 1 0 
0.101527 0.339922 1.50811 114 106 95 
0.144085 -0.498672 1.93988 93 88 82 
-0.252909 -0.481514 1.92629 19 18 16 
-0.0367416 -0.0319879 1.6474 29 19 17 
-0.0158883 -0.20818 1.73066 10 5 2 
-0.25556 -0.661906 1.98811 148 141 125 
-0.284904 -0.984944 2.27628 28 20 17 
-0.298008 -0.988006 2.28494 128 122 110 
-0.209749 -0.576346 1.89482 133 129 120 
-0.150188 -1.04817 2.26052 55 43 31 
-0.223461 -0.656934 1.94096 25 14 0 
-0.107617 -2.10966 3.09525 243 244 249 
-0.280709 -0.806249 2.1217 19 12 6 
-0.200651 -0.765596 2.05029 5 2 0 
-0.24142 -0.661837 1.95631 25 16 1 
-0.00450379 -0.421707 1.81598 131 127 118 
-0.141134 -0.565363 1.8759 117 107 98 
-0.268016 -0.380573 1.85905 137 134 125 
-0.25661 -0.441748 1.87888 116 112 109 
-0.220383 -0.883056 2.15332 31 25 11 
-0.318652 -0.501531 1.91813 124 119 115 
-0.413963 -0.487103 2.01269 134 130 121 
-0.141829 0.140636 1.58045 128 124 113 
-0.17365 -0.567287 1.88358 110 105 99 
-0.396027 -0.915518 2.41445 120 110 108 
-0.33141 -0.803792 2.15082 29 21 10 
-0.22188 -1.17042 2.40422 150 141 134 
-0.0602015 -0.424092 1.81379 15 8 0 
-0.121629 -1.82999 2.899 27 20 10 
-0.24229 -0.771348 2.0786 10 7 2 
-0.359838 -0.193661 1.86485 5 0 0 
0.00475498 -0.34763 1.78594 6 1 0 
-0.295817 -0.756343 2.08966 142 138 135 
-0.343551 -0.284613 1.87832 3 0 0 
-0.315324 -0.384853 1.89485 152 149 140 
-0.236878 -0.593596 1.91304 3 0 0 
-0.0565957 -0.348983 1.78284 4 0 0 
-0.212907 -0.926351 2.18468 4 0 0 
-0.307187 -0.202254 1.80814 141 136 132 
-0.205648 -0.910682 2.16795 126 122 111 
-0.186933 -0.885057 2.13363 22 12 2 
-0.160833 -0.29857 1.78407 10 6 0 
-0.360375 -0.935047 2.32547 22 9 1 
-0.401357 -0.937768 2.4323 122 118 106 
-0.397849 -0.254804 1.93424 9 4 0 
-0.387232 -0.543805 1.99744 6 3 0 
-0.178065 -0.390882 1.82549 12 7 3 
-0.315057 -0.754976 2.10069 3 0 0 
-0.345209 -0.191833 1.83779 9 6 1 
-0.300061 -0.395444 1.8849 116 108 105 
-0.315016 -0.18453 1.80368 4 0 0 
-0.431413 -0.359133 2.03975 115 111 108 
-0.182119 0.199523 1.56532 141 138 131 
-0.227757 -0.443457 1.86644 103 100 95 
-0.336013 -0.306135 1.88119 100 95 89 
-0.150448 -1.82456 2.94379 58 49 42 
-0.280963 -0.267417 1.81591 8 1 0 
-0.118815 0.26078 1.52851 125 120 116 
-0.292835 -0.11856 1.75465 125 118 110 
-0.299718 -0.156482 1.78168 26 23 18 
-0.286105 -0.503791 1.89822 105 100 97 
0.0412857 -0.302652 1.77829 10 1 0 
0.0219213 -1.04809 2.24148 140 125 118 
-0.104443 -2.09154 3.0862 29 29 37 
-0.0435561 -0.336935 1.77231 8 0 0 
-0.0483249 -0.230715 1.72433 134 127 119 
-0.0113828 -0.234138 1.73226 4 0 0 
-0.0575862 -0.223694 1.73349 120 116 113 
0.0129941 -0.218831 1.72978 135 125 123 
0.0244813 -0.412133 1.82289 101 92 85 
-0.00533098 -0.410037 1.81046 4 0 0 
-0.219792 -0.776971 2.06513 37 35 22 
-0.065832 -0.410239 1.82195 105 101 90 
-0.0191305 -0.136774 1.69286 119 109 107 
-0.222858 -0.909525 2.17598 137 128 119 
0.0231526 -0.442321 1.83793 34 30 21 
0.0295519 -0.11437 1.68754 28 19 10 
0.024233 -0.455815 1.84287 125 120 116 
-0.295432 -0.728292 2.06017 166 160 148 
-0.267156 -0.721481 2.03376 141 135 121 
0.0598878 0.157782 1.57749 178 172 160 
-0.258296 -0.654789 1.95652 147 139 120 
-0.295077 -0.876083 2.18096 52 44 31 
-0.0370642 0.10473 1.57244 121 114 108 
-0.279325 -0.497757 1.89011 136 125 119 
0.0501292 -0.0117942 1.6483 18 11 1 
0.0190583 0.00250229 1.63163 8 4 0 
-0.373832 -0.545414 1.98564 21 18 13 
-0.338764 -0.546094 1.95235 22 13 4 
-0.286994 -0.546534 1.91822 100 95 91 
-0.278084 -0.526644 1.90843 72 71 67 
0.129465 0.0180992 1.67981 7 0 0 
-0.354062 -0.209669 1.85642 23 18 14 
-0.0206731 -0.550511 1.86797 111 106 100 
-0.262756 -0.372718 1.84886 111 106 102 
-0.0880232 -0.531453 1.85915 6 0 0 
0.0679478 -0.226134 1.75616 7 0 0 
0.0963206 -0.522665 1.90374 8 3 0 
-0.0424661 0.331563 1.47247 115 112 105 
0.0300507 -0.177187 1.71389 130 125 119 
-0.336931 -0.680459 2.03094 31 24 18 
-0.240358 -0.431596 1.87136 107 103 94 
-0.356075 -0.299523 1.90359 112 108 99 
0.110187 0.186381 1.59055 106 97 88 
-0.331568 -0.499451 1.93321 7 0 0 
-0.454678 -0.417131 2.07136 62 58 55 
-0.365021 -0.517844 1.9672 1 1 0 
-0.412613 -0.198769 1.9343 89 79 69 
-0.226098 -0.573499 1.9009 7 2 0 
-0.277817 -0.318789 1.84202 4 0 0 
-0.329672 -0.0283548 1.7548 118 113 107 
-0.363525 -0.166866 1.84734 4 0 0 
-0.0952058 -2.11505 3.09257 232 233 235 
-0.172626 -1.57562 2.72676 27 18 11 
0.133136 -0.571871 1.94878 102 97 93 
-0.250094 -0.813084 2.11004 37 33 24 
-0.129736 -0.88316 2.10711 19 10 0 
0.0565576 -0.431134 1.84528 4 0 0 
-0.0577915 -0.401762 1.80412 6 0 0 
-0.131544 -0.941223 2.15491 143 135 124 
-0.335149 -0.232952 1.84955 28 19 10 
-0.0853215 -2.0998 3.09085 233 235 234 
0.0992444 -0.396668 1.85123 14 6 4 
-0.154054 -0.428724 1.84019 9 4 0 
-0.00741994 -0.491788 1.84469 4 0 0 
-0.342614 -0.99533 2.30571 15 10 7 
-0.29822 0.0676653 1.68639 129 125 116 
0.055242 -0.32167 1.79088 95 90 84 
0.0156639 0.263383 1.51292 5 1 0 
-0.168287 -0.230778 1.75807 119 109 97 
-0.255284 -0.543771 1.89481 78 77 73 
-0.334409 -0.152994 1.81238 97 92 88 
0.0800701 -0.223949 1.75857 22 13 6 
-0.170325 -0.441163 1.84622 102 99 92 
-0.330529 -0.527593 1.9405 8 1 0 
-0.103858 -0.0340122 1.65124 84 80 77 
-0.345288 -0.089912 1.79816 5 0 0 
-0.288881 -0.455257 1.89876 96 89 81 
-0.233907 -0.86618 2.14715 136 125 121 
-0.102247 -1.83694 2.89642 11 4 0 
-0.000898441 -0.594779 1.89374 4 0 0 
0.0996598 -0.314133 1.81076 124 119 115 
0.101385 -1.08746 2.30253 212 213 208 
-0.155494 -0.805987 2.05691 128 120 109 
0.0190008 -0.0230377 1.64475 117 110 104 
0.0037181 -1.04357 2.23454 128 118 109 
-0.096277 -0.79094 2.01693 50 44 32 
-0.433036 0.113128 1.89317 129 123 111 
-0.177059 0.564867 1.30971 134 125 108 
-0.00104183 -0.58231 1.88919 25 21 12 
-0.0371111 0.262417 1.50414 101 92 87 
-0.0375701 -0.371679 1.78447 39 30 23 
-0.320829 -0.128607 1.78571 102 97 93 
-0.0292723 -0.443291 1.82113 115 107 104 
-0.314459 -0.900047 2.22222 7 0 0 
-0.0289425 -0.295065 1.75715 9 2 0 
-0.0599946 -0.186541 1.71366 93 90 85 
-0.0083627 -0.128613 1.68218 95 91 82 
-0.289031 -0.370765 1.87372 4 0 0 
-0.431049 -0.47951 2.03331 44 41 32 
-0.387173 -0.525894 1.9887 107 104 95 
0.0338128 -0.180021 1.72608 115 110 104 
-0.0514554 -0.262716 1.75022 92 87 81 
0.0111913 -0.572952 1.89073 80 76 67 
-0.156467 -0.218536 1.74898 136 127 118 
-0.00831793 -0.0137736 1.63066 11 7 0 
0.0278466 0.203983 1.54381 115 106 97 
0.126487 0.184248 1.60097 41 28 12 
-0.0187323 -0.200309 1.71615 89 88 84 
-0.33946 -0.434167 1.94112 110 107 102 
-0.153335 -0.418947 1.83594 3 0 0 
-0.204136 -0.413159 1.85127 139 130 123 
0.0599928 -0.453443 1.8606 10 7 0 
0.0800199 0.0894173 1.62156 9 2 0 
-0.286158 -0.898146 2.20133 117 110 104 
-0.102485 -1.94572 2.94422 49 42 34 
-0.400781 0.085484 1.81361 27 18 11 
0.0439986 0.161565 1.57153 57 48 33 
-0.290258 -0.535306 1.91518 117 113 110 
-0.466783 -0.341994 2.14075 1 0 0 
0.0262306 -0.33807 1.7856 92 89 84 
-0.394221 -1.0892 2.47926 226 225 223 
-0.146903 -0.269421 1.76753 92 87 81 
-0.104102 -1.18295 2.35367 150 140 128 
-0.146661 -0.812335 2.06157 54 49 43 
-0.209433 -0.669683 1.9777 48 40 27 
-0.0809759 -1.93427 2.92988 47 38 23 
-0.188336 0.568871 1.35369 158 147 127 
-0.437498 0.529359 1.71089 181 119 6 
-0.430552 0.464833 1.72723 116 116 118 
-0.083866 -0.444647 1.84536 90 89 85 
-0.309222 -0.953504 2.25399 115 103 91 
-0.420889 -0.971833 2.49795 175 175 175 
-0.132994 -0.238824 1.75658 79 76 69 
-0.0492148 -0.490811 1.83629 51 47 38 
-0.214216 -0.557011 1.89438 3 0 0 
-0.194756 -0.240651 1.775 5 1 2 
-0.339985 0.0686631 1.72186 28 23 19 
-0.193588 0.612766 1.28696 29 19 9 
-0.152649 -1.8361 2.95177 67 62 59 
-0.376076 -0.458179 1.95597 1 0 0 
-0.129043 -2.10506 3.05651 232 233 237 
-0.369248 -0.338418 1.9274 109 104 100 
-0.190277 -0.221013 1.76409 76 71 67 
-0.0849772 -1.97789 2.96607 128 119 112 
-0.031787 -0.339048 1.77526 120 116 107 
-0.308468 -0.43858 1.91249 102 97 93 
-0.0698979 0.473584 1.39192 116 111 105 
-0.0407994 -0.0311206 1.63441 4 0 0 
-0.357586 -0.430493 1.93758 68 63 57 
-0.0935721 -2.10077 3.10041 200 201 203 
-0.27702 0.0863642 1.66578 111 107 98 
-0.126741 -2.13334 3.1311 127 128 130 
-0.0983322 -1.84751 2.91332 55 46 37 
-0.178347 -0.406181 1.83736 124 118 118 
-0.193594 -0.520874 1.87139 146 141 137 
-0.129744 -1.93868 2.95227 67 58 51 
-0.387254 -0.481611 1.98229 4 0 0 
-0.324603 -0.304535 1.87429 95 91 82 
-0.1842 0.282933 1.53366 150 143 135 
-0.14255 -0.025229 1.65796 10 3 0 
-0.0978967 -2.1388 3.10818 42 45 38 
-0.259795 -0.428425 1.88041 138 135 130 
-0.129733 -1.83927 2.91016 145 131 120 
-0.210939 -0.273009 1.79344 105 98 90 
-0.166726 -0.175199 1.73314 117 108 99 
-0.273831 0.118296 1.64715 118 114 105 
-0.17859 -0.579264 1.89264 84 79 75 
-0.344142 -0.109603 1.80454 7 2 0 
-0.378257 -0.979033 2.39509 18 0 0 
-0.151952 -0.476692 1.85152 98 91 85 
-0.329635 -0.228662 1.841 7 0 0 
-0.307217 -0.118354 1.77017 8 3 0 
-0.084792 -2.15889 3.11818 225 227 226 
-0.0848141 -2.13432 3.10563 229 230 232 
-0.0898259 -2.11865 3.10181 174 175 177 
-0.0497706 -0.245892 1.73917 91 82 75 
-0.329496 -0.517208 1.94578 7 0 0 
-0.0817055 -2.12631 3.08141 91 91 93 
-0.0415638 -0.443711 1.81835 35 30 27 
-0.0520559 -0.0439946 1.64907 12 5 0 
-0.417132 -0.188561 1.93998 130 120 108 
-0.0289354 -0.215997 1.72087 131 121 111 
-0.0617234 -0.238361 1.73924 69 66 61 
-0.174926 0.609272 1.28052 42 33 24 
0.0404407 -0.417984 1.80827 98 93 89 
0.0333883 -0.375005 1.78281 132 127 123 
-0.152687 0.31539 1.49423 21 17 8 
0.0664663 -0.355377 1.78292 111 104 94 
-0.0941104 0.318476 1.47729 123 120 111 
-0.296545 -0.674325 2.00166 143 133 123 
-0.050971 -0.503649 1.83143 16 13 8 
0.172737 -0.169007 1.76346 133 129 118 
0.119902 -0.164868 1.72348 117 113 104 
0.158992 -0.160941 1.74831 10 1 0 
0.0396718 -0.157127 1.68577 140 136 124 
-0.0353388 -0.55098 1.84924 111 107 104 
0.0320348 -0.117373 1.66608 10 1 0 
0.0959618 -0.0765375 1.67366 104 97 89 
0.0347584 -0.0663062 1.64195 103 99 90 
0.132765 -0.044418 1.68002 7 0 0 
-0.0370846 0.309629 1.47871 86 78 76 
-0.296796 -0.049585 1.75392 123 120 115 
-0.102897 0.0669334 1.60107 139 135 126 
0.178786 0.127882 1.63594 148 138 128 
0.158397 0.327134 1.53351 39 29 19 
0.0865399 0.127513 1.58185 10 2 0 
-0.0230431 0.132806 1.54773 128 124 115 
0.117638 0.166843 1.57828 150 143 127 
0.106009 0.599851 1.31573 130 128 113 
-0.137355 0.301419 1.5058 97 93 82 
0.119956 0.21378 1.55942 41 29 13 
0.138045 0.217921 1.56796 21 11 0 
-0.298436 -0.954392 2.26192 130 127 120 
-0.190792 -0.90192 2.15208 4 0 0 
-0.172979 0.297607 1.52404 142 135 125 
0.219983 0.327172 1.60996 7 0 0 
0.11466 0.324335 1.5123 8 0 0 
-0.211429 0.35614 1.49515 151 142 135 
0.0223544 -1.02307 2.20354 17 7 0 
-0.213435 -1.15519 2.38549 130 126 117 
0.0749134 0.444512 1.44109 145 138 128 
-0.125101 -1.62493 2.73026 32 23 14 
-0.0442184 0.529451 1.36753 18 9 0 
-0.126182 0.542062 1.36921 103 94 87 
0.0703249 -0.664494 1.93081 146 138 125 
-0.124085 -0.150888 1.70102 8 5 0 
0.236718 -0.127129 1.84222 128 116 104 
0.13698 0.23363 1.56122 125 117 106 
0.178963 0.297538 1.55589 21 10 4 
-0.131188 0.150676 1.56928 18 7 1 
-0.15409 -0.298693 1.77711 14 11 6 
0.216458 0.179966 1.68381 17 11 0 
-0.261675 0.242683 1.60426 122 115 105 
-0.211963 0.138568 1.61171 5 0 0 
-0.2995 -0.959422 2.27208 145 141 132 
0.0754972 -0.202342 1.71771 6 0 0 
0.0330137 0.440708 1.4324 127 123 114 
-0.164461 0.424471 1.45304 19 15 6 
0.120798 -0.218555 1.74903 110 106 95 
0.115562 -0.213242 1.74244 110 106 97 
0.159984 -0.208073 1.77121 131 127 118 
-0.136108 0.322508 1.4829 7 6 1 
0.0627092 0.27841 1.51009 7 0 0 
0.164791 0.339653 1.53298 155 145 133 
0.153462 -0.100721 1.71722 135 126 119 
0.129733 -0.572164 1.91215 3 0 0 
-0.163167 -1.52749 2.66712 29 24 18 
0.0435588 -0.117346 1.66767 121 111 102 
-0.18617 0.178211 1.58142 137 133 122 
-0.0898978 0.564877 1.30545 131 124 114 
0.142302 -0.199786 1.75289 118 114 105 
-0.270284 -0.80571 2.11854 3 0 0 
-0.143389 -0.803577 2.04391 4 0 0 
-0.0248256 0.441218 1.42797 117 115 103 
-0.201967 0.106669 1.61525 134 130 121 
0.126368 0.229471 1.5562 30 22 9 
-0.151628 0.324634 1.48913 129 126 117 
0.278384 0.327171 1.7012 29 20 3 
-0.0208512 0.160162 1.53767 127 119 108 
-0.254267 0.206977 1.61157 116 113 106 
-0.113719 0.402948 1.45017 128 124 115 
0.0605826 -0.146572 1.69012 8 1 0 
0.0987435 0.296381 1.51667 115 111 100 
0.258129 0.189984 1.7298 22 12 2 
0.0263616 -0.822294 2.07492 148 145 140 
-0.0834141 0.561693 1.35339 166 154 140 
0.114518 0.389695 1.48349 137 129 118 
0.216807 0.169217 1.68381 43 33 23 
-0.0770104 -0.209209 1.72094 113 105 103 
-0.0720067 -1.87262 2.8588 36 32 23 
0.0979043 -0.843482 2.12159 161 157 154 
0.14736 0.37332 1.51197 111 107 95 
-0.00190894 0.56933 1.30491 117 114 105 
-0.0429378 -1.02842 2.18085 4 0 0 
-0.187568 0.35185 1.48345 137 132 126 
0.0121242 0.339635 1.46772 109 98 92 
0.10143 -0.225749 1.73911 128 126 114 
0.108238 0.273131 1.53048 16 9 0 
-0.139796 0.311736 1.4942 148 144 135 
0.0350856 0.580069 1.30492 117 114 99 
0.0831056 -0.0321445 1.64524 99 95 84 
0.140217 -0.0625264 1.68773 121 114 104 
-0.118558 -2.03957 3.01285 68 72 75 
0.0726891 -0.767046 2.05338 133 129 120 
-0.0293725 0.0819589 1.56819 141 134 124 
0.251983 0.248127 1.6984 25 21 10 
0.229983 0.289856 1.64547 161 151 141 
0.261311 0.396773 1.61334 14 12 0 
0.0901986 0.548221 1.38239 152 147 143 
0.11996 0.608714 1.31986 155 146 131 
0.113322 -0.417455 1.83455 6 1 0 
0.0542605 -0.161778 1.69012 108 101 93 
0.0204917 -0.795809 2.05306 33 30 25 
0.155512 -0.571137 1.9279 113 109 100 
-0.102461 -1.39907 2.53144 23 15 4 
-0.117823 0.551536 1.36542 138 127 121 
0.111344 -0.832748 2.11882 147 143 140 
-0.0415431 0.472321 1.3958 18 11 5 
-0.220772 0.299369 1.55103 120 113 107 
0.0660256 0.066071 1.59759 137 133 122 
-0.252145 0.43996 1.48868 112 108 99 
-0.20635 0.420001 1.47302 149 142 134 
0.0429986 0.309301 1.48985 26 14 0 
0.162593 0.000562747 1.68109 12 3 0 
0.179153 0.00313058 1.6913 7 0 0 
0.178515 0.0456243 1.67731 47 37 25 
0.149841 0.249487 1.56274 134 124 114 
0.249415 0.178779 1.72058 22 12 0 
-0.175787 0.32816 1.49648 109 102 94 
0.0198144 0.467506 1.40828 124 117 109 
-0.131226 0.179879 1.5616 104 100 91 
-0.090901 -1.77386 2.81989 9 7 8 
0.0416121 0.20228 1.53156 143 130 114 
-0.120033 -1.88204 2.89159 44 40 31 
-0.0509922 -0.113718 1.66588 84 79 73 
-0.326836 -0.116444 1.81258 107 104 97 
-0.112169 -1.79524 2.86735 28 20 17 
0.252102 0.307481 1.66918 9 0 0 
-0.08764 0.307246 1.48766 136 133 128 
-0.0515818 0.0277803 1.6048 88 83 80 
-0.0885538 0.547055 1.36402 29 20 11 
0.137961 0.275799 1.54202 115 107 96 
-0.0993822 0.569287 1.29986 107 103 94 
-0.109438 0.288666 1.51117 12 5 0 
0.230273 0.211612 1.68285 29 19 7 
0.224942 0.363724 1.57627 143 135 124 
0.117641 0.615537 1.31212 110 98 86 
0.10067 0.104115 1.5944 151 141 131 
0.147287 0.293647 1.54073 137 127 115 
-0.163926 0.306583 1.50497 147 140 130 
0.175344 -0.376708 1.85768 92 89 80 
0.121362 -0.00713549 1.65844 116 107 98 
-0.0196751 0.564827 1.35373 142 128 119 
0.0123736 0.182903 1.53211 117 113 102 
0.0866944 0.574142 1.32595 104 100 89 
0.0656248 0.0942787 1.58648 8 3 0 
0.222939 -0.146704 1.83628 7 0 0 
-0.0684 -1.78315 2.83266 25 24 22 
-0.153633 -0.833032 2.10407 128 122 110 
0.24437 0.233718 1.6934 31 21 11 
0.120156 0.361253 1.49798 105 96 87 
-0.106536 -0.0478371 1.64929 113 104 99 
-0.0200895 0.602132 1.28919 68 65 60 
0.1096 0.0906905 1.60635 111 100 94 
-0.173971 0.334925 1.48857 104 94 82 
0.159288 0.487841 1.45755 121 112 105 
0.189141 -0.468262 1.91069 116 111 107 
0.0752315 -0.518663 1.87001 111 104 98 
-0.0306163 -0.453168 1.80707 127 124 117 
0.126676 0.209533 1.57144 77 66 46 
-0.192231 0.574077 1.36193 168 156 140 
0.16839 0.369791 1.52396 122 113 96 
-0.148475 -0.496076 1.84378 89 86 81 
-0.0118807 -0.354914 1.76732 90 87 82 
0.0179267 0.00299337 1.62924 17 8 0 
-0.0755564 -0.455604 1.84899 73 69 66 
-0.0923564 0.223361 1.54524 135 128 118 
0.0165116 -0.0640697 1.6585 116 112 101 
-0.151455 -0.43259 1.85297 6 2 0 
0.00525275 -0.399412 1.8097 17 14 7 
0.0166203 -0.519376 1.86629 12 5 0 
0.0479558 -0.164146 1.71358 22 15 7 
-0.000140525 0.227778 1.52021 111 102 95 
-0.118418 -0.604144 1.89756 106 103 94 
0.131019 -0.505379 1.91228 77 73 70 
0.0249885 0.194909 1.54146 126 117 108 
-0.00429991 -0.0129044 1.63039 16 7 2 
-0.145986 0.227441 1.55115 6 1 0 
-0.0732164 0.342273 1.46495 128 125 120 
-0.119969 -1.99856 3.06191 65 60 54 
0.220897 0.186286 1.672 108 96 84 
0.208209 -0.492135 1.93068 95 90 84 
0.180211 -0.490523 1.90561 12 7 3 
0.115734 0.385603 1.46921 129 121 110 
0.164404 0.363028 1.51409 121 112 103 
0.206925 -0.152062 1.82111 163 151 137 
0.168441 -0.487311 1.89687 7 3 0 
0.225096 0.369709 1.54642 136 134 121 
0.278506 0.443824 1.59017 31 19 7 
-0.0525378 -0.505901 1.84107 10 11 5 
0.225488 -0.145996 1.84194 10 0 0 
0.190389 -0.471877 1.9081 17 14 7 
0.150768 -0.760693 2.07782 112 107 101 
0.157984 -0.467726 1.87864 110 107 98 
0.110573 0.320168 1.50128 118 111 103 
-0.0782933 0.297517 1.49602 117 116 112 
0.0293494 -0.470421 1.83375 4 0 0 
0.0578356 0.30443 1.48843 18 14 5 
-0.196013 0.295957 1.55088 154 150 141 
0.267925 0.178324 1.74084 136 128 117 
0.0324301 -0.458499 1.82868 108 103 97 
0.240794 -0.136762 1.85035 135 125 113 
0.240207 0.327365 1.61658 35 27 16 
0.037615 -0.159003 1.70355 125 120 114 
0.169061 0.472267 1.45051 110 106 97 
0.126671 0.159058 1.58886 135 126 111 
0.177034 0.295733 1.54527 133 127 115 
0.169079 0.28552 1.55155 163 151 139 
0.168433 0.477481 1.43192 188 178 168 
0.202168 -0.131487 1.80489 13 1 0 
0.161906 0.274803 1.55082 191 181 171 
0.28945 0.222636 1.76045 8 0 0 
0.128806 -0.409762 1.85242 8 5 0 
0.229618 0.286777 1.63298 150 142 129 
0.152642 0.260204 1.55245 129 119 107 
-0.29646 -0.161694 1.80991 9 6 1 
0.161739 0.503797 1.41071 122 118 109 
0.237935 -0.386744 1.9566 3 0 0 
0.121421 -0.324087 1.80366 115 111 100 
0.0863337 0.127882 1.58424 8 1 0 
0.247758 -0.116208 1.85544 27 19 8 
-0.147764 -0.707533 1.95875 32 26 14 
0.024347 0.216827 1.5244 158 149 142 
0.133648 0.218899 1.5712 29 17 1 
0.141904 -0.177966 1.75232 16 10 0 
0.217342 -0.367017 1.91459 10 0 0 
0.138658 0.216743 1.55847 11 1 0 
0.11728 0.214719 1.56293 149 141 120 
0.252742 0.246611 1.68797 22 14 3 
0.240599 0.24102 1.66472 137 127 117 
-0.125423 0.539423 1.35435 149 146 141 
0.240448 -0.17196 1.85851 120 112 101 
-0.113664 0.545569 1.35153 132 123 116 
0.145893 -0.359939 1.83014 141 134 126 
0.0811944 -0.366134 1.80112 115 110 106 
-0.196836 -0.792525 2.07575 15 14 10 
-0.0512065 0.548845 1.28232 4 0 0 
0.228884 0.228148 1.66493 14 8 0 
-0.0462043 -0.738627 1.96714 33 31 19 
0.0643509 -0.359395 1.80514 123 118 114 
0.258375 0.189031 1.72079 21 9 0 
0.266962 -0.177904 1.90998 11 2 0 
0.134004 0.193493 1.57398 59 47 33 
0.0211875 0.168297 1.5472 132 129 120 
-0.037198 0.16108 1.55082 30 25 19 
-0.147461 -0.809528 2.062 3 1 0 
0.261746 0.214328 1.71724 138 131 115 
0.0298759 -0.118951 1.68353 6 0 0 
0.0563165 0.166008 1.55823 152 143 126 
0.151877 -0.100175 1.72957 136 125 119 
0.0822455 -0.339435 1.79365 145 138 128 
0.236396 -0.0850337 1.82717 143 137 123 
0.167908 -0.765812 2.08193 135 130 127 
0.207272 -0.0727291 1.78978 20 10 0 
-0.173534 -0.881015 2.12839 14 10 0 
0.0587187 -0.15076 1.70731 107 98 93 
0.217316 -0.191993 1.84547 5 1 0 
0.0981808 -0.30986 1.7855 113 109 98 
0.232596 -0.191111 1.8605 9 1 0 
0.224868 0.154796 1.68977 119 109 97 
0.125187 0.12373 1.60568 17 7 0 
0.178918 0.127695 1.63341 137 127 117 
0.0977019 -0.298853 1.78486 107 100 90 
0.142937 0.119852 1.621 138 129 120 
0.00859313 0.0845813 1.58119 120 113 107 
0.275704 0.130204 1.78369 133 124 115 
0.232053 0.108471 1.72852 22 9 0 
0.144101 -0.112633 1.72667 13 6 0 
0.243782 -0.0552992 1.83435 8 0 0 
0.21657 0.318271 1.60449 145 135 123 
0.226138 -0.104352 1.82026 136 130 118 
0.216952 0.0865001 1.71567 14 5 0 
0.0626711 0.0504855 1.6049 136 125 119 
0.105147 0.0198637 1.64704 126 117 108 
0.234498 -0.038972 1.80004 22 10 0 
0.20617 -0.0486503 1.772 113 109 97 
0.0683037 -0.00695377 1.64385 115 106 99 
0.213782 -0.205759 1.84542 14 7 0 
0.196543 -0.046711 1.75849 3 0 0 
-0.0963366 -0.0441958 1.6703 118 113 109 
0.0816311 -0.237142 1.74685 125 120 117 
0.261117 0.389609 1.58878 21 17 8 
0.0042736 0.192642 1.53475 140 130 120 
0.132275 -0.0446872 1.68431 7 0 0 
0.171531 -0.0409239 1.70398 131 122 115 
0.218549 -0.0354392 1.78369 11 1 0 
-0.192807 0.356461 1.50212 110 104 104 
0.21077 0.240585 1.63457 35 22 13 
0.159481 -0.212099 1.77472 126 116 106 
0.309733 0.426767 1.64319 43 33 23 
0.0180828 -0.515091 1.85311 15 7 5 
0.250792 0.304254 1.62932 138 128 118 
0.0826197 -0.513424 1.86372 104 99 93 
0.137037 -0.497846 1.88576 112 109 102 
0.251312 0.308482 1.64291 28 20 7 
0.175391 0.504764 1.41718 121 114 104 
0.222987 -0.509106 1.95913 10 5 1 
-0.141316 -0.569596 1.88784 4 0 0 
0.235028 0.26172 1.65484 139 131 118 
0.245156 0.104753 1.74363 24 14 4 
0.234289 0.378618 1.56345 143 134 125 
0.231594 -0.0200506 1.78508 13 3 0 
0.215427 0.263258 1.6333 137 127 117 
0.0605285 0.228768 1.52496 130 118 106 
0.121919 0.240825 1.54548 21 12 0 
-0.29799 -0.763812 2.1113 10 5 1 
0.0789104 0.0554814 1.60999 101 92 83 
-0.269907 -0.740893 2.0792 38 32 20 
0.27035 0.291409 1.68663 18 12 0 
0.23287 0.0847653 1.73846 144 134 124 
0.179281 0.272084 1.56378 19 10 1 
0.149996 0.482228 1.42029 7 0 0 
0.251278 0.304831 1.6543 10 4 0 
0.0396217 -0.422473 1.81206 103 98 94 
0.158561 -0.161927 1.75711 6 3 0 
0.138414 -0.418196 1.85471 111 104 98 
0.179313 0.0452844 1.67753 16 6 0 
-4.11263e-05 0.0192377 1.61065 129 120 113 
0.11326 0.28237 1.52141 37 31 19 
0.134802 0.290372 1.52712 122 112 103 
0.22082 0.486978 1.48459 15 5 0 
