ply                 
format ascii 1.0    
element vertex 1263
property float x    
property float y    
property float z    
property uchar red  
property uchar green
property uchar blue 
end_header          
-0.265209 0.612058 1.3159 105 93 81 
-0.197893 0.614894 1.28317 95 86 71 
-0.198656 0.57708 1.30458 89 84 78 
-0.135724 -0.483888 1.86059 89 84 78 
0.0304265 -0.339637 1.79587 98 93 89 
-0.106075 0.0180872 1.64565 19 19 11 
-0.038195 -0.244589 1.73768 27 18 13 
-0.247249 0.138971 1.62918 99 96 87 
-0.0167036 0.191058 1.54359 20 13 7 
-0.153224 -0.0134562 1.66366 11 2 0 
-0.180987 -0.000979059 1.68818 154 145 136 
-0.214365 0.0429154 1.6682 196 186 177 
-0.394578 0.0143694 1.82376 9 2 0 
-0.270516 0.0997262 1.65948 139 135 124 
0.0041894 -0.124112 1.69808 11 6 2 
-0.314988 0.115854 1.68253 119 114 110 
-0.0213882 -0.137301 1.69365 4 0 0 
-0.338292 -0.116966 1.80141 135 127 124 
-0.376483 0.192683 1.72002 109 104 98 
-0.448658 -0.167289 2.02052 13 5 0 
-0.360079 0.215046 1.69779 7 0 0 
-0.431914 0.473848 1.70243 144 148 149 
-0.32599 -0.193215 1.82795 1 0 0 
-0.43879 0.457027 1.73909 16 10 10 
-0.0483818 0.189043 1.55165 127 122 116 
-0.36049 0.275782 1.66209 5 0 0 
-0.358978 -0.24845 1.89552 102 101 99 
-0.444614 0.309506 1.74532 106 102 101 
-0.432625 0.327761 1.71593 18 13 7 
-0.358131 0.311626 1.64313 120 116 107 
-0.0552049 -0.33817 1.77888 8 5 0 
-0.339867 -0.289099 1.89204 110 109 105 
-0.233357 0.29355 1.55113 166 157 148 
-0.179287 -0.331157 1.81907 129 125 122 
-0.422129 -0.312772 2.01148 123 122 117 
-0.286566 0.338175 1.54364 141 136 132 
-0.406793 0.39786 1.67355 127 133 133 
-0.413368 0.404761 1.68272 31 40 49 
-0.424951 0.414314 1.70222 140 145 151 
-0.444427 0.430143 1.74704 96 96 94 
-0.414604 0.415649 1.6861 38 42 54 
-0.263177 -0.386827 1.88097 115 111 108 
-0.432403 0.425955 1.72433 22 26 35 
-0.408971 0.413437 1.67399 21 25 36 
-0.41451 0.0910157 1.8519 131 125 111 
-0.440756 0.439631 1.74062 134 135 139 
-0.426209 0.430436 1.69505 139 143 154 
-0.43218 0.443508 1.71672 146 146 154 
-0.429546 0.44564 1.69834 158 158 156 
-0.420928 0.444573 1.68459 35 37 36 
-0.410913 0.445741 1.66232 151 153 152 
-0.417706 0.456384 1.67759 68 67 62 
-0.260576 -0.0398215 1.72666 88 79 72 
-0.424662 0.460341 1.68799 25 24 20 
-0.421464 0.471586 1.68127 30 31 33 
-0.427091 0.478909 1.68932 146 151 147 
-0.432798 0.495292 1.70903 19 21 18 
-0.416792 0.483375 1.66476 45 43 44 
-0.429876 0.502875 1.69533 50 49 44 
-0.414094 0.492469 1.65822 112 113 108 
-0.424994 0.504056 1.68365 131 130 126 
-0.188183 -0.527041 1.88851 111 110 105 
-0.442828 0.522143 1.70429 72 35 0 
-0.418616 0.509134 1.65361 116 116 114 
-0.338577 0.382892 1.55678 12 11 6 
-0.453089 0.529942 1.6994 73 34 0 
-0.42209 0.527804 1.6631 5 10 3 
-0.217306 -0.579906 1.91011 139 136 131 
-0.406845 0.540771 1.62345 111 115 116 
-0.405987 0.555334 1.61656 129 127 132 
-0.218146 -0.672353 1.96673 41 36 17 
-0.238974 -0.667762 1.97091 18 14 3 
-0.409998 0.602786 1.62142 126 125 131 
-0.427895 0.618933 1.65628 119 119 117 
-0.198136 -0.799201 2.08846 17 16 12 
-0.12243 -0.840921 2.07177 19 9 0 
-0.431566 0.456512 1.71562 46 49 42 
-0.409739 0.437244 1.65167 128 129 131 
-0.443559 0.452654 1.72788 33 26 18 
-0.293388 -0.428992 1.91545 92 84 82 
-0.384757 -0.253964 1.92439 20 17 12 
-0.293911 -0.403811 1.91304 106 103 96 
-0.279208 0.0253642 1.70281 122 112 111 
-0.335141 -0.167852 1.82313 22 18 15 
-0.0498632 -0.479666 1.84515 11 8 1 
-0.405617 0.0785207 1.84372 129 127 114 
-0.230502 -0.438081 1.88932 95 91 88 
-0.319512 -0.394303 1.9181 8 5 0 
-0.485713 -0.423125 2.18498 110 107 102 
-0.248726 -1.02327 2.29587 37 36 31 
-0.263368 -0.0746055 1.73723 12 9 4 
-0.0987483 0.0110861 1.64516 100 98 86 
-0.310391 -0.388838 1.90884 135 134 129 
-0.482831 -0.400887 2.16284 3 0 0 
-0.172915 -0.411521 1.85526 112 113 107 
-0.468273 -0.482908 2.14604 24 15 16 
0.0116924 -0.0407399 1.65492 5 0 0 
-0.319159 -0.382437 1.91221 17 12 9 
-0.244969 -1.23565 2.4778 33 27 13 
-0.335472 0.0589434 1.73434 11 8 1 
-0.43567 0.476895 1.71928 106 104 105 
-0.174905 -0.39802 1.85003 5 4 0 
-0.426179 -0.251283 1.99403 3 0 0 
-0.262646 0.323954 1.54148 127 123 114 
-0.392269 0.0845848 1.78182 15 10 4 
-0.418831 0.406428 1.69391 22 29 37 
-0.429437 -0.364089 2.0587 108 108 106 
-0.235018 0.344395 1.50192 120 116 107 
-0.32652 0.364407 1.55395 13 9 6 
-0.387454 0.0791162 1.79721 93 89 86 
-0.29917 -0.988447 2.28776 130 125 119 
-0.315134 -0.514833 1.93502 94 89 85 
-0.195077 -0.823926 2.09907 130 127 118 
0.026615 -0.0512107 1.66529 4 0 0 
-0.302941 -0.343845 1.87271 9 4 0 
-0.339648 -0.121809 1.81335 4 0 0 
-0.435435 -0.345835 2.06289 3 0 0 
-0.128335 -0.818605 2.06492 23 20 11 
-0.378291 0.179115 1.72791 8 0 0 
-0.368532 -0.335875 1.94289 10 6 3 
-0.308227 0.164532 1.67042 8 3 0 
-0.297638 -0.119422 1.76524 117 110 102 
-0.123465 -0.799298 2.05012 47 44 37 
-0.451662 0.388381 1.7398 101 97 96 
-0.0593188 -0.389582 1.81403 109 110 104 
-0.32371 -0.000290644 1.74392 10 7 2 
-0.139475 -0.784677 2.04499 32 32 20 
-0.0453948 0.0226649 1.6337 149 142 132 
-0.425279 0.371391 1.67677 69 64 60 
-0.279911 -0.810845 2.13215 16 15 11 
-0.43453 -0.332875 2.05614 5 2 0 
-0.278379 -0.115412 1.77048 12 7 3 
-0.403161 0.204603 1.75876 82 81 77 
-0.427565 -0.149027 1.95584 87 80 72 
-0.19262 -0.744439 2.03455 135 131 120 
-0.23814 0.31747 1.52683 4 0 0 
-0.44057 -0.48403 2.06536 3 0 0 
-0.154808 -0.733114 1.99762 34 30 18 
-0.427536 -0.166152 1.96404 89 84 80 
-0.421479 -0.176045 1.94706 20 9 3 
-0.057082 -0.245421 1.75958 6 0 0 
-0.406945 0.569689 1.61723 114 115 119 
-0.429072 -0.311504 2.0335 19 16 11 
-0.184549 -0.891798 2.14818 41 37 26 
-0.275631 -0.504727 1.91017 100 93 87 
-0.297455 -0.881689 2.20043 31 24 16 
-0.388404 -0.204712 1.91264 111 105 105 
-0.358919 -0.207382 1.87605 113 110 105 
-0.118777 0.2836 1.51751 4 0 0 
-0.0469713 -0.270338 1.75122 118 113 107 
-0.334988 -0.301366 1.89436 115 112 105 
-0.386538 -0.22085 1.91014 4 0 0 
-0.374904 -0.0558383 1.82578 101 97 94 
-0.444761 0.520316 1.72146 119 104 97 
-0.120329 -0.944991 2.16119 124 120 109 
-0.393864 -0.507446 2.01177 104 101 94 
-0.469822 -0.315197 2.20472 3 0 0 
-0.146516 -1.05796 2.27962 35 26 17 
-0.397356 -0.222694 1.90037 18 10 7 
-0.22137 0.0947249 1.63073 11 7 0 
-0.360664 0.499523 1.51785 91 82 77 
-0.330388 -0.236929 1.86955 25 21 12 
-0.213708 0.0881211 1.63526 128 123 120 
-0.416092 -0.28197 2.00267 113 108 104 
-0.279397 -0.0554635 1.73313 6 0 0 
-0.366881 -0.516511 1.98027 93 94 86 
-0.324267 -0.0312643 1.76744 34 30 27 
-0.40176 0.119112 1.79702 7 0 0 
-0.430357 0.535881 1.6887 114 107 101 
-0.443233 0.525084 1.68655 34 0 0 
-0.409531 -0.267047 1.98238 8 5 0 
-0.428913 0.526321 1.67629 37 28 0 
-0.323823 -0.264699 1.85104 100 97 92 
-0.332129 -0.529587 1.95397 100 97 92 
-0.267412 -0.98419 2.2768 130 128 116 
-0.369755 -0.97939 2.39146 22 8 5 
-0.38005 -0.534028 2.00606 13 10 3 
-0.399628 -0.542052 2.03126 106 101 95 
-0.430138 -0.176039 1.97934 43 33 23 
-0.367637 -0.254898 1.90446 96 88 86 
0.0289334 -0.0131492 1.64691 4 1 0 
-0.377345 0.223229 1.71522 5 0 0 
-0.281006 -0.262411 1.83476 16 8 5 
-0.221329 -1.12158 2.36521 127 123 111 
-0.314956 0.0987273 1.69897 124 117 107 
-0.311348 -0.0458216 1.75589 6 3 0 
-0.464394 -0.181538 2.1282 104 100 91 
-0.302577 -0.833673 2.15831 111 108 99 
-0.275313 -0.530878 1.92252 85 84 82 
-0.359108 -0.94761 2.34715 37 28 21 
-0.430294 -0.274111 2.0351 8 5 0 
-0.379454 -0.0739723 1.83692 8 3 0 
-0.309623 -0.454721 1.93975 96 91 87 
-0.427832 -0.239758 2.00803 123 120 111 
-0.419555 0.00651917 1.86961 107 102 96 
-0.300948 -0.0299826 1.74788 6 0 0 
-0.0527966 -0.0755976 1.6609 6 0 0 
-0.0558964 -0.286974 1.78322 6 1 0 
-0.425328 -0.187227 1.96365 7 0 0 
-0.308645 -0.574878 1.94945 14 7 0 
-0.195493 0.291674 1.53505 14 11 6 
-0.402913 -0.510895 2.02807 121 118 111 
-0.426098 -0.214973 1.97702 13 4 0 
-0.24687 -0.231987 1.80055 11 7 6 
-0.460006 -0.289543 2.11643 36 33 24 
-0.227299 -0.910689 2.1895 30 27 18 
-0.492354 -0.448403 2.23087 14 13 9 
-0.31683 -0.301199 1.87194 13 10 3 
-0.207087 0.330677 1.49358 87 82 78 
-0.34405 0.328419 1.61621 4 0 0 
-0.482211 -0.446098 2.17454 25 22 17 
-0.472091 0.485168 1.8062 9 5 2 
-0.141858 -1.1692 2.36111 47 43 31 
-0.414917 -0.118159 1.92475 4 0 0 
-0.406792 -0.281522 1.97841 83 80 75 
-0.438239 -0.107268 1.96928 6 2 0 
-0.33212 0.427671 1.53042 24 21 16 
-0.410269 -0.12887 1.91803 105 100 97 
-0.353699 0.56549 1.46326 105 102 95 
-0.292906 -0.116841 1.78301 25 22 17 
-0.404127 -0.327684 1.98926 106 103 98 
-0.0890606 0.169441 1.56682 14 9 3 
-0.13269 -0.139171 1.71892 115 112 107 
-0.0931963 -0.845694 2.07183 138 130 119 
-0.397768 0.0558678 1.8236 4 0 0 
-0.196228 -1.01035 2.26518 48 41 31 
-0.408976 -0.163838 1.93357 12 1 0 
-0.172427 -0.348395 1.82167 4 0 0 
-0.304288 -0.0121223 1.73349 106 99 89 
-0.328822 0.200476 1.65396 14 9 5 
-0.244252 0.30834 1.53859 11 6 2 
-0.37126 -0.261619 1.9189 107 103 100 
-0.305549 0.320418 1.57775 7 2 0 
-0.340249 -0.000428664 1.76529 12 7 1 
-0.0322174 -0.212166 1.72004 18 13 9 
-0.427071 0.424968 1.70635 17 21 33 
-0.417932 0.430259 1.678 175 176 180 
-0.428665 0.462649 1.69982 169 170 165 
-0.41441 -0.936265 2.47263 6 3 0 
-0.419097 0.494856 1.6778 160 160 162 
-0.133026 -0.438594 1.85693 6 2 1 
-0.328324 -0.902413 2.2447 36 26 17 
0.151255 0.0250851 1.69882 12 8 0 
-0.214456 -0.69963 1.98944 17 15 3 
0.0307802 0.236142 1.53094 37 28 13 
-0.168018 -0.719512 1.98634 35 25 15 
-0.280889 -1.00381 2.29316 120 118 106 
-0.432894 0.112541 1.90581 151 147 136 
-0.371549 -0.189555 1.88183 9 1 0 
-0.183233 -0.0177536 1.6857 12 5 0 
-0.175891 -0.768665 2.04425 121 120 116 
-0.32918 0.173773 1.6806 133 128 122 
-0.0457582 -0.236173 1.75171 84 79 75 
-0.442012 -0.313714 2.06071 99 98 94 
-0.366926 0.389282 1.57712 149 147 134 
-0.212551 -1.17358 2.40891 118 114 103 
-0.40168 -0.226001 1.95089 10 0 0 
-0.441531 -0.125618 1.98198 111 98 92 
-0.238831 -1.14758 2.39744 36 33 26 
-0.294759 -0.762827 2.10405 114 116 105 
-0.389024 0.406492 1.59659 131 127 116 
-0.392167 0.0391639 1.80096 105 100 96 
-0.0534153 -0.467532 1.8442 19 16 7 
-0.298552 -0.789328 2.11942 6 5 0 
-0.413003 0.437834 1.67123 132 134 129 
0.0395052 0.214581 1.54827 37 23 10 
-0.443791 -0.142888 2.00247 16 6 0 
-0.115179 -0.851897 2.0926 19 9 0 
-0.06456 -0.459857 1.85175 81 77 76 
-0.332555 -0.814293 2.17857 33 30 15 
-0.337847 -0.15153 1.82936 109 106 101 
-0.428045 0.610355 1.6688 89 90 92 
-0.267488 -0.148362 1.77179 24 13 7 
-0.207638 -0.842392 2.11997 123 122 117 
-0.169141 -0.585063 1.9053 105 100 97 
-0.443238 -0.24477 2.05108 16 8 5 
-0.373253 -0.548674 1.99579 15 11 8 
-0.00591349 0.174484 1.55131 149 145 133 
0.0230229 0.203521 1.54019 106 96 94 
-0.307867 -0.393904 1.92239 150 147 142 
0.0580367 0.172387 1.56836 18 9 0 
-0.438941 -0.110994 1.98451 16 9 0 
-0.479145 -0.392729 2.15546 71 70 66 
-0.424133 -0.387394 2.06295 103 102 100 
-0.316033 -0.344816 1.88296 3 0 0 
-0.204593 -0.997487 2.25308 27 24 17 
-0.4203 -0.226464 1.96282 25 12 4 
-0.359432 -0.348842 1.9374 97 93 90 
0.0390075 0.191291 1.55723 17 8 0 
-0.429571 0.543974 1.68038 125 136 130 
-0.311778 -0.907891 2.23685 21 16 10 
0.125926 0.145872 1.62232 38 29 20 
-0.132765 -0.950914 2.17404 25 21 9 
-0.252593 -0.548905 1.9098 79 75 72 
-0.216878 -0.944264 2.20622 119 114 110 
-0.152929 -0.0985017 1.71028 117 114 105 
-0.396892 -0.0570416 1.85845 15 4 2 
-0.0490334 -0.341835 1.7923 8 5 0 
-0.328423 -0.292194 1.88891 110 109 105 
-0.198543 0.291112 1.52301 128 124 115 
-0.34593 0.337139 1.60977 2 1 0 
-0.430543 -0.264386 2.01934 6 5 1 
0.0566947 0.292188 1.5086 15 10 7 
-0.0408012 0.0364892 1.61184 87 77 68 
-0.442358 -0.186579 1.9895 9 0 0 
-0.310717 -0.188964 1.82672 3 0 0 
-0.320495 -0.309184 1.89118 84 81 76 
-0.367731 0.458641 1.5456 109 105 96 
-0.445706 0.499139 1.73133 100 92 89 
-0.134175 -0.159733 1.73002 94 90 87 
-0.438641 -0.157424 1.98448 32 19 10 
-0.443376 0.0570909 1.93894 21 17 16 
-0.111678 -1.16258 2.34894 58 50 39 
-0.33748 0.39943 1.54728 117 114 109 
-0.359517 -0.150418 1.84493 24 19 13 
-0.393291 -0.230107 1.93667 14 9 5 
-0.365473 0.156413 1.71742 105 98 92 
-0.452166 -0.13837 2.03166 7 0 0 
-0.289005 -0.559589 1.93154 93 89 86 
-0.453858 -0.234526 2.07468 125 120 116 
-0.412889 -0.811203 2.40452 25 15 6 
-0.444131 -0.195808 2.02804 12 5 0 
-0.0615164 -0.364024 1.81275 76 72 71 
-0.415205 -0.19612 1.95607 17 7 0 
-0.330603 0.308846 1.61818 6 2 0 
-0.395147 -0.274515 1.95875 110 106 103 
-0.363158 0.484328 1.53213 74 70 67 
-0.426198 -0.235424 1.99199 121 117 106 
-0.240228 -0.554459 1.90855 112 111 107 
-0.452129 -0.52083 2.10759 20 17 10 
-0.268378 -0.289904 1.84154 4 0 1 
-0.413847 0.127979 1.85484 16 10 0 
-0.0497443 -1.05945 2.22527 43 41 29 
-0.287757 -0.373312 1.88617 4 0 0 
-0.183482 -0.909317 2.17775 116 112 101 
-0.440564 0.0624373 1.9239 7 0 0 
-0.139308 -2.02274 2.96676 31 37 35 
-0.32892 -0.441133 1.93783 3 0 0 
-0.429873 0.508114 1.71086 44 39 36 
-0.454837 -0.101817 2.00976 9 2 0 
-0.314172 0.303321 1.60155 99 95 92 
-0.26093 -0.414053 1.87365 142 141 139 
-0.360979 0.328814 1.62848 110 105 99 
-0.181574 -0.841267 2.13198 131 128 119 
-0.0496461 -0.139519 1.68836 5 0 0 
-0.443192 -0.124731 1.99848 8 0 0 
-0.43267 -0.142492 1.98272 11 5 0 
-0.362099 0.376315 1.57799 20 17 12 
-0.464351 -0.341384 2.15124 0 1 0 
-0.135428 -0.848371 2.09935 38 30 17 
-0.184107 -0.32737 1.80491 120 116 113 
-0.414869 -0.0325149 1.8939 107 104 99 
-0.32814 -0.443778 1.95184 105 100 97 
-0.426979 -0.384589 2.04075 3 0 0 
-0.410134 0.113081 1.83438 29 26 11 
-0.448711 0.111942 1.92217 16 7 0 
-0.284082 -0.910679 2.22396 7 4 0 
-0.320226 -0.196389 1.84185 8 7 2 
-0.289338 -0.492704 1.92014 87 86 82 
-0.348534 -0.989796 2.31868 4 1 0 
-0.278 0.0144504 1.69347 102 97 93 
-0.406939 0.527418 1.61891 124 126 123 
-0.416049 0.545909 1.6388 28 29 31 
-0.357282 0.366349 1.58779 26 23 16 
-0.347257 0.292874 1.63522 142 135 127 
-0.288296 0.0880933 1.67962 6 1 0 
-0.490701 -0.383287 2.19955 112 111 107 
-0.450434 0.540754 1.70916 106 100 88 
-0.239666 -0.421299 1.87353 84 83 79 
-0.330058 -0.217787 1.84628 17 12 8 
-0.303266 -0.669237 2.01449 57 47 37 
-0.378957 0.0043168 1.81554 5 0 0 
-0.358481 -0.182233 1.8632 33 30 25 
-0.212278 -0.781208 2.07676 42 39 32 
-0.382744 0.0732395 1.78641 16 16 4 
0.0101221 0.299613 1.50033 27 21 21 
-0.405848 -0.222667 1.93377 10 0 0 
-0.342376 -0.422447 1.93843 85 80 74 
-0.422975 0.634365 1.42984 96 92 83 
-0.426458 -0.48921 2.06266 11 8 3 
-0.394131 -0.340846 1.97383 96 92 91 
-0.292973 -1.01792 2.31567 130 120 110 
-0.206025 -0.582575 1.91173 100 96 93 
-0.362228 -0.974675 2.35047 24 20 9 
-0.405268 -0.152743 1.91869 10 2 0 
-0.291948 0.374486 1.52221 106 103 96 
0.14073 0.0285102 1.68662 120 114 102 
-0.448863 -0.265727 2.06421 12 11 6 
-0.406654 0.417722 1.65845 115 119 122 
-0.374194 -0.243251 1.9025 17 13 10 
-0.420155 0.555472 1.64905 93 95 82 
-0.323362 -0.549579 1.94496 6 1 0 
-0.0568036 -0.408474 1.82687 111 110 105 
-0.341294 -1.00207 2.32014 19 18 13 
-0.0615905 -0.434981 1.8477 12 11 9 
-0.286896 -0.875004 2.19236 27 22 16 
-0.367547 -0.00726666 1.81277 22 17 13 
-0.0632605 0.109704 1.59855 85 84 79 
-0.0557978 0.170902 1.57986 92 88 89 
-0.351908 -0.543753 1.97518 7 2 0 
-0.407947 -0.502087 2.01791 3 0 0 
-0.0340464 -0.556152 1.87237 12 11 9 
-0.289075 -0.208424 1.82318 5 0 0 
-0.431002 -0.532465 2.09063 31 28 21 
-0.42365 -0.21585 1.95975 8 0 0 
0.0467242 0.225304 1.54359 48 38 26 
-0.443987 0.0976544 1.90795 88 87 82 
-0.442695 0.122784 1.8957 121 114 106 
0.00308665 0.260404 1.51557 22 18 9 
-0.403875 0.385575 1.65025 2 0 1 
-0.400705 0.413519 1.63151 107 97 95 
-0.443959 -0.390246 2.07737 102 102 102 
-0.402466 0.419076 1.64506 98 99 94 
-0.435132 0.440471 1.72834 19 23 35 
-0.401441 0.454927 1.64053 161 166 159 
-0.42463 0.486926 1.69894 13 13 11 
-0.463108 -0.569468 2.15584 43 39 27 
-0.344193 -0.706265 2.06743 69 60 51 
-0.245296 -0.543565 1.91892 15 11 8 
-0.418426 -0.925211 2.45708 11 12 7 
-0.404467 -1.03782 2.48887 215 215 213 
-0.140757 0.323198 1.4875 96 90 90 
-0.42362 0.364637 1.68827 80 75 69 
-0.44351 -0.157333 2.01463 10 5 0 
-0.43082 -0.136271 1.96518 17 10 4 
-0.454148 -0.125081 2.00525 20 10 0 
-0.330609 -0.134103 1.80494 102 97 93 
-0.25285 -0.674318 1.98879 128 125 110 
-0.15696 -0.194449 1.74539 21 14 8 
-0.337124 -0.807459 2.16349 50 47 32 
-0.0401523 0.0534297 1.60523 113 108 102 
-0.160081 -0.942383 2.18556 118 114 105 
-0.351666 -0.368289 1.92991 17 14 9 
-0.0255199 0.33022 1.47012 102 99 90 
-0.413671 0.496156 1.6466 105 106 100 
-0.305075 -0.484608 1.91999 65 65 65 
-0.268583 -0.0732278 1.7249 8 5 0 
-0.38573 -0.0394425 1.83072 109 106 101 
-0.446774 -0.201998 2.05094 114 105 98 
-0.429909 -0.484227 2.04895 41 38 33 
-0.0470162 -0.474435 1.86177 47 43 32 
-0.38893 -0.515639 2.02298 18 15 10 
-0.203744 -0.944471 2.21939 0 0 0 
-0.399865 0.190383 1.76256 116 111 108 
-0.30605 -0.962755 2.2763 128 122 110 
-0.411529 0.556816 1.63196 107 107 109 
-0.164463 0.24657 1.52936 97 87 78 
-0.346442 -0.2407 1.86662 14 4 0 
-0.43963 -0.284458 2.04097 32 29 22 
-0.176044 -1.06608 2.28303 115 107 94 
-0.410213 -0.285114 1.96052 7 4 0 
-0.266508 -0.0257621 1.71521 59 50 41 
-0.264046 0.436504 1.47475 129 122 116 
-0.0516367 -0.191445 1.73652 102 99 94 
0.133895 0.596781 1.32999 116 113 98 
0.043512 0.29398 1.50953 26 23 18 
-0.464192 -0.220864 2.12636 18 14 13 
-0.402296 0.206673 1.74362 96 93 88 
-0.383587 0.61795 1.39997 66 61 57 
-0.326248 -0.767908 2.11982 56 53 48 
-0.361028 0.514249 1.51565 21 11 9 
-0.139609 -1.95018 3.09234 33 29 30 
-0.401659 0.434075 1.6059 22 13 4 
-0.409329 0.396965 1.66113 154 158 159 
0.0686769 0.172452 1.58227 17 10 2 
0.127328 0.13556 1.62993 35 27 16 
-0.446132 0.159097 1.91056 32 25 17 
-0.451881 0.100891 1.98319 20 16 5 
-0.313789 -0.242007 1.86474 77 73 70 
-0.430181 -0.136042 1.94359 72 61 55 
-0.153396 -0.513726 1.86618 86 85 83 
-0.282476 -0.108493 1.75727 107 102 99 
-0.412107 -0.150755 1.94543 17 10 4 
-0.0460543 -0.41174 1.83537 12 11 6 
-0.203419 -0.975647 2.21511 75 72 65 
-0.345969 -0.995334 2.33925 117 114 107 
-0.41456 -0.280716 1.98924 126 118 116 
-0.418339 0.00733561 1.89279 8 4 1 
-0.330836 0.460817 1.50305 21 11 9 
-0.323834 -0.0783815 1.77619 6 2 0 
-0.139957 0.179942 1.55629 90 85 82 
-0.0278899 -0.193347 1.72757 18 12 12 
-0.13973 -0.514125 1.85348 2 1 0 
-0.462561 0.472943 1.73838 122 119 114 
-0.382264 -0.898566 2.40522 107 93 92 
-0.413839 0.456885 1.66323 39 37 38 
-0.363928 0.52986 1.50455 14 9 5 
-0.0415653 -0.369852 1.78136 15 10 6 
-0.1597 0.0530942 1.6306 7 3 0 
-0.271163 0.0742009 1.67103 109 105 96 
-0.150802 -0.218661 1.76913 111 106 100 
-0.407551 0.39333 1.68877 99 101 100 
-0.336435 -0.439802 1.96011 100 96 87 
-0.426443 0.473617 1.66708 30 36 32 
-0.252797 -0.471158 1.90933 21 20 16 
-0.385069 0.643845 1.38607 100 94 80 
0.190064 0.302905 1.59543 32 28 17 
-0.419865 -0.0302395 1.87574 98 95 90 
-0.111489 -0.0887363 1.69734 77 77 75 
-0.324939 -0.0500612 1.76421 11 7 4 
-0.28904 -0.511943 1.91788 102 101 99 
-0.232022 -0.505415 1.88939 1 0 0 
-0.061614 -0.482558 1.87021 8 7 3 
-0.0856119 -2.02569 2.99253 109 114 110 
-0.359728 -0.348623 1.95957 100 96 93 
-0.397786 0.0579625 1.83739 86 83 76 
-0.391916 -1.08958 2.47366 74 73 68 
-0.0612033 -0.46252 1.86763 37 36 32 
-0.409081 0.0607848 1.8025 57 54 47 
-0.0561022 -0.261655 1.74245 93 89 86 
-0.0665882 -0.40514 1.81166 86 85 80 
-0.481938 -0.370077 2.15975 78 77 73 
-0.0476675 -0.368892 1.79737 61 58 53 
-0.0571564 -0.44555 1.85334 94 90 87 
-0.358184 -0.990102 2.37756 41 39 26 
-0.251585 -0.210678 1.78807 100 95 91 
-0.371649 -0.974715 2.37622 23 13 14 
-0.461711 -0.415762 2.10858 3 0 0 
-0.451179 -0.430259 2.10028 2 2 0 
-0.211198 0.114075 1.60942 103 98 94 
-0.295346 -0.542313 1.93685 3 0 0 
-0.356606 0.330943 1.64039 125 120 114 
-0.445114 0.387334 1.75693 1 1 1 
0.000971798 0.297041 1.48939 20 15 12 
-0.28961 -0.257038 1.8195 5 0 0 
-0.290955 0.262696 1.59683 4 0 0 
-0.175694 -0.336218 1.80667 7 3 2 
-0.409678 -0.327645 2.0046 34 30 27 
-0.366988 -0.339109 1.95995 12 8 5 
-0.414109 0.456467 1.64798 86 88 85 
-0.351739 0.366732 1.60102 37 34 29 
-0.356019 -0.0863334 1.81162 24 19 15 
-0.00506254 0.259133 1.50222 22 18 9 
-0.1008 -0.925852 2.13843 104 100 89 
-0.394089 -0.89075 2.40933 32 23 18 
-0.0482911 -0.0814918 1.67893 98 95 90 
-0.2437 -1.25597 2.5098 134 126 113 
-0.350642 -0.494239 1.95319 94 90 87 
-0.1342 -0.987805 2.19851 66 57 48 
-0.157383 -0.417936 1.83213 18 14 11 
-0.0496905 -0.0701722 1.67231 91 82 77 
-0.138234 -0.499078 1.85705 80 75 72 
-0.27875 0.183972 1.64121 14 6 4 
-0.0716034 0.109694 1.58525 93 92 88 
-0.25235 0.140277 1.61638 87 84 77 
-0.011915 0.00330991 1.63101 92 89 84 
-0.00959892 -0.578731 1.89043 15 7 5 
0.138725 0.607783 1.3291 110 107 92 
0.0317181 0.193705 1.54303 106 98 87 
-0.379429 0.330612 1.62073 38 30 27 
-0.413235 -0.451206 2.01879 13 13 11 
0.142103 0.200776 1.60345 40 37 28 
-0.192101 -0.992397 2.24533 42 39 30 
-0.302472 -0.122021 1.78766 43 35 33 
-0.448162 -0.370171 2.09381 69 70 65 
-0.144436 -0.831206 2.0884 111 111 101 
-0.0437161 -1.06918 2.24521 45 42 33 
-0.288146 -0.896213 2.22656 113 106 96 
-0.124388 -0.862651 2.12374 31 27 15 
-0.47317 -0.316268 2.2554 34 34 34 
-0.408409 0.596478 1.60503 98 101 106 
-0.432029 0.606055 1.65219 84 86 85 
-0.453698 -0.419203 2.09174 81 77 76 
-0.457478 0.523537 1.68573 157 123 60 
-0.284313 -0.535793 1.89776 7 6 2 
-0.45072 0.433428 1.76644 89 85 74 
-0.241143 -0.498063 1.87346 0 0 0 
-0.371961 -0.469182 1.98303 2 0 1 
-0.363493 -0.462653 1.94754 76 73 68 
-0.436081 0.4445 1.68314 75 75 67 
-0.306442 -0.444754 1.92642 87 83 80 
-0.0481686 -0.213325 1.74349 32 32 22 
-0.360312 -0.417905 1.95155 13 12 8 
-0.319998 -0.539835 1.95351 53 50 45 
-0.304077 -0.0155023 1.72077 30 25 21 
-0.434867 0.538764 1.66334 65 78 71 
-0.405361 -0.288828 2.00201 96 93 86 
-0.110435 -1.03205 2.24144 118 116 103 
-0.0106775 -0.219154 1.73516 101 96 93 
-0.326676 -0.180421 1.81632 109 105 102 
-0.372123 0.332557 1.64055 39 31 28 
-0.416008 0.532728 1.62928 74 77 82 
-0.301804 -0.398183 1.90079 79 76 67 
-0.436814 0.516874 1.69471 51 33 33 
-0.274136 -0.971316 2.25444 120 117 108 
-0.369087 0.368278 1.59943 131 122 113 
-0.347863 -0.240599 1.88681 109 100 93 
-0.101638 -2.09859 3.09551 32 33 37 
-0.423753 0.401133 1.62786 0 3 20 
-0.420463 0.419144 1.72464 130 135 141 
-0.408302 -0.939878 2.5029 222 220 221 
-0.417674 -0.985987 2.48818 220 222 221 
-0.13613 -0.174102 1.70675 82 79 72 
-0.421915 -0.163921 1.93697 5 0 0 
-0.390026 -0.90731 2.43313 35 23 25 
-0.14974 -0.748992 2.02854 52 49 44 
-0.484317 -0.381141 2.14107 74 74 66 
-0.073186 -0.51111 1.82669 3 3 5 
-0.295237 -0.481646 1.90262 73 70 63 
-0.285942 -0.483978 1.9301 98 94 91 
-0.128901 -0.509712 1.88204 75 70 67 
-0.252661 0.585735 1.30986 73 63 53 
-0.285566 -0.459469 1.91797 73 68 62 
-0.139672 -0.489719 1.88133 96 93 86 
-0.146055 -0.475336 1.84252 95 92 87 
-0.341148 -0.433542 1.9133 38 34 35 
-0.362529 -0.425388 1.92438 72 68 59 
-0.31321 -0.450802 1.96796 101 100 96 
-0.351869 -0.426365 1.9774 5 5 3 
-0.0666966 -0.469736 1.87651 96 95 91 
-0.241698 -0.419412 1.89813 85 82 75 
-0.461931 -0.392475 2.06697 90 86 85 
-0.0641276 -0.451166 1.86297 106 105 100 
-0.314084 0.179319 1.66656 24 19 16 
0.113961 0.177292 1.60697 61 52 43 
-0.392629 -1.12489 2.50405 190 190 190 
0.123145 -0.0463391 1.7043 39 32 24 
-0.448565 0.400532 1.75289 92 87 83 
-0.187555 -0.246207 1.79721 14 10 7 
-0.184252 -0.225199 1.7831 69 68 63 
-0.0624671 -0.239754 1.776 92 86 86 
-0.13442 -0.194038 1.75244 109 105 102 
-0.0472806 0.0730202 1.60149 9 10 5 
-0.0535549 0.126958 1.5753 73 70 65 
-0.0859923 -0.460503 1.85097 97 93 90 
-0.218789 -0.468925 1.86908 60 57 50 
-0.27541 -0.259074 1.8462 101 97 86 
-0.021947 0.330981 1.47515 113 106 100 
-0.112547 -0.0483906 1.68415 30 26 17 
-0.191729 -0.527305 1.89072 116 111 107 
0.117924 0.186795 1.5923 132 121 101 
-0.00299826 -0.424807 1.8279 110 106 97 
-0.0543421 -0.406786 1.82294 34 32 20 
-0.164039 -0.604021 1.91523 100 95 92 
-0.0810968 -0.240018 1.7679 20 15 12 
0.0213214 0.271706 1.50937 128 121 115 
-0.218741 -0.287112 1.82399 112 105 97 
-0.10546 0.0675791 1.62495 124 117 107 
0.0400752 0.0297262 1.63725 89 82 74 
0.00621177 0.0721337 1.60698 16 12 3 
0.0306142 0.0735065 1.6132 10 3 0 
-0.0416286 -0.0423835 1.65515 91 82 73 
0.0291557 -0.447222 1.85165 39 34 28 
-0.120497 -0.575586 1.896 13 6 0 
-0.213628 -0.559866 1.91185 90 85 81 
0.0344167 -0.180531 1.73073 120 116 105 
-0.285409 -0.0679233 1.76595 15 11 8 
0.0359916 -0.0674767 1.68079 15 11 0 
-0.115059 -0.0868733 1.70083 95 91 88 
-0.144104 -0.0917215 1.71265 12 4 1 
-0.126594 -0.154225 1.7354 6 6 0 
0.0014334 0.0188466 1.63154 112 108 99 
-0.0459277 -0.312242 1.77689 51 42 35 
-0.157348 -0.30426 1.80919 14 11 4 
0.0370897 0.163802 1.5691 127 118 103 
0.0338058 -0.123235 1.70667 108 101 91 
-0.278448 -0.124828 1.7869 15 6 0 
-0.0519044 -0.341023 1.79112 34 30 21 
-0.0155372 -0.62769 1.91496 9 6 1 
-0.0997512 -0.576564 1.8911 14 10 1 
-0.140977 -0.135463 1.72846 84 75 68 
-0.134689 0.153822 1.58921 101 92 83 
-0.125069 -0.132568 1.72457 17 12 6 
0.0220749 -0.39186 1.82372 123 118 112 
-0.235619 -0.429615 1.89225 98 93 89 
0.0518607 -0.336071 1.80734 88 85 80 
-0.135294 0.180471 1.57996 31 24 14 
-0.152614 -0.519617 1.88001 90 86 85 
0.106576 0.179277 1.59168 15 5 0 
-0.191028 0.24053 1.57165 139 135 126 
-0.0399402 -0.214348 1.73471 134 126 115 
-0.00499641 0.246699 1.5183 101 97 85 
-0.0457384 -0.495893 1.85171 33 30 21 
-0.165869 -0.549939 1.89402 94 91 86 
-0.01833 -0.555771 1.8838 106 102 99 
0.0595115 0.150594 1.58337 132 125 115 
-0.252566 -0.420999 1.89948 95 90 87 
0.0339584 -0.467739 1.86191 103 100 95 
-0.171126 -0.574138 1.90463 87 82 79 
-0.134672 -0.573189 1.89402 7 3 0 
-0.216526 -0.583933 1.92202 129 120 115 
-0.113001 0.300074 1.50465 98 95 90 
0.00787765 -0.599706 1.90638 102 99 92 
-0.293149 -0.209732 1.83633 22 18 9 
-0.0603734 -0.366475 1.82268 69 64 61 
0.0234544 -0.106297 1.69237 103 96 86 
0.102508 0.0815974 1.63553 116 108 97 
-0.0491922 -0.370461 1.80565 90 85 82 
-0.0245916 -0.423098 1.82714 16 11 8 
-0.275035 0.429305 1.49696 136 127 118 
0.0639511 0.0507173 1.63483 116 108 97 
0.12093 -0.603652 1.95898 93 88 85 
-0.0447969 -0.00619077 1.64603 124 116 103 
-0.166125 0.177262 1.58753 80 75 71 
-0.0961214 -0.235021 1.76867 27 22 18 
-0.0163656 -0.105157 1.68485 6 1 0 
-0.0791796 -0.213691 1.75529 107 103 102 
-0.0584332 -0.347733 1.81088 20 17 8 
-0.174826 -0.412997 1.86227 99 95 92 
0.0409723 -0.154274 1.72385 38 29 24 
0.0215286 0.327296 1.48194 137 128 121 
0.0957297 -0.402256 1.85706 14 11 6 
-0.050944 -0.212188 1.74242 28 21 13 
0.0409055 -0.304166 1.79163 102 98 87 
0.0261757 -0.0503997 1.66673 4 0 0 
-0.266357 -0.0383569 1.73988 131 121 109 
-0.131385 -0.43924 1.86254 104 99 96 
-0.057016 -0.430695 1.83877 38 35 26 
0.0395021 -0.373423 1.82083 113 108 102 
0.0417436 0.175431 1.56389 129 124 105 
-0.202854 -0.418217 1.87356 108 105 98 
0.0548199 -0.319951 1.80313 24 19 15 
-0.066606 -0.450849 1.85843 112 108 105 
-0.0584975 -0.480897 1.86454 80 78 66 
-0.0430124 -0.384841 1.81104 146 139 131 
-0.152682 -0.27257 1.79203 102 99 94 
-0.0570854 -0.389344 1.82321 110 107 102 
-0.0295266 0.0827296 1.59802 127 118 109 
0.0549788 -0.428204 1.85178 92 87 84 
-0.0619728 -0.464464 1.86258 100 97 90 
-0.326965 -0.450815 1.96657 40 37 32 
-0.00452753 -0.131078 1.70021 104 95 88 
0.121099 0.150728 1.60968 35 25 13 
0.128409 0.124868 1.62744 32 22 12 
0.00123085 0.210795 1.53597 117 107 98 
0.0768242 0.0893645 1.61843 7 3 0 
0.0575446 -0.44796 1.85851 122 117 111 
-0.0880061 -0.0471926 1.68105 102 97 93 
-0.0866663 -0.537149 1.87125 36 31 27 
-0.295608 -0.444556 1.94225 3 0 0 
0.137655 0.201385 1.59597 19 12 4 
0.0364359 0.224838 1.53864 22 11 5 
-0.139206 0.294951 1.5147 135 126 121 
0.068895 0.0665715 1.62993 130 121 114 
-0.0182867 -0.00225314 1.64121 103 96 88 
-0.248821 0.139975 1.64476 99 96 87 
0.0623072 0.293119 1.51602 16 5 0 
-0.136696 -0.184702 1.74633 16 6 7 
-0.0546796 -0.31556 1.79392 24 19 13 
0.0707249 0.139348 1.59495 28 24 12 
-0.0827982 -0.447417 1.85711 90 87 82 
-0.29435 -0.49035 1.92877 77 73 62 
-0.137501 -0.504999 1.86895 76 74 62 
-0.133026 -0.521527 1.87467 4 3 1 
-0.0904434 -0.0140512 1.67354 95 90 86 
-0.236155 -0.506479 1.89558 2 1 0 
0.100439 0.339477 1.51031 114 106 95 
0.140049 -0.496594 1.93559 93 88 82 
-0.255065 -0.479643 1.92189 19 18 16 
-0.0384791 -0.0321844 1.64772 29 19 17 
-0.0181067 -0.207897 1.72976 10 5 2 
-0.257893 -0.658817 1.98238 148 141 125 
-0.286427 -0.984029 2.27742 28 20 17 
-0.299517 -0.987078 2.28604 128 122 110 
-0.210985 -0.57655 1.89718 133 129 120 
-0.151957 -1.04699 2.26152 55 43 31 
-0.224734 -0.657037 1.94322 25 14 0 
-0.110785 -2.10087 3.08942 243 244 249 
-0.282094 -0.805954 2.12349 19 12 6 
-0.20207 -0.76539 2.05222 5 2 0 
-0.242692 -0.66193 1.95854 25 16 1 
-0.00580577 -0.421951 1.81843 131 127 118 
-0.142403 -0.565547 1.87826 117 107 98 
-0.269166 -0.380956 1.8616 137 134 125 
-0.257786 -0.442083 1.88137 116 112 109 
-0.22189 -0.882513 2.15489 31 25 11 
-0.319823 -0.501853 1.9206 124 119 115 
-0.415131 -0.487437 2.01517 134 130 121 
-0.142714 0.140323 1.58321 128 124 113 
-0.1749 -0.567486 1.88595 110 105 99 
-0.397438 -0.914604 2.41528 120 110 108 
-0.332753 -0.803507 2.15259 29 21 10 
-0.223672 -1.16864 2.40454 150 141 134 
-0.0614525 -0.424365 1.81625 15 8 0 
-0.124417 -1.82372 2.89529 27 20 10 
-0.243686 -0.771126 2.08048 10 7 2 
-0.360937 -0.194147 1.86764 5 0 0 
0.00349307 -0.347926 1.78844 6 1 0 
-0.297155 -0.756184 2.09159 142 138 135 
-0.34467 -0.285069 1.88102 3 0 0 
-0.316475 -0.385245 1.89741 152 149 140 
-0.238109 -0.593793 1.91539 3 0 0 
-0.0578054 -0.349304 1.78535 4 0 0 
-0.214464 -0.925656 2.1861 4 0 0 
-0.308265 -0.202723 1.81089 141 136 132 
-0.207199 -0.910037 2.16943 126 122 111 
-0.18847 -0.884515 2.13525 22 12 2 
-0.16197 -0.298956 1.78664 10 6 0 
-0.361797 -0.934232 2.32658 22 9 1 
-0.402767 -0.93678 2.43304 122 118 106 
-0.398975 -0.255285 1.937 9 4 0 
-0.388412 -0.544086 1.99985 6 3 0 
-0.17924 -0.391225 1.828 12 7 3 
-0.316381 -0.754821 2.1026 3 0 0 
-0.346295 -0.192317 1.84059 9 6 1 
-0.301214 -0.395826 1.88745 116 108 105 
-0.316089 -0.185003 1.80645 4 0 0 
-0.432577 -0.359546 2.04233 115 111 108 
-0.182974 0.199261 1.56816 141 138 131 
-0.228943 -0.44378 1.86892 103 100 95 
-0.337138 -0.306579 1.88385 100 95 89 
-0.153175 -1.81814 2.93975 58 49 42 
-0.282062 -0.267861 1.81858 8 1 0 
-0.119626 0.26057 1.5313 125 120 116 
-0.293873 -0.119025 1.75746 125 118 110 
-0.300776 -0.156952 1.78447 26 23 18 
-0.287283 -0.504099 1.90068 105 100 97 
0.0400018 -0.302956 1.78079 10 1 0 
0.0198175 -1.04676 2.24246 140 125 118 
-0.107612 -2.0829 3.08047 29 29 37 
-0.0447592 -0.337262 1.77483 8 0 0 
-0.0494524 -0.231092 1.72692 134 127 119 
-0.0125501 -0.234498 1.73483 4 0 0 
-0.058719 -0.224074 1.73609 120 116 113 
0.011814 -0.219189 1.73236 135 125 123 
0.0231373 -0.412362 1.82532 101 92 85 
-0.00662351 -0.410292 1.81292 4 0 0 
-0.221202 -0.776746 2.06703 37 35 22 
-0.0670945 -0.41051 1.82439 105 101 90 
-0.0202254 -0.137162 1.69549 119 109 107 
-0.22439 -0.908884 2.17745 137 128 119 
0.021787 -0.442522 1.84033 34 30 21 
0.0284261 -0.114749 1.69015 28 19 10 
0.0228572 -0.456002 1.84526 125 120 116 
-0.296745 -0.728216 2.06219 166 160 148 
-0.268478 -0.721421 2.03581 141 135 121 
0.0589324 0.157447 1.58017 178 172 160 
-0.259552 -0.654904 1.95878 147 139 120 
-0.296497 -0.875583 2.18253 52 44 31 
-0.0379735 0.104399 1.57513 121 114 108 
-0.280501 -0.498072 1.89258 136 125 119 
0.049056 -0.0121743 1.65094 18 11 1 
0.0180318 0.00212592 1.63428 8 4 0 
-0.375015 -0.545691 1.98804 21 18 13 
-0.33995 -0.546371 1.95476 22 13 4 
-0.288191 -0.546798 1.92062 100 95 91 
-0.279278 -0.526922 1.91084 72 71 67 
0.12828 0.0177058 1.68243 7 0 0 
-0.355158 -0.210153 1.8592 23 18 14 
-0.022041 -0.55064 1.87032 111 106 100 
-0.263902 -0.373104 1.85142 111 106 102 
-0.0893143 -0.531644 1.86154 6 0 0 
0.0666801 -0.226469 1.7587 7 0 0 
0.0947535 -0.522707 1.906 8 3 0 
-0.0432071 0.33143 1.4752 115 112 105 
0.0288834 -0.177553 1.71648 130 125 119 
-0.338176 -0.680527 2.03311 31 24 18 
-0.24154 -0.431928 1.87384 107 103 94 
-0.357207 -0.29997 1.90626 112 108 99 
0.109184 0.186032 1.59324 106 97 88 
-0.332743 -0.49977 1.93568 7 0 0 
-0.455842 -0.417509 2.07388 62 58 55 
-0.366198 -0.518149 1.96964 1 1 0 
-0.413729 -0.199276 1.93714 89 79 69 
-0.227324 -0.573716 1.90327 7 2 0 
-0.278944 -0.319207 1.84462 4 0 0 
-0.330693 -0.0288161 1.75773 118 113 107 
-0.36461 -0.167359 1.85018 4 0 0 
-0.0984315 -2.10622 3.08674 232 233 235 
-0.174965 -1.57132 2.72473 27 18 11 
0.131427 -0.571792 1.95093 102 97 93 
-0.251515 -0.812752 2.1118 37 33 24 
-0.131332 -0.882611 2.10876 19 10 0 
0.0551462 -0.431322 1.84768 4 0 0 
-0.0590278 -0.402052 1.8066 6 0 0 
-0.133201 -0.940482 2.15638 143 135 124 
-0.33625 -0.23342 1.85228 28 19 10 
-0.0885945 -2.09103 3.08501 233 235 234 
0.0977757 -0.396857 1.85362 14 6 4 
-0.155267 -0.429024 1.84265 9 4 0 
-0.00877185 -0.491964 1.84707 4 0 0 
-0.344058 -0.994414 2.30681 15 10 7 
-0.299185 0.0672665 1.68935 129 125 116 
0.0539261 -0.321956 1.79338 95 90 84 
0.0148395 0.263146 1.51563 5 1 0 
-0.169388 -0.231188 1.76068 119 109 97 
-0.256482 -0.544037 1.89723 78 77 73 
-0.335478 -0.153478 1.81521 97 92 88 
0.0787821 -0.22428 1.7611 22 13 6 
-0.171532 -0.441463 1.84867 102 99 92 
-0.33171 -0.527888 1.94294 8 1 0 
-0.104851 -0.0344079 1.65393 84 80 77 
-0.34634 -0.0903965 1.80106 5 0 0 
-0.290056 -0.455592 1.90124 96 89 81 
-0.235387 -0.865689 2.14877 136 125 121 
-0.105115 -1.8306 2.89269 11 4 0 
-0.00233238 -0.594828 1.89603 4 0 0 
0.0982594 -0.314394 1.81321 124 119 115 
0.0989762 -1.0858 2.3032 212 213 208 
-0.156988 -0.805664 2.05875 128 120 109 
0.0179541 -0.0234187 1.6474 117 110 104 
0.00166486 -1.04229 2.23555 128 118 109 
-0.0977903 -0.790671 2.01889 50 44 32 
-0.434103 0.112633 1.89647 129 123 111 
-0.177581 0.565341 1.31245 134 125 108 
-0.0024691 -0.582374 1.89148 25 21 12 
-0.0379101 0.262205 1.50685 101 92 87 
-0.0387987 -0.371981 1.78696 39 30 23 
-0.321884 -0.129083 1.78853 102 97 93 
-0.0305622 -0.44353 1.82356 115 107 104 
-0.315886 -0.899442 2.22364 7 0 0 
-0.0301313 -0.295408 1.7597 9 2 0 
-0.0610981 -0.186931 1.71627 93 90 85 
-0.00945489 -0.128997 1.68479 95 91 82 
-0.290262 -0.371024 1.87578 4 0 0 
-0.432216 -0.479849 2.03579 44 41 32 
-0.388347 -0.526196 1.99113 107 104 95 
0.0326237 -0.180385 1.72866 115 110 104 
-0.0526166 -0.26308 1.75279 92 87 81 
0.00974847 -0.573014 1.89302 80 76 67 
-0.157565 -0.218945 1.75159 136 127 118 
-0.00932163 -0.0141533 1.63334 11 7 0 
0.0269677 0.203693 1.54651 115 106 97 
0.125455 0.183886 1.60365 41 28 12 
-0.0198699 -0.200682 1.71874 89 88 84 
-0.340632 -0.43452 1.94362 110 107 102 
-0.15454 -0.419257 1.83841 3 0 0 
-0.205324 -0.413488 1.85375 139 130 123 
0.0585433 -0.453595 1.86295 10 7 0 
0.0789784 0.0890459 1.62422 9 2 0 
-0.287611 -0.897552 2.2028 117 110 104 
-0.105438 -1.93861 2.93995 49 42 34 
-0.401819 0.0850243 1.81679 27 18 11 
0.0430627 0.161238 1.57421 57 48 33 
-0.291446 -0.535589 1.91761 117 113 110 
-0.467958 -0.342403 2.14328 1 0 0 
0.0249454 -0.338358 1.78809 92 89 84 
-0.395677 -1.08773 2.47961 226 225 223 
-0.148028 -0.269813 1.77012 92 87 81 
-0.10611 -1.18114 2.35412 150 140 128 
-0.148168 -0.811997 2.06341 54 49 43 
-0.210761 -0.669702 1.97985 48 40 27 
-0.0840061 -1.92723 2.92569 47 38 23 
-0.188896 0.5693 1.35657 158 147 127 
-0.438439 0.529472 1.71483 181 119 6 
-0.431508 0.464806 1.73102 116 116 118 
-0.0851404 -0.444896 1.84778 90 89 85 
-0.310682 -0.952738 2.25527 115 103 91 
-0.422294 -0.970652 2.49841 175 175 175 
-0.13411 -0.239221 1.75918 79 76 69 
-0.0505133 -0.49102 1.83869 51 47 38 
-0.215444 -0.557236 1.89675 3 0 0 
-0.195948 -0.240989 1.77723 5 1 2 
-0.340972 0.0682458 1.7249 28 23 19 
-0.194066 0.613415 1.28976 29 19 9 
-0.155383 -1.82958 2.94762 67 62 59 
-0.377234 -0.458548 1.9585 1 0 0 
-0.132056 -2.09656 3.05107 232 233 237 
-0.370389 -0.338852 1.93004 109 104 100 
-0.191461 -0.221359 1.76633 76 71 67 
-0.0880459 -1.97046 2.96154 128 119 112 
-0.0330077 -0.339364 1.77776 120 116 107 
-0.309641 -0.438925 1.91498 102 97 93 
-0.0704998 0.473703 1.39466 116 111 105 
-0.041797 -0.0315047 1.63708 4 0 0 
-0.358745 -0.430866 1.94011 68 63 57 
-0.0972593 -2.08978 3.09133 200 201 203 
-0.278013 0.085992 1.66841 111 107 98 
-0.13027 -2.12206 3.12175 127 128 130 
-0.10165 -1.83923 2.90667 55 46 37 
-0.179656 -0.406328 1.83921 124 118 118 
-0.194938 -0.520893 1.87311 146 141 137 
-0.13296 -1.92976 2.9452 67 58 51 
-0.38847 -0.481716 1.98401 4 0 0 
-0.325789 -0.304835 1.87634 95 91 82 
-0.185034 0.282746 1.53641 150 143 135 
-0.143611 -0.0255971 1.66035 10 3 0 
-0.101568 -2.12755 3.09901 42 45 38 
-0.261062 -0.428576 1.88224 138 135 130 
-0.132875 -1.83115 2.90364 145 131 120 
-0.212148 -0.273303 1.79551 105 98 90 
-0.167888 -0.175541 1.73535 117 108 99 
-0.274801 0.117944 1.64982 118 114 105 
-0.179989 -0.579174 1.89423 84 79 75 
-0.345244 -0.110024 1.80692 7 2 0 
-0.379772 -0.977344 2.39445 18 0 0 
-0.153324 -0.476738 1.85325 98 91 85 
-0.330784 -0.229026 1.84319 7 0 0 
-0.308311 -0.118762 1.77255 8 3 0 
-0.0885681 -2.14739 3.10882 225 227 226 
-0.0885665 -2.12305 3.09644 229 230 232 
-0.0935361 -2.10754 3.09271 174 175 177 
-0.0510755 -0.246141 1.74119 91 82 75 
-0.330752 -0.517264 1.94747 7 0 0 
-0.0854345 -2.11526 3.07251 91 91 93 
-0.0430396 -0.443735 1.82006 35 30 27 
-0.0531752 -0.0443432 1.65137 12 5 0 
-0.418277 -0.188958 1.94213 130 120 108 
-0.0302273 -0.216264 1.72293 131 121 111 
-0.0630102 -0.238623 1.74129 69 66 61 
-0.175389 0.609893 1.28332 42 33 24 
0.0386167 -0.420146 1.81953 98 93 89 
0.03165 -0.37699 1.79393 132 127 123 
-0.153898 0.316633 1.50325 21 17 8 
0.0648789 -0.357297 1.79417 111 104 94 
-0.094979 0.319712 1.48637 123 120 111 
-0.300519 -0.677182 2.01248 143 133 123 
-0.0533062 -0.506108 1.84245 16 13 8 
0.171771 -0.170178 1.77501 133 129 118 
0.118863 -0.165997 1.73462 117 113 104 
0.158029 -0.162072 1.75973 10 1 0 
0.038509 -0.158867 1.7032 155 148 140 
-0.0376966 -0.553641 1.86042 111 107 104 
0.0308498 -0.118253 1.67657 10 1 0 
0.0950507 -0.077266 1.68444 104 97 89 
0.0337001 -0.0669587 1.65233 103 99 90 
0.131981 -0.045109 1.69079 7 0 0 
-0.0376906 0.310789 1.48796 86 78 76 
-0.299699 -0.0500229 1.76382 123 120 115 
-0.104363 0.066949 1.61078 139 135 126 
0.178487 0.128034 1.64683 148 138 128 
0.157901 0.326556 1.53667 32 22 10 
0.0860343 0.127722 1.59209 10 2 0 
-0.0239201 0.133104 1.55741 128 124 115 
0.117306 0.167219 1.58861 150 143 127 
0.106847 0.602494 1.32449 130 128 113 
-0.138537 0.302577 1.51491 97 93 82 
0.119731 0.214377 1.56966 41 29 13 
0.137871 0.218525 1.5783 21 11 0 
-0.303351 -0.957877 2.27346 130 127 120 
-0.194968 -0.905493 2.16377 4 0 0 
-0.174397 0.298755 1.53316 142 135 125 
0.220062 0.328206 1.62084 7 0 0 
0.114644 0.325467 1.52224 8 0 0 
-0.212913 0.357615 1.50404 151 142 135 
0.0186953 -1.02731 2.21652 17 7 0 
-0.218581 -1.15922 2.39776 130 126 117 
0.0750415 0.446275 1.45047 145 138 128 
-0.131411 -1.62994 2.74402 32 23 14 
-0.0443495 0.531756 1.3761 18 9 0 
-0.12672 0.544484 1.37757 103 94 87 
0.0680485 -0.667659 1.94286 146 138 125 
-0.126099 -0.15184 1.71114 8 5 0 
0.235726 -0.128147 1.85439 128 116 104 
0.136834 0.23431 1.57152 125 117 106 
0.179061 0.298496 1.56633 21 10 4 
-0.132634 0.151098 1.57875 18 7 1 
-0.156567 -0.300249 1.78749 14 11 6 
0.216155 0.180307 1.69506 17 11 0 
-0.263806 0.243576 1.61358 122 115 105 
-0.213934 0.138957 1.62118 5 0 0 
-0.304449 -0.962899 2.28363 145 141 132 
0.0742686 -0.203614 1.72865 6 0 0 
0.0329739 0.442481 1.44159 127 123 114 
-0.165535 0.426269 1.4618 19 15 6 
0.119639 -0.219918 1.76031 110 106 95 
0.114409 -0.214579 1.75366 110 106 97 
0.158914 -0.209407 1.78276 131 127 118 
-0.137197 0.323785 1.49191 7 6 1 
0.0624389 0.279356 1.51983 7 0 0 
0.164934 0.340823 1.54323 155 145 133 
0.152624 -0.101586 1.72845 135 126 119 
0.127819 -0.574998 1.92435 3 0 0 
-0.169309 -1.53224 2.68045 29 24 18 
0.042419 -0.118231 1.67822 121 111 102 
-0.187901 0.178781 1.5908 137 133 122 
-0.0900209 0.567474 1.31354 131 124 114 
0.141231 -0.201077 1.76427 118 114 105 
-0.274583 -0.808912 2.12979 3 0 0 
-0.146982 -0.806978 2.05545 4 0 0 
-0.0251247 0.443026 1.43695 117 115 103 
-0.20392 0.106908 1.62477 134 130 121 
0.126059 0.22974 1.56368 30 22 9 
-0.152813 0.325925 1.49813 129 126 117 
0.278348 0.328117 1.71278 29 20 3 
-0.0216681 0.160589 1.5473 127 119 108 
-0.256405 0.207699 1.62094 116 113 106 
-0.114545 0.404612 1.45903 128 124 115 
0.0593919 -0.147663 1.7005 8 1 0 
0.0986237 0.297389 1.52658 115 111 100 
0.257826 0.190331 1.74145 22 12 2 
0.0232916 -0.825895 2.08735 148 145 140 
-0.0836727 0.564194 1.36175 166 154 140 
0.114644 0.391151 1.49326 137 129 118 
0.216501 0.169513 1.69507 43 33 23 
-0.0789173 -0.210432 1.73131 113 105 103 
-0.0787621 -1.87833 2.87346 36 32 23 
0.0949248 -0.847194 2.13458 161 157 154 
0.14752 0.374665 1.52203 111 107 95 
-0.00158261 0.571887 1.31325 117 114 105 
-0.0467557 -1.03263 2.19344 4 0 0 
-0.188897 0.3533 1.49234 137 132 126 
0.0118055 0.340918 1.47706 109 98 92 
0.100222 -0.227134 1.75026 128 126 114 
0.108098 0.27402 1.5405 16 9 0 
-0.140947 0.312954 1.50325 148 144 135 
0.035602 0.582659 1.31337 117 114 99 
0.0822672 -0.032667 1.65582 99 95 84 
0.139455 -0.063215 1.69875 121 114 104 
-0.126054 -2.0452 3.02749 68 72 75 
0.0699068 -0.770496 2.06594 133 129 120 
-0.0303778 0.0820196 1.57797 141 134 124 
0.251807 0.248743 1.70987 25 21 10 
0.229945 0.290696 1.65657 161 151 141 
0.261598 0.398105 1.62442 14 12 0 
0.0906743 0.55053 1.39148 152 147 143 
0.120855 0.61139 1.3287 155 146 131 
0.111709 -0.419651 1.84626 6 1 0 
0.0530624 -0.162864 1.70083 108 101 93 
0.0174929 -0.799321 2.06537 33 30 25 
0.153647 -0.573976 1.9403 113 109 100 
-0.107902 -1.40384 2.54481 23 15 4 
-0.118301 0.553999 1.37377 138 127 121 
0.108433 -0.836436 2.13186 147 143 140 
-0.0417914 0.474322 1.40455 18 11 5 
-0.222507 0.300534 1.56017 120 113 107 
0.0653381 0.0660071 1.60785 137 133 122 
-0.253767 0.441864 1.49743 112 108 99 
-0.207701 0.421791 1.48179 149 142 134 
0.0427276 0.310412 1.49942 26 14 0 
0.161985 0.000143623 1.69216 12 3 0 
0.178578 0.00271342 1.70249 7 0 0 
0.178012 0.0453978 1.68841 47 37 25 
0.149756 0.250233 1.5731 134 124 114 
0.249107 0.179086 1.73215 22 12 0 
-0.177112 0.329477 1.50546 109 102 94 
0.0198146 0.469436 1.41729 124 117 109 
-0.13263 0.180437 1.57103 104 100 91 
-0.0975147 -1.77924 2.8342 9 7 8 
0.041127 0.202873 1.54136 143 130 114 
-0.127029 -1.88752 2.90593 44 40 31 
-0.0525425 -0.114541 1.67608 84 79 73 
-0.33008 -0.117153 1.82263 107 104 97 
-0.119011 -1.80047 2.88156 28 20 17 
0.252073 0.308374 1.68049 9 0 0 
-0.0885192 0.308415 1.49681 136 133 128 
-0.0528466 0.027595 1.61468 88 83 80 
-0.0888828 0.549477 1.37244 29 20 11 
0.137915 0.276682 1.55222 115 107 96 
-0.0995324 0.571922 1.30789 107 103 94 
-0.110511 0.289742 1.52038 12 5 0 
0.230049 0.212087 1.69415 29 19 7 
0.2252 0.364951 1.587 143 135 124 
0.118558 0.618258 1.3209 110 98 86 
0.100169 0.104208 1.60476 151 141 131 
0.147297 0.294608 1.55096 137 127 115 
-0.165232 0.307784 1.51402 147 140 130 
0.173924 -0.378759 1.86977 92 89 80 
0.120655 -0.00756603 1.66923 116 107 98 
-0.0196183 0.567298 1.36228 142 128 119 
0.0117421 0.183421 1.54182 117 113 102 
0.0873844 0.576655 1.33471 104 100 89 
0.0649909 0.0943458 1.59667 8 3 0 
0.221903 -0.147797 1.84836 7 0 0 
-0.0750055 -1.7886 2.84716 25 24 22 
-0.15748 -0.836441 2.11574 128 122 110 
0.244175 0.234277 1.70481 31 21 11 
0.120238 0.362564 1.50786 105 96 87 
-0.108243 -0.0483429 1.65923 113 104 99 
-0.0197809 0.604876 1.29736 68 65 60 
0.109087 0.0907156 1.6168 111 100 94 
-0.175258 0.336281 1.49752 104 94 82 
0.159773 0.489763 1.46735 121 112 105 
0.18753 -0.470693 1.92312 116 111 107 
0.0732741 -0.521249 1.88175 111 104 98 
-0.0327535 -0.455439 1.81806 127 124 117 
0.126432 0.210101 1.58176 77 66 46 
-0.193067 0.576722 1.37009 168 156 140 
0.168599 0.371104 1.53417 122 113 96 
-0.151254 -0.498435 1.85449 89 86 81 
-0.0137457 -0.356791 1.77817 90 87 82 
0.0176287 0.00255656 1.63395 17 8 0 
-0.0766794 -0.456027 1.85205 73 69 66 
-0.0925528 0.22337 1.55021 135 128 118 
0.0161009 -0.0645855 1.66304 116 112 101 
-0.152593 -0.432981 1.85583 6 2 0 
0.00442798 -0.400076 1.81381 17 14 7 
0.015444 -0.519771 1.8694 12 5 0 
0.0473764 -0.164736 1.71787 22 15 7 
-7.71219e-05 0.227752 1.52539 111 102 95 
-0.119691 -0.604356 1.90007 106 103 94 
0.129686 -0.505709 1.91537 77 73 70 
0.0250364 0.19484 1.54661 126 117 108 
-0.00463907 -0.0133559 1.63504 16 7 2 
-0.146157 0.227345 1.55537 6 1 0 
-0.072967 0.342469 1.46946 128 125 120 
-0.12429 -1.98692 3.05048 65 60 54 
0.220641 0.186829 1.68428 108 96 84 
0.206612 -0.494515 1.94304 95 90 84 
0.178604 -0.492863 1.91752 12 7 3 
0.116178 0.386326 1.47596 129 121 110 
0.164725 0.364005 1.52262 121 112 103 
0.205867 -0.153233 1.83383 163 151 137 
0.166834 -0.489595 1.90849 7 3 0 
0.225471 0.371206 1.55737 136 134 121 
0.27903 0.446375 1.60365 31 19 7 
-0.0546793 -0.507929 1.85078 10 11 5 
0.224422 -0.14716 1.85542 10 0 0 
0.188812 -0.474196 1.92025 17 14 7 
0.148178 -0.763959 2.09135 112 107 101 
0.155944 -0.47212 1.90004 134 127 117 
0.110842 0.320657 1.50825 118 111 103 
-0.077774 0.297243 1.49867 117 116 112 
0.0275317 -0.472435 1.84376 4 0 0 
0.0581646 0.304595 1.49385 18 14 5 
-0.195435 0.295548 1.55213 154 150 141 
0.267635 0.179036 1.75538 136 128 117 
0.0306397 -0.460495 1.83873 108 103 97 
0.239765 -0.137909 1.86447 135 125 113 
0.240339 0.328825 1.62896 35 27 16 
0.0364915 -0.160053 1.71253 125 120 114 
0.1697 0.473756 1.4586 110 106 97 
0.126499 0.159083 1.59724 135 126 111 
0.177215 0.296501 1.55459 133 127 115 
0.169221 0.286184 1.56057 163 151 139 
0.169142 0.478983 1.43988 188 178 168 
0.201148 -0.132581 1.81765 13 1 0 
0.162286 0.274812 1.55689 198 190 177 
0.289246 0.223747 1.77588 8 0 0 
0.12727 -0.411725 1.86336 8 5 0 
0.229608 0.287945 1.64523 150 142 129 
0.15272 0.260699 1.56112 129 119 107 
-0.298545 -0.162231 1.81647 9 6 1 
0.162551 0.505282 1.41809 122 118 109 
0.236375 -0.388917 1.97048 3 0 0 
0.120068 -0.325807 1.81441 115 111 100 
0.0860802 0.127742 1.59188 8 1 0 
0.246752 -0.117248 1.86985 27 19 8 
-0.151014 -0.710324 1.97001 32 26 14 
0.0244406 0.216748 1.52975 158 149 142 
0.133577 0.219191 1.5797 29 17 1 
0.140889 -0.179191 1.76299 16 10 0 
0.215871 -0.369074 1.92774 10 0 0 
0.138666 0.216997 1.5668 11 1 0 
0.117209 0.214944 1.57098 149 141 120 
0.252612 0.247678 1.7015 22 14 3 
0.240499 0.241954 1.67749 137 127 117 
-0.123426 0.538272 1.35321 149 146 141 
0.239371 -0.173283 1.87256 120 112 101 
-0.111721 0.544489 1.3506 132 123 116 
0.144508 -0.361814 1.8413 141 134 126 
0.0797354 -0.368119 1.8113 122 117 111 
-0.201194 -0.796066 2.08947 15 14 10 
-0.0492063 0.547944 1.28203 4 0 0 
0.228709 0.228983 1.67751 14 8 0 
-0.049047 -0.741504 1.97849 33 31 19 
0.0627673 -0.361165 1.81549 123 118 114 
0.258115 0.189763 1.7348 21 9 0 
0.265812 -0.179271 1.92523 11 2 0 
0.133927 0.193656 1.58236 59 47 33 
0.0211244 0.168134 1.5529 132 129 120 
-0.0372468 0.160834 1.55549 30 25 19 
-0.151382 -0.812936 2.07505 3 1 0 
0.261538 0.21522 1.73118 138 131 115 
0.0288777 -0.119847 1.69198 6 0 0 
0.056188 0.165916 1.56486 152 143 126 
0.150987 -0.101119 1.7406 136 125 119 
0.0807806 -0.341169 1.80403 145 138 128 
0.235471 -0.0859032 1.84085 143 137 123 
0.165399 -0.768977 2.09516 135 130 127 
0.206371 -0.0735366 1.80243 20 10 0 
-0.178067 -0.884966 2.14281 14 10 0 
0.057666 -0.151789 1.71638 107 98 93 
0.216183 -0.193364 1.85864 5 1 0 
0.0958985 -0.312691 1.80411 113 109 98 
0.231461 -0.19252 1.87441 9 1 0 
0.224541 0.15518 1.70237 119 109 97 
0.124902 0.123645 1.61439 17 7 0 
0.178644 0.127747 1.64386 137 127 117 
0.0963359 -0.300475 1.79537 107 100 90 
0.142634 0.119783 1.63018 138 129 120 
0.00824612 0.0842523 1.58752 120 113 107 
0.275265 0.130643 1.79883 133 124 115 
