ply                 
format ascii 1.0    
element vertex 1264
property float x    
property float y    
property float z    
property uchar red  
property uchar green
property uchar blue 
end_header          
-0.25071 0.479636 1.43622 116 112 103 
-0.00404269 -0.408236 1.80118 18 10 7 
-0.00821891 0.173882 1.53526 151 143 130 
-0.124398 0.561448 1.29046 112 108 96 
-0.0124955 -0.207998 1.70706 4 0 0 
0.018965 -0.0231562 1.63469 110 101 92 
-0.187197 0.177888 1.57583 109 100 91 
-0.172936 0.296099 1.51527 79 72 66 
-0.028937 -0.293604 1.74672 8 3 0 
-0.0115997 -0.23431 1.72394 12 4 1 
-0.0130215 -0.11252 1.66683 121 111 109 
-0.102152 0.397833 1.43539 25 18 12 
-0.150425 -0.418918 1.82987 4 0 0 
-0.0219272 0.456243 1.4007 132 128 119 
-0.138051 -0.120534 1.69544 130 125 121 
-0.00470936 -0.165454 1.69174 22 18 9 
0.0543284 0.329364 1.48387 113 106 96 
-0.236049 -0.590172 1.90201 10 5 2 
-0.227313 0.289066 1.54696 23 14 7 
-0.263321 0.611861 1.31115 105 93 81 
-0.195846 0.614746 1.27865 95 86 71 
-0.196726 0.57677 1.2996 89 84 78 
-0.137241 -0.478345 1.83857 89 84 78 
0.0276525 -0.335573 1.77466 98 93 89 
-0.106425 0.0185322 1.63119 19 19 11 
-0.039818 -0.24186 1.71925 27 18 13 
-0.246687 0.138768 1.61643 99 96 87 
-0.0168858 0.190561 1.5316 20 13 7 
-0.153386 -0.0127943 1.649 11 2 0 
-0.178077 -0.00120966 1.68055 154 145 136 
-0.211579 0.0425996 1.6607 196 186 177 
-0.390733 0.0140493 1.81785 9 2 0 
-0.267757 0.0993039 1.65232 139 135 124 
0.00704574 -0.124041 1.68934 11 6 2 
-0.312049 0.115408 1.67573 119 114 110 
-0.0185264 -0.137259 1.68508 4 0 0 
-0.334507 -0.117235 1.79514 135 127 124 
-0.373313 0.192215 1.71375 109 104 98 
-0.443651 -0.167486 2.01551 13 5 0 
-0.357062 0.214554 1.69134 7 0 0 
-0.428915 0.47336 1.69667 144 148 149 
-0.322014 -0.193432 1.82169 1 0 0 
-0.435591 0.456616 1.73344 16 10 10 
-0.0467304 0.188642 1.54263 127 122 116 
-0.357699 0.275213 1.65558 5 0 0 
-0.354584 -0.248651 1.88964 102 101 99 
-0.441316 0.309031 1.73963 106 102 101 
-0.429502 0.327238 1.71009 18 13 7 
-0.355461 0.311016 1.63658 120 116 107 
-0.0515286 -0.33808 1.77102 8 5 0 
-0.335457 -0.289289 1.8861 110 109 105 
-0.231403 0.29287 1.54345 166 157 148 
-0.175311 -0.331196 1.81203 129 125 122 
-0.417064 -0.312985 2.00633 123 122 117 
-0.284583 0.337405 1.53637 141 136 132 
-0.403945 0.397284 1.66746 127 133 133 
-0.410466 0.404204 1.67671 31 40 49 
-0.42194 0.413798 1.69634 140 145 151 
-0.441173 0.42973 1.74143 96 96 94 
-0.411687 0.415103 1.68011 38 42 54 
-0.25877 -0.386934 1.87462 115 111 108 
-0.429271 0.425495 1.71859 22 26 35 
-0.406117 0.412869 1.66795 21 25 36 
-0.410549 0.0907195 1.8462 131 125 111 
-0.437543 0.439211 1.73496 134 135 139 
-0.423238 0.42991 1.68919 139 143 154 
-0.429097 0.443038 1.71096 146 146 154 
-0.426562 0.445127 1.69252 158 158 156 
-0.418021 0.444033 1.67867 35 37 36 
-0.408136 0.445151 1.65628 151 153 152 
-0.414845 0.455832 1.67164 68 67 62 
-0.257331 -0.0400893 1.71966 88 79 72 
-0.42174 0.459814 1.68213 25 24 20 
-0.418586 0.471049 1.67537 30 31 33 
-0.424168 0.478394 1.68349 146 151 147 
-0.429772 0.494836 1.7033 19 21 18 
-0.414009 0.482805 1.6588 45 43 44 
-0.426925 0.502391 1.68956 50 49 44 
-0.411349 0.49189 1.65223 112 113 108 
-0.422108 0.503545 1.67782 131 130 126 
-0.183599 -0.527101 1.88196 111 110 105 
-0.43983 0.521686 1.69865 72 35 0 
-0.415895 0.50855 1.64768 116 116 114 
-0.33645 0.382092 1.54994 12 11 6 
-0.450111 0.529473 1.69385 73 34 0 
-0.419322 0.527255 1.65722 5 10 3 
-0.212554 -0.579998 1.90381 139 136 131 
-0.404305 0.54013 1.61738 111 115 116 
-0.403489 0.554683 1.61049 129 127 132 
-0.212984 -0.672484 1.96069 41 36 17 
-0.233798 -0.667908 1.96498 18 14 3 
-0.407481 0.602184 1.61544 126 125 131 
-0.425179 0.618443 1.65054 119 119 117 
-0.192172 -0.799408 2.08276 17 16 12 
-0.116456 -0.841126 2.06574 19 9 0 
-0.428495 0.456046 1.70985 46 49 42 
-0.407017 0.436624 1.64559 128 129 131 
-0.440412 0.452209 1.72225 33 26 18 
-0.288738 -0.429135 1.90942 92 84 82 
-0.380196 -0.254178 1.91875 20 17 12 
-0.289304 -0.403943 1.90696 106 103 96 
-0.276132 0.0250219 1.69584 122 112 111 
-0.331211 -0.168084 1.81688 22 18 15 
-0.045605 -0.479577 1.83765 11 8 1 
-0.4017 0.0782212 1.83792 129 127 114 
-0.22601 -0.438153 1.88284 95 91 88 
-0.314877 -0.394466 1.91219 8 5 0 
-0.479707 -0.423359 2.18073 110 107 102 
-0.241492 -1.02374 2.29117 37 36 31 
-0.260031 -0.0748555 1.7303 12 9 4 
-0.0962429 0.0109024 1.63683 100 98 86 
-0.305813 -0.388992 1.90284 135 134 129 
-0.476955 -0.401111 2.15848 3 0 0 
-0.168649 -0.411543 1.84837 112 113 107 
-0.462411 -0.483162 2.14159 24 15 16 
0.0141526 -0.0407419 1.64592 5 0 0 
-0.314578 -0.382589 1.90624 17 12 9 
-0.236586 -1.23646 2.47386 33 27 13 
-0.332186 0.0585669 1.72781 11 8 1 
-0.432581 0.47645 1.71359 106 104 105 
-0.170688 -0.39804 1.8431 5 4 0 
-0.421246 -0.251502 1.98884 3 0 0 
-0.260708 0.323209 1.53403 127 123 114 
-0.388696 0.0842073 1.77578 15 10 4 
-0.415866 0.405893 1.68796 22 29 37 
-0.424095 -0.364294 2.05373 108 108 106 
-0.233383 0.343573 1.49418 120 116 107 
-0.32442 0.363616 1.54701 13 9 6 
-0.383796 0.0787677 1.79118 93 89 86 
-0.292054 -0.988915 2.28326 130 125 119 
-0.310312 -0.514994 1.92921 94 89 85 
-0.189022 -0.824161 2.09343 130 127 118 
0.0291391 -0.0511773 1.65622 4 0 0 
-0.298608 -0.343997 1.86653 9 4 0 
-0.335795 -0.122066 1.80711 4 0 0 
-0.430087 -0.346038 2.05795 3 0 0 
-0.122421 -0.818801 2.05889 23 20 11 
-0.375071 0.178661 1.72166 8 0 0 
-0.36381 -0.33607 1.93725 10 6 3 
-0.305395 0.164059 1.66353 8 3 0 
-0.293408 -0.120062 1.76049 117 110 102 
-0.117661 -0.799459 2.04397 47 44 37 
-0.448426 0.387919 1.73419 101 97 96 
-0.0553697 -0.389481 1.80633 109 110 104 
-0.320337 -0.00062777 1.73736 10 7 2 
-0.133714 -0.784852 2.03892 32 32 20 
-0.0430492 0.0225251 1.62498 149 142 132 
-0.422389 0.370797 1.67081 69 64 60 
-0.273753 -0.811117 2.12696 16 15 11 
-0.429219 -0.333086 2.0512 5 2 0 
-0.274816 -0.115633 1.76372 12 7 3 
-0.39977 0.204177 1.75275 82 81 77 
-0.422905 -0.149254 1.95051 87 80 72 
-0.187 -0.744602 2.02863 135 131 120 
-0.236334 0.31672 1.51916 4 0 0 
-0.4351 -0.484287 2.06055 3 0 0 
-0.149386 -0.733239 1.99142 34 30 18 
-0.422826 -0.166371 1.95872 89 84 80 
-0.416849 -0.176275 1.94167 20 9 3 
-0.0536382 -0.245346 1.75153 6 0 0 
-0.404443 0.569052 1.61119 114 115 119 
-0.423896 -0.311711 2.02844 19 16 11 
-0.178163 -0.892079 2.14266 41 37 26 
-0.270958 -0.504848 1.90407 100 93 87 
-0.29088 -0.88205 2.19559 31 24 16 
-0.383938 -0.204938 1.90698 111 105 105 
-0.354651 -0.207605 1.87014 113 110 105 
-0.117258 0.282972 1.50892 4 0 0 
-0.0435604 -0.270252 1.74312 118 113 107 
-0.330559 -0.301547 1.88839 115 112 105 
-0.382075 -0.221075 1.90446 4 0 0 
-0.371016 -0.0561287 1.81975 101 97 94 
-0.441671 0.519905 1.71588 119 104 97 
-0.113746 -0.945319 2.15552 124 120 109 
-0.38864 -0.507678 2.00659 104 101 94 
-0.463788 -0.315343 2.20042 3 0 0 
-0.139185 -1.0585 2.27457 35 26 17 
-0.39293 -0.22295 1.89478 18 10 7 
-0.218837 0.0943194 1.62318 11 7 0 
-0.358755 0.498598 1.51119 91 82 77 
-0.326148 -0.237118 1.86344 25 21 12 
-0.211155 0.0877356 1.62767 128 123 120 
-0.411104 -0.282165 1.99741 113 108 104 
-0.276084 -0.055744 1.72629 6 0 0 
-0.361827 -0.516703 1.97482 93 94 86 
-0.320741 -0.0315663 1.76095 34 30 27 
-0.398118 0.118748 1.79109 7 0 0 
-0.427451 0.535403 1.68295 114 107 101 
-0.440325 0.524585 1.6809 34 0 0 
-0.404654 -0.26725 1.97703 8 5 0 
-0.42607 0.525803 1.6705 37 28 0 
-0.319663 -0.264893 1.84488 100 97 92 
-0.327189 -0.529769 1.94833 100 97 92 
-0.260324 -0.984641 2.27213 130 128 116 
-0.362204 -0.979886 2.3875 22 8 5 
-0.374843 -0.534239 2.00077 13 10 3 
-0.394279 -0.542289 2.02617 106 101 95 
-0.425344 -0.176248 1.97408 43 33 23 
-0.363186 -0.255106 1.89866 96 88 86 
0.0312895 -0.0131564 1.63775 4 1 0 
-0.37422 0.22275 1.70893 5 0 0 
-0.276961 -0.262561 1.82828 16 8 5 
-0.213601 -1.1222 2.36073 127 123 111 
-0.311915 0.0983128 1.6922 124 117 107 
-0.307896 -0.0461148 1.74927 6 3 0 
-0.45883 -0.181661 2.12363 104 100 91 
-0.296282 -0.833968 2.1533 111 108 99 
-0.270545 -0.531006 1.91648 85 84 82 
-0.351785 -0.94808 2.34303 37 28 21 
-0.425139 -0.274306 2.03004 8 5 0 
-0.375483 -0.074259 1.83099 8 3 0 
-0.304821 -0.454873 1.93388 96 91 87 
-0.422841 -0.239958 2.00286 123 120 111 
-0.415454 0.00623043 1.86397 107 102 96 
-0.297551 -0.0302793 1.74119 6 0 0 
-0.0501677 -0.075657 1.6524 6 0 0 
-0.0522561 -0.286881 1.77528 6 1 0 
-0.420606 -0.187447 1.95832 7 0 0 
-0.303685 -0.575051 1.94373 14 7 0 
-0.193707 0.291 1.52707 14 11 6 
-0.397606 -0.51113 2.02297 121 118 111 
-0.421284 -0.215192 1.97175 13 4 0 
-0.243058 -0.232124 1.79377 11 7 6 
-0.45443 -0.289723 2.11179 36 33 24 
-0.220701 -0.91103 2.18433 30 27 18 
-0.486114 -0.448628 2.22677 14 13 9 
-0.312527 -0.301372 1.86582 13 10 3 
-0.205558 0.329871 1.48562 87 82 78 
-0.341556 0.327762 1.6095 4 0 0 
-0.476246 -0.446334 2.1702 25 22 17 
-0.468535 0.484933 1.80103 9 5 2 
-0.13399 -1.16989 2.35636 47 43 31 
-0.410445 -0.118393 1.91925 4 0 0 
-0.401928 -0.281726 1.97304 83 80 75 
-0.433533 -0.107486 1.96406 6 2 0 
-0.330166 0.426804 1.52351 24 21 16 
-0.405827 -0.129107 1.91248 105 100 97 
-0.35212 0.56442 1.45651 105 102 95 
-0.289255 -0.11707 1.77639 25 22 17 
-0.399169 -0.327889 1.98394 106 103 98 
-0.0872008 0.169038 1.55815 14 9 3 
-0.129536 -0.13925 1.71114 115 112 107 
-0.0872082 -0.845869 2.06564 138 130 119 
-0.393949 0.0555454 1.81771 4 0 0 
-0.189107 -1.01079 2.26017 48 41 31 
-0.404428 -0.164063 1.92806 12 1 0 
-0.168421 -0.348425 1.81461 4 0 0 
-0.300981 -0.0124459 1.72679 106 99 89 
-0.32607 0.199939 1.64721 14 9 5 
-0.242362 0.307614 1.53098 11 6 2 
-0.36672 -0.261825 1.91318 107 103 100 
-0.303326 0.319714 1.57067 7 2 0 
-0.336742 -0.000759631 1.7589 12 7 1 
-0.0290829 -0.212094 1.71171 18 13 9 
-0.42404 0.424466 1.70051 17 21 33 
-0.415057 0.429699 1.67204 175 176 180 
-0.425681 0.462149 1.69401 169 170 165 
-0.40652 -0.93681 2.46918 6 3 0 
-0.416245 0.494327 1.67189 160 160 162 
-0.128736 -0.438573 1.84984 6 2 1 
-0.321537 -0.902796 2.2401 36 26 17 
0.153783 0.0252698 1.6889 12 8 0 
-0.209146 -0.699766 1.98345 17 15 3 
0.0320891 0.235746 1.52128 37 28 13 
-0.162699 -0.719612 1.98011 35 25 15 
-0.273712 -1.00429 2.28861 120 118 106 
-0.428659 0.112316 1.90038 151 147 136 
-0.36726 -0.189787 1.87599 9 1 0 
-0.180334 -0.0179798 1.67807 12 5 0 
-0.170189 -0.768826 2.03829 121 120 116 
-0.326271 0.173291 1.67388 133 128 122 
-0.0423788 -0.236093 1.74357 84 79 75 
-0.436698 -0.313918 2.0558 99 98 94 
-0.364645 0.388506 1.57054 149 147 134 
-0.204542 -1.17427 2.40454 118 114 103 
-0.396997 -0.226213 1.94541 10 0 0 
-0.436753 -0.125828 1.9768 111 98 92 
-0.230937 -1.14824 2.39314 36 33 26 
-0.288801 -0.763074 2.09881 114 116 105 
-0.386615 0.405744 1.59022 131 127 116 
-0.388465 0.0388162 1.79496 105 100 96 
-0.0491704 -0.467448 1.83671 19 16 7 
-0.292497 -0.789587 2.11425 6 5 0 
-0.410171 0.437263 1.66522 132 134 129 
0.0409407 0.21425 1.5386 37 23 10 
-0.438896 -0.143085 1.99737 16 6 0 
-0.109058 -0.852131 2.08663 19 9 0 
-0.060278 -0.45978 1.84431 81 77 76 
-0.326184 -0.814611 2.17376 33 30 15 
-0.333884 -0.151768 1.82316 109 106 101 
-0.425263 0.609891 1.66307 89 90 92 
-0.263898 -0.148561 1.765 24 13 7 
-0.201471 -0.842637 2.11443 123 122 117 
-0.164427 -0.585093 1.8987 105 100 97 
-0.438026 -0.244955 2.04612 16 8 5 
-0.36808 -0.548893 1.99048 15 11 8 
-0.00434284 0.174145 1.542 149 145 133 
0.0244329 0.203167 1.53062 106 96 94 
-0.303214 -0.394047 1.9164 150 147 142 
0.0595923 0.172154 1.55861 18 9 0 
-0.434162 -0.111193 1.97931 16 9 0 
-0.473307 -0.392953 2.15106 71 70 66 
-0.418752 -0.387598 2.05796 103 102 100 
-0.311632 -0.344985 1.8769 3 0 0 
-0.197544 -0.997936 2.2481 27 24 17 
-0.415556 -0.226684 1.95747 25 12 4 
-0.354729 -0.349032 1.93172 97 93 90 
0.0405089 0.190999 1.54758 17 8 0 
-0.426709 0.543483 1.67462 125 136 130 
-0.305023 -0.908249 2.23213 21 16 10 
0.127792 0.145835 1.61224 38 29 20 
-0.126129 -0.951241 2.16844 25 21 9 
-0.247878 -0.549016 1.90364 79 75 72 
-0.210149 -0.944638 2.20109 119 114 110 
-0.149846 -0.0986286 1.70257 117 114 105 
-0.392817 -0.057322 1.85265 15 4 2 
-0.0452839 -0.341725 1.78441 8 5 0 
-0.324034 -0.292368 1.88287 110 109 105 
-0.196827 0.290408 1.51503 128 124 115 
-0.343476 0.336463 1.60306 2 1 0 
-0.42547 -0.264594 2.01425 6 5 1 
0.0577241 0.291711 1.49865 15 10 7 
-0.0386305 0.0363182 1.60302 87 77 68 
-0.437498 -0.186802 1.98437 9 0 0 
-0.306765 -0.189161 1.82034 3 0 0 
-0.316083 -0.309347 1.88512 84 81 76 
-0.365647 0.457784 1.53901 109 105 96 
-0.442556 0.498737 1.72576 100 92 89 
-0.130935 -0.159797 1.72229 94 90 87 
-0.433828 -0.157637 1.9793 32 19 10 
-0.438936 0.0568836 1.93365 21 17 16 
-0.103814 -1.16329 2.34409 58 50 39 
-0.335416 0.398604 1.54042 117 114 109 
-0.355467 -0.150664 1.83889 24 19 13 
-0.388681 -0.23032 1.9311 14 9 5 
-0.36231 0.155956 1.71105 105 98 92 
-0.447123 -0.138548 2.0267 7 0 0 
-0.284159 -0.559737 1.92565 93 89 86 
-0.448529 -0.234706 2.06987 125 120 116 
-0.405421 -0.811648 2.40084 25 15 6 
-0.43907 -0.195998 2.02301 12 5 0 
-0.0576019 -0.363925 1.80502 76 72 71 
-0.410513 -0.196341 1.95068 17 7 0 
-0.328106 0.30821 1.61137 6 2 0 
-0.390392 -0.274717 1.95325 110 106 103 
-0.361162 0.48344 1.5255 74 70 67 
-0.421285 -0.235641 1.9868 121 117 106 
-0.235504 -0.554572 1.90236 112 111 107 
-0.446423 -0.521097 2.10297 20 17 10 
-0.264275 -0.290034 1.83503 4 0 1 
-0.409895 0.127697 1.84913 16 10 0 
-0.0426009 -1.05992 2.21961 43 41 29 
-0.283314 -0.373455 1.88 4 0 0 
-0.176895 -0.909659 2.17239 116 112 101 
-0.436204 0.0622126 1.91856 7 0 0 
-0.127508 -2.02535 2.96489 31 37 35 
-0.324135 -0.441308 1.93207 3 0 0 
-0.426843 0.507676 1.70513 44 39 36 
-0.449923 -0.102012 2.00478 9 2 0 
-0.311797 0.302664 1.59457 99 95 92 
-0.256535 -0.414166 1.86731 142 141 139 
-0.358391 0.328169 1.62194 110 105 99 
-0.175311 -0.84152 2.12638 131 128 119 
-0.0467705 -0.139521 1.67998 5 0 0 
-0.438324 -0.12493 1.99338 8 0 0 
-0.42788 -0.142693 1.97748 11 5 0 
-0.35982 0.375544 1.57136 20 17 12 
-0.458564 -0.341572 2.14674 0 1 0 
-0.129289 -0.848615 2.09349 38 30 17 
-0.180206 -0.327427 1.79789 120 116 113 
-0.410614 -0.0327732 1.88831 107 104 99 
-0.323281 -0.443944 1.94609 105 100 97 
-0.421701 -0.384821 2.03578 3 0 0 
-0.40628 0.112767 1.82862 29 26 11 
-0.44439 0.111724 1.91688 16 7 0 
-0.27735 -0.911057 2.21915 7 4 0 
-0.31618 -0.196583 1.83557 8 7 2 
-0.284612 -0.492845 1.91415 87 86 82 
-0.341309 -0.99029 2.31447 4 1 0 
-0.274969 0.0141005 1.68649 102 97 93 
-0.404419 0.526757 1.61283 124 126 123 
-0.413418 0.545311 1.63285 28 29 31 
-0.354947 0.365609 1.58114 26 23 16 
-0.344643 0.292259 1.62855 142 135 127 
-0.285384 0.0876842 1.67264 6 1 0 
-0.48466 -0.383492 2.19534 112 111 107 
-0.447408 0.540326 1.70363 106 100 88 
-0.235264 -0.421394 1.86709 84 83 79 
-0.325955 -0.217997 1.84012 17 12 8 
-0.297875 -0.669431 2.00897 57 47 37 
-0.375159 0.00400543 1.8095 5 0 0 
-0.354311 -0.182459 1.85721 33 30 25 
-0.206401 -0.781414 2.07108 42 39 32 
-0.379145 0.0728806 1.78031 16 16 4 
0.0112119 0.299063 1.49073 27 21 21 
-0.401247 -0.222904 1.9283 10 0 0 
-0.337605 -0.422631 1.93272 85 80 74 
-0.421472 0.633192 1.42371 96 92 83 
-0.420997 -0.489452 2.05775 11 8 3 
-0.38924 -0.341055 1.96843 96 92 91 
-0.28569 -1.01841 2.31121 130 120 110 
-0.201271 -0.582646 1.90535 100 96 93 
-0.354878 -0.975152 2.34636 24 20 9 
-0.400801 -0.15298 1.91314 10 2 0 
-0.290095 0.373645 1.51495 106 103 96 
0.143174 0.0286649 1.67673 120 114 102 
-0.443566 -0.26592 2.05934 12 11 6 
-0.403894 0.417115 1.65234 115 119 122 
-0.369763 -0.243464 1.89672 17 13 10 
-0.41747 0.554906 1.64316 93 95 82 
-0.318459 -0.549749 1.93925 6 1 0 
-0.0527439 -0.408377 1.81924 111 110 105 
-0.334054 -1.00254 2.31587 19 18 13 
-0.0573722 -0.434888 1.84018 12 11 9 
-0.280361 -0.875351 2.18745 27 22 16 
-0.363763 -0.00756709 1.80665 22 17 13 
-0.0612029 0.109432 1.58979 85 84 79 
-0.0539199 0.170559 1.57097 92 88 89 
-0.346842 -0.543957 1.96971 7 2 0 
-0.402699 -0.502329 2.01282 3 0 0 
-0.0295474 -0.556057 1.86493 12 11 9 
-0.285136 -0.208596 1.81668 5 0 0 
-0.425379 -0.532696 2.08579 31 28 21 
-0.418923 -0.216082 1.95443 8 0 0 
0.0480869 0.224961 1.53383 48 38 26 
-0.439727 0.097413 1.9026 88 87 82 
-0.438518 0.122534 1.8903 121 114 106 
0.00431925 0.25992 1.50605 22 18 9 
-0.401146 0.384943 1.64409 2 0 1 
-0.398095 0.412848 1.6253 107 97 95 
-0.438511 -0.39046 2.07252 102 102 102 
-0.399781 0.41844 1.6389 98 99 94 
-0.431987 0.440024 1.72262 19 23 35 
-0.39879 0.454294 1.63439 161 166 159 
-0.421659 0.486444 1.69312 13 13 11 
-0.457135 -0.569738 2.15139 43 39 27 
-0.338517 -0.706485 2.06223 69 60 51 
-0.240534 -0.54367 1.91273 15 11 8 
-0.410647 -0.925694 2.45349 11 12 7 
-0.396407 -1.03846 2.48547 215 215 213 
-0.139408 0.322447 1.47902 96 90 90 
-0.420666 0.36407 1.68232 80 75 69 
-0.438545 -0.157521 2.00955 10 5 0 
-0.426114 -0.136494 1.95992 17 10 4 
-0.449253 -0.125281 2.00021 20 10 0 
-0.326798 -0.134356 1.79863 102 97 93 
-0.247579 -0.674473 1.98297 128 125 110 
-0.153575 -0.194519 1.73788 21 14 8 
-0.330845 -0.807761 2.15864 50 47 32 
-0.0380405 0.0532377 1.59638 113 108 102 
-0.153406 -0.942734 2.18012 118 114 105 
-0.346991 -0.368473 1.92417 17 14 9 
-0.0245784 0.329532 1.46072 102 99 90 
-0.410988 0.495549 1.6406 105 106 100 
-0.300353 -0.484766 1.91409 65 65 65 
-0.265313 -0.0734982 1.71798 8 5 0 
-0.381816 -0.0397429 1.82478 109 106 101 
-0.441593 -0.202172 2.04599 114 105 98 
-0.424525 -0.48447 2.04402 41 38 33 
-0.0426659 -0.474335 1.85426 47 43 32 
-0.38365 -0.515853 2.01777 18 15 10 
-0.196916 -0.94487 2.21428 0 0 0 
-0.396442 0.189967 1.75656 116 111 108 
-0.299032 -0.963178 2.27173 128 122 110 
-0.408945 0.556207 1.62596 107 107 109 
-0.162753 0.245949 1.52114 97 87 78 
-0.34221 -0.240909 1.8606 14 4 0 
-0.434441 -0.284659 2.03597 32 29 22 
-0.168759 -1.06657 2.27803 115 107 94 
-0.40543 -0.285343 1.95516 7 4 0 
-0.263335 -0.0260555 1.70822 59 50 41 
-0.262549 0.435539 1.46721 129 122 116 
-0.0484043 -0.19139 1.7283 102 99 94 
0.133176 0.595463 1.3191 116 113 98 
0.0445782 0.29349 1.49967 26 23 18 
-0.458613 -0.221008 2.12177 18 14 13 
-0.398987 0.20622 1.73758 96 93 88 
-0.382313 0.616686 1.39346 66 61 57 
-0.320225 -0.768172 2.11477 56 53 48 
-0.359139 0.513316 1.50899 21 11 9 
-0.127112 -1.95314 3.09137 33 29 30 
-0.399195 0.433343 1.59966 22 13 4 
-0.406544 0.396356 1.65504 154 158 159 
0.0703291 0.172256 1.57248 17 10 2 
0.129253 0.135546 1.61987 35 27 16 
-0.441897 0.158883 1.90523 32 25 17 
-0.447233 0.100761 1.97812 20 16 5 
-0.309576 -0.24218 1.85852 77 73 70 
-0.425599 -0.136278 1.93822 72 61 55 
-0.148962 -0.513746 1.85935 86 85 83 
-0.278989 -0.108735 1.75051 107 102 99 
-0.407506 -0.15097 1.93996 17 10 4 
-0.0419268 -0.411639 1.82773 12 11 6 
-0.196599 -0.976049 2.20998 75 72 65 
-0.338645 -0.99581 2.33504 117 114 107 
-0.409633 -0.280929 1.98398 126 118 116 
-0.414111 0.00707799 1.88722 8 4 1 
-0.329053 0.459872 1.4961 21 11 9 
-0.320222 -0.0786668 1.76976 6 2 0 
-0.138086 0.179452 1.54796 90 85 82 
-0.0247198 -0.193274 1.71922 18 12 12 
-0.13538 -0.514124 1.84654 2 1 0 
-0.459356 0.472526 1.73294 122 119 114 
-0.374714 -0.899022 2.40134 107 93 92 
-0.411061 0.456298 1.65721 39 37 38 
-0.362098 0.528897 1.49791 14 9 5 
-0.0378507 -0.369741 1.77346 15 10 6 
-0.157228 0.0527887 1.62264 7 3 0 
-0.268314 0.0738055 1.66392 109 105 96 
-0.147237 -0.21871 1.76169 111 106 100 
-0.404613 0.39279 1.68273 99 101 100 
-0.331536 -0.439972 1.95443 100 96 87 
-0.423636 0.47304 1.66119 30 36 32 
-0.24815 -0.471263 1.9031 21 20 16 
-0.38387 0.642546 1.37958 100 94 80 
0.19148 0.302756 1.58469 32 28 17 
-0.415706 -0.0305261 1.87013 98 95 90 
-0.108548 -0.0888249 1.6893 77 77 75 
-0.321421 -0.0503629 1.75772 11 7 4 
-0.284305 -0.512092 1.91191 102 101 99 
-0.227467 -0.505497 1.88301 1 0 0 
-0.0572187 -0.482461 1.86278 8 7 3 
-0.073467 -2.0286 2.99086 109 114 110 
-0.3549 -0.348808 1.95396 100 96 93 
-0.393889 0.0576594 1.83154 86 83 76 
-0.383894 -1.0902 2.4701 74 73 68 
-0.0568424 -0.462421 1.86017 37 36 32 
-0.40537 0.0604172 1.79664 57 54 47 
-0.0527259 -0.261599 1.73443 93 89 86 
-0.0625998 -0.405074 1.8041 86 85 80 
-0.476087 -0.370304 2.15543 78 77 73 
-0.0438538 -0.368781 1.78953 61 58 53 
-0.0528997 -0.445448 1.84581 94 90 87 
-0.350658 -0.990649 2.37361 41 39 26 
-0.247866 -0.210829 1.78125 100 95 91 
-0.364176 -0.97521 2.37224 23 13 14 
-0.456091 -0.415988 2.10392 3 0 0 
-0.445588 -0.430481 2.09555 2 2 0 
-0.208832 0.113638 1.60174 103 98 94 
-0.29049 -0.542459 1.93097 3 0 0 
-0.353967 0.330327 1.63382 125 120 114 
-0.441789 0.386919 1.75132 1 1 1 
0.00200089 0.296459 1.47983 20 15 12 
-0.285647 -0.257211 1.81305 5 0 0 
-0.288615 0.262069 1.58969 4 0 0 
-0.171798 -0.336249 1.79957 7 3 2 
-0.404639 -0.32785 1.99936 34 30 27 
-0.362174 -0.339293 1.95435 12 8 5 
-0.411412 0.45584 1.64194 86 88 85 
-0.34934 0.366027 1.59434 37 34 29 
-0.352188 -0.0866182 1.80547 24 19 15 
-0.00389875 0.258614 1.49275 22 18 9 
-0.0943272 -0.926171 2.13263 104 100 89 
-0.386513 -0.891258 2.40562 32 23 18 
-0.0455507 -0.081522 1.67043 98 95 90 
-0.235139 -1.25682 2.50595 134 126 113 
-0.345755 -0.494409 1.94755 94 90 87 
-0.127391 -0.988183 2.19303 66 57 48 
-0.153251 -0.417949 1.82511 18 14 11 
-0.046979 -0.0702237 1.66384 91 82 77 
-0.133862 -0.499088 1.85012 80 75 72 
-0.276134 0.183474 1.63406 14 6 4 
-0.0696228 0.109391 1.57652 93 92 88 
-0.249893 0.139787 1.609 87 84 77 
-0.00962402 0.00322196 1.62208 92 89 84 
-0.00494615 -0.578636 1.88296 15 7 5 
0.137991 0.606453 1.31817 110 107 92 
0.0331229 0.193375 1.53339 106 98 87 
-0.376869 0.32993 1.6143 38 30 27 
-0.408028 -0.451435 2.01367 13 13 11 
0.14375 0.200678 1.59316 40 37 28 
-0.18507 -0.99286 2.24032 42 39 30 
-0.298792 -0.122253 1.7811 43 35 33 
-0.442647 -0.370374 2.08902 69 70 65 
-0.13839 -0.831425 2.08251 111 111 101 
-0.036418 -1.0697 2.23966 45 42 33 
-0.281415 -0.896587 2.22177 113 106 96 
-0.118077 -0.862924 2.11794 31 27 15 
-0.466877 -0.316393 2.25133 34 34 34 
-0.405981 0.595821 1.59899 98 101 106 
-0.429329 0.605537 1.64646 84 86 85 
-0.448153 -0.419437 2.08702 81 77 76 
-0.454569 0.52302 1.68017 157 123 60 
-0.279686 -0.53592 1.8917 7 6 2 
-0.447359 0.433062 1.76094 89 85 74 
-0.236689 -0.498149 1.86708 0 0 0 
-0.366932 -0.469371 1.97757 2 0 1 
-0.358638 -0.462863 1.94202 76 73 68 
-0.433173 0.443941 1.67734 75 75 67 
-0.301731 -0.444894 1.92046 87 83 80 
-0.0448647 -0.213257 1.73531 32 32 22 
-0.355484 -0.418092 1.94593 13 12 8 
-0.315052 -0.540007 1.9478 53 50 45 
-0.30084 -0.015841 1.71405 30 25 21 
-0.432095 0.538213 1.65757 65 78 71 
-0.400365 -0.289019 1.99671 96 93 86 
-0.10328 -1.03255 2.23613 118 116 103 
-0.00745716 -0.219043 1.72673 101 96 93 
-0.322762 -0.180658 1.81007 109 105 102 
-0.369464 0.331927 1.6341 39 31 28 
-0.413428 0.532092 1.62329 74 77 82 
-0.297275 -0.39832 1.8947 79 76 67 
-0.433862 0.516396 1.68902 51 33 33 
-0.267206 -0.971704 2.24964 120 117 108 
-0.366672 0.367555 1.5929 131 122 113 
-0.34352 -0.240797 1.88085 109 100 93 
-0.088888 -2.10193 3.09458 32 33 37 
-0.421133 0.400432 1.62182 0 3 20 
-0.417335 0.418691 1.71879 130 135 141 
-0.400255 -0.940425 2.49951 222 220 221 
-0.409679 -0.986564 2.48478 220 222 221 
-0.133021 -0.174181 1.699 82 79 72 
-0.417339 -0.164165 1.93158 5 0 0 
-0.382344 -0.907769 2.42934 35 23 25 
-0.14414 -0.74911 2.02236 52 49 44 
-0.478557 -0.381379 2.13668 74 74 66 
-0.0690204 -0.511036 1.81929 3 3 5 
-0.290612 -0.481798 1.89663 73 70 63 
-0.281169 -0.484113 1.9241 98 94 91 
-0.124383 -0.509703 1.87509 75 70 67 
-0.252222 0.58422 1.30213 73 63 53 
-0.280884 -0.459599 1.91192 73 68 62 
-0.1352 -0.489696 1.87436 96 93 86 
-0.141815 -0.475331 1.83552 95 92 87 
-0.336522 -0.433711 1.90748 38 34 35 
-0.357836 -0.425591 1.91873 72 68 59 
-0.308268 -0.450938 1.96214 101 100 96 
-0.346884 -0.42655 1.97185 5 5 3 
-0.0622683 -0.469646 1.86912 96 95 91 
-0.237176 -0.419486 1.89171 85 82 75 
-0.456524 -0.392732 2.06225 90 86 85 
-0.0598028 -0.451071 1.85551 106 105 100 
-0.311264 0.178828 1.65974 24 19 16 
0.115721 0.177189 1.59693 61 52 43 
-0.384427 -1.12556 2.50061 190 190 190 
0.125853 -0.0461546 1.69473 39 32 24 
-0.445267 0.40011 1.7473 92 87 83 
-0.183782 -0.246273 1.79007 14 10 7 
-0.186841 -0.222088 1.76158 76 71 67 
-0.0588913 -0.239691 1.76806 92 86 86 
-0.131015 -0.194072 1.74478 109 105 102 
-0.045193 0.0727985 1.59267 9 10 5 
-0.0516798 0.126645 1.56642 73 70 65 
-0.081737 -0.460427 1.8436 97 93 90 
-0.214379 -0.468999 1.86256 60 57 50 
-0.271301 -0.259213 1.83972 101 97 86 
-0.0216978 0.329472 1.46292 113 106 100 
-0.112992 -0.0473133 1.66131 30 26 17 
-0.191988 -0.516728 1.85305 116 111 107 
0.115397 0.185382 1.57128 132 121 101 
-0.00630326 -0.416515 1.79275 110 106 97 
-0.056657 -0.399099 1.78897 34 32 20 
-0.164898 -0.591341 1.8752 100 95 92 
-0.0825243 -0.235816 1.73869 20 15 12 
0.0208638 0.270144 1.49453 128 121 115 
-0.218366 -0.281907 1.79248 112 105 97 
-0.105624 0.0673715 1.60576 124 117 107 
0.038072 0.0299412 1.61483 89 82 74 
0.00493864 0.0718789 1.5869 16 12 3 
0.0289883 0.0732414 1.59239 10 3 0 
-0.0427748 -0.0413953 1.63276 91 82 73 
0.0250353 -0.438066 1.81446 39 34 28 
-0.122097 -0.563712 1.85704 13 6 0 
-0.213548 -0.548295 1.87265 90 85 81 
0.0314722 -0.17722 1.70223 120 116 105 
-0.284099 -0.0664189 1.73985 15 11 8 
0.0335663 -0.0659955 1.65563 15 11 0 
-0.115586 -0.0852747 1.6768 95 91 88 
-0.144335 -0.0900436 1.68829 12 4 1 
-0.127166 -0.151596 1.7092 6 6 0 
-2.55766e-05 0.019148 1.61002 112 108 99 
-0.048028 -0.306696 1.74616 51 42 35 
-0.157853 -0.298812 1.77795 14 11 4 
0.0358564 0.162757 1.55077 127 118 103 
0.0311364 -0.120896 1.67984 108 101 91 
-0.277219 -0.122451 1.75911 15 6 0 
-0.0540142 -0.334868 1.75947 34 30 21 
-0.0193927 -0.613892 1.87312 9 6 1 
-0.101722 -0.564683 1.85225 14 10 1 
-0.141332 -0.133141 1.70289 84 75 68 
-0.134372 0.152971 1.57272 101 92 83 
-0.125608 -0.130282 1.69904 17 12 6 
0.0183671 -0.384152 1.78868 123 118 112 
-0.235101 -0.421073 1.85552 98 93 89 
0.0477845 -0.329469 1.77318 88 85 80 
-0.134917 0.179466 1.56409 31 24 14 
-0.153535 -0.509262 1.84277 90 86 85 
0.104222 0.177958 1.57092 15 5 0 
-0.190218 0.239271 1.55726 139 135 126 
-0.0417815 -0.210689 1.70693 134 126 115 
-0.00518827 0.2455 1.50413 121 117 108 
-0.0484617 -0.48607 1.81525 33 30 21 
-0.166611 -0.538768 1.85576 94 91 86 
-0.0218509 -0.544094 1.8445 106 102 99 
0.0578484 0.149609 1.56382 132 125 115 
-0.251767 -0.412556 1.86244 95 90 87 
0.0296381 -0.458012 1.82388 103 100 95 
-0.171811 -0.562297 1.86554 87 82 79 
-0.135996 -0.561448 1.85535 7 3 0 
-0.216412 -0.571699 1.88204 129 120 115 
-0.11235 0.298762 1.4926 98 95 90 
0.0036025 -0.586557 1.86493 102 99 92 
-0.291715 -0.205752 1.80498 22 18 9 
-0.0625383 -0.359561 1.78913 69 64 61 
0.0210742 -0.104278 1.66657 103 96 86 
0.0996489 0.0812472 1.6122 116 108 97 
-0.0514666 -0.363613 1.77287 90 85 82 
-0.0274842 -0.41494 1.79239 16 11 8 
-0.273753 0.428139 1.48789 136 127 118 
0.0616496 0.0507081 1.61217 116 108 97 
0.113572 -0.588914 1.9122 93 88 85 
-0.045807 -0.00562659 1.6244 124 116 103 
-0.165557 0.17628 1.57164 80 75 71 
-0.0973247 -0.230924 1.73965 27 22 18 
-0.0181065 -0.103261 1.66012 6 1 0 
-0.0805448 -0.209988 1.72698 107 103 102 
-0.0605506 -0.341274 1.77812 20 17 8 
-0.175259 -0.405059 1.82718 99 95 92 
0.0380128 -0.151382 1.69578 38 29 24 
0.0213566 0.325609 1.46855 137 128 121 
0.0902266 -0.393637 1.81867 14 11 6 
-0.0526577 -0.208536 1.71442 28 21 13 
0.0372111 -0.298338 1.75881 102 98 87 
0.0240233 -0.0491962 1.64256 4 0 0 
-0.265255 -0.0373093 1.7154 131 121 109 
-0.132568 -0.430693 1.82685 104 99 96 
-0.0593891 -0.422383 1.80376 38 35 26 
0.0355024 -0.366024 1.7858 113 108 102 
0.040495 0.17429 1.54571 129 124 105 
-0.202851 -0.410092 1.83793 108 105 98 
0.0507383 -0.313669 1.76925 24 19 15 
-0.0689309 -0.441926 1.82219 112 108 105 
-0.0610392 -0.471248 1.82755 80 78 66 
-0.0454309 -0.377665 1.77781 146 139 131 
-0.153184 -0.267791 1.76196 102 99 94 
-0.0593364 -0.381988 1.78939 110 107 102 
-0.030311 0.0823774 1.57905 127 118 109 
0.050348 -0.419305 1.81425 92 87 84 
-0.0644197 -0.455194 1.82591 100 97 90 
-0.324829 -0.440897 1.92497 40 37 32 
-0.00657495 -0.128741 1.67431 104 95 88 
0.118297 0.149637 1.58758 35 25 13 
0.125269 0.124026 1.60417 32 22 12 
0.000706442 0.209541 1.52007 117 107 98 
0.074526 0.0889325 1.59652 7 3 0 
0.0527842 -0.43857 1.82042 122 117 111 
-0.088727 -0.046114 1.65803 102 97 93 
-0.0887679 -0.526345 1.83375 36 31 27 
-0.294067 -0.4351 1.90233 3 0 0 
0.134804 0.199787 1.57441 19 12 4 
0.0355269 0.223414 1.52199 22 11 5 
-0.138462 0.293656 1.50256 135 126 121 
0.0665915 0.0663875 1.60754 130 121 114 
-0.0195874 -0.001722 1.61942 103 96 88 
-0.247792 0.139177 1.62659 99 96 87 
0.0613793 0.291282 1.50016 16 5 0 
-0.137198 -0.181595 1.71942 16 6 7 
-0.0567384 -0.309816 1.7623 24 19 13 
0.06879 0.138438 1.57455 28 24 12 
-0.0848184 -0.438637 1.82117 90 87 82 
-0.292826 -0.480089 1.88929 77 73 62 
-0.138648 -0.495053 1.83235 76 74 62 
-0.134275 -0.511178 1.83764 4 3 1 
-0.0910662 -0.0133689 1.65119 95 90 86 
-0.235641 -0.496328 1.85799 2 1 0 
0.099172 0.337257 1.4941 114 106 95 
0.132609 -0.484673 1.89073 93 88 82 
-0.254241 -0.469702 1.88292 19 18 16 
-0.0396115 -0.0313286 1.6257 29 19 17 
-0.0202488 -0.20431 1.70192 10 5 2 
-0.257054 -0.643878 1.93796 148 141 125 
-0.27685 -0.989775 2.28306 28 20 17 
-0.28995 -0.992892 2.29189 128 122 110 
-0.20456 -0.578767 1.89597 133 129 120 
-0.141483 -1.05328 2.26695 55 43 31 
-0.217874 -0.659698 1.94284 25 14 0 
-0.0907902 -2.12733 3.11946 243 244 249 
-0.273924 -0.809883 2.12603 19 12 6 
-0.194086 -0.768905 2.0535 5 2 0 
-0.235787 -0.664645 1.9584 25 16 1 
0.000557891 -0.423477 1.81542 131 127 118 
-0.135867 -0.567693 1.87663 117 107 98 
-0.263589 -0.382368 1.85933 137 134 125 
-0.251919 -0.443721 1.8795 116 112 109 
-0.213016 -0.887076 2.15808 31 25 11 
-0.313782 -0.503776 1.91954 124 119 115 
-0.408826 -0.489428 2.01525 134 130 121 
-0.139853 0.139824 1.57673 128 124 113 
-0.168438 -0.569643 1.88447 110 105 99 
-0.387764 -0.920262 2.42292 120 110 108 
-0.32464 -0.807502 2.15566 29 21 10 
-0.212361 -1.17665 2.41314 150 141 134 
-0.0553539 -0.425888 1.81332 15 8 0 
-0.106862 -1.84354 2.91815 27 20 10 
-0.23569 -0.774741 2.08225 10 7 2 
-0.355924 -0.195037 1.86483 5 0 0 
0.00948869 -0.349163 1.78487 6 1 0 
-0.289374 -0.759721 2.09355 142 138 135 
-0.339365 -0.286202 1.87867 3 0 0 
-0.310793 -0.386705 1.8956 152 149 140 
-0.231629 -0.596105 1.91448 3 0 0 
-0.052096 -0.350548 1.78187 4 0 0 
-0.205223 -0.930651 2.18994 4 0 0 
-0.303486 -0.203621 1.80752 141 136 132 
-0.198067 -0.914874 2.17296 126 122 111 
-0.179548 -0.889044 2.1381 22 12 2 
-0.156749 -0.300055 1.78316 10 6 0 
-0.352446 -0.939732 2.33286 22 9 1 
-0.392977 -0.942679 2.4411 122 118 106 
-0.393511 -0.256353 1.93514 9 4 0 
-0.382012 -0.546307 1.99998 6 3 0 
-0.173585 -0.392635 1.82526 12 7 3 
-0.308616 -0.75838 2.10476 3 0 0 
-0.341428 -0.193202 1.8375 9 6 1 
-0.295532 -0.397313 1.88556 116 108 105 
-0.311387 -0.185869 1.803 4 0 0 
-0.42638 -0.361023 2.04208 115 111 108 
-0.180421 0.198693 1.56145 141 138 131 
-0.223059 -0.445413 1.86688 103 100 95 
-0.331755 -0.307775 1.88161 100 95 89 
-0.135618 -1.83825 2.96373 58 49 42 
-0.277039 -0.268915 1.81549 8 1 0 
-0.117375 0.260028 1.52405 125 120 116 
-0.289574 -0.119764 1.75333 125 118 110 
-0.296242 -0.157753 1.78069 26 23 18 
-0.281258 -0.506011 1.89937 105 100 97 
0.0460109 -0.304036 1.77696 10 1 0 
0.0313939 -1.05317 2.2473 140 125 118 
-0.0876893 -2.10895 3.11012 29 29 37 
-0.0391069 -0.338462 1.7712 8 0 0 
-0.0444336 -0.23197 1.72251 134 127 119 
-0.00730695 -0.235376 1.73045 4 0 0 
-0.0536845 -0.224929 1.73172 120 116 113 
0.0171032 -0.220015 1.72786 135 125 123 
0.0296858 -0.413866 1.82231 101 92 85 
-0.000334537 -0.411769 1.80982 4 0 0 
-0.213184 -0.780358 2.06858 37 35 22 
-0.0609763 -0.411995 1.82152 105 101 90 
-0.0155618 -0.137799 1.69044 119 109 107 
-0.215301 -0.913734 2.18113 137 128 119 
0.0285161 -0.444153 1.83756 34 30 21 
0.0332093 -0.115314 1.68495 28 19 10 
0.029666 -0.457697 1.8426 125 120 116 
-0.289219 -0.731511 2.06366 166 160 148 
-0.261016 -0.724626 2.03688 141 135 121 
0.062286 0.157258 1.57325 178 172 160 
-0.25273 -0.657581 1.95865 147 139 120 
-0.287851 -0.880171 2.18628 52 44 31 
-0.0348389 0.103998 1.56856 121 114 108 
-0.274522 -0.499945 1.89114 136 125 119 
0.0533616 -0.0125326 1.64508 18 11 1 
0.0220474 0.00174143 1.62831 8 4 0 
-0.368639 -0.547905 1.98803 21 18 13 
-0.333666 -0.548534 1.95431 22 13 4 
-0.28195 -0.548914 1.9197 100 95 91 
-0.273112 -0.52894 1.90971 72 71 67 
0.133113 0.0175428 1.67654 7 0 0 
-0.350159 -0.211081 1.85636 23 18 14 
-0.0150486 -0.552748 1.86832 111 106 100 
-0.258391 -0.374488 1.84903 111 106 102 
-0.0827531 -0.533631 1.85949 6 0 0 
0.0724503 -0.227287 1.75435 7 0 0 
0.102639 -0.524799 1.9041 8 3 0 
-0.0413987 0.330878 1.46733 115 112 105 
0.0340234 -0.178262 1.71169 130 125 119 
-0.33112 -0.683484 2.03413 31 24 18 
-0.235686 -0.433526 1.87184 107 103 94 
-0.351741 -0.301165 1.90426 112 108 99 
0.112753 0.185989 1.58618 106 97 88 
-0.326647 -0.501705 1.9348 7 0 0 
-0.449436 -0.419256 2.07432 62 58 55 
-0.359958 -0.520216 1.96929 1 1 0 
-0.408402 -0.200181 1.93503 89 79 69 
-0.22093 -0.575918 1.90212 7 2 0 
-0.273631 -0.320417 1.84198 4 0 0 
-0.326638 -0.0294282 1.75328 118 113 107 
-0.359768 -0.168191 1.84711 4 0 0 
-0.0782751 -2.13277 3.11673 232 233 235 
-0.159913 -1.58601 2.74195 27 18 11 
0.140068 -0.574228 1.94968 102 97 93 
-0.243243 -0.816731 2.11422 37 33 24 
-0.122277 -0.887091 2.11116 19 10 0 
0.0620824 -0.432918 1.84488 4 0 0 
-0.0530499 -0.403483 1.80348 6 0 0 
-0.123664 -0.945526 2.15968 143 135 124 
-0.331202 -0.234409 1.84947 28 19 10 
-0.0683469 -2.11734 3.11485 233 235 234 
0.104914 -0.398318 1.85068 14 6 4 
-0.149332 -0.430581 1.84016 9 4 0 
-0.00201438 -0.493813 1.84464 4 0 0 
-0.334616 -1.00034 2.31311 15 10 7 
-0.295715 0.0667053 1.684 129 125 116 
0.0601476 -0.323101 1.78968 95 90 84 
0.0172721 0.262816 1.50807 5 1 0 
-0.164519 -0.232106 1.75676 119 109 97 
-0.250298 -0.546103 1.89597 78 77 73 
-0.330826 -0.154274 1.81172 97 92 88 
0.0846405 -0.225093 1.75677 22 13 6 
-0.165591 -0.44307 1.84632 102 99 92 
-0.325512 -0.52995 1.94225 8 1 0 
-0.101005 -0.034946 1.6484 84 80 77 
-0.341918 -0.0910815 1.79721 5 0 0 
-0.28413 -0.457311 1.89972 96 89 81 
-0.226666 -0.870115 2.15183 136 125 121 
-0.087328 -1.85055 2.91552 11 4 0 
0.00508121 -0.597201 1.89444 4 0 0 
0.104873 -0.315518 1.80962 124 119 115 
0.11184 -1.09294 2.30908 212 213 208 
-0.148622 -0.809488 2.06024 128 120 109 
0.0221314 -0.0238333 1.64159 117 110 104 
0.0130343 -1.04861 2.2403 128 118 109 
-0.0894602 -0.7943 2.01965 50 44 32 
-0.429611 0.112335 1.89247 129 123 111 
-0.177638 0.563611 1.30364 134 125 108 
0.00488027 -0.584682 1.88981 25 21 12 
-0.0356713 0.261753 1.49938 101 92 87 
-0.0329408 -0.373309 1.78357 39 30 23 
-0.317417 -0.12984 1.78474 102 97 93 
-0.0242203 -0.445143 1.82074 115 107 104 
-0.307013 -0.904349 2.22816 7 0 0 
-0.0246367 -0.296465 1.75574 9 2 0 
-0.0563056 -0.1877 1.71163 93 90 85 
-0.00483469 -0.129624 1.67967 95 91 82 
-0.28485 -0.372131 1.87256 4 0 0 
-0.425855 -0.481832 2.03609 44 41 32 
-0.382034 -0.528325 1.99109 107 104 95 
0.0378805 -0.18109 1.72395 115 110 104 
-0.0473428 -0.26404 1.74868 92 87 81 
0.0171533 -0.575284 1.8913 80 76 67 
-0.152748 -0.219831 1.74754 136 127 118 
-0.00539134 -0.0145926 1.62742 11 7 0 
0.0298193 0.203423 1.53929 115 106 97 
0.12918 0.183892 1.59663 41 28 12 
-0.0148604 -0.201474 1.71413 89 88 84 
-0.334627 -0.436207 1.94254 110 107 102 
-0.148663 -0.420767 1.83582 3 0 0 
-0.199522 -0.415002 1.85141 139 130 123 
0.0656959 -0.455313 1.86042 10 7 0 
0.0829287 0.0888723 1.61776 9 2 0 
-0.278728 -0.902378 2.20693 117 110 104 
-0.086996 -1.96077 2.9648 49 42 34 
-0.397712 0.0845818 1.81236 27 18 11 
0.0462993 0.161016 1.56727 57 48 33 
-0.285268 -0.537638 1.91658 117 113 110 
-0.461307 -0.343845 2.14402 1 0 0 
0.0310312 -0.33957 1.78449 92 89 84 
-0.385269 -1.0952 2.4894 226 225 223 
-0.142943 -0.270825 1.76636 92 87 81 
-0.0942616 -1.18912 2.36166 150 140 128 
-0.139717 -0.815855 2.06492 54 49 43 
-0.203542 -0.672517 1.9799 48 40 27 
-0.0654286 -1.94914 2.95012 47 38 23 
-0.188672 0.567677 1.34776 158 147 127 
-0.435779 0.528624 1.70761 181 119 6 
-0.428629 0.464128 1.72425 116 116 118 
-0.0788574 -0.446512 1.84523 90 89 85 
-0.301467 -0.958139 2.26048 115 103 91 
-0.412162 -0.977093 2.50781 175 175 175 
-0.129132 -0.240139 1.75517 79 76 69 
-0.0440293 -0.49284 1.83625 51 47 38 
-0.209085 -0.559357 1.89544 3 0 0 
-0.191233 -0.24175 1.7726 5 1 2 
-0.337333 0.0676968 1.71983 28 23 19 
-0.19431 0.61156 1.28096 29 19 9 
-0.137753 -1.84997 2.97195 67 62 59 
-0.371217 -0.460336 1.95773 1 0 0 
-0.112662 -2.12253 3.08014 232 233 237 
-0.364741 -0.340182 1.92845 109 104 100 
-0.186841 -0.222088 1.76158 76 71 67 
-0.0691237 -1.99339 2.98716 128 119 112 
-0.0272673 -0.340578 1.77417 120 116 107 
-0.303714 -0.440603 1.91359 102 97 93 
-0.0697029 0.472719 1.38604 116 111 105 
-0.0378975 -0.032002 1.63132 4 0 0 
-0.352828 -0.432541 1.93903 68 63 57 
-0.0786324 -2.10782 3.11052 200 201 203 
-0.27476 0.0854161 1.66234 111 107 98 
-0.111681 -2.14065 3.14175 127 128 130 
-0.0850096 -1.85308 2.92109 55 46 37 
-0.174179 -0.407398 1.83517 124 118 118 
-0.18905 -0.522278 1.86972 146 141 137 
-0.11612 -1.94481 2.96086 67 58 51 
-0.38239 -0.483158 1.98203 4 0 0 
-0.320561 -0.305773 1.87277 95 91 82 
-0.182964 0.282057 1.52892 150 143 135 
-0.140043 -0.0261094 1.65406 10 3 0 
-0.0828567 -2.14607 3.11852 42 45 38 
-0.255438 -0.429759 1.87887 138 135 130 
-0.116545 -1.84487 2.91806 145 131 120 
-0.207291 -0.274117 1.79092 105 98 90 
-0.163549 -0.176184 1.72996 117 108 99 
-0.271728 0.117353 1.64356 118 114 105 
-0.173799 -0.580741 1.89113 84 79 75 
-0.340832 -0.110675 1.80238 7 2 0 
-0.370232 -0.981575 2.39822 18 0 0 
-0.147544 -0.477979 1.84945 98 91 85 
-0.325911 -0.229829 1.83919 7 0 0 
-0.304055 -0.119423 1.76771 8 3 0 
-0.0696036 -2.16626 3.12861 225 227 226 
-0.0697478 -2.14154 3.11586 229 230 232 
-0.0748324 -2.12578 3.11197 174 175 177 
-0.0463001 -0.246807 1.73563 91 82 75 
-0.324705 -0.518758 1.94513 7 0 0 
-0.066788 -2.13346 3.09141 91 91 93 
-0.0372574 -0.44483 1.81555 35 30 27 
-0.049481 -0.0447848 1.64476 12 5 0 
-0.413006 -0.189694 1.93895 130 120 108 
-0.0256025 -0.216867 1.7171 131 121 111 
-0.0582833 -0.23928 1.73574 69 66 61 
-0.175671 0.608112 1.27451 42 33 24 
0.0367026 -0.419192 1.81383 98 93 89 
0.0298058 -0.375885 1.78787 132 127 123 
-0.153129 0.316046 1.49456 21 17 8 
0.0632002 -0.356297 1.78817 111 104 94 
-0.094333 0.31899 1.47768 123 120 111 
-0.3037 -0.677134 2.00871 143 133 123 
-0.0552854 -0.505144 1.83685 16 13 8 
0.169971 -0.169549 1.76902 133 129 118 
0.117327 -0.165283 1.72818 117 113 104 
0.156316 -0.161427 1.75357 10 1 0 
0.0373069 -0.158193 1.69759 155 148 140 
-0.0398186 -0.552723 1.85507 111 107 104 
0.0298047 -0.117518 1.66947 10 1 0 
0.0938311 -0.0766871 1.6775 104 97 89 
0.032792 -0.0663386 1.64504 103 99 90 
0.130622 -0.0445744 1.68471 7 0 0 
-0.037291 0.310032 1.47938 86 78 76 
-0.300613 -0.0493008 1.75711 123 120 115 
-0.104563 0.0673015 1.60289 139 135 126 
0.177295 0.12795 1.63969 148 138 128 
0.157455 0.326015 1.53076 32 22 10 
0.0853563 0.127691 1.58441 10 2 0 
-0.0240536 0.133136 1.54931 128 124 115 
0.116557 0.167012 1.58096 150 143 127 
0.10744 0.599497 1.31568 130 128 113 
-0.137898 0.302046 1.50629 97 93 82 
0.119077 0.213969 1.56187 41 29 13 
0.137119 0.218093 1.57061 21 11 0 
-0.308575 -0.960105 2.27374 130 127 120 
-0.199133 -0.90666 2.16226 4 0 0 
-0.173746 0.298327 1.52459 142 135 125 
0.218937 0.327332 1.61345 7 0 0 
0.114266 0.324528 1.51414 8 0 0 
-0.211911 0.356959 1.49526 151 142 135 
0.0145722 -1.02902 2.21619 17 7 0 
-0.224475 -1.1631 2.40035 130 126 117 
0.0752091 0.444632 1.4419 145 138 128 
-0.139302 -1.64004 2.75439 32 23 14 
-0.0431923 0.529588 1.36697 18 9 0 
-0.12515 0.542394 1.36826 103 94 87 
0.0653992 -0.667112 1.93869 146 138 125 
-0.126983 -0.150988 1.70406 8 5 0 
0.233588 -0.127738 1.84918 128 116 104 
0.136122 0.233809 1.56378 125 117 106 
0.178243 0.297683 1.55861 21 10 4 
-0.132505 0.151198 1.57058 18 7 1 
-0.157966 -0.299303 1.78111 14 11 6 
0.214729 0.180059 1.68825 17 11 0 
-0.263476 0.243602 1.60549 122 115 105 
-0.213857 0.139219 1.61323 5 0 0 
-0.309751 -0.965222 2.28408 145 141 132 
0.072832 -0.202786 1.72209 6 0 0 
0.0333775 0.440886 1.43289 127 123 114 
-0.164381 0.425125 1.45281 19 15 6 
0.117967 -0.21914 1.75412 110 106 95 
0.112777 -0.213796 1.74741 110 106 97 
0.157088 -0.208712 1.77684 131 127 118 
-0.136418 0.323119 1.48317 7 6 1 
0.0622563 0.278671 1.51163 7 0 0 
0.16428 0.339803 1.53534 155 145 133 
0.151074 -0.101029 1.72199 135 126 119 
0.125276 -0.574377 1.92004 3 0 0 
-0.176989 -1.54096 2.68922 29 24 18 
0.0413358 -0.117505 1.67115 121 111 102 
-0.187662 0.178868 1.58263 137 133 122 
-0.0882843 0.564951 1.3042 131 124 114 
0.139511 -0.200353 1.75815 118 114 105 
-0.278622 -0.809729 2.12771 3 0 0 
-0.150352 -0.807217 2.05238 4 0 0 
-0.0244252 0.4415 1.4281 117 115 103 
-0.203915 0.107249 1.61686 134 130 121 
0.12547 0.229372 1.55678 30 22 9 
-0.152008 0.325285 1.48939 129 126 117 
0.276768 0.32736 1.70606 29 20 3 
-0.0217388 0.160509 1.53913 127 119 108 
-0.256172 0.207825 1.61292 116 113 106 
-0.113598 0.403474 1.45013 128 124 115 
0.0581658 -0.14696 1.69403 8 1 0 
0.0982771 0.296597 1.51848 115 111 100 
0.25615 0.190058 1.73503 22 12 2 
0.019905 -0.8263 2.08499 148 145 140 
-0.0822146 0.561855 1.35248 166 154 140 
0.114421 0.389845 1.48499 137 129 118 
0.215066 0.169296 1.68827 43 33 23 
-0.0800466 -0.209523 1.72449 113 105 103 
-0.0872012 -1.89199 2.88735 36 32 23 
0.091394 -0.847925 2.13302 161 157 154 
0.147036 0.373466 1.51396 111 107 95 
-0.000335219 0.569191 1.30412 117 114 105 
-0.0509004 -1.0342 2.19264 4 0 0 
-0.187908 0.352592 1.48352 137 132 126 
0.0120693 0.339939 1.46852 109 98 92 
0.0986248 -0.226313 1.74395 128 126 114 
0.107642 0.273342 1.53251 16 9 0 
-0.140226 0.312361 1.49457 148 144 135 
0.0366426 0.57984 1.30434 117 114 99 
0.0812292 -0.0321803 1.64863 99 95 84 
0.13807 -0.0627151 1.69201 121 114 104 
-0.135848 -2.06271 3.04566 68 72 75 
0.0666853 -0.770695 2.06334 133 129 120 
-0.0306289 0.0822483 1.57 141 134 124 
0.250272 0.248265 1.70316 25 21 10 
0.228657 0.290018 1.64945 161 151 141 
0.260347 0.396918 1.61709 14 12 0 
0.09107 0.548111 1.38272 152 147 143 
0.121358 0.608335 1.31993 155 146 131 
0.109585 -0.418811 1.84098 6 1 0 
0.0518217 -0.162068 1.69398 108 101 93 
0.01422 -0.799555 2.06268 33 30 25 
0.15103 -0.573433 1.93622 113 109 100 
-0.114372 -1.41019 2.55055 23 15 4 
-0.116743 0.551827 1.36446 138 127 121 
0.104934 -0.837131 2.13029 147 143 140 
-0.040834 0.472564 1.39555 18 11 5 
-0.221878 0.300227 1.55172 120 113 107 
0.0646215 0.0662118 1.60026 137 133 122 
-0.252509 0.440922 1.4885 112 108 99 
-0.206515 0.420798 1.47284 149 142 134 
0.0427368 0.309578 1.49106 26 14 0 
0.160605 0.000462485 1.68538 12 3 0 
0.177119 0.0030093 1.69581 7 0 0 
0.17663 0.0455784 1.6816 47 37 25 
0.148999 0.249657 1.56538 134 124 114 
0.247475 0.178844 1.72567 22 12 0 
-0.176263 0.328878 1.49673 109 102 94 
0.0204076 0.467652 1.40848 124 117 109 
-0.132432 0.180431 1.56279 104 100 91 
-0.105797 -1.79158 2.84696 9 7 8 
0.0408806 0.202559 1.53326 143 130 114 
-0.136016 -1.90178 2.92061 44 40 31 
-0.053369 -0.113766 1.66881 84 79 73 
-0.331464 -0.116405 1.81654 107 104 97 
-0.127725 -1.81365 2.89552 28 20 17 
0.250653 0.307651 1.67354 9 0 0 
-0.0879623 0.307754 1.48818 136 133 128 
-0.0532496 0.0280222 1.60692 88 83 80 
-0.087466 0.54727 1.36319 29 20 11 
0.137297 0.27598 1.54435 115 107 96 
-0.0977103 0.569364 1.29851 107 103 94 
-0.110012 0.289232 1.51183 12 5 0 
0.228602 0.211726 1.68734 29 19 7 
0.224176 0.363853 1.57943 143 135 124 
0.119107 0.615129 1.3121 110 98 86 
0.0993745 0.104253 1.59721 151 141 131 
0.146657 0.293819 1.54309 137 127 115 
-0.164492 0.30727 1.50536 147 140 130 
0.171663 -0.378057 1.86483 92 89 80 
0.119471 -0.00718594 1.6622 116 107 98 
-0.0184944 0.564835 1.35315 142 128 119 
0.0115911 0.183214 1.53367 117 113 102 
0.088034 0.573882 1.32586 104 100 89 
0.0643429 0.0944524 1.589 8 3 0 
0.219795 -0.147343 1.84308 7 0 0 
-0.0832015 -1.80115 2.86027 25 24 22 
-0.161231 -0.83712 2.11351 128 122 110 
0.242668 0.233845 1.69807 31 21 11 
0.119916 0.36142 1.49968 105 96 87 
-0.108793 -0.0476802 1.65173 113 104 99 
-0.0183283 0.601938 1.28814 68 65 60 
0.108206 0.0908021 1.60935 111 100 94 
-0.174362 0.335633 1.48875 104 94 82 
0.159498 0.487839 1.45903 121 112 105 
0.185018 -0.470115 1.91884 116 111 107 
0.0709816 -0.520454 1.87681 111 104 98 
-0.0345942 -0.454427 1.81222 127 124 117 
0.125706 0.209717 1.57405 77 66 46 
-0.191115 0.57456 1.36063 168 156 140 
0.16798 0.369924 1.52621 122 113 96 
-0.153216 -0.497532 1.84887 89 86 81 
-0.0153435 -0.355773 1.77195 90 87 82 
0.0180816 0.00276469 1.61797 17 8 0 
-0.0755673 -0.451105 1.82891 73 69 66 
-0.0915216 0.222419 1.53811 135 128 118 
0.0165275 -0.0638687 1.64608 116 112 101 
-0.150819 -0.428379 1.83305 6 2 0 
0.00523549 -0.396162 1.79306 17 14 7 
0.0156933 -0.513844 1.84484 12 5 0 
0.0475104 -0.16306 1.69878 22 15 7 
0.000741423 0.22679 1.51345 111 102 95 
-0.118114 -0.597451 1.87506 106 103 94 
0.128701 -0.49939 1.88844 77 73 70 
0.0255705 0.193967 1.53335 126 117 108 
-0.00405582 -0.0130574 1.61918 16 7 2 
-0.145285 0.226739 1.54496 6 1 0 
-0.072147 0.341514 1.46006 128 125 120 
-0.124689 -1.95991 3.0049 65 60 54 
0.219165 0.186951 1.68081 108 96 84 
0.20395 -0.494645 1.94173 95 90 84 
0.176016 -0.49283 1.9156 12 7 3 
0.115865 0.38541 1.46924 129 121 110 
0.164038 0.363355 1.51674 121 112 103 
0.203741 -0.152983 1.83167 163 151 137 
0.164282 -0.48949 1.90631 7 3 0 
0.224483 0.370754 1.55261 136 134 121 
0.277857 0.446102 1.6002 31 19 7 
-0.0569217 -0.507316 1.84672 10 11 5 
0.222229 -0.146965 1.85385 10 0 0 
0.186226 -0.474197 1.91853 17 14 7 
0.144787 -0.765151 2.09195 112 107 101 
0.153814 -0.471029 1.89414 115 110 106 
0.110381 0.320046 1.50171 118 111 103 
-0.0774461 0.296701 1.49086 117 116 112 
0.0253071 -0.471868 1.83989 4 0 0 
0.0579742 0.303969 1.48672 18 14 5 
-0.195096 0.295283 1.54458 154 150 141 
0.265915 0.179296 1.75347 136 128 117 
0.0284388 -0.459924 1.83484 108 103 97 
0.237549 -0.137746 1.86329 135 125 113 
0.239084 0.3287 1.62521 35 27 16 
0.0350134 -0.159443 1.70755 125 120 114 
0.169285 0.472564 1.45232 110 106 97 
0.12553 0.15908 1.59159 135 126 111 
0.176329 0.29613 1.54914 133 127 115 
0.168338 0.285836 1.55504 163 151 139 
0.168793 0.477701 1.43347 188 178 168 
0.19908 -0.132309 1.81535 13 1 0 
0.161391 0.274548 1.55165 198 190 177 
0.287507 0.224066 1.77456 8 0 0 
0.124939 -0.411382 1.86037 8 5 0 
0.228298 0.287901 1.64151 150 142 129 
0.151868 0.260408 1.55545 129 119 107 
-0.300522 -0.161563 1.81232 9 6 1 
0.162329 0.503781 1.41141 122 118 109 
0.233708 -0.389187 1.97032 3 0 0 
0.117967 -0.325346 1.81091 115 111 100 
0.0852262 0.127819 1.5859 8 1 0 
0.244538 -0.117087 1.86889 27 19 8 
-0.154111 -0.710357 1.96741 32 26 14 
0.0241495 0.216502 1.52272 158 149 142 
0.132685 0.219036 1.57403 29 17 1 
0.139044 -0.178738 1.75918 16 10 0 
0.213328 -0.369135 1.92669 10 0 0 
0.137811 0.216813 1.561 11 1 0 
0.116398 0.214781 1.5651 149 141 120 
0.251089 0.247817 1.69872 22 14 3 
0.239052 0.242029 1.67422 137 127 117 
-0.121785 0.536096 1.34406 149 146 141 
0.237111 -0.173152 1.87143 120 112 101 
-0.110121 0.542259 1.34148 132 123 116 
0.14227 -0.361449 1.83826 141 134 126 
0.0778649 -0.367298 1.80586 122 117 111 
-0.205297 -0.797156 2.0892 15 14 10 
-0.0475541 0.545291 1.27277 4 0 0 
0.227268 0.229069 1.67414 14 8 0 
-0.0520913 -0.741586 1.97604 33 31 19 
0.063374 -0.357281 1.79315 123 118 114 
0.25646 0.189985 1.73248 21 9 0 
0.263423 -0.179273 1.92528 11 2 0 
0.133014 0.193553 1.57665 59 47 33 
0.0206965 0.168076 1.54607 132 129 120 
-0.0374948 0.160834 1.54839 30 25 19 
-0.155221 -0.813842 2.07427 3 1 0 
0.25991 0.215427 1.72883 138 131 115 
0.0275435 -0.119257 1.68669 6 0 0 
