ply                 
format ascii 1.0    
element vertex 1205
property float x    
property float y    
property float z    
property uchar red  
property uchar green
property uchar blue 
end_header          
-1.38152 -1.22095 4.01141 255 241 221 
0.208905 -0.251241 3.17974 84 79 76 
-0.959457 -0.651399 3.77412 201 166 144 
-0.351153 -0.793378 3.4486 187 155 134 
-1.25694 -0.477292 3.94457 100 94 94 
-1.67466 -1.12162 4.16344 243 215 193 
0.232345 0.140557 3.12632 252 230 216 
-1.35599 -0.794044 4.0048 242 223 206 
-1.37954 0.467371 3.95136 247 225 212 
-0.988266 -0.0452855 3.74309 189 149 123 
0.291565 -0.972528 3.12496 176 146 120 
0.0587053 -1.10177 3.24776 176 135 113 
-1.70951 -1.18201 4.17429 186 154 131 
0.373409 -1.08796 3.085 178 138 113 
0.366349 0.0505843 3.05563 255 255 243 
0.167826 -1.11212 3.19207 255 255 243 
-1.33635 0.0871573 3.94997 125 94 73 
0.426825 -0.0643228 3.03047 195 148 118 
0.417245 -0.409048 3.04137 190 153 127 
0.372343 -1.0817 3.08524 179 137 113 
0.495584 -0.894096 3.02174 255 241 224 
-1.48215 -0.781387 4.04929 255 241 223 
-0.143865 -0.414867 3.33372 185 155 131 
0.288608 -1.12975 3.129 255 250 233 
-0.302141 -0.341836 3.41069 223 189 162 
0.573149 -1.2163 2.99549 255 243 224 
-0.0738259 -0.731231 3.30398 208 177 156 
0.346691 -0.644223 3.09559 255 245 231 
0.447235 -0.533308 3.03334 250 234 218 
-0.150032 -0.206943 3.33194 206 179 160 
0.419427 -0.895546 3.05596 196 158 135 
0.525139 -0.954165 3.00754 169 141 117 
0.508558 -0.735261 3.00845 196 159 133 
-0.898713 -0.387824 3.71637 250 230 206 
0.491921 0.000705856 2.99385 184 153 135 
0.0852853 -1.07074 3.23297 178 141 114 
-1.54268 -1.14046 4.10016 176 139 113 
0.409162 -1.03838 3.0682 181 141 116 
-0.15635 -0.568058 3.33616 253 230 214 
0.0139778 -0.966401 3.26565 201 161 135 
0.42514 -0.773666 3.05928 176 139 112 
0.40027 -0.851377 3.06671 199 163 137 
0.259349 -1.09815 3.14686 249 233 210 
0.403756 -0.482105 3.05319 207 148 106 
-1.05349 -0.912656 3.81896 172 141 120 
0.229209 -1.19209 3.16775 179 142 113 
-1.80995 -0.0549876 4.19567 79 57 43 
0.0881308 -1.10863 3.23565 182 140 115 
-0.883378 -0.96842 3.7318 178 146 121 
-1.46976 -0.979854 4.04828 173 145 124 
-0.275141 -0.446828 3.39591 199 159 133 
0.425059 -0.586716 3.05176 203 176 157 
0.0613648 -1.12111 3.24873 176 136 111 
-1.60676 -1.15477 4.12325 255 233 215 
0.202034 -0.763313 3.17058 180 148 127 
-1.54251 -0.992762 4.08556 181 143 120 
-1.11316 -0.888125 3.85401 255 241 218 
-0.756489 -0.980657 3.65579 225 203 182 
-0.86968 -1.2186 3.72914 225 188 169 
-0.757695 -1.19787 3.66639 255 242 228 
0.0421776 -1.08632 3.25343 255 235 214 
-0.253905 -0.832823 3.40163 174 134 109 
0.21752 -0.929147 3.16543 200 177 161 
-0.994901 -1.20405 3.79831 255 250 227 
0.232959 -1.21051 3.16448 255 235 214 
-0.847502 -1.09786 3.71053 255 246 232 
-0.910654 -0.836492 3.74716 178 138 113 
-1.06764 -1.21791 3.8423 255 237 213 
0.205463 -1.06472 3.16652 255 249 231 
-0.0687089 -0.395961 3.29321 175 138 112 
-1.1151 -0.905157 3.84883 255 242 215 
-1.63561 -0.951029 4.13681 174 138 114 
-0.473848 -1.20138 3.51983 168 131 112 
0.477732 -0.970375 3.02796 199 155 130 
-0.830296 0.227796 3.65946 250 231 214 
-0.276299 -1.03469 3.4135 169 137 112 
0.359571 -0.408083 3.07405 250 247 232 
-0.0882973 -0.570242 3.30801 254 246 233 
0.0714988 0.0442621 3.24446 105 104 100 
0.41988 -0.409751 3.04674 190 153 127 
-0.06315 -0.493551 3.284 189 161 140 
0.359408 -0.40812 3.07369 250 247 232 
-1.72443 -0.320245 4.16452 247 222 202 
-0.418849 -1.2275 3.50184 213 194 177 
-1.55139 -0.860265 4.09384 247 226 209 
-0.0470352 -1.04421 3.29724 173 146 125 
-0.937203 -0.933576 3.76409 173 136 110 
0.085633 -0.914456 3.22951 187 159 137 
-0.130054 -0.695435 3.33371 190 163 144 
-0.186443 0.120256 3.33696 155 128 109 
0.488075 -0.537397 3.01433 190 154 130 
-0.310936 -0.996149 3.43213 252 226 203 
-0.455683 -1.18896 3.51002 247 233 220 
0.504102 -0.324954 3.00322 202 171 150 
0.267514 -0.870729 3.13413 186 153 134 
-1.17727 -0.90374 3.88618 171 133 110 
0.239317 -1.13649 3.15435 255 241 217 
-0.249215 -0.962151 3.40945 206 180 155 
-0.0282026 0.154541 3.25153 196 168 147 
0.336293 -0.78551 3.09634 252 247 228 
-0.37229 -1.19824 3.473 200 178 157 
0.197048 -0.778647 3.16693 182 151 130 
-1.19662 -1.21672 3.90717 206 168 145 
0.395179 -0.4082 3.05505 198 147 116 
-0.865878 -1.05849 3.71922 255 247 228 
0.454285 -0.2174 3.02195 194 167 148 
-0.363808 -0.441394 3.43253 255 255 241 
0.0732558 -1.12794 3.24205 255 240 222 
-0.95887 -0.876315 3.76701 255 247 228 
-1.62699 0.0117006 4.1044 179 147 126 
-1.79079 -0.184333 4.19562 234 212 191 
-0.368895 -0.833287 3.44976 255 250 238 
0.321962 -1.03813 3.10921 170 133 107 
0.142162 -1.00454 3.20058 210 173 146 
0.387782 -0.922257 3.07563 252 237 218 
0.382921 -0.354001 3.06184 194 160 133 
0.0894052 -0.950636 3.22979 212 185 166 
-1.54025 -0.529455 4.07506 182 151 133 
0.358784 0.225403 3.05718 197 164 145 
-0.894875 -0.883442 3.72709 170 142 121 
0.240645 0.217125 3.12088 246 227 212 
-1.07967 -0.542984 3.82617 194 162 141 
0.245382 -1.10716 3.15684 167 125 101 
-0.817491 -0.568848 3.68394 187 159 137 
-1.23313 0.0647075 3.88353 174 154 143 
-0.982303 -0.232462 3.75653 232 206 183 
-1.41091 -0.683366 4.00739 254 229 209 
0.362474 0.206378 3.05484 192 158 133 
-1.78642 -0.660114 4.23884 162 121 101 
0.471879 -0.846236 3.03366 255 252 239 
0.393631 -0.0666152 3.04902 194 158 132 
0.195741 -1.03503 3.17326 251 239 227 
0.370368 -0.889268 3.08417 186 153 134 
-0.141646 -0.577695 3.33324 190 153 127 
-0.782984 -1.17734 3.68508 221 191 165 
0.42645 -0.495568 3.04431 240 215 193 
0.165447 -1.12678 3.19302 205 174 154 
-1.56445 -0.59287 4.0875 157 120 94 
-0.778366 -0.719531 3.66642 255 245 230 
0.441748 0.0832644 3.01675 188 157 136 
0.378278 -0.790377 3.08419 255 249 231 
0.425316 -0.666766 3.05565 247 225 201 
0.274808 -0.145982 3.11335 193 161 140 
0.351925 -1.08289 3.09543 195 169 152 
-0.816851 -0.497764 3.68272 255 248 231 
-1.82127 -0.815351 4.20794 89 56 37 
-1.69276 -0.35102 4.14938 255 226 202 
-1.08129 -0.914439 3.83561 185 151 126 
0.614651 -1.20835 2.96647 188 151 132 
0.502923 -0.75021 3.01494 197 169 148 
0.302831 -1.10883 3.12479 255 253 233 
0.642921 -1.1921 2.95846 253 254 240 
-0.616139 -1.24592 3.59434 76 75 73 
-0.987736 -0.0444826 3.7505 182 145 118 
0.307909 -0.97144 3.11823 180 159 142 
0.0548081 -1.08625 3.24693 255 236 219 
-0.0237325 -0.796426 3.29249 175 148 129 
-1.66517 -1.0475 4.16085 239 214 192 
-0.27491 -0.845338 3.40202 199 152 122 
-0.131303 0.237225 3.30643 253 247 233 
-0.932119 -0.914591 3.7666 255 228 207 
0.196849 -0.799565 3.17074 190 155 133 
-0.146057 0.0230769 3.32231 185 150 130 
-1.48039 -0.683343 4.05154 255 238 219 
-0.103614 -1.17474 3.33144 172 128 99 
-0.89058 -0.309501 3.71105 249 222 201 
-1.64242 -0.0708941 4.11268 255 241 217 
0.350755 -1.06861 3.0931 253 241 229 
-1.79835 0.3001 4.19697 76 53 39 
-0.820318 -0.921632 3.69652 239 217 203 
0.275666 -0.722943 3.12995 187 164 146 
0.411145 -0.86477 3.064 242 228 215 
-0.906072 0.219136 3.69794 255 242 226 
-1.70303 -1.09178 4.17559 251 221 197 
0.214324 -1.03006 3.1635 255 242 229 
0.339887 -0.841649 3.097 255 254 235 
-0.878766 -0.493396 3.71672 255 244 228 
0.199898 -1.2199 3.1796 228 203 183 
0.421464 -0.895303 3.05405 176 146 122 
-0.909543 -0.35423 3.71957 255 245 223 
0.0461721 -0.517666 3.26119 226 202 176 
-0.295764 -0.683799 3.4147 249 227 203 
-0.309862 -1.21835 3.44826 98 49 19 
-1.36476 -0.413495 3.97239 252 221 200 
0.487113 -1.10465 3.0283 196 171 151 
-1.67862 -0.100911 4.13445 161 130 109 
0.409491 -1.14143 3.07148 165 127 104 
-1.54177 -1.17736 4.08763 177 139 116 
-0.799624 -0.868889 3.67946 253 237 222 
0.154623 -1.10595 3.19863 186 151 129 
0.209507 -0.8256 3.17196 194 156 133 
0.367359 0.232922 3.05515 255 253 239 
-0.818601 -0.948133 3.68936 177 146 125 
0.227235 0.188298 3.12517 177 141 117 
-1.31971 -0.635548 3.95908 255 234 211 
0.208345 -0.824732 3.16906 186 151 123 
-0.0337165 -1.00342 3.29294 246 232 219 
0.474256 0.0806866 3.00212 198 171 150 
-0.725395 -1.09292 3.65031 176 136 111 
0.470065 -0.422653 3.01618 255 253 242 
0.335399 -0.680362 3.09449 255 254 242 
-0.0125882 -1.13936 3.2884 174 137 110 
-1.00408 0.180048 3.75748 252 227 205 
-0.834001 -1.15351 3.70886 255 241 223 
-0.264019 -0.676949 3.39508 255 249 231 
0.0771046 -1.06682 3.23916 255 239 217 
-1.67117 -0.706425 4.15039 183 142 120 
0.347407 -0.891226 3.09742 197 170 153 
-1.2329 0.0646569 3.88012 160 142 130 
-0.776549 -1.15002 3.67666 169 127 105 
0.454756 -0.685312 3.03944 203 176 157 
-0.942136 -0.830096 3.75598 164 132 111 
-0.00156956 -0.891523 3.27656 200 168 147 
0.472364 -0.596438 3.02418 255 254 244 
0.160829 -1.05152 3.19025 165 133 110 
-0.0378549 -1.1476 3.30059 255 255 237 
0.408488 -1.03849 3.06805 173 136 110 
0.458478 -0.820178 3.04132 188 150 127 
0.335793 -1.13102 3.1046 255 248 237 
-1.01986 -0.756925 3.79681 173 136 110 
-0.874633 -0.741624 3.71586 255 234 217 
0.330415 -1.14472 3.11075 182 150 129 
0.136586 0.242965 3.16665 255 247 235 
-0.878202 -1.04344 3.72158 176 141 119 
-0.837382 -0.800435 3.70294 187 156 135 
-1.0541 -0.681685 3.81568 188 153 133 
0.58387 -1.20263 2.98239 156 134 120 
-1.80085 -0.212071 4.19195 64 44 33 
-0.792602 -0.639596 3.68027 187 148 119 
-0.124167 -0.747389 3.33205 180 155 135 
0.355607 -1.08473 3.09425 239 227 213 
0.362891 -0.484607 3.08342 204 141 98 
0.393713 -0.499133 3.0583 251 241 229 
-0.954178 -1.0643 3.77138 255 242 220 
0.0569909 -0.972731 3.24535 243 227 212 
0.307968 -0.971074 3.11841 180 159 142 
-0.0666962 -1.16388 3.31431 187 151 125 
0.455465 -0.345897 3.02146 181 151 125 
-0.884413 -0.197934 3.70369 170 144 127 
-0.0672869 -0.660837 3.29772 222 201 184 
0.137031 0.242503 3.16782 251 241 229 
-0.258761 -0.936166 3.40745 255 254 236 
0.227051 0.188357 3.1232 177 141 117 
-0.152483 -0.459647 3.35299 248 227 208 
-1.19698 -0.689087 3.89769 177 137 111 
0.416661 -1.02805 3.0624 255 242 227 
0.288867 -0.138478 3.10805 255 239 221 
-0.0582363 -1.12984 3.31088 255 237 216 
-1.17032 -0.938617 3.88445 255 234 209 
0.329084 -0.422902 3.08951 255 255 243 
-0.249111 0.210856 3.3696 255 241 216 
-1.82775 -0.411747 4.20621 96 62 37 
0.375074 0.149656 3.0514 194 163 142 
-0.87872 -0.493784 3.71813 255 244 228 
-1.20278 -1.13322 3.91143 196 156 130 
-1.63987 -0.292603 4.129 249 217 194 
-0.746788 -1.17267 3.66627 212 187 165 
0.216659 -1.19246 3.17379 174 137 110 
-0.854796 -0.678476 3.70441 182 145 119 
-1.44497 -0.715706 4.02665 250 227 209 
0.358481 -0.484876 3.08114 205 147 107 
0.465806 -0.46665 3.01843 201 171 147 
-0.365887 -1.04185 3.45333 255 251 234 
0.0586386 -0.464277 3.25466 99 92 82 
-1.39684 -1.10513 4.01147 166 122 95 
0.0653316 -1.17465 3.24601 228 202 179 
-0.119847 -1.01933 3.34094 187 151 127 
-1.01112 -0.996433 3.80088 254 227 200 
0.422661 -0.35374 3.04275 201 170 142 
0.214054 -1.17989 3.17361 255 254 250 
0.415395 0.21144 3.02666 187 162 140 
-0.898711 -1.1361 3.74264 133 96 70 
-0.815582 -0.599438 3.68191 205 167 144 
-0.793729 -0.399515 3.66416 183 153 129 
-0.959496 -0.65025 3.77065 201 166 144 
0.367728 -0.775404 3.08394 196 160 136 
0.303989 -1.12247 3.12864 189 147 122 
-0.147784 -0.427133 3.33581 255 247 228 
0.0183518 -0.909438 3.26172 196 175 158 
-1.07111 -1.23242 3.83607 202 174 153 
-1.46152 -0.437518 4.03618 191 154 135 
0.41958 -1.11497 3.06491 176 140 118 
-1.73753 -0.265011 4.17621 181 149 126 
-0.969782 -1.0916 3.77243 168 132 108 
0.0449992 0.0439662 3.25073 112 108 105 
0.391131 -0.976108 3.07443 181 146 124 
-1.66173 -1.12843 4.15447 174 138 114 
-0.173872 -1.15645 3.37087 243 222 203 
-0.755603 -1.11938 3.66289 175 138 112 
-0.302549 -0.962192 3.42829 255 235 216 
0.238636 -0.837461 3.15357 197 170 151 
-0.857091 -1.19175 3.72308 255 239 216 
0.180372 -0.934178 3.18196 217 192 170 
0.203803 -0.425832 3.17047 202 198 197 
-0.0627721 -1.04934 3.30746 249 224 204 
-0.365718 -0.956421 3.44703 255 239 219 
-0.773354 -1.03914 3.66965 255 245 231 
-0.763696 -1.03154 3.67462 184 153 132 
-0.810758 -0.670747 3.68191 255 242 222 
0.305212 -1.13389 3.12129 253 227 210 
-0.0598346 -1.04564 3.29769 238 217 196 
0.472676 -0.801145 3.03668 205 173 152 
-0.853199 -1.05739 3.71657 191 158 139 
0.615218 -1.20969 2.96958 190 156 129 
0.435143 -0.975583 3.05559 165 124 96 
0.269 -0.756465 3.13414 255 244 229 
-0.141386 -0.577982 3.33421 190 153 127 
-1.19726 -0.690311 3.90271 173 133 107 
0.505701 -0.301791 2.99714 206 183 167 
-0.124703 -0.57048 3.32982 253 235 215 
-1.18001 -0.918406 3.88253 182 142 117 
0.0232176 -1.1448 3.26819 255 253 246 
0.0138265 -0.996144 3.26863 255 237 215 
0.331753 -0.281065 3.08651 248 232 219 
-1.02901 -0.835272 3.80827 184 156 134 
-0.259364 -0.945548 3.40684 178 140 119 
-0.187433 -0.665826 3.35794 211 188 170 
0.114674 -0.918723 3.21966 184 150 125 
0.198386 0.303172 3.13625 253 247 231 
0.304118 -0.631694 3.11896 255 254 241 
0.190673 -0.0188338 3.18445 100 97 92 
-1.58257 0.00106353 4.08089 185 150 128 
0.346358 -0.511059 3.08853 197 166 145 
0.403797 -0.0831301 3.04396 255 253 232 
-0.956937 -0.677963 3.76207 192 165 148 
-0.175114 0.11595 3.33226 251 232 215 
0.378374 0.100956 3.05015 255 243 223 
0.338353 -1.03654 3.10041 255 245 233 
-1.77985 -0.134005 4.18894 178 143 121 
-0.779369 -0.519633 3.66824 252 235 219 
-0.909716 -0.354588 3.72074 255 245 224 
-0.145658 0.0226807 3.32379 187 154 135 
0.411872 -0.887835 3.06188 250 231 214 
0.0484795 -1.14896 3.25284 255 236 211 
0.256065 0.182932 3.10999 245 218 199 
0.277135 -1.04027 3.13202 204 173 153 
0.193521 0.232853 3.14579 212 183 165 
-1.32321 -0.452514 3.96375 91 50 32 
-1.03441 -0.850553 3.8054 159 127 104 
0.217402 -0.948978 3.16306 234 207 186 
0.0770226 -1.08352 3.2366 183 156 137 
0.265481 -0.912242 3.13956 172 136 110 
0.199269 -1.06454 3.17125 254 242 228 
0.411914 0.0895986 3.03456 201 166 144 
-0.792468 -0.676984 3.6803 194 158 134 
0.488017 -0.879062 3.02176 255 254 240 
0.423167 0.106761 3.02865 197 165 140 
0.17263 -1.11243 3.19019 255 255 243 
0.162817 0.239785 3.15421 248 229 214 
0.473866 0.349589 2.99731 202 175 156 
0.269302 -1.22733 3.14 232 207 187 
-0.072728 0.143731 3.28091 255 242 223 
0.354798 -0.41828 3.0771 191 163 139 
0.0103973 0.190562 3.23511 178 155 137 
-1.2018 -0.832309 3.9077 172 130 105 
0.195429 -0.386772 3.18982 105 104 100 
-0.293603 -0.966165 3.42674 188 156 131 
0.181717 0.237763 3.14484 252 240 226 
0.408335 -0.976553 3.06856 159 117 92 
0.668699 -1.21279 2.94338 255 238 219 
0.12529 -1.14058 3.21299 165 125 100 
0.243395 0.168525 3.1166 186 151 131 
0.309411 -1.05604 3.1167 255 245 230 
0.346972 -0.643317 3.09599 215 194 177 
-0.986127 -0.92345 3.78539 255 234 210 
-0.155315 -0.878355 3.35108 255 240 221 
0.423128 -0.934863 3.05802 189 155 130 
-0.0613509 -0.986007 3.30811 190 155 133 
-0.921877 -0.682075 3.74946 201 169 146 
0.298904 -0.629152 3.10708 236 228 215 
0.00324221 -1.13855 3.27537 182 141 113 
-1.01717 0.224755 3.75907 247 219 195 
0.510323 -0.318004 2.99614 255 254 243 
0.216305 -0.799701 3.16007 220 184 160 
0.282334 -0.856455 3.13085 161 119 94 
-0.150027 -0.207035 3.33195 203 176 157 
0.54121 -0.962288 2.9987 245 228 210 
-1.07128 -0.53066 3.81795 254 227 208 
-0.137683 -0.413281 3.32674 178 143 121 
-0.87388 -0.882431 3.72074 152 124 103 
0.641176 -1.18792 2.95586 250 248 235 
-0.364038 -0.843917 3.45196 255 241 227 
-0.784288 -0.389431 3.65779 255 251 231 
0.537516 -1.09199 3.00318 199 168 147 
0.348997 -1.20459 3.10343 179 143 117 
-0.888534 0.152615 3.6942 191 157 130 
-1.09938 -0.893517 3.84091 205 167 144 
-1.6705 -1.07532 4.15856 248 216 191 
-0.02442 -0.705157 3.2779 160 130 106 
-0.689215 -1.03734 3.62892 255 243 226 
0.513972 -0.299427 2.993 255 254 241 
0.366885 -0.785965 3.08398 255 254 239 
0.167968 -0.382911 3.2024 103 96 90 
-0.292583 -0.908963 3.4199 253 245 226 
0.119641 -0.972441 3.21527 230 196 171 
0.517315 -0.291379 2.99608 219 195 171 
0.377552 -0.613345 3.0756 203 178 156 
0.485655 -0.00422669 2.99676 255 250 234 
0.170925 -0.0556456 3.19649 102 103 97 
0.313167 -0.254662 3.09684 197 172 152 
-0.0775895 -0.556473 3.30255 251 232 217 
-0.821246 -1.0843 3.70239 243 223 199 
-0.327341 -0.944034 3.43498 151 119 96 
-0.804211 -0.556263 3.67976 255 239 221 
-0.261995 -1.01967 3.41309 198 163 141 
-1.22988 -1.14352 3.92035 160 118 94 
-0.310886 0.31379 3.39616 255 254 242 
-0.796059 -0.678494 3.68179 192 154 131 
0.1959 -1.19872 3.18379 255 254 246 
-0.167428 -0.776389 3.35128 253 244 227 
-1.81798 -0.838126 4.22667 125 96 78 
-0.144262 0.235958 3.31195 204 181 165 
-1.10031 -0.859805 3.85121 192 158 133 
-0.762412 -0.222653 3.64285 255 249 231 
0.320014 -0.776873 3.10683 171 139 116 
0.351401 -0.0694267 3.07206 255 241 225 
0.323207 -0.780841 3.10561 187 152 130 
-1.51723 -0.403261 4.05526 246 224 201 
0.277969 -0.545617 3.11635 224 205 188 
-0.270099 -0.51471 3.40391 255 240 224 
-0.19214 -0.118019 3.35096 204 185 168 
0.323064 -0.780752 3.10529 182 150 129 
-1.35038 0.0855956 3.94983 255 243 230 
-0.0915419 -0.609995 3.30536 188 158 134 
-0.799953 -0.86737 3.67314 243 225 211 
0.363739 -0.728643 3.08573 253 251 239 
-0.280403 -0.47675 3.40147 240 223 205 
-1.80584 -1.06003 4.21148 155 127 106 
-1.53582 -0.956611 4.06914 194 130 92 
-1.60905 0.259183 4.08074 192 159 140 
-1.43575 0.206232 3.98732 168 138 114 
-1.63054 0.444252 4.08019 190 146 121 
0.476855 -0.19832 3.01117 255 248 231 
-1.06909 -0.8501 3.82515 255 238 217 
0.422558 -0.354458 3.04111 193 162 134 
0.273584 0.243874 3.10203 255 239 219 
-0.940139 -0.417244 3.73481 217 185 160 
0.492592 -0.406078 3.00515 239 221 201 
-1.71398 0.395171 4.14172 249 226 208 
-0.824055 -0.808695 3.69326 255 243 224 
-1.23644 -0.976621 3.92112 187 155 132 
0.479109 0.0600271 2.99918 203 173 149 
-1.77437 -1.09661 4.20333 219 192 171 
0.413042 -0.782303 3.05999 229 208 189 
-1.25303 -0.854412 3.92893 255 232 208 
0.0858632 -0.463484 3.24542 130 129 125 
-1.46541 0.169932 4.00978 252 225 204 
0.392517 -0.567162 3.06611 178 140 117 
0.510154 -0.930789 3.01505 175 147 126 
0.180194 -0.93462 3.18246 217 192 170 
0.205226 -0.684898 3.1627 179 148 127 
0.449029 -1.19497 3.05309 255 229 205 
-1.63725 -0.954095 4.15172 168 128 103 
-0.796637 -0.714761 3.6741 247 224 206 
0.393003 -0.567278 3.06713 178 140 117 
0.323373 -0.538422 3.10286 233 217 204 
0.48476 0.00630473 2.99757 255 254 237 
-1.41509 -0.912192 4.01783 180 144 122 
0.401548 -1.18822 3.0641 255 232 212 
-1.44957 0.0751891 3.99053 224 188 166 
0.472402 -0.861938 3.03053 209 183 166 
0.302237 -0.770205 3.11079 243 222 203 
-1.56467 -0.901827 4.0947 255 230 207 
-0.89221 -0.507865 3.7167 194 163 142 
0.402674 -0.834583 3.0642 195 164 144 
0.352623 -0.315267 3.07681 200 169 148 
-0.828605 -0.686576 3.69153 255 246 226 
-0.104494 -0.587114 3.31647 254 238 222 
0.184405 0.274098 3.14249 255 250 234 
-0.798973 -1.03417 3.68571 196 158 135 
0.780309 -1.22197 2.89157 207 189 169 
-0.299179 -0.485232 3.41563 196 169 150 
0.383176 -0.353988 3.06238 194 160 133 
0.430939 -0.785673 3.05348 255 253 244 
0.183588 -0.103657 3.19067 95 90 86 
0.406712 0.213258 3.03121 255 254 237 
-0.854858 -0.87777 3.70295 193 165 143 
-0.913635 -0.67937 3.73874 200 162 139 
0.195508 0.473437 3.13208 201 164 138 
0.42589 -0.387076 3.04297 255 255 240 
0.0985455 -1.1941 3.23059 188 146 121 
-0.923521 -0.61569 3.74423 255 240 221 
0.50457 -0.561156 3.00772 255 240 223 
-0.873168 0.127818 3.6878 255 242 228 
-0.096027 0.124091 3.29167 255 235 217 
0.0686999 -1.05099 3.24311 246 224 201 
-1.6019 -0.116434 4.08962 255 232 211 
0.350955 -0.892259 3.09624 184 153 132 
-0.174453 -0.0781442 3.33562 252 233 216 
-0.170276 -1.13804 3.36717 154 107 81 
0.518781 -0.817053 3.00838 169 142 121 
0.37915 -1.08933 3.08139 181 139 115 
-1.46181 -0.886782 4.04163 177 139 116 
0.305286 -0.911056 3.12056 189 164 144 
0.401381 -0.755198 3.06945 178 146 123 
-0.159341 -0.598551 3.34873 170 135 107 
0.409157 -0.977007 3.07027 159 117 92 
0.180238 -0.803689 3.17832 200 177 159 
0.198648 -1.0641 3.16967 254 245 230 
0.370416 -0.425495 3.06865 243 224 207 
-0.030199 -1.04398 3.29005 171 135 113 
-1.75623 -0.303098 4.17904 198 166 143 
-0.299696 -0.6724 3.41543 192 154 131 
-0.876535 0.184214 3.68639 255 243 229 
-0.928768 -0.817136 3.74412 255 252 236 
-0.125013 -0.20682 3.31256 203 180 162 
-0.965233 -1.22764 3.78722 209 184 162 
0.269291 -0.744465 3.1337 255 249 233 
0.204204 -1.00707 3.16723 194 159 137 
0.325871 0.183969 3.07605 251 226 204 
-0.970188 -0.417224 3.75414 183 148 126 
-1.4945 0.134444 4.02942 255 254 242 
-0.982603 -0.40371 3.76084 255 238 220 
0.367567 0.0501476 3.0582 255 254 242 
0.222294 0.209719 3.12571 253 235 221 
0.492949 0.139255 2.98521 255 243 223 
-0.152362 -1.15881 3.36004 214 172 147 
-1.73437 -0.327691 4.18272 244 218 203 
-0.119036 -0.676997 3.32331 197 169 147 
0.396571 -0.965654 3.07207 250 234 219 
0.43221 -0.199161 3.03318 185 154 126 
0.470225 -0.832478 3.03316 255 253 239 
0.477324 -0.47419 3.01338 254 233 216 
0.815089 -1.16394 2.86774 255 245 233 
0.520541 -1.03123 3.00214 252 226 209 
-1.64736 -0.615124 4.13722 255 230 208 
-1.51715 0.130742 4.02924 195 158 131 
-0.0980006 -0.717489 3.31068 252 245 227 
-1.33321 -1.20096 3.98323 176 132 105 
-0.982585 -0.404536 3.76193 255 235 214 
0.412334 -0.781741 3.05855 255 242 222 
0.374059 0.268448 3.05034 255 244 229 
0.291544 -0.561265 3.11617 188 151 125 
-0.218414 -0.18881 3.35447 136 126 116 
0.481042 -0.406131 3.01425 188 157 136 
-0.246613 -0.657725 3.39493 189 159 133 
-0.149616 -0.475541 3.33672 253 253 243 
0.831607 -1.25045 2.84622 58 48 38 
-1.80547 0.0626219 4.20729 93 65 51 
0.198525 0.159447 3.1416 255 248 233 
0.505918 -1.0742 3.02423 186 150 124 
-0.966438 -0.67791 3.77265 193 166 147 
0.500053 -0.611801 3.00714 255 255 246 
0.0417927 -0.751686 3.24549 191 160 139 
-0.252331 -1.01638 3.40809 252 228 216 
-0.125965 -0.984451 3.34187 190 153 135 
0.0765719 -0.991286 3.23058 255 237 220 
-0.930491 -0.1421 3.72582 191 160 140 
-1.06901 -0.849511 3.82225 255 238 217 
0.364736 -0.951888 3.09177 193 162 141 
0.183164 -0.228636 3.19325 100 98 99 
0.226195 -1.17655 3.17102 197 167 143 
-0.917848 -0.804767 3.74084 252 235 219 
0.355477 -0.980928 3.0945 255 254 236 
0.306553 0.22677 3.0903 192 161 140 
-0.298416 -0.93475 3.42329 252 218 191 
-0.36637 -0.568842 3.4446 255 246 231 
-1.023 -1.23515 3.81168 199 171 150 
-0.108001 -0.584911 3.31801 255 243 227 
0.153477 -1.1048 3.1956 182 147 125 
0.4773 -0.474213 3.01333 254 233 216 
0.264175 -0.724687 3.13554 254 241 224 
-0.925774 -0.313293 3.72699 183 146 120 
0.456632 -1.11981 3.04347 174 134 108 
0.178059 0.18056 3.15108 247 228 211 
-0.796625 -0.714815 3.67432 247 224 206 
0.0232968 -0.582537 3.26061 239 205 180 
0.311173 -0.751267 3.11065 219 188 168 
0.241947 -0.739281 3.14154 174 143 122 
-0.29407 -0.606496 3.41728 255 255 241 
0.229941 -0.221041 3.1687 98 85 76 
-0.367344 0.0142552 3.4363 239 224 205 
-1.24007 -0.866203 3.92305 183 146 120 
-0.961168 -0.301323 3.74118 255 227 203 
-1.81495 -0.899979 4.21157 92 57 37 
0.200768 -0.27552 3.18429 112 107 104 
0.103875 -1.15894 3.22925 167 126 98 
0.172816 -1.11244 3.19069 255 253 241 
-0.157322 0.217624 3.31628 193 165 143 
-0.966445 -0.677591 3.77035 199 172 155 
0.197792 -1.17028 3.17808 184 152 131 
-0.155505 -0.297686 3.33507 254 226 202 
0.0632423 -0.19982 3.25222 91 88 83 
0.194203 0.384884 3.13795 255 254 237 
0.487569 -1.16251 3.03575 181 141 115 
-0.327381 -0.94383 3.43481 163 131 108 
-1.47458 0.298336 4.00528 255 254 238 
0.150028 -0.373513 3.20813 155 136 121 
-1.08077 -0.623532 3.8279 255 229 207 
-0.859106 -0.517142 3.71156 253 247 231 
-1.64275 -0.771428 4.13182 255 245 226 
0.420925 -0.362493 3.04377 183 147 121 
-0.668995 -1.06165 3.62876 172 138 113 
0.307796 0.226789 3.08984 192 160 139 
-1.79072 -0.172099 4.19385 220 193 172 
-1.07572 -0.718573 3.82608 167 139 118 
-1.57456 -0.610571 4.09716 255 232 211 
-1.01616 -1.06617 3.80509 175 139 115 
-0.124251 -0.923905 3.33731 204 173 155 
-1.72684 -0.169249 4.1662 193 161 140 
0.0090001 0.190908 3.23451 181 158 140 
-1.53495 0.2167 4.03768 255 240 226 
-0.916354 -1.19289 3.75583 153 117 95 
-1.79981 -0.139743 4.20225 198 168 144 
0.278227 -1.09063 3.13408 175 138 112 
-1.64922 0.124334 4.10537 210 175 153 
0.344146 -0.228612 3.07819 194 171 155 
0.310747 -0.854547 3.1128 189 167 146 
0.460466 0.307076 2.99961 255 236 214 
0.181677 -0.31833 3.19445 154 153 149 
-0.970041 -0.386767 3.74898 208 170 149 
-1.74957 -1.17289 4.19518 255 241 225 
-1.56269 -0.697098 4.09221 179 137 113 
0.0532955 -1.17078 3.25408 183 146 119 
0.270954 -0.742095 3.13386 255 254 240 
0.420487 -0.362761 3.04509 180 144 118 
-1.65244 -0.945748 4.1399 248 226 205 
-0.0218518 -1.19227 3.2861 171 125 99 
-0.759896 -1.0318 3.67533 179 147 124 
-0.821201 0.146423 3.65492 199 168 147 
0.0215875 -1.07707 3.26103 191 160 158 
-1.06071 -0.326974 3.79962 250 222 198 
0.296525 -0.43478 3.10769 188 160 139 
0.110454 -1.05862 3.22524 213 181 158 
0.352972 -0.277124 3.07532 249 235 222 
-1.33661 -1.19707 3.98861 165 124 96 
0.383243 -0.969945 3.07894 235 220 201 
-0.296405 -0.30181 3.40806 196 165 145 
0.317287 -0.67746 3.10467 199 174 154 
-0.770427 -0.818638 3.66162 246 223 205 
-0.965227 -1.22767 3.78675 209 184 162 
-0.122135 -0.678747 3.32329 195 160 138 
-1.0831 -0.587598 3.81972 185 151 126 
0.27352 0.243619 3.10105 255 244 227 
0.127157 0.223767 3.17281 255 244 225 
-0.970012 -0.387811 3.75279 208 170 149 
0.312536 -0.766517 3.11057 198 171 150 
-0.166551 -0.777134 3.3547 252 243 226 
-1.36505 -0.670822 3.98139 186 150 124 
-0.171656 -0.957751 3.3601 251 235 219 
-0.913348 -0.937875 3.74615 192 157 135 
-0.280306 -0.0661157 3.39347 180 144 118 
-0.272789 -0.968467 3.41194 189 153 129 
0.136821 0.243201 3.16708 255 247 235 
-0.0221335 -1.19409 3.2907 171 127 100 
0.367823 -0.574081 3.08025 255 247 232 
-0.264436 -0.588279 3.40306 190 169 152 
-1.56996 0.142709 4.0771 173 143 119 
-1.49775 0.230934 4.02034 192 161 140 
0.195406 -1.16694 3.18301 215 181 153 
0.1336 -0.906588 3.20776 255 239 218 
0.46249 -0.27291 3.0217 192 161 140 
0.405111 -0.0598508 3.04301 255 246 228 
0.0186213 -1.05286 3.26526 186 155 135 
-0.797882 -0.656516 3.67669 187 150 124 
-1.62295 -1.04444 4.12905 255 244 225 
0.429496 -0.389601 3.03829 255 255 240 
0.355022 -1.15643 3.09694 254 241 224 
0.368206 0.154709 3.05509 252 236 221 
0.195692 -1.1673 3.18372 215 181 153 
-0.936229 -1.23291 3.76892 217 194 176 
0.243497 -1.16744 3.16862 225 189 165 
-1.64259 -0.838187 4.13576 255 236 219 
0.0324539 -1.07854 3.25743 174 143 122 
-1.02083 -0.947464 3.80504 223 201 180 
0.513408 -0.648975 3.00725 194 166 145 
0.385862 0.167354 3.04504 255 245 233 
0.404036 -0.755581 3.06777 186 151 129 
0.483653 -0.211452 3.00758 253 231 208 
0.0466983 0.317733 3.21083 222 195 176 
-0.341634 -0.359819 3.43121 202 171 151 
-0.853214 -0.55221 3.69857 255 235 218 
0.0765925 0.183638 3.20279 255 252 232 
-0.827321 -0.640889 3.6924 204 172 149 
-0.981374 -0.248633 3.75672 255 236 212 
0.351185 -0.773553 3.09276 231 204 185 
-0.8922 -0.507311 3.71788 192 161 140 
-0.0210435 0.209965 3.24996 205 178 159 
-0.745257 -0.547597 3.64919 203 175 154 
-1.02669 -0.70148 3.79756 208 178 154 
0.372162 0.0708688 3.05247 179 143 121 
-0.940942 -0.295759 3.73925 193 159 134 
0.355261 -0.275678 3.07509 246 233 217 
-1.01008 0.246257 3.75372 183 147 123 
0.498912 -1.10663 3.02789 249 232 216 
-0.0553719 -0.416236 3.28938 198 158 133 
-0.287802 -0.809816 3.41664 255 245 228 
-0.165616 -0.691777 3.35012 182 146 120 
-1.79095 -0.172473 4.19505 230 207 189 
0.204467 0.182767 3.13781 255 238 217 
0.154675 -1.2034 3.20449 240 215 195 
-0.0821299 -0.0259411 3.28607 213 178 156 
0.21535 -0.772203 3.16399 252 234 214 
-1.2444 -0.24238 3.91724 134 123 117 
0.488196 -0.950606 3.02754 192 151 131 
-1.1121 0.388377 3.80498 209 182 163 
-1.81511 -0.652337 4.22747 242 226 210 
-0.129602 -1.00963 3.33799 188 152 128 
-0.820276 -0.147771 3.67412 255 238 224 
0.126262 -1.026 3.20719 186 150 128 
-1.76322 -0.925378 4.2394 116 94 80 
0.0466537 0.258269 3.21404 188 162 145 
0.442246 -0.969981 3.05116 167 131 109 
-0.0767789 -0.968317 3.31397 200 168 145 
-0.0227667 -0.947336 3.28471 196 167 149 
0.339854 -0.996674 3.09747 255 238 224 
-1.08808 -0.765377 3.83812 254 227 210 
0.394149 0.0839678 3.04727 234 213 192 
-0.866412 -0.532379 3.71259 255 249 230 
0.275927 -0.782303 3.13242 181 150 129 
0.234717 -0.699204 3.15331 182 144 121 
0.498415 0.232382 2.98725 255 240 219 
-1.6952 -0.657763 4.16987 243 212 192 
0.659808 -1.21437 2.94441 205 176 158 
-0.0530298 -0.29137 3.2813 205 173 148 
-1.70122 -0.605152 4.16609 248 225 207 
-1.83782 -0.216234 4.17306 122 90 75 
0.514737 -1.14335 3.02221 154 108 84 
-1.47079 -0.457579 4.03082 249 228 209 
-1.6336 -1.25665 4.13982 30 15 8 
-1.42348 -0.462556 4.00858 250 228 205 
-1.19449 -0.951169 3.90381 183 145 122 
0.39397 -0.376725 3.05415 250 237 221 
0.29229 -1.06086 3.12837 180 139 109 
0.442718 -0.0653202 3.02342 201 154 128 
-0.907446 -0.346725 3.71859 255 248 229 
0.170407 -0.152193 3.19797 168 160 149 
0.0978387 0.0482202 3.22949 176 162 162 
-0.279603 0.396063 3.37565 208 180 159 
-0.042138 -0.566754 3.28309 233 212 191 
0.105991 -1.08434 3.22578 254 231 215 
0.0628401 -1.19186 3.24645 182 143 114 
0.122396 -1.00961 3.21138 189 152 126 
0.314649 -1.03817 3.11439 198 161 134 
-1.55013 0.119987 4.0548 195 159 135 
0.195011 -1.17053 3.18159 156 126 102 
-0.980363 -0.210409 3.75573 245 219 196 
0.283121 -0.770196 3.12166 216 191 169 
0.298012 -0.580004 3.11551 252 231 212 
-1.02673 -0.702221 3.80061 210 180 156 
0.462032 -0.0697481 3.01214 255 240 221 
0.83625 -1.25435 2.84075 147 129 117 
0.263896 -0.724994 3.13484 255 251 235 
0.454139 -0.907916 3.04284 183 147 123 
0.361842 -0.336753 3.07275 255 247 235 
0.376713 -0.457578 3.06995 186 151 129 
-0.913363 -0.965076 3.74579 183 151 130 
-1.1018 -0.964464 3.85019 254 233 212 
-0.261418 -0.2053 3.39718 196 160 136 
-0.0203269 -1.00593 3.2896 179 139 113 
-1.0583 -0.651793 3.81137 192 161 140 
0.425653 -0.454998 3.04312 191 150 130 
-0.964931 0.290667 3.73315 255 252 228 
-0.473861 -1.20134 3.51975 168 131 112 
0.362592 -0.72725 3.08332 246 247 233 
-0.790167 -1.04333 3.68231 255 244 232 
-0.640058 -1.19971 3.61182 175 136 107 
0.315331 -0.568578 3.10351 203 172 151 
-1.04998 -1.16348 3.8328 190 153 127 
0.406692 -1.18785 3.07133 223 198 178 
-1.4361 -0.105358 4.0046 187 159 138 
-1.61027 -0.269963 4.1055 177 133 108 
-0.082068 -0.0258583 3.28629 208 173 151 
0.167803 0.0346061 3.20156 123 114 107 
0.0467973 0.31793 3.21112 222 195 176 
0.372371 0.070892 3.05292 179 143 121 
0.419619 -0.445101 3.045 241 215 192 
-0.0888732 -0.0260913 3.29173 206 171 149 
-0.0885552 0.11711 3.28688 196 171 151 
0.409214 0.300492 3.02868 179 148 127 
-0.905778 -0.667363 3.733 251 228 210 
0.395406 0.299405 3.03746 236 214 193 
0.296799 -1.02524 3.12553 182 145 119 
0.353809 -1.08304 3.09037 190 177 161 
0.381459 -0.821043 3.07952 188 152 128 
0.392796 0.433249 3.03836 188 169 154 
-0.819173 -1.15528 3.70347 206 180 163 
-1.01288 -0.58115 3.78878 253 230 212 
-1.33698 -1.25709 3.99237 34 19 14 
-0.665065 -1.06228 3.62601 186 150 126 
-0.420044 -1.19481 3.49542 133 98 70 
0.298015 -0.626367 3.11418 255 252 237 
-1.49452 -0.494973 4.04952 253 228 208 
-0.288749 -0.821308 3.41665 200 166 141 
0.360155 -1.09423 3.09281 255 254 236 
-1.6811 -0.346426 4.14704 181 143 120 
0.158806 -0.390647 3.20343 124 103 82 
0.41145 -0.509797 3.05153 187 148 119 
-0.344997 0.304051 3.41176 199 164 144 
-0.132208 -0.95502 3.34331 255 255 230 
-1.49023 0.397863 4.00876 195 168 151 
0.433731 -0.646866 3.04662 189 161 137 
0.331855 0.238856 3.06917 255 241 230 
0.300613 -0.6998 3.11088 183 146 119 
-0.15904 -0.476936 3.33881 197 169 145 
0.126058 -1.11318 3.21782 187 146 118 
0.319844 -0.818965 3.11217 179 144 122 
0.48773 -1.16232 3.03609 181 141 115 
-0.836864 -0.131685 3.67836 235 214 193 
0.30448 -0.610377 3.1122 188 160 139 
-1.83084 -0.421616 4.18073 140 103 77 
-1.43351 -1.12699 4.03663 181 141 115 
0.270789 0.268339 3.10288 255 251 228 
-1.76091 -1.24766 4.18192 24 20 17 
-1.04747 -0.630619 3.80702 194 166 145 
0.513656 -0.448211 2.99745 241 216 196 
-1.82938 -0.598654 4.19189 101 80 61 
0.268494 -0.43029 3.12176 255 242 221 
-0.332592 -0.81027 3.44121 176 148 126 
-0.977101 -0.56913 3.77104 241 223 209 
0.46205 -0.546996 3.03129 172 145 126 
-1.71005 -0.520023 4.17755 192 162 138 
0.357001 -0.315034 3.07488 205 173 150 
0.328105 -0.780496 3.10295 179 146 127 
-0.186492 -0.110628 3.34446 230 211 194 
-0.21695 -0.0272087 3.35086 129 124 118 
-1.57448 0.34217 4.0648 255 240 225 
0.413517 0.105408 3.03325 255 241 218 
-0.279189 -0.865436 3.41414 248 225 207 
0.368309 0.175264 3.05525 203 172 151 
-1.68145 -0.334493 4.14379 253 226 205 
0.383482 -0.882899 3.0699 251 235 220 
-0.850627 -1.20113 3.72028 184 148 124 
0.299865 0.0561907 3.09267 255 225 202 
0.285735 -1.02615 3.13037 227 192 170 
-1.00752 -0.492915 3.78358 255 242 217 
0.467311 -1.1971 3.04176 243 219 195 
-1.61238 -0.834156 4.11543 189 153 131 
0.448301 -0.907999 3.04492 201 165 141 
0.0860496 -1.03445 3.22816 247 229 215 
0.284501 -0.846698 3.13032 255 241 221 
-0.368597 -0.619689 3.44507 255 254 238 
-0.0824311 0.135104 3.28071 206 181 161 
0.305249 -0.742885 3.1152 255 253 244 
-1.4857 -0.732425 4.0537 255 242 223 
0.411982 -0.509582 3.05189 187 148 119 
-0.927752 -0.43588 3.73394 189 158 137 
0.45083 -0.602848 3.03655 253 241 225 
0.389046 0.349783 3.04059 219 197 176 
-0.0570865 0.0645713 3.26956 212 185 164 
0.0536523 -0.320749 3.26261 220 203 193 
-0.252114 -0.639312 3.3939 255 253 244 
-1.16833 -1.12755 3.89097 255 243 229 
-0.262947 -0.438958 3.39452 249 240 225 
0.0622194 0.296632 3.20316 200 177 159 
-0.0113461 0.418984 3.24112 194 163 142 
-0.170291 0.255658 3.32502 255 250 234 
-0.99128 -0.881569 3.77953 248 237 217 
-0.274904 -1.04159 3.41819 174 137 111 
-0.0935067 -0.437744 3.30872 254 246 233 
0.218811 -0.444238 3.17922 149 131 117 
-0.28632 -0.25737 3.40416 192 156 132 
-1.14966 0.236021 3.83224 189 163 138 
0.146443 -1.02809 3.19589 249 227 206 
-1.06013 0.204118 3.78669 255 241 219 
-1.83034 -0.487494 4.1826 91 53 30 
0.213313 0.21493 3.12811 196 162 134 
0.426316 -1.1699 3.06214 181 144 117 
0.200475 -1.18693 3.17683 248 234 223 
0.327845 -0.674524 3.10056 162 139 121 
0.173049 -0.858172 3.18369 255 235 216 
-0.249545 -1.02582 3.40463 194 160 133 
0.196879 0.187594 3.13996 198 171 152 
-0.913095 -0.71576 3.73849 255 245 229 
-0.87667 -0.919669 3.72878 182 146 124 
0.051216 -0.762718 3.23898 214 184 160 
-0.503288 -1.23592 3.53871 50 28 15 
-0.158049 -1.04716 3.35947 250 223 204 
-1.44733 -0.869661 4.03333 252 249 234 
0.182143 -1.19319 3.18682 184 142 120 
-0.155881 0.0273544 3.32584 177 140 121 
-1.79367 -0.177626 4.20314 242 221 204 
-0.168835 -0.59515 3.3508 247 222 202 
0.297684 -0.964448 3.12452 252 230 216 
-0.0862874 -0.857447 3.31963 242 224 204 
0.273888 -0.551705 3.12265 255 246 225 
-1.35154 0.0848492 3.94162 254 240 227 
0.389593 -1.07255 3.08063 215 193 172 
0.187648 -1.10182 3.18293 255 255 243 
0.18864 -0.688121 3.16655 254 235 218 
-0.87052 -1.00072 3.72321 175 139 115 
-0.912215 -0.249988 3.7198 255 250 231 
-0.135232 -0.294756 3.3218 255 232 211 
0.225844 -1.20298 3.16905 167 130 104 
-1.03484 -0.0198943 3.7737 190 159 138 
-0.028553 -0.988801 3.28873 252 238 227 
0.403618 -1.1495 3.07505 255 231 209 
-0.14197 -0.871566 3.34495 250 228 207 
-1.64363 -0.0572296 4.11594 182 145 119 
-1.43252 -1.10911 4.03502 182 143 114 
0.218316 0.147001 3.13193 194 162 137 
-0.99888 0.0677802 3.75675 222 194 173 
0.311989 -1.04751 3.1177 185 144 116 
-0.927622 -0.957474 3.75297 232 209 191 
-0.764502 -0.447086 3.64651 252 240 226 
-0.894401 -0.456593 3.71869 255 240 220 
-1.47917 -0.383641 4.03531 255 232 216 
0.284174 -0.770997 3.12408 201 174 153 
0.269933 0.165813 3.10202 195 159 137 
-0.905268 -1.19691 3.75187 218 190 168 
0.384161 0.184056 3.04461 255 247 235 
0.422323 -0.472448 3.04345 184 149 127 
-1.03211 -0.563529 3.79979 209 179 155 
0.458771 -0.75639 3.0408 179 144 114 
0.163198 -0.922163 3.18956 194 160 135 
-0.168405 -0.551129 3.34385 115 78 51 
0.241389 -1.1656 3.16348 202 166 142 
-0.281106 0.0272109 3.39262 194 159 139 
-1.79812 -0.0401148 4.19223 238 221 205 
-0.152269 0.0806277 3.32468 208 176 155 
-0.970224 -0.281685 3.75361 188 146 122 
-0.816977 -0.407458 3.67548 255 234 220 
0.440604 -0.0654341 3.02187 201 154 128 
-1.80168 -0.00918527 4.19416 255 244 228 
-0.820305 0.0182008 3.66022 199 167 144 
-0.103339 0.419185 3.28926 255 254 245 
0.316741 0.181483 3.08037 203 171 150 
0.503168 -0.557404 3.00936 220 201 186 
0.37548 0.226002 3.0495 211 180 160 
-0.953064 -0.753572 3.7338 188 147 115 
-0.0335489 -0.686275 3.28074 255 245 227 
0.448125 -0.93598 3.04811 185 150 128 
-0.263007 -0.641718 3.39484 192 160 139 
0.385462 -0.608443 3.07386 255 253 236 
-1.66558 -0.871301 4.14379 245 220 200 
-1.7366 -1.1455 4.20584 186 146 120 
0.020091 -0.378457 3.27939 162 151 145 
0.225829 0.205068 3.12607 255 240 226 
-0.145921 -0.46802 3.33553 255 253 241 
-0.159757 0.316276 3.3216 229 212 194 
-1.05649 -0.953892 3.82398 188 156 135 
0.413453 0.107784 3.03207 245 233 211 
0.378413 -0.372822 3.06502 196 168 147 
-1.56219 0.251799 4.05095 184 157 138 
-1.45578 -0.0409491 4.01222 202 169 150 
0.454544 -0.0602044 3.01504 255 254 235 
0.36517 -0.311806 3.07104 196 166 142 
0.0382123 -1.19285 3.25781 186 150 128 
0.299688 -0.785966 3.11733 247 233 220 
0.350724 -0.575116 3.08383 188 165 147 
0.0510162 -0.422687 3.26375 108 105 100 
-0.853562 -0.454655 3.69664 255 246 230 
-0.926103 -0.918074 3.75917 176 140 116 
-1.80401 0.255144 4.2064 210 179 159 
-0.0190668 0.147781 3.25121 251 224 205 
-0.963992 -0.588709 3.76471 211 181 157 
-0.152022 -0.181367 3.32887 255 237 219 
-1.43754 -0.534988 4.01524 250 231 214 
-0.0596296 -0.574385 3.29972 172 145 124 
-0.8265 -0.619247 3.69448 192 160 137 
0.197357 0.4972 3.13549 255 249 233 
0.372802 -0.358546 3.06575 200 172 148 
-0.280934 -0.0660565 3.39551 187 151 125 
-1.42174 -0.662357 4.02101 183 147 125 
-0.787222 -0.225798 3.66371 255 247 232 
0.22125 0.117731 3.13073 199 171 149 
-0.259781 -0.853989 3.39989 254 235 218 
0.455631 -0.940681 3.0442 255 246 228 
0.0550792 -1.04759 3.24844 255 240 225 
-1.02992 -0.393258 3.79232 191 154 128 
-1.56943 -0.676147 4.09432 255 244 229 
-0.324078 -1.00735 3.43754 246 224 200 
-0.962068 0.00409071 3.73713 200 164 140 
-0.65361 -1.21529 3.62241 184 159 129 
-0.926373 -1.20098 3.76031 255 236 217 
0.453499 -0.178844 3.01914 181 144 118 
-0.0995498 -1.04846 3.31953 202 175 154 
-0.28043 -0.264732 3.40466 253 232 215 
-0.980263 0.286116 3.73867 255 229 204 
0.38571 0.252118 3.04355 253 232 215 
0.388352 -0.298009 3.06065 218 174 139 
-0.283566 -0.486213 3.40776 202 171 153 
-0.8269 -0.529457 3.6879 192 161 133 
-0.0862567 -0.556318 3.30736 251 244 226 
-1.77415 -0.36472 4.19356 174 142 121 
-0.0274641 0.243688 3.2543 255 254 240 
0.477787 -0.601725 3.02192 253 241 227 
-1.81479 -1.08932 4.18938 206 177 159 
0.296131 -0.765846 3.11666 177 150 129 
0.366135 -1.0579 3.08939 164 127 98 
0.478057 -0.363259 3.01515 197 168 150 
-0.277857 -0.690376 3.40256 252 231 212 
0.475034 -1.08957 3.0342 207 169 146 
-1.54342 -0.516011 4.07986 185 154 134 
0.112009 -1.005 3.21426 200 154 128 
-1.07038 -0.413858 3.81205 248 242 228 
0.319888 -0.867511 3.11111 255 254 240 
-1.11814 -0.140576 3.82232 154 145 140 
0.300467 -1.059 3.11807 185 155 131 
-0.885101 -0.666858 3.72184 248 220 199 
0.491098 -1.02825 3.02568 242 217 197 
0.396466 -0.72185 3.07155 255 242 232 
0.435363 -0.459487 3.03912 227 201 176 
0.395572 0.20832 3.03696 193 157 135 
-1.44765 -0.870407 4.03601 255 252 237 
0.371661 -0.681113 3.08306 182 147 125 
0.0435396 0.294619 3.21477 207 178 160 
0.423328 -1.16318 3.06443 177 143 118 
-0.180263 -0.11114 3.36919 206 187 170 
-1.767 -0.117836 4.19442 188 153 131 
0.438935 -0.0661799 3.02527 207 160 132 
-0.186446 -0.0384057 3.3594 226 205 188 
-0.828265 -0.194157 3.67337 199 176 158 
-1.31866 0.186147 3.91844 199 162 136 
-0.0620813 -0.582869 3.29452 186 168 148 
0.376654 0.256393 3.04761 201 169 148 
-1.32209 0.0771512 3.95103 206 176 152 
-0.364397 -0.626097 3.43623 253 246 230 
0.385782 0.361257 3.04222 206 175 155 
-0.833389 -0.904648 3.70293 255 246 231 
-0.00181805 0.150222 3.23554 160 133 112 
0.408578 -0.84327 3.06207 255 253 238 
-1.61038 0.0941752 4.09411 212 179 162 
-1.81912 -0.875383 4.20602 107 71 47 
-0.107452 -0.845375 3.32976 255 239 220 
-1.7293 -0.489223 4.1782 177 145 122 
-0.317926 -0.41405 3.42486 236 217 200 
0.2203 0.145623 3.12855 190 160 136 
-1.81843 0.1837 4.21191 96 70 57 
-1.33935 -1.06891 3.98215 229 201 177 
0.00905859 0.21879 3.23233 255 246 231 
0.298542 -0.872793 3.12159 174 143 122 
-1.12847 -0.628286 3.85053 185 151 126 
-0.0655323 -0.480482 3.29254 245 229 216 
0.387742 0.361411 3.04185 202 171 151 
-1.11428 -0.873813 3.85422 185 143 119 
-0.112848 0.089619 3.30372 255 255 244 
0.354779 -1.05718 3.08609 182 142 116 
-0.927917 -0.760742 3.74267 178 150 128 
0.0960866 0.227389 3.18913 255 252 233 
0.496228 -0.608336 3.00937 253 251 239 
-0.259949 -0.853807 3.39944 255 235 218 
-1.65295 -0.95532 4.14283 220 195 175 
-0.102438 -0.965156 3.32822 211 183 162 
0.0429566 -1.07768 3.25464 164 127 100 
-0.0959586 -1.19828 3.32898 176 139 112 
0.0893834 -1.21144 3.23036 185 147 124 
-0.87826 -0.934332 3.73352 248 226 212 
0.00924268 -1.15962 3.27684 202 164 141 
-1.21913 -0.692476 3.89445 222 191 171 
-1.11294 0.214649 3.80698 186 158 137 
-1.62326 -0.749439 4.12884 182 141 111 
0.356316 -0.11633 3.07171 250 228 207 
0.308014 -0.541542 3.10409 252 235 219 
0.399 0.302734 3.03611 247 225 204 
-1.6838 0.449265 4.11417 201 163 140 
0.320616 -0.859326 3.10368 250 238 224 
0.0838691 -1.21766 3.24013 210 179 158 
-0.738955 -1.24176 3.67095 69 47 36 
-1.56668 -1.15731 4.09946 240 213 192 
-0.988107 -0.263018 3.76731 195 153 129 
0.140166 0.226747 3.16712 237 225 213 
-0.103691 0.447221 3.28842 255 242 227 
-1.50728 0.199556 4.01664 212 159 127 
0.291194 -1.11647 3.12948 255 244 228 
0.330399 -0.437214 3.08969 196 167 149 
0.468812 -0.0607176 3.01136 195 164 144 
0.460513 -0.0781269 3.01371 249 227 204 
-1.57833 0.488969 4.05836 248 226 203 
-1.04301 0.132224 3.77319 192 160 139 
-0.969797 -0.989038 3.77955 171 127 102 
0.46687 -0.195144 3.01688 215 185 161 
0.498241 0.435706 2.97824 207 175 150 
0.213448 -1.17941 3.17209 255 254 250 
0.407315 -1.08271 3.06902 176 139 113 
0.164607 0.249649 3.15057 175 144 124 
-0.898942 -0.366681 3.71795 206 181 161 
0.409079 -0.99049 3.06611 227 202 180 
-0.936135 -1.23551 3.77797 230 207 189 
0.395873 -0.550558 3.06181 222 202 178 
-1.83507 -0.465186 4.18554 124 86 63 
-1.00334 -0.220468 3.7683 180 148 125 
-0.795988 -0.261015 3.66198 245 228 208 
-1.33343 -1.23268 3.98655 166 132 107 
0.428898 -1.21769 3.04959 231 210 189 
-0.169546 -0.94641 3.36249 190 153 127 
0.0667908 -0.753448 3.23797 202 171 150 
-0.758497 -0.235963 3.64464 179 152 133 
0.452212 -0.0484429 3.01682 255 243 229 
0.237728 0.221255 3.12265 255 252 236 
0.386712 -0.686646 3.0751 181 141 115 
0.374406 -0.690557 3.0811 199 182 166 
0.413974 -0.54602 3.05228 193 162 141 
0.361094 -0.135581 3.06859 255 235 213 
-1.03013 -1.14436 3.81298 205 177 153 
-0.0584536 0.254132 3.27065 241 229 213 
-1.79729 -0.0338469 4.19427 241 228 212 
0.395662 -0.875283 3.07058 173 138 116 
0.355049 0.116205 3.06211 254 235 220 
-1.62719 -0.352892 4.12252 236 211 189 
0.497752 0.212163 2.9851 254 235 220 
0.273969 -0.572585 3.12295 251 230 211 
0.32374 0.0623548 3.08048 229 208 189 
-1.06138 -0.889962 3.81912 175 140 118 
-0.779007 -0.398236 3.65223 171 141 117 
0.333094 -0.436977 3.08775 197 170 151 
-0.112149 -0.544332 3.31508 250 228 207 
0.312448 -0.644133 3.10718 179 151 130 
-1.43733 -0.534422 4.01338 250 231 214 
-0.0943874 -0.581756 3.3146 200 172 150 
0.21027 -1.16781 3.18016 194 158 136 
0.423175 -1.15932 3.06583 193 158 136 
-0.344453 -0.675526 3.4367 201 176 156 
-1.0833 0.144264 3.79834 251 221 197 
-1.03212 -0.564041 3.80123 219 188 167 
-0.997093 -0.933265 3.79308 188 156 135 
0.160377 -0.995487 3.19432 249 233 218 
-0.30953 -0.185564 3.40873 233 205 183 
0.357948 -0.744991 3.0949 188 156 133 
-1.01993 -0.0218232 3.77214 204 172 149 
-1.46048 -0.11557 4.01839 245 217 193 
0.116588 0.47723 3.17758 217 198 183 
-1.11997 0.194308 3.80783 193 162 141 
0.24152 0.375513 3.11464 255 249 232 
0.371116 -1.04405 3.08864 194 157 131 
0.350239 -1.17785 3.10427 173 133 107 
-1.83574 0.0779132 4.20494 39 25 16 
0.159468 -0.991539 3.19971 255 241 227 
0.0793903 0.228962 3.19636 255 243 224 
0.364924 -0.640761 3.08025 184 156 134 
0.229551 0.206589 3.12543 255 247 231 
0.325405 -1.19677 3.11817 165 128 101 
0.187516 -1.18149 3.18325 184 142 120 
-1.65317 -0.955716 4.14413 220 195 175 
0.235952 -1.04714 3.15228 253 247 231 
-0.653333 -1.07349 3.61299 170 136 111 
-0.0100702 -0.958934 3.27898 255 239 225 
0.180525 0.306097 3.14565 255 254 240 
0.227084 0.107368 3.12555 252 225 206 
-0.0178578 0.160592 3.24886 245 220 200 
-0.9029 -0.740834 3.73162 254 237 217 
-1.77696 -0.263664 4.19387 176 145 125 
-1.63661 -0.911056 4.13543 196 164 141 
0.0613262 0.407977 3.20235 197 175 161 
-1.06262 0.187007 3.7831 191 154 128 
0.35123 0.0294271 3.0672 244 221 203 
-0.986184 -0.280148 3.76031 191 157 132 
0.0418866 -1.21654 3.2568 181 153 132 
-1.6807 -0.686806 4.15323 255 225 204 
-0.993394 -0.624641 3.78119 255 249 229 
0.211239 0.188604 3.1332 204 181 163 
-0.144277 -1.17147 3.35772 173 138 110 
-0.861251 -0.475125 3.69624 192 161 140 
-0.822857 -0.641256 3.69143 206 174 151 
0.340634 -0.773404 3.09615 255 246 230 
-0.936973 0.245975 3.71593 244 221 203 
-0.762446 -0.222928 3.64223 255 244 224 
0.446024 0.296253 3.00656 255 250 234 
0.417728 -0.867574 3.06045 255 249 235 
0.200299 -0.744725 3.16442 205 180 158 
-1.4769 -0.116084 4.02294 255 254 239 
-0.295058 -0.263315 3.41075 246 225 206 
0.381574 -0.821858 3.07719 181 145 121 
-0.132909 -0.467769 3.32554 247 241 229 
-1.63315 -0.673248 4.11951 191 155 133 
-0.0973528 -0.58036 3.31518 206 180 155 
0.445776 -0.434225 3.02939 181 145 123 
-1.13058 -0.851378 3.85537 185 145 119 
-1.47974 -0.380853 4.03248 237 214 196 
-1.21046 -0.678378 3.89772 255 233 213 
-1.59365 0.44721 4.07257 202 167 145 
0.377183 -0.751044 3.07692 246 222 198 
0.422887 -0.597651 3.05125 250 246 234 
-1.70946 -0.538836 4.1699 184 144 119 
0.0636756 0.24555 3.20803 255 252 236 
-1.80898 -0.140915 4.19111 85 67 55 
0.325434 -1.19695 3.11821 165 128 101 
0.219796 0.157791 3.12697 255 237 220 
0.227741 -1.0291 3.15432 255 245 228 
-1.34806 -0.610203 3.96967 255 228 206 
0.431742 -0.396647 3.03764 247 239 226 
0.0287369 0.29795 3.22501 253 254 238 
0.513124 -0.712983 3.00887 176 145 127 
-0.166755 -1.03945 3.36225 184 148 124 
-0.884258 -0.364968 3.70812 232 211 192 
-0.268701 0.158731 3.38401 211 180 159 
0.491267 -0.542466 3.01219 225 197 176 
-0.0713692 0.254514 3.27252 198 171 152 
0.440934 -0.402368 3.03427 172 141 113 
-1.42834 -0.932474 4.02361 200 170 146 
-0.096041 -0.848412 3.32195 255 240 219 
0.33963 -0.993217 3.09887 254 240 229 
0.404981 -0.822917 3.06121 177 146 126 
0.3272 -1.05566 3.10596 244 226 206 
-0.00482923 0.171188 3.24398 203 172 152 
-0.866905 0.220866 3.67425 199 167 146 
0.279381 -0.406338 3.11749 246 225 208 
-0.267697 -0.693293 3.39941 255 251 233 
-1.51932 0.0352227 4.04187 236 219 203 
0.130454 -1.12255 3.20717 172 128 99 
0.400193 -0.613089 3.06061 186 158 137 
-1.38918 -1.16349 4.00798 176 136 110 
-1.61763 0.4324 4.08975 227 202 182 
-1.49971 -0.744297 4.05673 185 148 121 
0.152983 -0.974005 3.20155 246 227 210 
-1.54256 -0.337246 4.06957 181 158 140 
-1.56421 -0.533813 4.07814 251 229 216 
0.383754 -0.433315 3.06383 193 165 143 
0.430616 -1.1744 3.07082 181 144 117 
-0.111715 -0.775835 3.32978 251 238 222 
-0.294618 -0.801566 3.41966 202 173 155 
0.158807 -0.391848 3.20969 120 99 78 
0.379561 0.167114 3.04933 255 253 242 
-1.25096 -0.252773 3.93928 101 94 88 
0.342187 -0.337902 3.0813 255 243 230 
