ply                 
format ascii 1.0    
element vertex 1239
property float x    
property float y    
property float z    
property uchar red  
property uchar green
property uchar blue 
end_header          
-0.2638 0.823738 2.34603 135 129 117 
-0.252476 0.824497 2.348 145 139 127 
-0.225129 0.826808 2.35309 154 145 136 
-0.186884 0.829447 2.36111 146 137 128 
-0.174538 0.829923 2.36227 181 171 162 
-0.245377 0.825919 2.3491 75 72 63 
-0.232904 0.826578 2.35242 154 150 141 
-0.161323 0.831599 2.365 150 141 132 
-0.172149 0.832005 2.36289 70 61 52 
-0.21124 0.831359 2.35601 42 33 24 
-0.369242 0.818864 2.32263 204 203 199 
-0.268768 0.826849 2.34417 228 220 209 
-0.232194 0.829443 2.35176 243 234 225 
-0.18192 0.833183 2.36235 74 63 57 
-0.310571 0.82466 2.33625 224 221 216 
-0.26928 0.826347 2.34266 236 228 217 
-0.338511 0.823357 2.32945 134 127 119 
-0.316871 0.823765 2.33256 209 206 201 
-0.223331 0.831529 2.35411 173 163 154 
-0.293942 0.827094 2.33837 222 215 209 
-0.260297 0.829478 2.34632 155 147 136 
-0.233108 0.831628 2.3505 132 119 111 
-0.230431 0.833102 2.35118 188 175 167 
-0.217814 0.831987 2.35205 179 171 160 
-0.290911 0.828664 2.33872 148 143 137 
-0.283846 0.829577 2.34003 99 90 83 
-0.236903 0.832838 2.34961 76 61 54 
-0.233668 0.83439 2.35177 159 144 137 
-0.329924 0.826913 2.33028 136 132 120 
-0.265472 0.831047 2.34401 115 106 97 
-0.228744 0.834292 2.35079 124 111 103 
-0.218308 0.835696 2.3535 69 60 53 
-0.348289 0.826535 2.32599 136 129 123 
-0.338619 0.827047 2.32813 121 112 105 
-0.298738 0.829996 2.33628 151 148 143 
-0.284936 0.831329 2.33868 199 192 184 
-0.256486 0.833363 2.3449 112 102 92 
-0.253889 0.834101 2.34603 171 158 149 
-0.224213 0.836317 2.35157 94 84 75 
-0.31435 0.829898 2.33267 125 120 116 
-0.259728 0.834496 2.34504 180 170 161 
-0.31199 0.831226 2.33406 204 199 195 
-0.277729 0.834205 2.34184 217 210 200 
-0.26993 0.834241 2.34103 196 189 181 
-0.284983 0.834087 2.33785 81 77 68 
-0.282527 0.834717 2.33864 208 204 195 
-0.279683 0.835223 2.33934 77 70 60 
-0.335705 0.831797 2.32839 138 129 122 
-0.279464 0.83567 2.33998 68 61 51 
-0.272197 0.83628 2.34134 58 49 42 
-0.330523 0.833706 2.33058 221 216 210 
-0.311792 0.834651 2.33332 120 115 111 
-0.308897 0.834637 2.3338 192 187 183 
-0.253211 0.838134 2.34514 138 125 117 
-0.329031 0.833647 2.32999 225 222 215 
-0.320969 0.835097 2.33143 122 118 109 
-0.336652 0.834192 2.32807 214 205 200 
-0.324925 0.835619 2.33416 123 118 112 
-0.323856 0.835067 2.33067 187 183 174 
-0.317934 0.834356 2.33036 158 153 149 
-0.387428 0.831133 2.3178 198 197 193 
-0.358563 0.832799 2.32311 113 106 98 
-0.338764 0.835075 2.32768 137 128 121 
-0.349851 0.834432 2.32585 232 222 213 
-0.310557 0.837016 2.33207 125 120 116 
-0.330891 0.83661 2.32747 159 154 150 
-0.327044 0.83721 2.3293 170 165 159 
-0.333384 0.837043 2.32776 46 38 35 
-0.353095 0.83659 2.32333 47 40 32 
-0.34602 0.837464 2.32459 196 189 181 
-0.37599 0.835804 2.31867 88 82 82 
-0.385688 0.836566 2.31581 85 82 75 
-0.348423 0.838816 2.32327 50 43 35 
-0.38338 0.839841 2.31595 66 62 53 
-0.381227 0.839537 2.31604 113 108 102 
-0.378671 0.84058 2.31545 35 28 22 
-0.36781 0.840287 2.31293 235 223 207 
-0.365755 0.840974 2.3114 16 4 0 
0.0852687 0.81167 2.22288 109 99 98 
-0.510743 0.769368 2.09538 110 97 81 
-0.466369 0.794188 2.10349 133 123 111 
-0.510866 0.792288 2.09474 93 81 69 
-0.509151 0.824116 2.09322 103 93 81 
-0.467432 0.834668 2.0983 73 63 53 
-0.48976 0.836636 2.09079 93 85 72 
-0.485161 0.837706 2.09186 100 93 77 
-0.0625795 -0.799422 2.64249 41 19 6 
0.287159 -0.748394 2.68387 155 141 140 
0.289824 -0.728981 2.69517 185 175 174 
0.294121 -0.721868 2.69949 17 0 0 
0.452047 -0.442468 2.71632 35 49 34 
0.362413 -0.407615 2.69292 212 234 213 
0.348734 -0.405186 2.68959 188 214 187 
0.367951 -0.404094 2.69588 220 242 219 
0.35454 -0.395526 2.68967 216 235 216 
0.244286 -0.386709 2.67201 231 237 233 
0.245276 -0.373424 2.66992 228 240 226 
0.32834 -0.366993 2.68122 224 238 225 
0.374291 -0.365692 2.68791 60 88 65 
0.310355 -0.338046 2.6745 186 216 190 
0.345314 -0.33916 2.67935 225 250 228 
0.363787 -0.339719 2.68147 232 253 236 
0.250685 -0.334827 2.66159 25 45 33 
0.402614 -0.337002 2.6884 216 249 222 
0.319383 -0.323628 2.67214 43 61 45 
0.293497 -0.321251 2.66797 88 117 97 
0.246357 -0.319166 2.66047 230 232 227 
0.250292 -0.30032 2.65855 234 240 226 
0.244329 -0.287352 2.6576 171 161 149 
0.246932 -0.275294 2.65324 236 227 218 
0.245815 -0.275064 2.65104 229 221 210 
0.34906 -0.271843 2.66779 235 249 234 
0.340805 -0.265296 2.6649 227 250 230 
0.376074 -0.264341 2.67111 214 233 214 
0.397462 -0.263753 2.67472 244 255 246 
0.542038 -0.25964 2.70094 218 206 190 
0.365057 -0.252474 2.66647 225 255 227 
0.438548 -0.230053 2.67634 217 248 217 
0.36373 -0.226398 2.66207 222 248 223 
0.385576 -0.222479 2.66604 71 105 78 
0.297075 -0.219393 2.65077 62 71 66 
0.411774 -0.212801 2.6667 69 97 75 
0.34891 -0.209452 2.65667 84 100 89 
0.358885 -0.209944 2.66128 186 216 192 
0.431845 -0.209567 2.67144 217 239 216 
0.274393 -0.200638 2.64454 217 242 221 
0.405119 -0.18502 2.66232 54 86 62 
0.372304 -0.180974 2.6568 230 246 233 
0.405017 -0.181404 2.66246 222 251 231 
0.414438 -0.181037 2.66303 228 253 232 
0.546668 -0.181593 2.68812 90 77 69 
0.314756 -0.178341 2.64534 220 255 225 
0.368872 -0.179325 2.65619 230 247 231 
0.55176 -0.180912 2.69157 237 224 218 
0.413702 -0.176847 2.66229 94 122 99 
0.325553 -0.173532 2.64828 62 101 74 
0.499147 -0.16784 2.67916 239 228 222 
0.369727 -0.159983 2.65186 235 255 235 
0.371836 -0.160916 2.65354 214 233 214 
0.50215 -0.162127 2.67934 237 227 218 
0.5771 -0.15634 2.69164 109 96 87 
0.263069 -0.119812 2.62773 122 144 121 
-0.144086 -0.0822734 2.55553 156 154 155 
-0.00151453 -0.0744463 2.57789 94 94 94 
-0.162464 -0.0632672 2.54551 204 204 204 
-0.330357 -0.0596561 2.51278 25 25 25 
-0.249261 -0.0127407 2.51896 38 36 37 
-0.310953 0.0490076 2.49594 191 191 191 
-0.266049 0.104 2.4939 109 111 110 
0.0999864 0.117348 2.55759 221 221 221 
0.10029 0.124425 2.55411 37 37 37 
-0.430406 0.130804 2.45307 189 189 191 
-0.163145 0.134106 2.50777 222 220 221 
-0.0144958 0.166266 2.52896 183 181 184 
-0.0409173 0.173489 2.52264 227 223 224 
-0.318622 0.171683 2.47052 121 121 123 
0.0111742 0.180435 2.53038 58 54 55 
0.0146848 0.186811 2.53171 123 119 118 
0.465359 0.201182 2.60518 249 247 248 
-0.363528 0.196888 2.45682 156 156 158 
-0.126354 0.204509 2.49937 88 88 88 
-0.38192 0.215243 2.4486 111 112 114 
-0.140505 0.226875 2.49456 213 213 213 
0.0162097 0.235305 2.52366 174 170 169 
-0.0268177 0.235435 2.51319 187 174 168 
-0.368787 0.230098 2.44806 225 225 227 
-0.20783 0.263298 2.47432 205 205 205 
-0.176366 0.272107 2.47956 53 53 53 
-0.0807621 0.376087 2.47501 201 195 195 
-0.18385 0.377472 2.4553 182 178 166 
-0.104327 0.391973 2.46864 193 191 192 
0.0593258 0.400537 2.24201 117 106 100 
-0.177657 0.450984 2.44071 154 150 139 
0.0374249 0.426469 2.24138 113 97 84 
0.0525866 0.430034 2.23984 200 194 194 
0.295162 0.485186 2.51747 104 95 86 
-0.351294 0.462023 2.40273 152 149 144 
-0.341568 0.46332 2.40676 157 154 149 
0.0600828 0.434079 2.23951 83 81 84 
0.0462247 0.44299 2.23925 223 207 191 
-0.255244 0.47976 2.41882 160 156 147 
0.0281763 0.448825 2.24466 98 82 69 
-0.262572 0.510406 2.41164 147 143 132 
0.0375562 0.475917 2.2412 171 153 139 
0.266154 0.543555 2.50532 175 165 155 
0.0479737 0.48574 2.23701 169 153 138 
0.0686031 0.528173 2.23582 81 65 50 
0.0627013 0.545327 2.23533 108 96 80 
0.0634604 0.551728 2.2348 84 71 55 
-0.192746 0.607655 2.40529 171 169 157 
-0.233707 0.60946 2.39441 168 165 160 
-0.233791 0.617332 2.39354 166 163 158 
0.06882 0.588245 2.23482 121 104 86 
-0.372375 0.626038 2.36339 126 122 119 
0.0736372 0.592594 2.23277 117 101 78 
-0.743706 0.653679 2.27836 148 144 135 
0.0711291 0.643737 2.23013 215 198 180 
0.0498878 0.661877 2.23255 176 159 141 
0.42802 0.743566 2.50434 160 160 152 
0.268042 0.754134 2.4699 173 174 166 
-0.291584 0.73124 2.35789 82 79 72 
0.0666735 0.691972 2.2282 166 153 137 
-0.229361 0.738636 2.36931 164 163 159 
0.460982 0.797336 2.50057 186 179 171 
0.322296 0.799255 2.47432 235 233 221 
0.360283 0.80271 2.48223 195 186 177 
0.356475 0.802292 2.4803 101 92 83 
-0.0403465 0.780567 2.40134 130 126 117 
0.30408 0.803444 2.46805 127 123 112 
-0.0211187 0.786285 2.40454 122 117 111 
0.296976 0.806321 2.46536 101 97 86 
0.29243 0.808114 2.46294 175 172 157 
0.280719 0.811423 2.46365 192 191 171 
0.239921 0.810642 2.45408 88 85 66 
-0.00834016 0.800664 2.40403 153 148 145 
-0.0543427 0.80336 2.39365 173 168 165 
-0.0390953 0.809872 2.39362 142 134 132 
-0.0380003 0.813412 2.39471 43 38 34 
-0.0770545 0.817847 2.38676 200 191 182 
-0.103023 0.821412 2.37996 216 204 190 
-0.115002 0.821533 2.37619 184 172 160 
-0.182656 0.822484 2.36391 121 111 99 
-0.202144 0.822677 2.35872 135 131 119 
-0.271061 0.821326 2.34362 226 223 214 
-0.167233 0.829557 2.36423 90 82 71 
-0.238478 0.824892 2.35174 85 82 75 
-0.198499 0.829733 2.35772 54 47 37 
-0.17226 0.83186 2.3626 70 61 52 
-0.269365 0.826301 2.3424 236 228 217 
-0.329876 0.826919 2.33044 136 132 120 
-0.338155 0.827544 2.32963 128 119 112 
-0.290963 0.830945 2.33811 225 222 215 
-0.270104 0.832659 2.34202 211 204 194 
-0.329634 0.833805 2.33012 225 222 215 
-0.315731 0.835057 2.3331 182 177 173 
-0.34896 0.833497 2.32321 232 222 213 
-0.34602 0.837464 2.32459 196 189 181 
-0.126925 -0.809434 2.77978 24 6 0 
0.285389 -0.752411 2.68042 14 0 0 
0.277956 -0.742439 2.6862 31 18 10 
0.273907 -0.732161 2.68857 9 0 0 
0.199468 -0.624565 2.70782 114 97 77 
-0.0387154 -0.591452 2.65553 137 121 106 
0.244498 -0.438283 2.67736 55 78 52 
0.304221 -0.426613 2.68809 203 226 206 
0.453869 -0.43133 2.71747 63 75 61 
0.320398 -0.425391 2.69389 210 234 212 
0.304106 -0.415896 2.68626 69 86 70 
0.302707 -0.411356 2.68351 217 239 218 
0.348428 -0.411016 2.68857 205 215 204 
0.320154 -0.410915 2.68943 218 234 224 
0.335253 -0.405212 2.68933 213 218 211 
0.350136 -0.406526 2.6922 216 229 211 
0.235787 -0.400838 2.67265 156 146 136 
0.346285 -0.396137 2.69206 221 231 220 
0.312047 -0.391993 2.68517 38 62 46 
0.229867 -0.366144 2.67011 131 126 123 
0.249313 -0.357346 2.66693 162 190 165 
0.248673 -0.351169 2.66589 73 99 74 
0.364391 -0.339621 2.68257 218 239 222 
0.324871 -0.337542 2.67718 219 240 221 
0.403872 -0.33703 2.69063 216 253 222 
0.242992 -0.333892 2.66042 58 54 51 
0.248431 -0.312321 2.66066 224 234 225 
0.306939 -0.312967 2.66989 41 53 43 
0.250204 -0.299773 2.65892 234 240 226 
0.323346 -0.279044 2.66434 221 251 227 
0.349264 -0.271462 2.66815 230 244 229 
0.388143 -0.268165 2.67734 67 84 74 
0.396243 -0.26716 2.67596 223 237 220 
0.396053 -0.255986 2.6745 219 253 226 
0.293977 -0.223571 2.64851 226 251 232 
0.354119 -0.225283 2.65996 207 231 209 
0.364031 -0.226325 2.66261 222 248 223 
0.339251 -0.224229 2.65348 214 237 219 
0.316599 -0.21845 2.65526 208 226 212 
0.328215 -0.223737 2.70677 70 81 73 
0.37271 -0.220706 2.66431 70 98 76 
0.385489 -0.222488 2.66588 71 105 78 
0.371041 -0.219771 2.66129 85 117 93 
0.528745 -0.220513 2.69308 70 57 48 
0.413354 -0.213926 2.66949 72 108 80 
0.518866 -0.214598 2.69015 19 9 0 
0.274173 -0.207016 2.64709 58 76 64 
0.315548 -0.206747 2.64918 211 236 214 
0.493149 -0.20709 2.68343 138 128 116 
0.270742 -0.20149 2.64221 227 245 229 
0.444598 -0.201126 2.67236 216 245 217 
0.328912 -0.179861 2.65223 211 234 214 
0.481486 -0.181262 2.67732 26 13 5 
0.358561 -0.179527 2.65519 181 207 182 
0.605064 -0.179363 2.69674 59 47 31 
0.353309 -0.174009 2.65539 86 122 96 
0.390744 -0.175319 2.65731 61 91 65 
0.32537 -0.173121 2.64793 62 101 74 
0.414239 -0.167631 2.66072 99 125 98 
0.502682 -0.167367 2.68302 239 229 220 
0.327452 -0.163679 2.64926 75 107 83 
0.371421 -0.16085 2.65279 214 233 214 
0.322931 -0.154324 2.64327 65 91 66 
-0.321276 -0.141004 2.52876 157 153 150 
0.61087 -0.145942 2.69867 91 78 69 
0.622457 -0.139809 2.69648 131 122 107 
-0.107383 -0.0763276 2.55559 119 118 116 
-0.111028 -0.071202 2.55723 168 166 167 
-0.328017 -0.0644621 2.50812 103 101 102 
-0.335121 -0.0621409 2.51464 180 178 179 
-0.193744 -0.0633334 2.54451 226 226 226 
-0.340769 -0.05943 2.51018 56 56 56 
-0.118659 -0.0615486 2.55153 158 156 157 
-0.193992 -0.053797 2.54004 117 117 117 
-0.149736 -0.051092 2.54623 218 218 218 
-0.117822 -0.0491554 2.54958 228 227 225 
-0.141805 -0.0424589 2.54643 226 226 226 
-0.28309 -0.0370286 2.51761 217 221 222 
-0.306503 -0.0272819 2.51389 211 211 213 
-0.199372 -0.0244037 2.53184 193 193 193 
-0.204317 -0.016538 2.53035 40 38 39 
-0.199947 -0.0135186 2.52962 205 205 205 
-0.293197 0.0254863 2.50241 196 196 196 
-0.290865 0.0368915 2.50152 199 197 198 
-0.311541 0.0432041 2.49273 52 52 52 
-0.413044 0.0506081 2.47249 160 160 160 
-0.336475 0.0532483 2.48949 203 203 205 
0.0180016 0.0730333 2.55207 215 216 220 
-0.36319 0.0819413 2.47994 210 210 212 
-0.212247 0.0889133 2.51233 16 14 15 
-0.42665 0.0927785 2.46384 14 14 16 
0.222693 0.0983926 2.58279 118 116 117 
-0.444446 0.0967567 2.45716 34 34 36 
0.100539 0.103131 2.55989 213 213 213 
0.162119 0.111046 2.57177 90 89 87 
0.107409 0.121811 2.55886 224 224 224 
0.132805 0.123627 2.56099 232 234 233 
0.10118 0.12454 2.55602 39 39 39 
-0.437916 0.130543 2.45249 121 121 123 
-0.175761 0.133689 2.50594 224 226 225 
-0.163386 0.133859 2.50711 222 220 221 
-0.148426 0.139824 2.51075 49 49 49 
-0.171762 0.145643 2.50453 169 169 171 
-0.160567 0.144686 2.50322 217 217 219 
0.125411 0.154112 2.55471 73 73 73 
-0.0397515 0.174509 2.52427 231 227 228 
-0.31663 0.177669 2.46989 83 83 85 
0.458757 0.199551 2.60294 55 53 54 
-0.0807465 0.195618 2.51177 83 81 82 
-0.31551 0.195271 2.46621 139 139 141 
-0.313174 0.201998 2.4684 49 49 51 
0.0116368 0.21591 2.52364 76 75 73 
-0.24712 0.216089 2.47648 197 197 197 
-0.153693 0.217588 2.49534 220 220 220 
-0.269122 0.223163 2.46961 223 223 225 
0.00200496 0.24428 2.52001 82 81 79 
0.0186432 0.248907 2.51886 41 37 36 
-0.138059 0.253626 2.48751 22 22 22 
-0.130335 0.256841 2.49111 188 188 188 
-0.207938 0.263457 2.474 220 220 220 
-0.196987 0.265239 2.47599 27 27 27 
-0.175378 0.273211 2.47885 53 53 53 
-0.111312 0.299552 2.48518 64 60 57 
-0.237477 0.37212 2.44517 58 54 51 
-0.219136 0.374758 2.44963 143 139 128 
-0.08539 0.378331 2.47151 15 17 16 
-0.207348 0.378755 2.45131 110 105 101 
-0.105152 0.393259 2.46697 213 212 210 
-0.0985343 0.419713 2.46262 29 28 26 
0.0515387 0.398946 2.24061 113 108 102 
-0.0700461 0.443564 2.46482 163 159 150 
-0.264539 0.461872 2.4208 153 149 140 
-0.292618 0.462964 2.41438 160 158 146 
-0.220878 0.481796 2.42524 168 164 152 
0.0569971 0.444733 2.23873 249 236 227 
0.04478 0.467801 2.23908 187 171 155 
-0.120044 0.512559 2.4379 163 160 151 
-0.211038 0.5626 2.40966 160 156 145 
0.0581044 0.521021 2.23404 75 66 51 
-0.214206 0.567148 2.40744 173 169 158 
-0.336382 0.562481 2.3852 165 164 159 
0.946804 0.776383 3.14678 167 138 132 
-0.218238 0.616482 2.3984 189 184 178 
-0.0391775 0.630982 2.43076 125 117 104 
-0.335373 0.669582 2.36176 153 152 147 
-0.0582289 0.684073 2.41544 113 109 100 
0.286785 0.716621 2.47775 180 178 166 
0.357647 0.765844 2.48575 159 158 153 
0.404493 0.782139 2.4942 144 143 138 
-0.104447 0.753378 2.39223 171 168 163 
0.407168 0.797187 2.4847 150 146 143 
0.26158 0.792221 2.46208 140 136 133 
-0.0398861 0.781074 2.40239 120 117 108 
0.324071 0.802567 2.47193 135 133 121 
0.291937 0.804533 2.46589 216 210 196 
-0.781222 0.734888 2.25115 152 148 139 
0.30182 0.809487 2.46894 41 38 29 
-0.198805 0.784449 2.3667 159 158 154 
-0.00821172 0.800888 2.4043 153 148 145 
-0.0541517 0.803505 2.3941 189 184 181 
-0.258481 0.792324 2.35407 186 185 183 
-0.106815 0.805816 2.38352 159 154 148 
-0.0832553 0.807147 2.38857 159 153 141 
-0.100778 0.806138 2.38293 199 192 184 
-0.193586 0.80692 2.36372 131 128 123 
-0.190137 0.809494 2.36257 221 216 210 
-0.186825 0.81008 2.36391 132 128 119 
-0.223971 0.822891 2.35368 128 123 119 
-0.162179 0.826298 2.36731 161 153 142 
-0.360641 0.817615 2.33001 210 210 202 
-0.178183 0.828456 2.36056 242 232 223 
-0.198458 0.829984 2.35782 54 47 37 
-0.192642 0.831035 2.35677 168 159 150 
-0.356869 0.824039 2.32744 124 120 117 
-0.243234 0.832001 2.34651 49 40 35 
-0.221676 0.835979 2.35461 139 129 120 
-0.330677 0.826945 2.32856 151 147 135 
-0.333602 0.834748 2.33033 148 141 135 
-0.329581 0.833595 2.33031 224 221 212 
-0.348548 0.834205 2.32454 224 215 208 
-0.310231 0.836169 2.3319 124 119 115 
0.0218122 0.820426 2.24571 168 165 160 
-0.627018 0.848778 2.2625 64 55 48 
0.298838 -0.739834 2.69324 172 159 153 
0.290945 -0.732495 2.69795 174 163 157 
0.294138 -0.7244 2.69969 7 0 0 
0.427071 -0.446646 2.71396 41 66 45 
0.452232 -0.424605 2.71522 72 102 76 
0.246659 -0.34117 2.66474 231 239 224 
0.30958 -0.334108 2.67064 207 228 211 
0.324068 -0.321876 2.67338 214 232 216 
0.247695 -0.313841 2.6596 208 213 207 
0.245332 -0.305417 2.65862 55 49 49 
0.249636 -0.297447 2.6563 219 226 210 
0.39207 -0.271017 2.67179 206 220 203 
0.364382 -0.271061 2.66432 213 234 215 
0.350117 -0.269417 2.66643 223 235 221 
0.251605 -0.262548 2.6523 217 215 200 
0.303818 -0.22371 2.65601 213 237 213 
0.454592 -0.228441 2.67724 221 238 219 
0.269854 -0.221612 2.64087 221 239 223 
0.525461 -0.218517 2.69299 115 105 95 
0.346579 -0.211174 2.65625 76 91 84 
0.490531 -0.208068 2.68798 102 92 80 
0.269323 -0.202168 2.64149 221 235 222 
0.326511 -0.166987 2.64749 74 124 86 
0.371752 -0.160885 2.65339 214 233 214 
0.34681 -0.158869 2.63857 213 238 219 
-0.335082 -0.0624388 2.51478 180 178 179 
-0.195653 -0.0616657 2.53989 228 228 228 
-0.15065 -0.0525507 2.55026 219 219 219 
-0.2451 -0.0462387 2.52764 41 41 41 
0.185727 0.00568214 2.59868 51 51 51 
-0.251047 0.00720872 2.51784 42 40 41 
-0.292287 0.0236447 2.50267 217 215 216 
0.0641756 0.0496817 2.56519 212 212 212 
-0.421236 0.0529148 2.47251 28 28 28 
-0.334208 0.0570891 2.4918 38 38 40 
0.0261598 0.074121 2.55583 33 33 33 
-0.34619 0.0733194 2.48347 207 207 209 
-0.384585 0.0836725 2.47278 218 218 220 
-0.257802 0.0890662 2.49865 20 22 21 
-0.216073 0.108409 2.50289 217 219 216 
-0.267707 0.10936 2.4951 33 35 34 
-0.437914 0.122683 2.4525 207 207 209 
0.100506 0.12686 2.55653 29 29 29 
0.116412 0.125023 2.5592 229 229 229 
-0.315434 0.185225 2.46819 116 116 118 
0.0911887 0.203138 2.53962 221 222 224 
-0.206791 0.207045 2.48344 60 60 62 
-0.194859 0.211816 2.49431 227 227 227 
-0.273679 0.212661 2.47408 218 218 220 
-0.155093 0.213713 2.49522 228 228 228 
-0.247551 0.215718 2.47519 191 191 191 
-0.214187 0.227559 2.47793 226 226 228 
-0.210282 0.257647 2.47713 32 32 34 
-0.194281 0.265851 2.47716 149 149 149 
0.0011698 0.302835 2.50952 114 108 108 
0.0462633 0.315899 2.50997 88 84 83 
-0.315088 0.396559 2.42698 161 158 149 
-0.120044 0.512559 2.4379 163 160 151 
0.0546489 0.589701 2.23429 99 82 62 
0.489547 0.789816 2.50881 238 235 226 
-0.0995079 0.76701 2.3924 184 181 176 
0.291369 0.803494 2.46493 238 234 222 
-0.107257 0.805871 2.3824 140 137 130 
-0.165054 0.828323 2.36558 94 86 75 
-0.36215 0.81649 2.32584 223 223 215 
-0.248633 0.83371 2.34814 185 175 166 
-0.242143 0.833093 2.34961 64 55 50 
0.203644 -0.651768 2.70051 54 38 15 
0.375691 -0.392775 2.69198 220 237 219 
0.244176 -0.381008 2.67394 69 73 74 
0.364537 -0.342488 2.6817 215 225 216 
0.25036 -0.280018 2.65319 213 217 202 
0.322387 -0.204477 2.64963 222 243 224 
0.350841 -0.178968 2.65335 211 231 219 
-0.116916 -0.0725014 2.55012 214 212 213 
-0.337431 -0.0553513 2.50856 35 35 35 
-0.313283 -0.0578397 2.51489 204 204 204 
-0.17867 -0.0426206 2.5349 195 195 195 
0.162335 -0.0200156 2.59645 31 31 33 
-0.328378 -0.0207306 2.50624 141 141 143 
-0.426182 -0.0025401 2.48289 27 28 30 
0.148476 -0.00332149 2.58766 228 228 228 
0.184994 0.0201201 2.5928 60 60 60 
-0.316583 0.0367733 2.49333 214 214 214 
0.0639571 0.051341 2.56482 217 217 217 
-0.420959 0.0513085 2.47187 26 26 26 
-0.413117 0.0580328 2.46292 206 207 209 
-0.0443147 0.0760048 2.54162 214 214 214 
-0.251524 0.079721 2.50797 217 219 218 
-0.369733 0.081304 2.48156 107 106 111 
-0.273307 0.0860284 2.49545 212 214 213 
0.101619 0.103256 2.56129 181 181 181 
0.0863256 0.11012 2.55678 225 225 225 
0.134154 0.125038 2.56334 228 228 228 
-0.162618 0.132761 2.50742 225 223 224 
-0.42935 0.134717 2.45444 203 203 205 
-0.229674 0.142895 2.49135 36 36 36 
-0.195879 0.213878 2.48857 230 230 230 
-0.211551 0.218893 2.48371 102 102 102 
-0.221393 0.231336 2.48748 29 29 31 
-0.210902 0.236589 2.48503 31 31 33 
-0.255756 0.253971 2.47182 203 203 205 
0.0108041 0.259547 2.51218 44 44 44 
-0.193714 0.267157 2.47878 50 50 50 
-0.0854869 0.379671 2.47814 15 17 16 
-0.103039 0.381227 2.47676 27 25 26 
0.288034 0.524578 2.5109 161 153 142 
-0.255221 0.74233 2.36452 88 80 77 
-0.0443149 0.788066 2.39847 152 149 140 
-0.0616004 0.80606 2.39632 133 128 125 
-0.187739 0.809882 2.36314 126 121 115 
0.0696544 0.790542 2.22628 78 69 62 
0.286448 -0.35791 2.67642 55 61 61 
0.251915 -0.287502 2.66221 235 247 227 
0.399787 -0.214618 2.71923 218 236 220 
0.312177 -0.170778 2.59384 220 222 217 
0.267619 -0.123577 2.62853 82 140 92 
0.269258 -0.123332 2.63167 83 141 93 
-0.12925 -0.0720891 2.55242 218 218 218 
-0.104365 -0.0721378 2.55916 67 65 66 
0.00916568 -0.0722895 2.58237 44 44 42 
-0.113098 -0.0454852 2.54998 222 221 219 
-0.394317 -0.0200135 2.49049 29 29 29 
0.161781 -0.0191168 2.59494 40 40 42 
-0.226283 -0.00569482 2.52302 42 40 41 
0.0868164 -0.0101772 2.57969 24 25 27 
-0.204067 -0.000840266 2.52648 220 218 219 
0.183514 0.0145809 2.59238 79 79 79 
-0.250189 0.0365993 2.5102 31 31 31 
0.0667388 0.0384211 2.57225 40 38 39 
-0.312867 0.0451011 2.49282 81 81 81 
0.0334211 0.041372 2.56075 222 222 222 
-0.407876 0.0507035 2.47272 30 30 30 
-0.402966 0.0606228 2.47407 27 27 27 
-0.311863 0.0608049 2.49197 219 219 219 
0.0480444 0.0630267 2.558 69 69 69 
-0.372748 0.0649051 2.47867 221 221 221 
-0.274956 0.0816014 2.4962 216 216 214 
-0.364318 0.0942394 2.47778 206 206 206 
0.254767 0.10753 2.57472 33 33 35 
-0.37794 0.117405 2.46863 36 36 38 
0.0780674 0.182705 2.54624 222 218 217 
-0.120544 0.19801 2.49614 51 51 51 
-0.318612 0.204717 2.46561 34 34 36 
-0.343953 0.213608 2.45555 220 220 222 
0.0880226 0.219482 2.53717 36 38 37 
-0.193919 0.219863 2.47937 228 228 228 
-0.297663 0.222269 2.46814 16 15 20 
-0.250315 0.219231 2.46213 32 32 34 
-0.323264 0.234595 2.46094 32 32 34 
-0.257735 0.260146 2.47277 219 219 221 
-0.232565 0.328584 2.47986 27 23 22 
-0.193388 0.334426 2.4857 24 20 17 
-0.0989538 0.398599 2.45793 34 34 34 
0.0165728 0.755953 2.3069 127 120 114 
-0.078218 0.809968 2.39214 223 217 203 
-0.788301 -0.900527 2.16923 28 0 0 
-0.742156 -0.914427 2.69556 80 60 49 
-0.121991 -0.675838 2.74562 54 38 23 
-0.0905097 -0.617951 2.63228 116 103 87 
-0.137963 -0.639026 2.73663 35 23 9 
-0.125011 -0.627241 2.70103 133 118 95 
-0.103486 -0.609157 2.63474 38 25 9 
-0.136485 -0.62385 2.71636 135 118 100 
-0.114667 -0.592103 2.63326 96 82 69 
-0.0395931 -0.588303 2.63877 122 106 90 
-0.117579 -0.573733 2.62561 106 94 82 
-0.164233 -0.554058 2.66582 134 117 101 
-0.147289 -0.534607 2.61956 111 98 89 
-0.0150385 -0.470706 2.63633 161 146 125 
0.3603 -0.480582 2.71507 146 131 112 
0.285032 -0.466355 2.69978 134 119 98 
0.126005 -0.445951 2.66523 131 116 95 
0.449419 -0.450012 2.72365 224 232 217 
0.412503 -0.448048 2.71747 102 124 101 
0.242481 -0.440555 2.68422 104 101 92 
0.449247 -0.445392 2.73966 126 138 128 
0.428677 -0.439597 2.70993 214 228 213 
0.382525 -0.432868 2.7107 204 243 212 
0.393633 -0.432095 2.71272 219 248 220 
0.449841 -0.432239 2.72376 22 34 20 
0.429921 -0.429289 2.71278 243 254 240 
0.444568 -0.422977 2.72221 226 255 232 
0.392894 -0.420025 2.71047 48 59 53 
0.470954 -0.420543 2.72456 139 127 105 
0.63176 -0.421051 2.74836 153 141 119 
0.726438 -0.416748 2.73618 119 107 85 
0.464035 -0.401419 2.71566 162 150 136 
0.185978 -0.382916 2.66699 171 166 162 
0.360767 -0.366829 2.70044 80 101 86 
0.24949 -0.362747 2.67893 94 120 95 
0.385304 -0.341103 2.69955 215 232 214 
0.398201 -0.335227 2.69643 66 76 68 
0.47029 -0.329157 2.71158 120 106 93 
0.404691 -0.326658 2.69812 216 252 224 
0.390244 -0.321379 2.69374 218 247 219 
0.461574 -0.318182 2.70539 66 95 67 
0.472755 -0.305135 2.70907 148 135 119 
0.474989 -0.289329 2.70832 129 117 101 
0.563259 -0.282031 2.71653 89 77 61 
0.47123 -0.268626 2.69355 162 153 136 
0.543534 -0.265828 2.71086 83 71 55 
0.39878 -0.259136 2.68386 223 255 231 
0.540205 -0.258745 2.70406 243 231 215 
0.567031 -0.257208 2.71565 158 146 130 
0.329908 -0.251929 2.67059 211 246 216 
0.356117 -0.252884 2.67745 202 241 212 
0.504953 -0.24492 2.69704 75 62 46 
0.512147 -0.240851 2.70632 255 243 234 
0.402577 -0.237342 2.68104 213 246 217 
0.521524 -0.23795 2.70424 116 104 90 
0.461664 -0.233972 2.68971 32 73 41 
0.487293 -0.233858 2.69169 175 163 147 
0.408491 -0.230395 2.67758 52 77 56 
0.556968 -0.230708 2.70267 110 98 86 
0.382018 -0.228585 2.67455 61 83 62 
0.541643 -0.228483 2.7002 239 226 217 
0.550565 -0.220396 2.6995 79 67 55 
0.47961 -0.215862 2.69229 84 69 62 
0.521176 -0.21405 2.69622 42 32 23 
0.536541 -0.20898 2.69633 71 58 49 
0.444433 -0.203061 2.68038 220 255 227 
0.408421 -0.189195 2.66945 224 255 228 
0.542767 -0.189371 2.69815 25 16 1 
0.373066 -0.186866 2.66357 207 239 215 
0.611886 -0.185096 2.69891 113 102 84 
0.338643 -0.179302 2.66185 39 83 50 
0.579622 -0.179605 2.69874 179 168 150 
0.532992 -0.177056 2.68801 106 97 82 
0.510857 -0.176533 2.68933 225 215 206 
0.551517 -0.171988 2.69424 219 206 200 
0.523469 -0.17092 2.68598 219 209 199 
0.587445 -0.163353 2.69358 58 45 36 
0.548967 -0.161253 2.69117 251 240 234 
0.560571 -0.161907 2.69257 243 231 219 
0.477201 -0.11719 2.67278 100 93 85 
0.243156 0.282507 2.53003 187 183 182 
1.27063 0.552828 4.51627 149 131 109 
0.332241 0.307556 2.53009 170 168 169 
-0.0481902 0.302215 2.47559 187 183 174 
1.27753 0.555505 4.44793 138 113 93 
0.0282656 0.309036 2.48468 248 244 243 
1.32051 0.545342 4.28388 158 140 130 
-0.0502612 0.313733 2.47213 239 235 224 
1.30729 0.557029 4.3274 133 109 83 
1.33084 0.545994 4.24854 159 142 126 
1.3053 0.562317 4.34455 241 217 189 
1.31044 0.558174 4.29654 226 204 181 
0.0505073 0.321261 2.4876 121 121 113 
1.33524 0.554203 4.22396 117 99 87 
-0.0562124 0.32469 2.46931 130 125 122 
1.3478 0.560377 4.19401 135 117 103 
1.30868 0.585368 4.34156 152 125 95 
1.35146 0.562499 4.14394 198 181 163 
1.34592 0.572958 4.18049 109 92 72 
1.31655 0.590789 4.30142 100 77 59 
1.37325 0.558733 4.06818 184 166 152 
1.31206 0.597338 4.31339 145 119 92 
1.37002 0.571128 4.10049 213 195 173 
1.35387 0.582124 4.16368 163 143 118 
1.40001 0.564686 4.0378 119 103 88 
1.4031 0.560249 3.99939 114 97 87 
-0.156975 0.340997 2.44477 231 228 223 
-0.111562 0.342107 2.45184 178 169 160 
1.34316 0.594681 4.2074 151 131 107 
1.37321 0.57758 4.07654 135 115 91 
1.38118 0.573904 4.05846 210 192 170 
0.0198726 0.349096 2.47278 178 168 156 
1.4179 0.565858 3.98072 219 201 189 
1.36452 0.585557 4.11452 146 124 100 
1.27616 0.633004 4.42475 189 163 138 
1.35767 0.594028 4.1489 166 142 118 
1.35904 0.592704 4.13094 162 138 112 
-0.00832748 0.351267 2.45926 177 172 166 
0.215931 0.356881 2.49995 168 158 146 
1.31947 0.620319 4.31241 171 149 136 
1.39467 0.58118 4.04839 124 103 84 
1.41552 0.569052 3.95971 190 173 157 
-0.0225474 0.352755 2.46069 142 141 137 
1.41046 0.575183 3.99398 185 168 152 
1.38669 0.586359 4.0466 120 98 75 
1.30886 0.62106 4.27737 162 142 131 
1.41689 0.578227 3.98038 110 93 73 
1.31337 0.62877 4.316 241 221 197 
1.40009 0.584496 4.01618 103 85 63 
1.3243 0.627401 4.29488 143 126 106 
1.3805 0.596749 4.09146 152 125 104 
1.39145 0.592008 4.05763 121 95 72 
1.37578 0.600083 4.10019 130 104 79 
1.4283 0.582116 3.97058 208 190 170 
1.34577 0.617317 4.20587 164 138 113 
0.202323 0.365714 2.49275 156 148 137 
1.41248 0.589653 3.98234 65 45 21 
1.3206 0.637723 4.28366 149 134 115 
1.3833 0.607433 4.07608 213 189 165 
1.38457 0.60457 4.05878 130 106 82 
0.156245 0.370974 2.4885 185 177 166 
1.31983 0.642705 4.29417 255 246 234 
1.39508 0.605772 4.04658 72 50 29 
1.30841 0.649653 4.32463 255 241 215 
1.33918 0.633871 4.21105 165 139 114 
1.40956 0.601075 3.98915 128 106 85 
1.4151 0.601964 3.972 133 107 84 
0.304096 0.378722 2.50421 181 171 161 
1.29897 0.6663 4.38984 170 152 128 
1.3591 0.629102 4.13961 161 136 106 
-0.232727 0.367863 2.42136 88 85 80 
-0.0695328 0.372061 2.44897 150 150 148 
-0.0946479 0.373571 2.44606 66 64 67 
0.316047 0.382381 2.50924 180 176 165 
1.30985 0.667738 4.34238 162 141 120 
1.27611 0.68916 4.47736 155 133 109 
-0.0836305 0.375125 2.44433 24 26 25 
-0.209945 0.373326 2.42543 123 118 114 
-0.0511074 0.377719 2.4513 149 146 139 
1.38145 0.630525 4.08203 161 133 109 
1.32004 0.663661 4.27844 172 153 136 
-0.0963267 0.376527 2.43559 210 210 208 
1.30983 0.673082 4.33453 155 131 107 
1.40136 0.624776 4.02231 226 202 178 
1.41517 0.620406 3.9925 206 181 159 
0.294125 0.387983 2.50287 138 128 118 
1.32804 0.670533 4.29824 152 134 112 
-0.0343221 0.380862 2.4542 186 183 176 
-0.0475311 0.379446 2.43906 85 82 77 
1.29521 0.691288 4.42346 236 212 188 
1.29622 0.686819 4.38038 164 146 122 
1.40664 0.627099 4.00255 215 189 166 
-0.0211951 0.38326 2.45322 163 160 153 
0.435857 0.393767 2.5219 174 161 153 
1.3228 0.669218 4.261 238 218 191 
1.38581 0.641249 4.06678 154 128 101 
1.32116 0.677335 4.28837 237 220 204 
1.41475 0.630635 3.98973 56 29 8 
-0.0924815 0.386076 2.44669 105 105 103 
-0.110544 0.384799 2.4356 79 74 68 
-0.0397616 0.389233 2.44915 123 122 117 
1.3068 0.697388 4.36835 245 224 203 
1.30589 0.694119 4.34937 158 135 117 
1.40201 0.641705 4.01575 122 94 73 
0.417536 0.401452 2.51256 166 157 148 
-0.0892581 0.390695 2.43722 69 69 67 
0.356994 0.40203 2.5073 192 188 177 
1.31289 0.696532 4.32799 255 242 222 
1.32812 0.691458 4.28792 220 200 175 
1.38711 0.655468 4.07063 166 140 113 
-0.031143 0.394871 2.45653 157 149 146 
1.2632 0.707748 4.38734 92 58 46 
1.30216 0.703259 4.35196 210 185 165 
1.30906 0.704609 4.35643 137 110 93 
1.40865 0.650328 4.01228 107 80 59 
0.210982 0.401286 2.48323 143 135 124 
1.34551 0.683965 4.20851 206 182 154 
1.29106 0.697541 4.29012 191 164 147 
1.42413 0.646283 3.97259 218 194 166 
-0.0295635 0.396535 2.44237 252 249 244 
1.23039 0.71102 4.36109 69 45 35 
1.42114 0.651207 3.98784 158 132 109 
1.31023 0.709521 4.34567 86 58 44 
1.36109 0.681439 4.16477 165 136 102 
1.31572 0.698804 4.26453 146 121 101 
1.39947 0.665631 4.05704 128 104 76 
0.301599 0.408898 2.49526 177 167 157 
-0.0789118 0.402304 2.44228 155 152 147 
1.31465 0.711631 4.3082 82 55 38 
1.32821 0.704418 4.25844 140 115 95 
1.31886 0.707827 4.27905 208 180 166 
-0.0788265 0.404878 2.45108 165 162 157 
-0.0214324 0.405384 2.44812 94 91 86 
1.398 0.669692 4.02778 143 117 90 
0.197454 0.412417 2.47998 57 47 35 
0.36427 0.416319 2.50358 186 182 171 
1.33579 0.709518 4.25001 204 179 159 
1.35369 0.698698 4.1827 152 127 105 
1.39329 0.679415 4.07092 124 100 76 
1.41115 0.666766 3.99647 116 90 67 
1.25872 0.715239 4.25711 62 40 29 
1.40266 0.679323 4.04673 143 117 92 
0.0553185 0.374182 2.23624 216 199 179 
0.0718495 0.377669 2.24218 84 71 55 
1.34363 0.711042 4.198 158 136 122 
1.38784 0.693549 4.08428 222 197 175 
1.41896 0.680382 4.01082 204 178 155 
-0.0147167 0.417147 2.44935 234 231 226 
0.202523 0.422105 2.48245 229 221 210 
1.05003 0.719138 4.21065 186 157 149 
1.35237 0.715777 4.19427 87 68 54 
1.40273 0.688748 4.04016 129 104 82 
-0.0247934 0.417258 2.44489 190 189 185 
0.0352264 0.381605 2.23374 208 192 179 
1.41968 0.68259 3.97892 132 108 84 
0.0816749 0.386612 2.24506 185 173 159 
0.163524 0.425461 2.46998 177 173 162 
-0.0166486 0.422002 2.44063 247 244 239 
-0.213487 0.417181 2.40767 167 163 152 
0.0536648 0.385135 2.22323 222 209 200 
1.39173 0.70778 4.07017 111 86 66 
1.40089 0.70526 4.04694 216 194 173 
1.37654 0.717221 4.10867 219 194 174 
1.38861 0.713152 4.0835 189 166 148 
-0.0815195 0.428066 2.43227 187 183 172 
0.230218 0.435563 2.47631 172 166 154 
0.334517 0.438558 2.49137 162 158 147 
1.42603 0.706277 3.98266 198 176 155 
1.39227 0.718889 4.05003 238 215 201 
1.41493 0.7161 4.03772 103 80 62 
0.284941 0.439973 2.48223 120 110 100 
0.907235 0.725213 4.08107 207 170 164 
0.0499545 0.394138 2.21774 128 120 117 
0.164926 0.439016 2.46758 165 161 152 
-0.232266 0.428699 2.40244 172 166 152 
0.0799958 0.397186 2.23081 79 65 52 
-0.0690632 0.43709 2.43189 162 158 149 
-0.181328 0.43468 2.4115 167 163 152 
-0.248802 0.433362 2.40031 164 160 149 
1.35339 0.720175 3.95209 181 157 147 
0.0443929 0.405014 2.21752 71 72 76 
-0.172367 0.44332 2.41413 150 146 135 
0.0690944 0.40751 2.22064 116 109 101 
1.30687 0.723435 3.91695 151 131 120 
-0.185202 0.44682 2.40555 167 163 152 
-0.1638 0.447296 2.40989 154 150 139 
-0.25918 0.446526 2.39383 161 152 147 
-0.146968 0.450323 2.41459 165 161 150 
0.290404 0.462187 2.4807 158 145 136 
0.30508 0.461961 2.48119 141 133 122 
-0.205398 0.448847 2.40114 172 168 156 
0.141989 0.458866 2.45731 230 226 214 
0.252035 0.461227 2.47438 140 132 119 
1.02125 0.722919 3.86179 43 26 19 
0.027747 0.415864 2.22365 206 192 191 
0.16643 0.462219 2.46294 241 237 226 
0.881409 0.727335 3.8512 77 44 37 
0.890907 0.729974 3.85591 194 161 152 
1.15874 0.725711 3.82264 83 53 43 
0.206839 0.467685 2.46711 143 139 130 
0.0210612 0.424289 2.2304 200 183 167 
0.24596 0.470332 2.47089 170 162 151 
0.827855 0.724819 3.80237 90 63 56 
1.35273 0.72807 3.81504 62 42 35 
-0.227451 0.457424 2.39601 175 171 160 
0.0444571 0.4226 2.21772 79 75 66 
0.82772 0.731713 3.8279 155 128 121 
0.0597164 0.424173 2.21787 158 159 163 
-0.274051 0.458309 2.38739 147 143 134 
0.283658 0.475218 2.47461 116 108 97 
0.977808 0.728174 3.77791 207 176 171 
0.346404 0.479097 2.48731 148 144 133 
0.402153 0.480446 2.49782 185 181 172 
-0.245377 0.461899 2.39215 172 168 157 
0.0358421 0.429299 2.2278 81 65 50 
0.311321 0.479462 2.48126 154 146 135 
0.370512 0.481148 2.49272 226 217 208 
0.849542 0.732906 3.77572 87 49 46 
0.0732524 0.432419 2.22539 223 219 218 
0.298855 0.48138 2.47624 121 113 100 
-0.28856 0.468203 2.38488 163 161 149 
-0.175973 0.47128 2.40222 168 164 153 
0.0348257 0.434691 2.21771 124 108 92 
0.364376 0.48776 2.4871 168 161 151 
0.964255 0.729164 3.70142 86 52 43 
1.11497 0.730335 3.69897 239 205 196 
0.0231206 0.438716 2.22555 189 170 156 
0.764447 0.736857 3.72881 91 51 43 
1.04194 0.732312 3.7052 211 180 175 
1.25323 0.732379 3.70272 145 135 125 
-0.199686 0.474587 2.39868 119 113 99 
0.216631 0.485631 2.45414 156 149 139 
0.839643 0.73268 3.69958 95 61 59 
-0.252304 0.473976 2.38656 160 156 147 
0.0453439 0.437771 2.21414 215 199 183 
-0.215742 0.475264 2.39582 225 221 209 
0.271903 0.490492 2.47157 156 150 138 
0.30852 0.491931 2.47693 153 144 135 
0.01571 0.445242 2.2381 156 140 127 
0.257698 0.49069 2.46833 218 211 201 
0.233621 0.491331 2.46441 84 80 68 
0.055597 0.442051 2.2167 240 226 215 
0.0738278 0.444362 2.22331 196 180 165 
0.154653 0.492198 2.45201 179 172 162 
0.173587 0.494967 2.4549 176 172 161 
0.396889 0.502286 2.49424 170 161 152 
0.850172 0.729242 3.61299 220 187 180 
0.0345755 0.446097 2.21461 202 186 173 
0.285638 0.499186 2.47343 239 229 220 
0.312406 0.498289 2.46903 154 148 136 
0.866501 0.735549 3.63428 212 185 178 
0.93825 0.735789 3.63877 61 36 29 
0.0641617 0.44832 2.21841 43 27 12 
0.320221 0.50152 2.47939 179 171 158 
0.143066 0.496616 2.45016 157 153 144 
0.0236828 0.451837 2.22697 206 188 176 
0.0438868 0.449705 2.21635 193 177 162 
0.22161 0.501487 2.46316 151 143 132 
0.27375 0.504242 2.46733 124 116 105 
0.0200783 0.457922 2.23817 96 78 64 
0.0308414 0.456424 2.22005 192 176 161 
0.0734595 0.455911 2.21965 87 71 56 
0.20465 0.505005 2.45605 143 139 127 
-0.276986 0.490235 2.37864 170 166 157 
0.400122 0.513189 2.48667 244 235 226 
0.838643 0.741002 3.5845 84 45 38 
0.951517 0.737806 3.56877 177 160 153 
0.291026 0.51092 2.47241 153 151 136 
0.264423 0.510979 2.46342 231 223 212 
0.218118 0.510296 2.45721 187 181 169 
-0.157311 0.500586 2.40052 162 158 147 
0.971009 0.735878 3.52557 132 107 102 
1.06888 0.73899 3.53151 163 134 128 
0.236789 0.51419 2.45937 163 154 145 
0.402901 0.521838 2.49331 233 224 215 
0.0370039 0.465084 2.21982 177 159 145 
0.193846 0.514095 2.45327 137 130 120 
0.383645 0.521945 2.49041 244 240 231 
-0.116576 0.504169 2.40154 153 150 141 
0.3039 0.519771 2.4736 166 158 147 
0.910086 0.738947 3.50786 180 163 156 
0.25066 0.517776 2.46261 170 168 153 
0.0691622 0.467858 2.21738 173 157 142 
1.03349 0.74307 3.5146 70 43 32 
0.059297 0.468774 2.21621 72 56 43 
0.216867 0.520315 2.45584 161 155 143 
0.789618 0.742909 3.48967 116 76 68 
-0.196761 0.509932 2.39185 160 158 146 
0.264604 0.522522 2.45626 162 153 144 
0.239277 0.525166 2.46108 150 141 132 
0.365705 0.529852 2.48099 169 165 154 
0.0243939 0.476473 2.22815 159 142 132 
1.11217 0.744216 3.47716 173 150 142 
-0.165226 0.513335 2.39473 173 168 162 
0.0906777 0.477632 2.23235 77 64 48 
0.0428571 0.475304 2.2154 183 167 152 
0.259852 0.528545 2.46387 149 139 129 
0.192689 0.526878 2.44605 149 142 136 
0.820371 0.745273 3.44636 85 46 39 
0.902177 0.744331 3.44213 194 170 160 
0.345428 0.536085 2.47728 155 151 140 
0.302549 0.534168 2.46721 167 163 152 
0.408251 0.54032 2.49192 181 164 156 
0.770857 0.744502 3.43263 128 91 83 
0.774248 0.743339 3.42392 220 186 177 
0.834312 0.74388 3.43083 225 188 180 
0.900891 0.7455 3.43347 100 70 62 
0.056753 0.480328 2.21077 200 184 171 
0.235009 0.532714 2.4537 181 174 164 
0.276055 0.536311 2.46624 104 100 89 
0.180248 0.533177 2.44574 237 233 222 
0.0680434 0.484825 2.21478 186 172 159 
0.194946 0.53664 2.45013 141 136 130 
1.15511 0.749236 3.4064 47 32 25 
-0.232377 0.525855 2.383 179 175 164 
0.293565 0.542804 2.46633 162 159 144 
0.377311 0.546176 2.48369 172 168 157 
-0.144128 0.528025 2.39405 104 100 89 
0.0409012 0.488416 2.21619 176 162 149 
0.357587 0.546674 2.47719 163 159 150 
0.150295 0.539703 2.43957 135 131 120 
0.336181 0.54796 2.47807 232 228 217 
0.258715 0.545523 2.46085 237 231 219 
1.10359 0.750377 3.38201 184 170 159 
0.807321 0.751282 3.37884 170 147 141 
1.11255 0.756485 3.40442 147 134 125 
0.247965 0.547133 2.45395 230 226 214 
0.667372 0.745562 3.34183 73 38 32 
0.0526518 0.493664 2.21005 153 139 128 
1.05592 0.747337 3.34216 179 154 147 
0.287787 0.550135 2.46034 175 167 156 
0.897059 0.748932 3.32878 156 139 129 
-0.304876 0.533146 2.36637 143 142 137 
0.0370302 0.498975 2.21911 128 114 101 
-0.0693995 0.542726 2.40668 182 178 169 
0.0441908 0.498246 2.21271 191 177 164 
1.03951 0.750705 3.32986 188 160 149 
-0.25665 0.536429 2.37271 153 150 141 
0.0751807 0.500107 2.21666 175 163 151 
0.329246 0.557911 2.46913 166 162 151 
0.877895 0.750818 3.31428 218 194 184 
-0.246755 0.538893 2.37588 146 142 131 
0.26182 0.557433 2.46088 148 144 133 
-0.171232 0.544041 2.3884 229 225 214 
-0.215236 0.543919 2.38769 167 165 152 
0.0352063 0.504284 2.21104 163 149 136 
0.313328 0.563148 2.46639 148 144 133 
0.645699 0.75109 3.28508 86 57 51 
0.0592371 0.506621 2.21195 55 43 31 
-0.211399 0.545507 2.37599 171 167 156 
0.0491651 0.507378 2.21461 133 119 106 
0.346965 0.567096 2.47567 179 175 164 
0.719489 0.747616 3.25301 121 93 89 
0.725089 0.752367 3.27083 74 46 42 
0.982792 0.752811 3.27192 184 147 138 
-0.250504 0.548153 2.37237 220 216 207 
0.270838 0.567868 2.46131 156 149 139 
0.0779662 0.512543 2.21532 77 63 52 
0.87612 0.75207 3.24836 211 182 176 
0.887476 0.752544 3.23883 94 64 56 
0.21366 0.569109 2.44692 127 124 109 
0.283556 0.572747 2.46276 140 134 120 
0.933469 0.754176 3.2352 212 179 170 
-0.20787 0.553013 2.36818 160 156 145 
0.064301 0.51608 2.21171 181 174 158 
0.343286 0.577935 2.47339 179 175 164 
0.958937 0.755804 3.23141 70 41 33 
1.09298 0.756521 3.23588 171 157 148 
-0.149794 0.559234 2.38735 168 164 153 
0.750399 0.756329 3.22117 204 191 183 
1.05235 0.755743 3.21947 46 23 15 
-0.258329 0.557002 2.36976 150 146 137 
-0.21072 0.560325 2.37499 167 163 152 
1.02378 0.75698 3.20075 146 126 119 
0.0569851 0.522968 2.20928 86 73 57 
-0.187773 0.566073 2.38013 161 159 147 
-0.24717 0.565536 2.37275 152 149 140 
1.00292 0.76089 3.19285 149 129 120 
-0.11979 0.572816 2.38922 142 139 130 
0.0594354 0.532114 2.21942 90 77 61 
0.381848 0.593387 2.4733 176 172 161 
0.0650485 0.530487 2.21128 204 188 173 
0.625789 0.757213 3.15022 141 121 114 
0.70905 0.758566 3.15197 145 130 123 
0.0798708 0.535104 2.21642 180 164 149 
-0.199332 0.575628 2.3746 137 134 127 
0.0542477 0.535548 2.20995 154 141 124 
0.811647 0.762198 3.13592 193 180 172 
-0.176143 0.577529 2.37372 177 175 163 
0.667578 0.759309 3.11858 188 168 159 
0.881573 0.763333 3.12696 81 48 41 
0.315332 0.602512 2.46282 165 161 150 
-0.066231 0.587634 2.39602 151 147 136 
0.0633689 0.542661 2.21233 156 143 127 
0.753873 0.761771 3.10867 151 141 132 
0.962268 0.763731 3.11218 77 53 43 
-0.246915 0.58228 2.36456 161 161 151 
0.851028 0.762602 3.09515 163 140 132 
0.834317 0.762618 3.09424 74 51 43 
0.0739 0.548101 2.21524 98 82 66 
0.0492204 0.54955 2.21313 179 163 148 
0.234196 0.609529 2.44734 121 117 105 
0.270268 0.612565 2.45264 155 151 142 
0.0651683 0.553581 2.21078 85 69 54 
-0.170983 0.596943 2.3769 174 170 159 
-0.30277 0.593216 2.35486 165 164 159 
0.0779457 0.55773 2.21418 112 100 78 
0.994508 0.766731 3.03369 164 136 132 
0.0503859 0.562075 2.21625 160 144 129 
-0.195584 0.603039 2.37322 148 148 136 
0.321882 0.625858 2.46557 164 158 146 
-0.24428 0.602308 2.36322 174 171 166 
-0.23023 0.602048 2.36304 168 165 160 
0.675025 0.766493 3.00346 201 180 175 
0.343073 0.632626 2.46897 134 131 124 
0.0685832 0.567351 2.21098 134 118 95 
0.0810504 0.568658 2.21597 123 106 86 
0.0499644 0.573644 2.21559 172 156 140 
0.0640371 0.577641 2.21048 97 82 61 
0.0434809 0.58528 2.21625 189 172 152 
0.0590475 0.588998 2.21478 197 179 159 
0.741379 0.774315 2.90397 245 235 225 
0.0818679 0.591105 2.21295 127 111 88 
-0.20389 0.631879 2.36349 179 175 164 
0.281592 0.657334 2.4528 158 156 144 
-0.155489 0.6378 2.36942 176 176 166 
-0.15364 0.653377 2.37367 168 165 156 
0.421191 0.685997 2.48711 187 182 176 
0.86232 0.780485 2.81546 152 135 128 
0.361577 0.68836 2.4735 189 189 181 
0.391477 0.69343 2.48206 148 145 138 
-0.221293 0.662018 2.36037 149 146 141 
0.216906 0.685413 2.44061 175 173 161 
0.542685 0.775148 2.76061 204 191 183 
0.54409 0.773855 2.75186 201 188 180 
-0.0582036 0.671847 2.38247 174 170 161 
0.0851647 0.624164 2.21728 127 110 90 
0.44327 0.703991 2.49659 165 161 152 
-0.0267883 0.675811 2.39148 115 111 99 
0.0623681 0.628811 2.21494 75 58 40 
0.559008 0.774709 2.72981 103 90 82 
0.0385858 0.634095 2.22497 185 169 153 
0.218709 0.695428 2.4374 171 169 156 
0.286685 0.700795 2.45593 175 173 161 
0.304351 0.702582 2.45712 162 158 147 
0.0758751 0.635228 2.21518 109 91 71 
0.0855049 0.641196 2.222 119 103 88 
0.213052 0.705279 2.43827 163 160 151 
0.294026 0.711649 2.45836 167 165 152 
0.315993 0.714534 2.4608 158 152 140 
0.532673 0.779756 2.68104 168 158 149 
-0.0293005 0.698646 2.39016 156 149 141 
0.037062 0.651878 2.22245 111 95 80 
0.0854885 0.652379 2.21616 135 119 103 
0.24201 0.723642 2.4442 135 132 123 
-0.101915 0.703619 2.37358 146 142 131 
0.0503479 0.658798 2.22309 168 151 133 
0.366406 0.734342 2.47592 180 179 175 
0.0942981 0.660451 2.22258 206 193 177 
0.0672884 0.660039 2.21871 77 61 45 
0.275813 0.735133 2.45317 157 157 145 
0.330244 0.739174 2.4665 149 147 135 
0.392875 0.743158 2.48123 177 178 172 
0.24522 0.73436 2.4465 117 115 103 
0.100043 0.670376 2.23226 96 83 64 
0.308257 0.741137 2.46266 166 162 151 
-0.0384233 0.721966 2.38624 127 124 115 
0.251136 0.744662 2.44748 162 160 147 
0.470451 0.760671 2.50299 179 178 173 
0.26632 0.746863 2.45016 175 175 165 
0.637137 0.788179 2.58818 192 179 173 
-0.0912379 0.725636 2.37594 158 155 150 
0.286883 0.750804 2.45812 165 163 150 
0.354725 0.758369 2.47439 170 169 164 
0.456116 0.766106 2.50194 154 153 148 
-0.0757119 0.729487 2.37795 116 113 104 
0.483195 0.771757 2.51133 127 118 111 
0.201032 0.751475 2.43809 148 148 138 
0.446408 0.77073 2.50108 145 144 140 
0.688176 0.791475 2.57041 244 231 223 
0.578169 0.793186 2.57117 119 108 102 
0.247778 0.756525 2.44868 148 146 131 
0.28335 0.760107 2.45498 130 130 118 
0.299379 0.762161 2.45999 163 163 151 
0.327125 0.766311 2.46721 173 173 161 
0.415609 0.773275 2.49067 161 160 155 
0.173244 0.756605 2.43157 167 164 155 
0.478805 0.780642 2.5059 133 129 118 
0.494996 0.785893 2.52091 39 36 27 
0.206204 0.763591 2.43913 152 151 146 
0.24252 0.766318 2.44686 158 158 148 
0.403931 0.778888 2.48884 144 143 138 
0.103692 0.700287 2.23486 115 102 86 
0.492021 0.787698 2.51066 242 239 230 
0.693239 0.792391 2.5295 110 105 101 
0.258116 0.769944 2.45123 152 151 146 
0.460288 0.784742 2.50072 164 164 156 
0.423683 0.783906 2.49385 168 164 161 
0.157159 0.766426 2.42758 152 150 138 
0.287104 0.775171 2.45639 103 103 93 
0.445766 0.790102 2.50062 150 147 140 
0.223701 0.774345 2.44175 222 220 208 
0.472044 0.793797 2.50588 205 202 195 
0.728114 0.795917 2.51577 152 141 137 
-0.00578509 0.759588 2.39503 109 106 97 
0.243551 0.777341 2.44677 143 140 131 
0.17413 0.774318 2.43175 144 144 134 
0.458264 0.794899 2.49852 151 147 138 
0.485191 0.799632 2.5109 118 115 106 
0.436584 0.796854 2.49835 88 87 82 
0.233433 0.780223 2.4428 133 131 119 
0.258143 0.784816 2.45534 216 213 204 
0.199874 0.779273 2.43534 113 110 105 
0.427631 0.798043 2.49334 63 58 54 
0.0900154 0.714111 2.23 101 89 75 
0.312878 0.789706 2.46462 130 128 116 
0.412092 0.79751 2.49114 206 202 199 
0.396898 0.797822 2.48909 224 220 211 
0.496566 0.801493 2.5008 150 143 137 
0.543895 0.797901 2.48614 204 200 191 
0.277396 0.791382 2.45849 136 134 122 
0.385995 0.801088 2.49033 201 195 183 
0.439413 0.800409 2.48607 20 15 9 
0.340933 0.796543 2.47139 121 112 103 
0.166471 0.784278 2.43103 140 137 128 
0.356284 0.798923 2.47551 77 68 59 
0.379636 0.799921 2.47974 225 215 203 
0.302614 0.796648 2.46452 238 236 224 
0.323394 0.799286 2.47584 243 241 229 
0.242497 0.790232 2.44374 191 187 176 
0.334194 0.803042 2.47845 217 213 202 
0.228236 0.791485 2.44296 228 224 212 
0.578643 0.800569 2.47204 166 147 141 
0.21216 0.792801 2.43993 220 220 208 
0.292 0.800536 2.46256 246 242 231 
0.321496 0.801866 2.46758 159 155 144 
0.20161 0.793627 2.43815 124 123 118 
0.334271 0.800497 2.45989 135 128 118 
0.395306 0.804891 2.47372 146 133 125 
0.371172 0.804799 2.46983 121 108 99 
0.237239 0.798834 2.44887 239 230 213 
0.159561 0.794351 2.42853 78 78 68 
0.252738 0.801175 2.44922 226 216 204 
0.268776 0.802128 2.45347 236 229 211 
-0.0196259 0.781049 2.38543 118 113 107 
-0.00713828 0.783177 2.39235 82 77 71 
0.666166 0.802588 2.45248 113 96 89 
0.282413 0.805204 2.45794 130 127 110 
0.221151 0.802185 2.44303 105 103 90 
0.170293 0.800821 2.43531 109 106 97 
0.196991 0.799162 2.43217 112 107 103 
0.233217 0.802086 2.44182 151 144 128 
0.299766 0.809497 2.46144 104 102 89 
0.171682 0.796754 2.42019 154 151 142 
0.184636 0.800858 2.42936 86 81 75 
0.247716 0.807815 2.43869 141 139 126 
0.298517 0.806546 2.43379 45 44 26 
0.0153646 0.794513 2.39581 7 2 0 
0.267646 0.809479 2.44263 128 120 107 
0.288059 0.812611 2.45051 65 66 52 
0.206831 0.807186 2.4315 158 151 133 
-0.0105514 0.793562 2.38913 57 52 49 
0.229565 0.809398 2.43637 157 138 123 
0.341827 0.809515 2.43733 54 46 43 
0.372746 0.808368 2.42854 58 41 34 
0.222014 0.806165 2.41917 125 106 91 
0.25596 0.807911 2.42498 113 99 90 
0.212217 0.809013 2.41819 32 18 5 
0.68002 0.801467 2.39447 116 103 95 
0.00501097 0.803542 2.3928 90 82 79 
0.292381 0.809158 2.41108 77 70 52 
-0.0537292 0.801066 2.37946 158 153 150 
0.300986 0.808256 2.40289 46 39 21 
0.287449 0.8094 2.40103 120 116 105 
0.375302 0.809083 2.3717 134 117 110 
0.22932 0.812789 2.37691 19 8 2 
0.171039 0.810118 2.33873 120 105 100 
0.252231 0.814244 2.33396 121 112 105 
0.390995 0.813856 2.32975 118 95 89 
0.325813 0.813659 2.32031 32 13 6 
0.685741 0.808971 2.29831 50 30 23 
0.296524 0.816143 2.27937 156 137 130 
0.558214 0.818172 2.14995 155 134 129 
