ply                 
format ascii 1.0    
element vertex 1241
property float x    
property float y    
property float z    
property uchar red  
property uchar green
property uchar blue 
end_header          
0.101373 0.11862 2.56762 221 221 221 
0.101698 0.125721 2.56414 37 37 37 
-0.43078 0.13347 2.4636 189 189 191 
-0.16256 0.13611 2.51819 222 220 221 
-0.0133349 0.167999 2.53921 183 181 184 
-0.0398225 0.175315 2.53293 227 223 224 
-0.31849 0.174211 2.48106 121 121 123 
0.0124529 0.182149 2.54059 58 54 55 
0.0159893 0.188536 2.54192 123 119 118 
0.467831 0.201743 2.61424 249 247 248 
-0.363496 0.199619 2.46738 156 156 158 
-0.125463 0.206664 2.50979 88 88 88 
-0.381909 0.218084 2.45918 111 112 114 
-0.139607 0.229143 2.505 213 213 213 
0.0176425 0.237191 2.53389 174 170 169 
-0.0255194 0.237436 2.52349 187 174 168 
-0.368691 0.23296 2.45865 225 225 227 
-0.207073 0.265869 2.48484 205 205 205 
-0.175478 0.274627 2.49006 53 53 53 
-0.0792816 0.378724 2.48546 201 195 195 
-0.182719 0.38039 2.46586 182 178 166 
-0.102886 0.394729 2.47913 193 191 192 
0.0615313 0.403109 2.25255 117 106 100 
-0.176319 0.454152 2.45131 154 150 139 
0.0396156 0.429194 2.25196 113 97 84 
0.0548411 0.432733 2.25041 200 194 194 
0.298017 0.487119 2.52717 104 95 86 
-0.350555 0.465688 2.41344 152 149 144 
-0.34079 0.466962 2.41747 157 154 149 
0.0623735 0.436772 2.25006 83 81 84 
0.0484882 0.445753 2.24983 223 207 191 
-0.254109 0.483241 2.4295 160 156 147 
0.0303851 0.451654 2.25526 98 82 69 
-0.261386 0.514019 2.42234 147 143 132 
0.0398663 0.478821 2.25179 171 153 139 
0.269085 0.545762 2.51512 175 165 155 
0.0503476 0.488656 2.24759 169 153 138 
0.0711523 0.531186 2.24637 81 65 50 
0.0652716 0.548419 2.2459 108 96 80 
0.066049 0.554841 2.24536 84 71 55 
-0.191063 0.611443 2.41598 171 169 157 
-0.232165 0.613369 2.40514 168 165 160 
-0.23223 0.62127 2.40428 166 163 158 
0.0715147 0.591475 2.24537 121 104 86 
-0.371304 0.630375 2.3742 126 122 119 
0.0763606 0.595828 2.24331 117 101 78 
-0.743951 0.65898 2.28897 148 144 135 
0.0739686 0.647164 2.24069 215 198 180 
0.0526948 0.665427 2.24315 176 159 141 
0.431799 0.745861 2.51368 160 160 152 
0.271511 0.757023 2.47976 173 174 166 
-0.289947 0.73577 2.36872 82 79 72 
0.0696144 0.695587 2.23878 166 153 137 
-0.227476 0.743023 2.3801 164 163 159 
0.464956 0.799676 2.50981 186 179 171 
0.326003 0.8021 2.48402 235 233 221 
0.364078 0.805429 2.49181 195 186 177 
0.360263 0.805025 2.4899 101 92 83 
-0.0376986 0.784554 2.4119 130 126 117 
0.307759 0.80637 2.47781 127 123 112 
-0.0183932 0.790233 2.41507 122 117 111 
0.300647 0.809281 2.47515 101 97 86 
0.296096 0.811098 2.47274 175 172 157 
0.284362 0.814454 2.47348 192 191 171 
0.243464 0.813815 2.46403 88 85 66 
-0.00553675 0.804625 2.41454 153 148 145 
-0.0516826 0.807475 2.40425 173 168 165 
-0.036367 0.813966 2.4042 142 134 132 
-0.0352606 0.817514 2.40528 43 38 34 
-0.0744345 0.822085 2.3974 200 191 182 
-0.100482 0.825743 2.39064 216 204 190 
-0.112501 0.825903 2.38689 184 172 160 
-0.180392 0.827055 2.37469 121 111 99 
-0.199949 0.827308 2.36953 135 131 119 
-0.269121 0.826148 2.35449 226 223 214 
-0.164895 0.834112 2.375 90 82 71 
-0.23641 0.829634 2.36257 85 82 75 
-0.196273 0.834381 2.36853 54 47 37 
-0.169934 0.836439 2.37337 70 61 52 
-0.267406 0.831139 2.35327 236 228 217 
-0.328142 0.831924 2.34135 136 132 120 
-0.336451 0.832572 2.34054 128 119 112 
-0.289073 0.835859 2.34899 225 222 215 
-0.268133 0.837521 2.35289 211 204 194 
-0.327882 0.838835 2.34103 225 222 215 
-0.313924 0.840054 2.344 182 177 173 
-0.347281 0.838582 2.33413 232 222 213 
-0.344321 0.842554 2.33551 196 189 181 
-0.128649 -0.810496 2.78945 24 6 0 
0.285108 -0.754264 2.68979 14 0 0 
0.277673 -0.744244 2.69557 31 18 10 
0.273635 -0.733925 2.69795 9 0 0 
0.19923 -0.62584 2.71731 114 97 77 
-0.0395527 -0.592127 2.66546 137 121 106 
0.244858 -0.439097 2.68683 55 78 52 
0.304753 -0.427515 2.69741 203 226 206 
0.454696 -0.432548 2.72634 63 75 61 
0.320966 -0.426323 2.70317 210 234 212 
0.304665 -0.416767 2.69559 69 86 70 
0.303276 -0.412211 2.69285 217 239 218 
0.349105 -0.411965 2.69778 205 215 204 
0.320761 -0.411804 2.69871 218 234 224 
0.335911 -0.406116 2.69858 213 218 211 
0.350823 -0.407464 2.7014 216 229 211 
0.236218 -0.40152 2.68216 156 146 136 
0.346988 -0.397036 2.70127 221 231 220 
0.312684 -0.392809 2.69448 38 62 46 
0.230368 -0.366708 2.67964 131 126 123 
0.249891 -0.357926 2.67643 162 190 165 
0.249264 -0.351729 2.67539 73 99 74 
0.365281 -0.340394 2.69176 218 239 222 
0.325678 -0.338225 2.68648 219 240 221 
0.404848 -0.33788 2.6997 216 253 222 
0.243614 -0.334387 2.66994 58 54 51 
0.249119 -0.312763 2.67017 224 234 225 
0.307768 -0.313539 2.67924 41 53 43 
0.250929 -0.300181 2.66843 234 240 226 
0.324303 -0.279551 2.67368 221 251 227 
0.350297 -0.272004 2.67742 230 244 229 
0.389262 -0.268782 2.68648 67 84 74 
0.397385 -0.267792 2.68508 223 237 220 
0.397223 -0.256584 2.68363 219 253 226 
0.295009 -0.223846 2.65795 226 251 232 
0.355282 -0.225698 2.66922 207 231 209 
0.365212 -0.226766 2.67185 222 248 223 
0.340388 -0.224608 2.6628 214 237 219 
0.317693 -0.218761 2.66463 208 226 212 
0.329265 -0.224094 2.716 70 81 73 
0.373922 -0.22115 2.67352 70 98 76 
0.386725 -0.222966 2.67506 71 105 78 
0.372255 -0.220209 2.67051 85 117 93 
0.530238 -0.221303 2.70177 70 57 48 
0.414667 -0.214441 2.67858 72 108 80 
0.52036 -0.215349 2.69888 19 9 0 
0.275194 -0.207196 2.65657 58 76 64 
0.316673 -0.207021 2.65856 211 236 214 
0.494622 -0.207764 2.69225 138 128 116 
0.271773 -0.201645 2.65171 227 245 229 
0.446003 -0.201675 2.68135 216 245 217 
0.330131 -0.180085 2.66158 211 234 214 
0.483005 -0.181838 2.68619 26 13 5 
0.359847 -0.179817 2.66445 181 207 182 
0.60677 -0.180209 2.70516 59 47 31 
0.354596 -0.174272 2.66467 86 122 96 
0.392113 -0.175671 2.66648 61 91 65 
0.326601 -0.173317 2.6573 62 101 74 
0.415673 -0.168014 2.66982 99 125 98 
0.504266 -0.167951 2.69182 239 229 220 
0.328708 -0.163852 2.65862 75 107 83 
0.372784 -0.161115 2.66203 214 233 214 
0.324205 -0.154458 2.65266 65 91 66 
-0.321933 -0.139545 2.53912 157 153 150 
0.61266 -0.146714 2.70707 91 78 69 
0.62428 -0.140591 2.70485 131 122 107 
-0.107141 -0.0751792 2.56585 119 118 116 
-0.110787 -0.0700283 2.56749 168 166 167 
-0.328506 -0.0627259 2.51854 103 101 102 
-0.335632 -0.0603813 2.52505 180 178 179 
-0.193842 -0.0619042 2.55466 226 226 226 
-0.341292 -0.0576463 2.5206 56 56 56 
-0.118417 -0.0603231 2.56181 158 156 157 
-0.193988 -0.05236 2.55039 117 117 117 
-0.149574 -0.0497552 2.55654 218 218 218 
-0.117546 -0.0478904 2.55986 228 227 225 
-0.141594 -0.0411127 2.55674 226 226 226 
-0.283354 -0.0353126 2.52802 217 221 222 
-0.306826 -0.025475 2.52431 211 211 213 
-0.199312 -0.0228532 2.54221 193 193 193 
-0.204254 -0.0149488 2.54072 40 38 39 
-0.199862 -0.0119297 2.53999 205 205 205 
-0.293339 0.0274422 2.51286 196 196 196 
-0.290971 0.0388805 2.51197 199 197 198 
-0.311704 0.0452681 2.5032 52 52 52 
-0.413553 0.0529507 2.48297 160 160 160 
-0.336702 0.0554079 2.49996 203 203 205 
0.019027 0.0743682 2.56222 215 216 220 
-0.363443 0.0842666 2.49043 210 210 212 
-0.211947 0.0908821 2.52276 16 14 15 
-0.427105 0.0953003 2.47434 14 14 16 
0.22437 0.0992864 2.59253 118 116 117 
-0.444955 0.0993378 2.46766 34 34 36 
0.101892 0.104356 2.56991 213 213 213 
0.163664 0.112136 2.58165 90 89 87 
0.108829 0.123079 2.56887 224 224 224 
0.134304 0.124835 2.57095 232 234 233 
0.102589 0.125834 2.56604 39 39 39 
-0.438318 0.133226 2.46302 121 121 123 
-0.17522 0.135723 2.51637 224 226 225 
-0.162801 0.135863 2.51753 222 220 221 
-0.147777 0.141809 2.52116 49 49 49 
-0.171177 0.147708 2.51496 169 169 171 
-0.159945 0.146722 2.51364 217 217 219 
0.126966 0.15544 2.5647 73 73 73 
-0.0386517 0.176334 2.53456 231 227 228 
-0.316476 0.180214 2.48044 83 83 85 
0.461215 0.200126 2.61203 55 53 54 
-0.0797266 0.197623 2.52213 83 81 82 
-0.315308 0.197875 2.47676 139 139 141 
-0.312947 0.204618 2.47894 49 49 51 
0.0130077 0.217744 2.53387 76 75 73 
-0.246621 0.218593 2.48701 197 197 197 
-0.152865 0.219857 2.50579 220 220 220 
-0.268683 0.225749 2.48016 223 223 225 
0.00341559 0.246233 2.53026 82 81 79 
0.0201202 0.250834 2.52909 41 37 36 
-0.137084 0.255983 2.49797 22 22 22 
-0.129407 0.259456 2.49564 188 188 188 
-0.207181 0.266029 2.48453 220 220 220 
-0.196187 0.267789 2.48651 27 27 27 
-0.174523 0.27575 2.48921 53 53 53 
-0.110129 0.302 2.49563 64 60 57 
-0.23655 0.37516 2.45578 58 54 51 
-0.218137 0.377758 2.46022 143 139 128 
-0.0839175 0.380991 2.48197 15 17 16 
-0.206298 0.381739 2.4619 110 105 101 
-0.10371 0.396023 2.47746 213 212 210 
-0.097002 0.422554 2.47311 29 28 26 
0.0537141 0.401535 2.25117 113 108 102 
-0.0683585 0.44641 2.47528 163 159 150 
-0.263483 0.465311 2.43148 153 149 140 
-0.291661 0.466481 2.42508 160 158 146 
-0.219614 0.485194 2.43589 168 164 152 
0.059303 0.447474 2.24929 249 236 227 
0.0470979 0.470658 2.24966 187 171 155 
-0.118348 0.515796 2.44847 163 160 151 
-0.209534 0.566272 2.42035 160 156 145 
0.0606015 0.524039 2.24461 75 66 51 
-0.212701 0.570846 2.41813 173 169 158 
-0.335336 0.566483 2.39597 165 164 159 
0.950144 0.776161 3.15247 167 138 132 
-0.216623 0.620373 2.40912 189 184 178 
-0.0369074 0.634418 2.44126 125 117 104 
-0.334054 0.67399 2.37258 153 152 147 
-0.0558853 0.687761 2.426 113 109 100 
0.290206 0.719326 2.48754 180 178 166 
0.361347 0.768459 2.49533 159 158 153 
0.408324 0.784635 2.50363 144 143 138 
-0.102083 0.75746 2.40288 171 168 163 
0.411052 0.799731 2.49414 150 146 143 
0.265061 0.79522 2.47177 140 136 133 
-0.037236 0.785059 2.41295 120 117 108 
0.327793 0.805419 2.48164 135 133 121 
0.29559 0.807504 2.47569 216 210 196 
-0.781408 0.740576 2.26176 152 148 139 
0.305507 0.812437 2.47871 41 38 29 
-0.196695 0.788924 2.37748 159 158 154 
-0.00540744 0.804849 2.41482 153 148 145 
-0.0514909 0.807619 2.4047 189 184 181 
-0.256569 0.796996 2.36491 186 185 183 
-0.104327 0.810098 2.39419 159 154 148 
-0.080684 0.811362 2.39921 159 153 141 
-0.098267 0.810407 2.3936 199 192 184 
-0.1914 0.811465 2.37451 131 128 123 
-0.187931 0.814041 2.37336 221 216 210 
-0.184607 0.814619 2.37469 132 128 119 
-0.221854 0.827586 2.36451 128 123 119 
-0.159832 0.830823 2.37807 161 153 142 
-0.359057 0.822725 2.34063 210 210 202 
-0.175886 0.833042 2.37134 242 232 223 
-0.196231 0.834632 2.36862 54 47 37 
-0.19039 0.835673 2.36758 168 159 150 
-0.355245 0.829101 2.33835 124 120 117 
-0.241164 0.836788 2.35736 49 40 35 
-0.219519 0.840713 2.36544 139 129 120 
-0.328945 0.831955 2.33947 151 147 135 
-0.331863 0.83979 2.34124 148 141 135 
-0.327829 0.838623 2.34122 224 221 212 
-0.346866 0.839289 2.33546 224 215 208 
-0.308399 0.841158 2.3428 124 119 115 
0.0248896 0.824606 2.25636 168 165 160 
-0.626365 0.854595 2.27337 64 55 48 
0.298607 -0.741666 2.70255 172 159 153 
0.290706 -0.734287 2.70726 174 163 157 
0.293925 -0.726172 2.709 7 0 0 
0.42781 -0.447853 2.72291 41 66 45 
0.453074 -0.425801 2.7241 72 102 76 
0.24727 -0.341695 2.67424 231 239 224 
0.310365 -0.334749 2.67999 207 228 211 
0.324914 -0.322511 2.68269 214 232 216 
0.248239 -0.314268 2.66892 208 213 207 
0.246031 -0.305831 2.66814 55 49 49 
0.250368 -0.297847 2.66582 219 226 210 
0.393199 -0.27165 2.68093 206 220 203 
0.365456 -0.271634 2.67355 213 234 215 
0.351159 -0.269955 2.6757 223 235 221 
0.25243 -0.262845 2.66182 217 215 200 
0.304866 -0.224009 2.66541 213 237 213 
0.455947 -0.229089 2.68619 221 238 219 
0.270836 -0.221827 2.65038 221 239 223 
0.526954 -0.219294 2.7017 115 105 95 
0.347762 -0.21153 2.66554 76 91 84 
0.491991 -0.208739 2.6968 102 92 80 
0.270349 -0.202322 2.651 221 235 222 
0.327759 -0.167167 2.65685 74 124 86 
0.373116 -0.161151 2.66262 214 233 214 
0.348138 -0.15907 2.6479 213 238 219 
-0.335593 -0.0606802 2.52519 180 178 179 
-0.195674 -0.0602509 2.55024 228 228 228 
-0.150496 -0.0512176 2.56056 219 219 219 
-0.245254 -0.0446489 2.53803 41 41 41 
0.187064 0.00637278 2.60847 51 51 51 
-0.251088 0.00899515 2.52826 42 40 41 
-0.292431 0.0255921 2.51312 217 215 216 
0.0652821 0.0508218 2.57525 212 212 212 
-0.421769 0.0552848 2.48299 28 28 28 
-0.334418 0.0592553 2.50227 38 38 40 
0.0272112 0.0754375 2.56597 33 33 33 
-0.346403 0.075573 2.49396 207 207 209 
-0.38491 0.0860585 2.48328 218 218 220 
-0.257661 0.0911527 2.50912 20 22 21 
-0.215736 0.110457 2.51334 217 219 216 
-0.267608 0.11156 2.50541 33 35 34 
-0.438335 0.125339 2.46302 207 207 209 
0.101919 0.128162 2.56656 29 29 29 
0.117866 0.126278 2.5692 229 229 229 
-0.315257 0.187794 2.47873 116 116 118 
0.0926419 0.204754 2.54924 221 222 224 
-0.206172 0.209416 2.49394 60 60 62 
-0.194191 0.214167 2.50479 227 227 227 
-0.273284 0.215219 2.48462 218 218 220 
-0.154279 0.215973 2.50567 228 228 228 
-0.247055 0.218222 2.48572 191 191 191 
-0.213542 0.230021 2.48845 226 226 228 
-0.209549 0.260202 2.48765 32 32 34 
-0.193471 0.268396 2.48768 149 149 149 
0.00272676 0.304991 2.5198 114 108 108 
0.0479984 0.317982 2.52019 88 84 83 
-0.31438 0.399886 2.43764 161 158 149 
-0.118348 0.515796 2.44847 163 160 151 
0.057298 0.592976 2.24487 99 82 62 
0.493545 0.792026 2.51795 238 235 226 
-0.0970936 0.771125 2.40305 184 181 176 
0.295019 0.806465 2.47473 238 234 222 
-0.10477 0.810157 2.39308 140 137 130 
-0.162712 0.832866 2.37634 94 86 75 
-0.360564 0.82154 2.33675 223 223 215 
-0.24658 0.838513 2.35899 185 175 166 
-0.240068 0.837876 2.36046 64 55 50 
0.20336 -0.653139 2.71 54 38 15 
0.376471 -0.393726 2.70112 220 237 219 
0.244676 -0.381648 2.68343 69 73 74 
0.365422 -0.34327 2.69089 215 225 216 
0.251138 -0.280366 2.66272 213 217 202 
0.323534 -0.204759 2.659 222 243 224 
0.352113 -0.179239 2.66264 211 231 219 
-0.116694 -0.0713159 2.5604 214 212 213 
-0.337932 -0.0535618 2.51898 35 35 35 
-0.313705 -0.056119 2.5253 204 204 204 
-0.178583 -0.0411821 2.54525 195 195 195 
0.163545 -0.0193477 2.60628 31 31 33 
-0.328761 -0.0188461 2.51667 141 141 143 
-0.42687 -0.000348994 2.49334 27 28 30 
0.149693 -0.00256458 2.59754 228 228 228 
0.186369 0.0208597 2.60259 60 60 60 
-0.31678 0.0388276 2.5038 214 214 214 
0.0650672 0.0524872 2.57488 217 217 217 
-0.421495 0.0536727 2.48234 26 26 26 
-0.41364 0.0605562 2.47294 206 207 209 
-0.0434803 0.0775071 2.55187 214 214 214 
-0.251387 0.0817562 2.51841 217 219 218 
-0.370011 0.0836421 2.49205 107 106 111 
-0.273228 0.0881436 2.50592 212 214 213 
0.102974 0.104477 2.5713 181 181 181 
0.0876542 0.111403 2.56683 225 225 225 
0.135659 0.126247 2.5733 228 228 228 
-0.162033 0.134759 2.51785 225 223 224 
-0.42971 0.137392 2.46496 203 203 205 
-0.229297 0.145099 2.50183 36 36 36 
-0.195206 0.216243 2.49906 230 230 230 
-0.21092 0.221316 2.49422 102 102 102 
-0.220769 0.233822 2.49799 29 29 31 
-0.210226 0.239069 2.49554 31 31 33 
-0.255194 0.256629 2.48237 203 203 205 
0.0122863 0.261534 2.52243 44 44 44 
-0.1929 0.269704 2.4893 50 50 50 
-0.0840161 0.38233 2.48859 15 17 16 
-0.101624 0.383937 2.48723 27 25 26 
0.290972 0.526659 2.52063 161 153 142 
-0.253422 0.746801 2.37533 88 80 77 
-0.0416605 0.792094 2.40905 152 149 140 
-0.0589607 0.810201 2.40693 133 128 125 
-0.185524 0.814423 2.37392 126 121 115 
0.0728428 0.794502 2.23686 78 69 62 
0.287111 -0.358571 2.68581 55 61 61 
0.25267 -0.287876 2.67171 235 247 227 
0.401007 -0.21511 2.72825 218 236 220 
0.313442 -0.170929 2.60334 220 222 217 
0.268842 -0.123487 2.63807 82 140 92 
0.270483 -0.123246 2.64121 83 141 93 
-0.129071 -0.070873 2.5627 218 218 218 
-0.104105 -0.0709838 2.56941 67 65 66 
0.00978889 -0.0714154 2.59246 44 44 42 
-0.112797 -0.0442196 2.56026 222 221 219 
-0.394933 -0.0179612 2.50093 29 29 29 
0.162993 -0.0184442 2.60478 40 40 42 
-0.226269 -0.00401357 2.53341 42 40 41 
0.0878377 -0.0092898 2.58969 24 25 27 
-0.203964 0.000802053 2.53686 220 218 219 
0.184871 0.015307 2.60218 79 79 79 
-0.250152 0.0384853 2.52064 31 31 31 
0.0678203 0.0395158 2.58229 40 38 39 
-0.31303 0.0471747 2.50329 81 81 81 
0.0344135 0.0425625 2.57087 222 222 222 
-0.408367 0.0530339 2.4832 30 30 30 
-0.403414 0.0629742 2.48455 27 27 27 
-0.311983 0.0629295 2.50244 219 219 219 
0.0491378 0.0642527 2.5681 69 69 69 
-0.373077 0.0671964 2.48916 221 221 221 
-0.274893 0.0837052 2.50667 216 216 214 
-0.364544 0.0966102 2.48829 206 206 206 
0.256562 0.108375 2.58441 33 33 35 
-0.378158 0.119891 2.47915 36 36 38 
0.0795535 0.184248 2.55633 222 218 217 
-0.119646 0.200131 2.50656 51 51 51 
-0.318398 0.207361 2.47616 34 34 36 
-0.343808 0.21635 2.46612 220 220 222 
0.0896355 0.221124 2.54726 36 38 37 
-0.19322 0.222249 2.48987 228 228 228 
-0.29733 0.224921 2.47869 16 15 20 
-0.249815 0.221764 2.47269 32 32 34 
-0.322993 0.237356 2.47151 32 32 34 
-0.257166 0.262828 2.48331 219 219 221 
-0.231741 0.331432 2.4904 27 23 22 
-0.192412 0.337194 2.49621 24 20 17 
-0.0974713 0.401375 2.46842 34 34 34 
0.0194288 0.759831 2.3175 127 120 114 
-0.0756244 0.814174 2.40277 223 217 203 
-0.792469 -0.900471 2.17865 28 0 0 
-0.744788 -0.912394 2.69938 80 60 49 
-0.123523 -0.676254 2.75478 54 38 23 
-0.0917677 -0.618697 2.64321 116 103 87 
-0.139442 -0.639316 2.74584 35 23 9 
-0.126419 -0.627661 2.7108 133 118 95 
-0.104766 -0.609818 2.64557 38 25 9 
-0.137918 -0.624166 2.72585 135 118 100 
-0.115941 -0.592672 2.64405 96 82 69 
-0.0405919 -0.589101 2.64987 122 106 90 
-0.118813 -0.574253 2.6365 106 94 82 
-0.165568 -0.55423 2.67591 134 117 101 
-0.148523 -0.53491 2.6304 111 98 89 
-0.0156325 -0.471165 2.64755 161 146 125 
0.361015 -0.482014 2.72651 146 131 112 
0.285519 -0.467549 2.71118 134 119 98 
0.125984 -0.446678 2.67657 131 116 95 
0.45052 -0.451551 2.73505 224 232 217 
0.413482 -0.449489 2.72886 102 124 101 
0.242897 -0.44156 2.69565 104 101 92 
0.450302 -0.446876 2.75081 126 138 128 
0.429762 -0.441067 2.72143 214 228 213 
0.38344 -0.43418 2.72207 204 243 212 
0.394587 -0.43343 2.72409 219 248 220 
0.450981 -0.43371 2.73511 22 34 20 
0.431023 -0.430715 2.72421 243 254 240 
0.445708 -0.424397 2.73352 226 255 232 
0.393881 -0.421319 2.72185 48 59 53 
0.472189 -0.42202 2.73585 139 127 105 
0.633503 -0.422914 2.75954 153 141 119 
0.728602 -0.418875 2.74762 119 107 85 
0.465315 -0.402821 2.727 162 150 136 
0.186347 -0.383571 2.67837 171 166 162 
0.361769 -0.367843 2.71169 80 101 86 
0.250128 -0.363478 2.69024 94 120 95 
0.386456 -0.342085 2.71076 215 232 214 
0.399422 -0.336226 2.70767 66 76 68 
0.471742 -0.330301 2.72269 120 106 93 
0.405948 -0.327638 2.70931 216 252 224 
0.391472 -0.322308 2.70496 218 247 219 
0.463035 -0.31927 2.71652 66 95 67 
0.474267 -0.306197 2.7201 148 135 119 
0.476541 -0.290338 2.7193 129 117 101 
0.5651 -0.283233 2.72741 89 77 61 
0.47285 -0.269565 2.70459 162 153 136 
0.545355 -0.266925 2.72172 83 71 55 
0.400187 -0.259861 2.69494 223 255 231 
0.542049 -0.259816 2.71497 243 231 215 
0.56892 -0.258327 2.72639 158 146 130 
0.331114 -0.252461 2.68174 211 246 216 
0.357399 -0.253481 2.68854 202 241 212 
0.50672 -0.245855 2.70795 75 62 46 
0.513915 -0.24178 2.71709 255 243 234 
0.40405 -0.237999 2.69206 213 246 217 
0.523334 -0.238895 2.71503 116 104 90 
0.463318 -0.234761 2.70061 32 73 41 
0.489038 -0.234712 2.70261 175 163 147 
0.410007 -0.231046 2.68862 52 77 56 
0.558911 -0.23172 2.71343 110 98 86 
0.38345 -0.229162 2.68559 61 83 62 
0.543551 -0.22945 2.711 239 226 217 
0.552516 -0.221357 2.71025 79 67 55 
0.481352 -0.21663 2.7031 84 69 62 
0.52305 -0.214916 2.70699 42 32 23 
0.538472 -0.209867 2.70705 71 58 49 
0.446115 -0.203702 2.69126 220 255 227 
0.410034 -0.1897 2.68038 224 255 228 
0.544738 -0.190203 2.70873 25 16 1 
0.374575 -0.187275 2.67455 207 239 215 
0.614079 -0.18609 2.70944 113 102 84 
0.340046 -0.179595 2.67277 39 83 50 
0.58172 -0.180497 2.70925 179 168 150 
0.534983 -0.177827 2.69864 106 97 82 
0.512773 -0.177244 2.69995 225 215 206 
0.553555 -0.172785 2.70478 219 206 200 
0.525446 -0.171646 2.69661 219 209 199 
0.589608 -0.164214 2.70405 58 45 36 
0.551019 -0.162008 2.70166 251 240 234 
0.562657 -0.162694 2.70306 243 231 219 
0.479149 -0.11762 2.68326 100 93 85 
0.245398 0.283917 2.53978 187 183 182 
1.25923 0.544887 4.47297 149 131 109 
0.334778 0.308756 2.53951 170 168 169 
-0.0467999 0.304577 2.48606 187 183 174 
1.26653 0.54771 4.40681 138 113 93 
0.0299346 0.311189 2.49498 248 244 243 
1.31028 0.537991 4.24794 158 140 130 
-0.0488467 0.316138 2.48258 239 235 224 
1.29686 0.549476 4.29001 133 109 83 
1.32078 0.53871 4.21367 159 142 126 
1.29475 0.554661 4.30653 241 217 189 
1.3002 0.550693 4.26011 226 204 181 
0.0522788 0.323379 2.49778 121 121 113 
1.3253 0.546891 4.1897 117 99 87 
-0.0547896 0.327141 2.47971 130 125 122 
1.33794 0.553043 4.16048 135 117 103 
1.29804 0.577448 4.3032 152 125 95 
1.34192 0.555274 4.11183 198 181 163 
1.33615 0.565545 4.1472 109 92 72 
1.30614 0.582923 4.26431 100 77 59 
1.3641 0.551696 4.03826 184 166 152 
1.30157 0.589365 4.27575 145 119 92 
1.36062 0.563888 4.06946 213 195 173 
1.3441 0.574625 4.13062 163 143 118 
1.39081 0.557578 4.00846 119 103 88 
1.39418 0.553285 3.97119 114 97 87 
-0.155866 0.343808 2.45535 231 228 223 
-0.110286 0.344788 2.46234 178 169 160 
1.33315 0.586961 4.17293 151 131 107 
1.36394 0.570333 4.04608 135 115 91 
1.37197 0.566716 4.02851 210 192 170 
0.02162 0.351394 2.48296 178 168 156 
1.40895 0.558836 3.95284 219 201 189 
1.35501 0.57814 4.08283 146 124 100 
1.26517 0.624393 4.38317 189 163 138 
1.34795 0.586444 4.11611 166 142 118 
1.34944 0.585179 4.09867 162 138 112 
-0.00666092 0.353679 2.46962 177 172 166 
0.218284 0.358573 2.50954 168 158 146 
1.30885 0.612064 4.27437 171 149 136 
1.38538 0.573898 4.01852 124 103 84 
1.40676 0.562074 3.9324 190 173 157 
-0.0209287 0.355204 2.47101 142 141 137 
1.40145 0.56806 3.96563 185 168 152 
1.37746 0.579053 4.0167 120 98 75 
1.29859 0.612941 4.24044 162 142 131 
1.40792 0.571093 3.95233 110 93 73 
1.30276 0.620426 4.27773 241 221 197 
1.39098 0.577251 3.98711 103 85 63 
1.31376 0.619114 4.2573 143 126 106 
1.37097 0.589228 4.06016 152 125 104 
1.38208 0.584598 4.02733 121 95 72 
1.36622 0.592518 4.06862 130 104 79 
1.41929 0.574931 3.94267 208 190 170 
1.33567 0.609344 4.17104 164 138 113 
0.204666 0.367479 2.50238 156 148 137 
1.40349 0.582414 3.95406 65 45 21 
1.31012 0.629356 4.24621 149 134 115 
1.37382 0.599838 4.04503 213 189 165 
1.37524 0.597059 4.0283 130 106 82 
0.158463 0.37289 2.49818 185 177 166 
1.30929 0.63426 4.25637 255 246 234 
1.38572 0.598242 4.01633 72 50 29 
1.29773 0.641055 4.28574 255 241 215 
1.32909 0.625734 4.17588 165 139 114 
1.40051 0.593717 3.96053 128 106 85 
1.4061 0.59462 3.94376 133 107 84 
0.306722 0.380175 2.51341 181 171 161 
1.28787 0.657315 4.34863 170 152 128 
1.34931 0.621159 4.10645 161 136 106 
-0.231828 0.371001 2.43206 88 85 80 
-0.0680243 0.374711 2.45932 150 150 148 
-0.0932239 0.376292 2.45641 66 64 67 
0.318695 0.383789 2.51832 180 176 165 
1.29899 0.658866 4.30265 162 141 120 
1.2646 0.679673 4.43306 155 133 109 
-0.0821625 0.377831 2.45472 24 26 25 
-0.208943 0.376403 2.43602 123 118 114 
-0.04952 0.380326 2.46158 149 146 139 
1.37187 0.622675 4.05043 161 133 109 
1.30953 0.655014 4.24071 172 153 136 
-0.0948978 0.37929 2.44607 210 210 208 
1.299 0.664168 4.29493 155 131 107 
1.39206 0.617102 3.9924 226 202 178 
1.40596 0.612812 3.96337 206 181 159 
0.296739 0.389481 2.51202 138 128 118 
1.31729 0.661712 4.25975 152 134 112 
-0.03267 0.383419 2.4644 186 183 176 
-0.0459196 0.382079 2.44948 85 82 77 
1.28386 0.681899 4.38079 236 212 188 
1.28517 0.677629 4.33916 164 146 122 
1.39742 0.619445 3.97313 215 189 166 
-0.0194906 0.38579 2.46342 163 160 153 
0.43876 0.39478 2.53041 174 161 153 
1.31238 0.660562 4.22374 238 218 191 
1.37626 0.633316 4.0354 154 128 101 
1.31053 0.66849 4.25009 237 220 204 
1.40552 0.622945 3.96051 56 29 8 
-0.0910166 0.388824 2.45697 105 105 103 
-0.109144 0.387624 2.44605 79 74 68 
-0.0381039 0.391839 2.45938 123 122 117 
1.2957 0.688079 4.32731 245 224 203 
1.29493 0.684914 4.30897 158 135 117 
1.39268 0.633869 3.98571 122 94 73 
0.420434 0.402552 2.52117 166 157 148 
-0.0877663 0.393467 2.44758 69 69 67 
0.359771 0.403336 2.51612 192 188 177 
1.302 0.687343 4.28816 255 242 222 
1.31736 0.682414 4.24934 220 200 175 
1.37747 0.647365 4.0389 166 140 113 
-0.0294461 0.397445 2.46661 157 149 146 
1.25243 0.698405 4.34577 92 58 46 
1.2912 0.693945 4.31132 210 185 165 
1.298 0.695246 4.31564 137 110 93 
1.39925 0.642388 3.98215 107 80 59 
0.213429 0.403103 2.49266 143 135 124 
1.33518 0.675227 4.17242 206 182 154 
1.2807 0.688573 4.25167 191 164 147 
1.41489 0.638455 3.94355 218 194 166 
-0.0278474 0.399143 2.45261 252 249 244 
1.22015 0.701854 4.32049 69 45 35 
1.41179 0.643286 3.95828 158 132 109 
1.29922 0.700132 4.30513 86 58 44 
1.35093 0.672826 4.12997 165 136 102 
1.30527 0.689815 4.22669 146 121 101 
1.38977 0.657413 4.02543 128 104 76 
0.304278 0.410416 2.5043 177 167 157 
-0.0773543 0.405063 2.45251 155 152 147 
1.30384 0.702326 4.26873 82 55 38 
1.31765 0.695336 4.22062 140 115 95 
1.30823 0.698658 4.24053 208 180 166 
-0.0772654 0.407626 2.46122 165 162 157 
-0.0196705 0.40797 2.45821 94 91 86 
1.38852 0.661535 3.99695 143 117 90 
0.199888 0.4143 2.48939 57 47 35 
0.36709 0.417626 2.5123 186 182 171 
1.32517 0.700364 4.21224 204 179 159 
1.3434 0.689843 4.14706 152 127 105 
1.38351 0.671028 4.03874 124 100 76 
1.40177 0.658688 3.96646 116 90 67 
1.24888 0.706299 4.21956 62 40 29 
1.39296 0.670984 4.01519 143 117 92 
0.0575147 0.376985 2.24876 216 199 179 
0.074122 0.380421 2.2546 84 71 55 
1.33332 0.702035 4.1618 158 136 122 
1.37796 0.684975 4.05148 222 197 175 
1.40935 0.67208 3.98012 204 178 155 
-0.0129032 0.419738 2.45935 234 231 226 
0.204985 0.423982 2.49175 229 221 210 
1.04261 0.711119 4.17571 186 157 149 
1.34198 0.7067 4.15807 87 68 54 
1.39302 0.680316 4.00858 129 104 82 
-0.0230108 0.419889 2.45496 190 189 185 
0.0373494 0.384497 2.24625 208 192 179 
1.41028 0.674367 3.94906 132 108 84 
0.0840077 0.389357 2.25737 185 173 159 
0.165902 0.427494 2.47947 177 173 162 
-0.014823 0.424633 2.45071 247 244 239 
-0.212377 0.420429 2.41824 167 163 152 
0.0558934 0.388012 2.2358 222 209 200 
1.38185 0.699074 4.03748 111 86 66 
1.3911 0.696636 4.01494 216 194 173 
1.36649 0.708327 4.07477 219 194 174 
1.37865 0.704355 4.05038 189 166 148 
-0.0798993 0.430912 2.44244 187 183 172 
0.23279 0.437384 2.4855 172 166 154 
0.337326 0.440013 2.50011 162 158 147 
1.41644 0.697754 3.95223 198 176 155 
1.3825 0.71013 4.01773 238 215 201 
1.40502 0.707323 4.00566 103 80 62 
0.287653 0.441613 2.4912 120 110 100 
0.901853 0.718163 4.05075 207 170 164 
0.0521922 0.397067 2.2303 128 120 117 
0.167335 0.441065 2.47696 165 161 152 
-0.231194 0.432042 2.41302 172 166 152 
0.0823615 0.400001 2.24318 79 65 52 
-0.0673755 0.439922 2.44201 162 158 149 
-0.180046 0.437869 2.4219 167 163 152 
-0.247779 0.436763 2.41087 164 160 149 
1.34475 0.711923 3.92286 181 157 147 
0.0466292 0.407994 2.23001 71 72 76 
-0.171026 0.446496 2.42444 150 146 135 
0.0714456 0.410414 2.23304 116 109 101 
1.29893 0.715469 3.88898 151 131 120 
-0.183901 0.450068 2.41597 167 163 152 
-0.162418 0.450474 2.42025 154 150 139 
-0.258159 0.450005 2.40439 161 152 147 
-0.145517 0.453446 2.42485 165 161 150 
0.293164 0.463836 2.48948 158 145 136 
0.307873 0.463559 2.48992 141 133 122 
-0.204167 0.452172 2.41161 172 168 156 
0.144384 0.461039 2.46669 230 226 214 
0.254708 0.463011 2.48332 140 132 119 
1.0162 0.716325 3.83722 43 26 19 
0.0299251 0.418912 2.23603 206 192 191 
0.168894 0.464308 2.4722 241 237 226 
0.877464 0.721259 3.82753 77 44 37 
0.886871 0.723825 3.83205 194 161 152 
1.15277 0.718674 3.79817 83 53 43 
0.209418 0.46964 2.47618 143 139 130 
0.0232218 0.427365 2.24267 200 183 167 
0.248641 0.472157 2.47982 170 162 151 
0.824571 0.719178 3.78042 90 63 56 
1.34505 0.720228 3.78938 62 42 35 
-0.226278 0.460838 2.40647 175 171 160 
0.0467331 0.425632 2.23008 79 75 66 
0.824292 0.725901 3.80512 155 128 121 
0.062065 0.427163 2.23019 158 159 163 
-0.273055 0.461877 2.39796 147 143 134 
0.286434 0.476917 2.48337 116 108 97 
0.97355 0.722006 3.75568 207 176 171 
0.349296 0.480552 2.4957 148 144 133 
0.405131 0.481686 2.50591 185 181 172 
-0.244259 0.465387 2.40266 172 168 157 
0.0380848 0.432357 2.24006 81 65 50 
0.314148 0.481048 2.4898 154 146 135 
0.373443 0.48251 2.50096 226 217 208 
0.846215 0.727198 3.75416 87 49 46 
0.0756707 0.435373 2.23756 223 219 218 
0.30167 0.483026 2.48487 121 113 100 
-0.287591 0.471842 2.39543 163 161 149 
-0.174568 0.474568 2.41253 168 164 153 
0.0370853 0.437788 2.22999 124 108 92 
0.367316 0.489162 2.49536 168 161 151 
0.960548 0.723351 3.68132 86 52 43 
1.11013 0.723891 3.6779 239 205 196 
0.0253287 0.44184 2.23775 189 170 156 
0.761916 0.731619 3.70884 91 51 43 
1.03761 0.726127 3.68441 211 180 175 
1.24719 0.725312 3.68054 145 135 125 
-0.198358 0.477956 2.409 119 113 99 
0.21929 0.487608 2.46318 156 149 139 
0.836778 0.727316 3.68009 95 61 59 
-0.251177 0.477518 2.39702 160 156 147 
0.0476618 0.440854 2.22641 215 199 183 
-0.214472 0.47869 2.40619 225 221 209 
0.274676 0.492247 2.48024 156 150 138 
0.311366 0.493546 2.48542 153 144 135 
0.017888 0.44837 2.25014 156 140 127 
0.260443 0.4925 2.47708 218 211 201 
0.236314 0.493229 2.47324 84 80 68 
0.0579684 0.44511 2.22891 240 226 215 
0.0762776 0.447355 2.23542 196 180 165 
0.157159 0.49439 2.46117 179 172 162 
0.176146 0.497093 2.46397 176 172 161 
0.399886 0.503561 2.50217 170 161 152 
0.847693 0.724212 3.59571 220 187 180 
0.0368628 0.449234 2.22684 202 186 173 
0.288451 0.500893 2.48196 239 229 220 
0.315291 0.499921 2.47755 154 148 136 
0.863795 0.730315 3.61627 212 185 178 
0.935044 0.730248 3.62023 61 36 29 
0.0665831 0.451366 2.23055 43 27 12 
0.323101 0.503096 2.48773 179 171 158 
0.145551 0.498858 2.45934 157 153 144 
0.0259224 0.454991 2.23906 206 188 176 
0.046223 0.452822 2.22852 193 177 162 
0.224291 0.503436 2.47194 151 143 132 
0.276555 0.50601 2.47592 124 116 105 
0.0223058 0.461076 2.25012 96 78 64 
0.0331303 0.459589 2.23216 192 176 161 
0.0759369 0.458947 2.23171 87 71 56 
0.20731 0.507041 2.46496 143 139 127 
-0.275909 0.493913 2.38912 170 166 157 
0.403152 0.514471 2.49456 244 235 226 
0.836346 0.736015 3.56773 84 45 38 
0.948601 0.732463 3.55183 177 160 153 
0.293871 0.512622 2.48084 153 151 136 
0.267225 0.512795 2.47202 231 223 212 
0.220816 0.512281 2.466 187 181 169 
-0.155755 0.503883 2.41063 162 158 147 
0.968213 0.73064 3.50959 132 107 102 
1.06536 0.733278 3.51466 163 134 128 
0.239536 0.516109 2.46806 163 154 145 
0.405925 0.523094 2.50103 233 224 215 
0.0393411 0.468258 2.23188 177 159 145 
0.196494 0.516175 2.46213 137 130 120 
0.386643 0.523276 2.49823 244 240 231 
-0.114866 0.507358 2.41161 153 150 141 
0.306778 0.521425 2.48187 166 158 147 
0.907769 0.734004 3.49262 180 163 156 
0.25344 0.519644 2.47119 170 168 153 
0.0716489 0.470943 2.22937 173 157 142 
1.03031 0.737541 3.49833 70 43 32 
0.0617446 0.471899 2.22823 72 56 43 
0.21958 0.522315 2.46456 161 155 143 
0.78808 0.738484 3.47543 116 76 68 
-0.195321 0.513384 2.40202 160 158 146 
0.267437 0.524364 2.46483 162 153 144 
0.242042 0.527079 2.46964 150 141 132 
0.368701 0.531272 2.4889 169 165 154 
0.0266925 0.479689 2.24005 159 142 132 
1.10868 0.738488 3.46123 173 150 142 
-0.163662 0.516697 2.40483 173 168 162 
0.0932578 0.48063 2.24408 77 64 48 
0.0452469 0.478495 2.2274 183 167 152 
0.262666 0.530381 2.47231 149 139 129 
0.195369 0.528993 2.45489 149 142 136 
0.818867 0.740873 3.43291 85 46 39 
0.900233 0.739621 3.42833 194 170 160 
0.348403 0.53759 2.48524 155 151 140 
0.305457 0.535849 2.47543 167 163 152 
0.411301 0.541558 2.49946 181 164 156 
0.769685 0.74036 3.41977 128 91 83 
0.773097 0.739224 3.41125 220 186 177 
0.83281 0.739494 3.41767 225 188 180 
0.898992 0.740814 3.41983 100 70 62 
0.0592199 0.483501 2.22275 200 184 171 
0.237792 0.53467 2.4623 181 174 164 
0.278911 0.53809 2.47454 104 100 89 
0.182909 0.535342 2.45457 237 233 222 
0.0705651 0.487965 2.22667 186 172 159 
0.197643 0.538744 2.45884 141 136 130 
1.15172 0.743534 3.39168 47 32 25 
-0.231023 0.529474 2.39321 179 175 164 
0.29647 0.544527 2.47453 162 159 144 
0.380337 0.547549 2.49137 172 168 157 
-0.142447 0.531359 2.40406 104 100 89 
0.043311 0.491645 2.22808 176 162 149 
0.360597 0.548139 2.48502 163 159 150 
0.152896 0.541989 2.44848 135 131 120 
0.33915 0.549498 2.48595 232 228 217 
0.261557 0.547381 2.46918 237 231 219 
1.1007 0.744983 3.36816 184 170 159 
0.806199 0.747147 3.36685 170 147 141 
1.10943 0.750907 3.38988 147 134 125 
0.250799 0.549049 2.46237 230 226 214 
0.667103 0.742191 3.33154 73 38 32 
0.0551316 0.496889 2.22195 153 139 128 
1.05359 0.742324 3.32953 179 154 147 
0.290701 0.551895 2.46855 175 167 156 
0.895726 0.744644 3.31743 156 139 129 
-0.303781 0.537042 2.37677 143 142 137 
0.0394446 0.502236 2.23091 128 114 101 
-0.0674261 0.545819 2.41635 182 178 169 
0.0466412 0.501502 2.22457 191 177 164 
1.03735 0.745785 3.31756 188 160 149 
-0.255359 0.540173 2.38299 153 150 141 
0.077763 0.503255 2.2284 175 163 151 
0.332232 0.559499 2.47703 166 162 151 
0.876728 0.746646 3.30331 218 194 184 
-0.245417 0.542598 2.38609 146 142 131 
0.264686 0.559283 2.46909 148 144 133 
-0.169601 0.547498 2.39838 229 225 214 
-0.213764 0.547509 2.39772 167 165 152 
0.0376328 0.507586 2.22287 163 149 136 
0.316296 0.564799 2.47432 148 144 133 
0.645744 0.747985 3.276 86 57 51 
0.0617714 0.50985 2.22372 55 43 31 
-0.209913 0.549128 2.38614 171 167 156 
0.0516551 0.510634 2.22636 133 119 106 
0.349978 0.568599 2.48334 179 175 164 
0.719382 0.74438 3.24433 121 93 89 
0.724861 0.74899 3.26162 74 46 42 
0.981282 0.748342 3.26119 184 147 138 
-0.249154 0.5519 2.38257 220 216 207 
0.273736 0.569686 2.46938 156 149 139 
0.0805881 0.515714 2.22697 77 63 52 
0.875296 0.748153 3.23877 211 182 176 
0.886647 0.748614 3.22937 94 64 56 
0.216461 0.571173 2.45532 127 124 109 
0.286486 0.574521 2.47075 140 134 120 
0.932416 0.750046 3.22549 212 179 170 
-0.206351 0.556666 2.37838 160 156 145 
0.0668776 0.519315 2.22339 181 174 158 
0.346309 0.579456 2.48099 179 175 164 
0.957764 0.751564 3.22159 70 41 33 
1.091 0.751661 3.22506 171 157 148 
-0.148045 0.562656 2.39722 168 164 153 
0.750277 0.753014 3.21278 204 191 183 
1.05072 0.751139 3.2093 46 23 15 
-0.256982 0.560801 2.37995 150 146 137 
-0.209187 0.563974 2.38505 167 163 152 
1.02242 0.752563 3.19112 146 126 119 
0.0595493 0.526254 2.22097 86 73 57 
-0.186138 0.569642 2.39006 161 159 147 
-0.245754 0.569305 2.38283 152 149 140 
1.0017 0.75656 3.18343 149 129 120 
-0.1179 0.576158 2.39892 142 139 130 
0.0620181 0.53538 2.23093 90 77 61 
0.384951 0.594764 2.48063 176 172 161 
0.0676602 0.533755 2.22287 204 188 173 
0.62644 0.754682 3.14388 141 121 114 
0.709399 0.755682 3.14516 145 130 123 
0.0825466 0.538314 2.22788 180 164 149 
-0.197713 0.579269 2.38455 137 134 127 
0.0568271 0.538869 2.22153 154 141 124 
0.811652 0.75892 3.1288 193 180 172 
-0.174436 0.581111 2.38366 177 175 163 
0.668216 0.756724 3.11262 188 168 159 
0.881305 0.759772 3.11955 81 48 41 
0.318358 0.604165 2.47041 165 161 150 
-0.0641258 0.590807 2.40546 151 147 136 
0.0659981 0.545955 2.2238 156 143 127 
0.754234 0.758844 3.10239 151 141 132 
0.961688 0.759864 3.10454 77 53 43 
-0.245452 0.586112 2.37463 161 161 151 
0.851058 0.759305 3.08856 163 140 132 
0.834428 0.759403 3.08778 74 51 43 
0.0765815 0.551367 2.22664 98 82 66 
0.0518053 0.552903 2.22457 179 163 148 
0.237103 0.611524 2.4553 121 117 105 
0.273245 0.614415 2.46041 155 151 142 
0.0678314 0.556902 2.2222 85 69 54 
-0.1692 0.600521 2.38664 174 170 159 
-0.301486 0.597265 2.36502 165 164 159 
0.080664 0.560999 2.22549 112 100 78 
0.994178 0.762986 3.02723 164 136 132 
0.0530001 0.565441 2.22757 160 144 129 
-0.193872 0.606722 2.38302 148 148 136 
0.324936 0.627463 2.47287 164 158 146 
-0.242746 0.606169 2.37317 174 171 166 
-0.228647 0.605874 2.373 168 165 160 
0.676105 0.764288 2.9995 201 180 175 
0.346159 0.634134 2.47608 134 131 124 
0.0712879 0.57068 2.22226 134 118 95 
0.0838028 0.571936 2.22718 123 106 86 
0.0526026 0.577033 2.22682 172 156 140 
0.0667468 0.58101 2.22171 97 82 61 
0.0461182 0.588711 2.2274 189 172 152 
0.0617556 0.592383 2.22587 197 179 159 
0.742669 0.772166 2.90127 245 235 225 
0.0846722 0.594422 2.22398 127 111 88 
-0.202123 0.635661 2.3732 179 175 164 
0.284643 0.659115 2.46007 158 156 144 
-0.153538 0.641415 2.37895 176 176 166 
-0.151638 0.656989 2.38305 168 165 156 
0.42436 0.687072 2.49313 187 182 176 
0.863608 0.77808 2.81335 152 135 128 
0.364725 0.689724 2.47991 189 189 181 
0.394638 0.694633 2.48819 148 145 138 
-0.219497 0.665905 2.36993 149 146 141 
0.219903 0.687464 2.44798 175 173 161 
0.544975 0.774434 2.76129 204 191 183 
0.546403 0.773168 2.75266 201 188 180 
-0.0558496 0.675117 2.3914 174 170 161 
0.0880444 0.627505 2.228 127 110 90 
0.446434 0.704909 2.5022 165 161 152 
-0.0243363 0.678942 2.40022 115 111 99 
0.0651742 0.632246 2.2257 75 58 40 
0.561379 0.774043 2.73086 103 90 82 
0.0413027 0.637587 2.23565 185 169 153 
0.221731 0.697478 2.4447 171 169 156 
0.289789 0.702506 2.46272 175 173 161 
0.30748 0.704214 2.46381 162 158 147 
0.0787449 0.63862 2.22584 109 91 71 
0.0884139 0.644538 2.23252 119 103 88 
0.216077 0.70734 2.4455 163 160 151 
0.297151 0.713315 2.465 167 165 152 
0.319142 0.716091 2.46727 158 152 140 
0.535241 0.779377 2.68287 168 158 149 
-0.0267991 0.701794 2.39872 156 149 141 
0.039816 0.655413 2.23304 111 95 80 
0.0884278 0.655755 2.22665 135 119 103 
0.245098 0.725547 2.45106 135 132 123 
-0.099608 0.707093 2.38247 146 142 131 
0.0531646 0.662284 2.23356 168 151 133 
0.369589 0.735602 2.48179 180 179 175 
0.0972762 0.663777 2.23291 206 193 177 
0.0701752 0.663485 2.22917 77 61 45 
0.278948 0.736854 2.45968 157 157 145 
0.33342 0.740616 2.4726 149 147 135 
0.39607 0.744269 2.48682 177 178 172 
0.248324 0.736231 2.45322 117 115 103 
0.103049 0.673658 2.24241 96 83 64 
0.311418 0.742677 2.46886 166 162 151 
-0.0358871 0.725172 2.39469 127 124 115 
0.25426 0.746492 2.45406 162 160 147 
0.473622 0.761323 2.50776 179 178 173 
0.269464 0.74862 2.45664 175 175 165 
0.639914 0.78766 2.59065 192 179 173 
-0.0888401 0.729071 2.3846 158 155 150 
0.29004 0.752436 2.46437 165 163 150 
0.357919 0.759636 2.48007 170 169 164 
0.45929 0.766811 2.50673 154 153 148 
-0.073259 0.732861 2.38652 116 113 104 
0.486343 0.772292 2.51581 127 118 111 
0.204105 0.753535 2.4449 148 148 138 
0.449582 0.771468 2.50588 145 144 140 
0.69094 0.79076 2.57275 244 231 223 
0.581068 0.792985 2.57413 119 108 102 
0.250909 0.758346 2.45513 148 146 131 
0.286519 0.761748 2.46118 130 130 118 
0.30256 0.763716 2.46605 163 163 151 
0.33032 0.767709 2.47301 173 173 161 
0.418802 0.774177 2.4957 161 160 155 
0.176289 0.758799 2.43851 167 164 155 
0.481974 0.781197 2.51038 133 129 118 
0.498115 0.786298 2.52506 39 36 27 
0.209301 0.765607 2.44578 152 151 146 
0.245662 0.768154 2.45326 158 158 148 
0.40713 0.77984 2.49389 144 143 138 
0.106763 0.703558 2.2447 115 102 86 
0.495169 0.788148 2.51491 242 239 230 
0.696155 0.791802 2.53233 110 105 101 
0.261275 0.771694 2.45749 152 151 146 
0.46347 0.785384 2.5053 164 164 156 
0.426877 0.784736 2.49869 168 164 161 
0.160199 0.768689 2.43453 152 150 138 
0.290292 0.776766 2.46241 103 103 93 
0.448947 0.790792 2.5052 150 147 140 
0.226837 0.776269 2.44821 222 220 208 
0.475211 0.794337 2.51023 205 202 195 
0.73102 0.795188 2.5185 152 141 137 
-0.00307664 0.76263 2.40297 109 106 97 
0.246708 0.779155 2.45306 143 140 131 
0.177206 0.776485 2.43852 144 144 134 
0.461452 0.795526 2.50301 151 147 138 
0.488338 0.80007 2.51504 118 115 106 
0.439773 0.797575 2.50293 88 87 82 
0.236588 0.782089 2.44914 133 131 119 
0.26131 0.786518 2.46139 216 213 204 
0.202992 0.781312 2.44191 113 110 105 
0.430833 0.798821 2.49801 63 58 54 
0.093075 0.717457 2.2398 101 89 75 
0.316089 0.791132 2.47028 130 128 116 
0.415299 0.798374 2.49593 206 202 199 
0.400103 0.798756 2.49396 224 220 211 
0.499747 0.801922 2.50501 150 143 137 
0.547107 0.798176 2.4903 204 200 191 
0.280585 0.792976 2.46435 136 134 122 
0.389196 0.802059 2.49521 201 195 183 
0.442638 0.801156 2.49074 20 15 9 
0.344158 0.797806 2.47678 121 112 103 
0.169552 0.78647 2.43775 140 137 128 
0.359507 0.800089 2.48073 77 68 59 
0.382863 0.800968 2.4848 225 215 203 
0.305822 0.7981 2.47014 238 236 224 
0.326599 0.800605 2.48124 243 241 229 
0.245678 0.792045 2.44995 191 187 176 
0.337396 0.804278 2.48368 217 213 202 
0.231399 0.793353 2.44921 228 224 212 
0.581879 0.800718 2.47614 166 147 141 
0.215308 0.794748 2.44626 220 220 208 
0.295204 0.802028 2.4682 246 242 231 
0.324717 0.803211 2.47302 159 155 144 
0.204748 0.795624 2.44454 124 123 118 
0.337525 0.801833 2.46542 135 128 118 
0.398558 0.805879 2.47872 146 133 125 
0.374424 0.805912 2.475 121 108 99 
0.240414 0.800633 2.45495 239 230 213 
0.162651 0.796564 2.4352 78 78 68 
0.255933 0.8029 2.45521 226 216 204 
0.27198 0.803759 2.45931 236 229 211 
-0.0168942 0.784175 2.39333 118 113 107 
-0.00437574 0.78622 2.40011 82 77 71 
0.669393 0.802373 2.45626 113 96 89 
0.285624 0.806751 2.46364 130 127 110 
0.224321 0.80407 2.44921 105 103 90 
0.173399 0.802947 2.44178 109 106 97 
0.20014 0.801194 2.4386 112 107 103 
0.236402 0.803915 2.44794 151 144 128 
0.302994 0.810952 2.46699 104 102 89 
0.174807 0.79894 2.42686 154 151 142 
0.187776 0.80296 2.43587 86 81 75 
0.250934 0.80959 2.44475 141 139 126 
0.301802 0.808123 2.4397 45 44 26 
0.018205 0.797449 2.40337 7 2 0 
0.270881 0.811146 2.44853 128 120 107 
0.2913 0.814147 2.45619 65 66 52 
0.21001 0.809175 2.43784 158 151 133 
-0.00776983 0.796631 2.39686 57 52 49 
0.232766 0.811255 2.4425 157 138 123 
0.345144 0.810877 2.44296 54 46 43 
0.376106 0.80963 2.43415 58 41 34 
0.225234 0.808134 2.42558 125 106 91 
0.259219 0.809713 2.43118 113 99 90 
0.215431 0.811029 2.42463 32 18 5 
0.683448 0.801397 2.39884 116 103 95 
0.00785001 0.806522 2.40033 90 82 79 
0.295713 0.810853 2.41726 77 70 52 
-0.0510326 0.804334 2.38735 158 153 150 
0.304346 0.809951 2.40914 46 39 21 
0.290797 0.811154 2.40733 120 116 105 
0.378813 0.810566 2.37794 134 117 110 
0.232642 0.814895 2.38371 19 8 2 
0.174323 0.812647 2.34622 120 105 100 
0.255678 0.81643 2.34112 121 112 105 
0.394632 0.815422 2.33631 118 95 89 
0.329397 0.815564 2.32728 32 13 6 
0.689509 0.809191 2.30355 50 30 23 
0.300161 0.818348 2.28688 156 137 130 
0.56249 0.81956 2.15722 155 134 129 
-0.142566 -0.648335 2.76384 42 29 13 
0.198211 -0.623267 2.7157 117 102 81 
0.360608 -0.405732 2.70444 216 238 217 
0.338899 -0.340445 2.69768 229 250 231 
0.314278 -0.323844 2.70322 219 229 220 
0.351272 -0.272748 2.68462 235 249 234 
0.479074 -0.235689 2.70602 89 77 63 
0.442078 -0.231458 2.69821 217 248 217 
0.298605 -0.211845 2.57207 237 255 241 
0.508141 -0.217944 2.70617 117 104 95 
0.397141 -0.209542 2.6849 235 255 238 
0.551572 -0.180539 2.6899 237 224 218 
0.572009 -0.133636 2.7009 232 218 209 
-0.0437527 0.247021 2.49169 166 166 166 
1.3736 0.574098 4.04495 114 96 74 
1.39774 0.569911 3.95335 203 186 168 
-0.0784052 0.374855 2.4634 201 195 195 
-0.0227703 0.405177 2.44663 26 22 19 
1.34414 0.697335 4.16328 195 172 156 
0.295791 0.421963 2.4987 132 128 116 
0.200266 0.426813 2.48326 119 111 98 
0.372392 0.472223 2.49735 174 170 159 
0.213013 0.484361 2.47542 139 137 125 
0.987647 0.728268 3.6461 65 36 28 
0.930723 0.725076 3.58045 207 187 178 
1.04452 0.729811 3.58098 249 219 209 
0.292348 0.521089 2.47354 170 160 150 
-0.257714 0.529241 2.38588 148 145 136 
0.279429 0.549235 2.47075 164 155 146 
0.206226 0.555743 2.45999 153 149 140 
0.237935 0.557302 2.46668 180 176 165 
0.992404 0.763439 3.03879 175 150 143 
-0.117251 0.700372 2.38307 155 152 145 
0.581368 0.781763 2.6601 33 24 17 
0.069668 0.692586 2.2306 166 153 137 
0.384934 0.805066 2.47627 131 115 100 
0.297121 0.812087 2.4794 175 172 157 
-0.0352031 0.785933 2.39132 117 114 105 
0.184701 0.809147 2.45408 149 146 137 
0.245494 0.809122 2.43641 112 113 97 
0.236853 0.809631 2.42472 114 102 86 
-0.0381564 -0.610946 2.64947 108 92 77 
0.234864 -0.438598 2.67176 237 225 213 
0.385709 -0.429204 2.71416 60 88 66 
0.348996 -0.411444 2.6977 205 215 204 
0.286251 -0.369738 2.69233 40 56 45 
0.347906 -0.365522 2.69532 61 78 59 
0.277575 -0.346545 2.69505 98 131 104 
0.39198 -0.32626 2.7185 223 238 219 
0.344833 -0.278926 2.69034 219 242 224 
0.393381 -0.227657 2.67842 222 239 223 
0.423754 -0.213557 2.68671 207 229 206 
0.266427 -0.207485 2.6497 222 245 225 
0.407183 -0.177199 2.67187 60 94 67 
0.578222 -0.166532 2.71283 133 121 109 
0.606622 -0.166815 2.71199 122 110 98 
0.33461 -0.16028 2.65928 225 243 229 
0.539126 -0.146579 2.68694 128 118 108 
0.62337 -0.139818 2.69991 131 122 107 
0.593914 -0.127836 2.7026 86 76 66 
0.600893 -0.123089 2.6965 83 73 63 
-0.00422761 0.186286 2.5269 37 36 34 
-0.119162 0.217473 2.48377 199 199 199 
-0.0397532 0.295179 2.48673 125 121 120 
-0.000896753 0.30116 2.50671 100 95 92 
0.0421868 0.310281 2.49678 162 158 155 
1.31097 0.568464 4.28091 79 57 34 
1.25927 0.599307 4.43623 176 151 120 
-0.144939 0.335249 2.44698 64 61 56 
1.38508 0.600669 4.00142 52 27 7 
1.32391 0.639791 4.2167 164 137 108 
1.30177 0.669486 4.23814 138 119 104 
-0.0988553 0.40701 2.44251 195 193 194 
0.071918 0.37368 2.24126 154 140 129 
1.38126 0.705653 4.07852 114 91 73 
1.38277 0.711435 4.03374 244 221 205 
0.991245 0.720812 3.90133 205 172 165 
1.05996 0.718298 3.87319 57 39 29 
0.0761693 0.423119 2.22422 208 208 210 
0.953006 0.727008 3.71177 243 210 201 
1.01718 0.726845 3.59434 67 37 29 
0.934884 0.728338 3.59322 217 197 188 
0.741067 0.743873 3.46044 58 21 15 
0.32426 0.545491 2.48125 168 166 154 
-0.221171 0.536398 2.393 169 165 156 
0.293262 0.558749 2.47962 139 131 118 
0.0246902 0.506291 2.24429 67 53 42 
0.251301 0.560487 2.46285 153 150 135 
-0.0662479 0.568035 2.41191 166 162 153 
0.326016 0.588918 2.49157 163 159 148 
0.781096 0.751085 3.14783 138 121 113 
0.936034 0.761494 3.10289 167 138 132 
0.0791842 0.553817 2.21429 181 166 147 
0.964508 0.764223 3.0356 142 125 117 
-0.213483 0.612071 2.37373 189 184 178 
-0.0362769 0.624204 2.4028 125 117 104 
-0.0517344 0.656678 2.39943 151 144 136 
0.730537 0.780635 2.83179 158 154 145 
0.339637 0.686895 2.4738 175 176 162 
0.0624894 0.645131 2.23643 214 199 178 
0.579853 0.780847 2.69315 19 6 0 
0.0955879 0.690805 2.23733 188 175 156 
0.502719 0.786901 2.54252 26 19 13 
0.579714 0.789306 2.54699 26 13 7 
-0.100433 0.749864 2.38381 173 169 166 
0.221185 0.787645 2.45741 140 141 127 
0.378523 -0.412892 2.6985 222 233 219 
0.246938 -0.373325 2.69387 227 235 222 
0.256295 -0.326844 2.69687 39 60 45 
0.464 -0.30808 2.71267 157 179 156 
0.392558 -0.270699 2.67445 206 220 203 
0.502605 -0.211603 2.69901 76 66 56 
0.385436 -0.182023 2.67985 220 241 224 
0.569718 -0.144198 2.68615 159 147 135 
0.466493 -0.128419 2.65182 82 137 97 
0.232103 0.0884545 2.60689 41 41 43 
-0.267118 0.185233 2.44072 174 174 174 
-0.0199994 0.235455 2.51273 183 172 168 
-0.193196 0.259986 2.45026 222 222 222 
-0.0507386 0.313661 2.47396 155 151 142 
0.0479764 0.313343 2.48948 88 84 83 
1.30432 0.563604 4.26009 72 50 26 
-0.14042 0.348165 2.45032 148 144 143 
-0.077168 0.368789 2.452 226 222 219 
-0.10434 0.378539 2.43948 216 212 211 
-0.305433 0.385061 2.40687 103 99 96 
0.0306274 0.402305 2.23076 197 197 197 
0.0600931 0.56626 2.21469 62 44 30 
0.431249 0.77324 2.50238 166 165 161 
0.313012 0.820923 2.46517 108 102 86 
0.317945 0.809612 2.41218 136 130 116 
0.299099 0.818052 2.42966 172 163 146 
-0.00833234 0.829977 2.30968 102 98 89 
0.398199 -0.432014 2.74023 206 228 207 
0.326523 -0.372549 2.68016 223 233 225 
0.357113 -0.364683 2.72704 71 121 84 
0.39496 -0.339968 2.69242 213 234 215 
0.247554 -0.236126 2.6449 139 126 117 
0.534401 -0.23111 2.68813 90 78 66 
-0.162121 -0.0587176 2.54877 220 220 220 
0.023829 0.0775793 2.54613 220 220 222 
0.175282 0.0964144 2.57884 37 36 34 
-0.252768 0.228634 2.44572 31 35 36 
-0.123696 0.24143 2.47622 214 216 215 
1.32666 0.558864 4.17851 143 124 110 
1.29033 0.677973 4.20874 192 166 149 
-0.0959826 0.418028 2.44982 45 43 44 
0.0345525 0.394238 2.23922 109 95 86 
0.98622 0.729121 3.78496 148 117 112 
0.391117 0.602439 2.50222 158 154 143 
0.219472 0.717687 2.45443 126 123 114 
