ply                 
format ascii 1.0    
element vertex 1240
property float x    
property float y    
property float z    
property uchar red  
property uchar green
property uchar blue 
end_header          
0.318278 -0.322527 2.68111 43 61 45 
0.292423 -0.320073 2.67703 88 117 97 
0.245327 -0.317848 2.66971 230 232 227 
0.249324 -0.299016 2.66779 234 240 226 
0.243407 -0.286032 2.66686 171 161 149 
0.246053 -0.273985 2.66252 236 227 218 
0.244939 -0.273752 2.66033 229 221 210 
0.348105 -0.270846 2.67668 235 249 234 
0.339881 -0.264276 2.67384 227 250 230 
0.375113 -0.263427 2.6799 214 233 214 
0.396476 -0.262903 2.68341 244 255 246 
0.540832 -0.259223 2.70896 218 206 190 
0.364151 -0.25153 2.67531 225 255 227 
0.437622 -0.22934 2.68489 217 248 217 
0.362916 -0.225458 2.67095 222 248 223 
0.384748 -0.221608 2.67482 71 105 78 
0.29635 -0.218249 2.65991 62 71 66 
0.41095 -0.212013 2.67539 69 97 75 
0.348171 -0.208471 2.66562 84 100 89 
0.358129 -0.208993 2.67017 186 216 192 
0.431001 -0.208842 2.68004 217 239 216 
0.273751 -0.199426 2.65379 217 242 221 
0.404397 -0.184221 2.67106 54 86 62 
0.371635 -0.180073 2.66568 230 246 233 
0.404307 -0.180606 2.6712 222 251 231 
0.413718 -0.180268 2.67173 228 253 232 
0.545725 -0.181234 2.69619 90 77 69 
0.314159 -0.177261 2.65447 220 255 225 
0.368213 -0.178414 2.66508 230 247 231 
0.550806 -0.18057 2.6996 237 224 218 
0.412997 -0.176077 2.67099 94 122 99 
0.32496 -0.172486 2.65735 62 101 74 
0.498336 -0.167341 2.68746 239 228 222 
0.369135 -0.15908 2.66077 235 255 235 
0.371237 -0.160019 2.66243 214 233 214 
0.501354 -0.16164 2.68763 237 227 218 
0.576179 -0.15609 2.69957 109 96 87 
0.262715 -0.118574 2.6371 122 144 121 
-0.144277 -0.0796892 2.56612 156 154 155 
-0.00163884 -0.0723359 2.58815 94 94 94 
-0.1626 -0.0606145 2.55618 204 204 204 
-0.330588 -0.0564354 2.52375 25 25 25 
-0.249279 -0.00977404 2.52985 38 36 37 
-0.310812 0.0522148 2.50699 191 191 191 
-0.265692 0.107082 2.50494 109 111 110 
0.100517 0.119155 2.56775 221 221 221 
0.100846 0.126235 2.56429 37 37 37 
-0.430104 0.134472 2.46438 189 189 191 
-0.162621 0.136845 2.51865 222 220 221 
-0.0138048 0.168495 2.5395 183 181 184 
-0.0402079 0.175815 2.53326 227 223 224 
-0.318083 0.174987 2.48172 121 121 123 
0.0119183 0.182578 2.54086 58 54 55 
0.0154499 0.188942 2.54218 123 119 118 
0.465892 0.201668 2.614 249 247 248 
-0.362947 0.200366 2.46811 156 156 158 
-0.125574 0.207156 2.51024 88 88 88 
-0.381296 0.218797 2.45994 111 112 114 
-0.139658 0.229582 2.50548 213 213 213 
0.0171398 0.23745 2.53418 174 170 169 
-0.0258949 0.237738 2.52384 187 174 168 
-0.368102 0.233617 2.4594 225 225 227 
-0.206902 0.266269 2.48542 205 205 205 
-0.175388 0.274969 2.4906 53 53 53 
-0.0793825 0.378666 2.48594 201 195 195 
-0.182524 0.380435 2.46647 182 178 166 
-0.102906 0.394649 2.47965 193 191 192 
0.0609969 0.402949 2.25365 117 106 100 
-0.176082 0.453981 2.45195 154 150 139 
0.0391637 0.428985 2.25307 113 97 84 
0.054351 0.4325 2.25151 200 194 194 
0.29688 0.486346 2.52731 104 95 86 
-0.349834 0.465672 2.4143 152 149 144 
-0.340092 0.466931 2.41831 157 154 149 
0.0618665 0.436521 2.25116 83 81 84 
0.0480267 0.445491 2.25094 223 207 191 
-0.253634 0.483071 2.43025 160 156 147 
0.0299789 0.45139 2.25637 98 82 69 
-0.260866 0.513771 2.42312 147 143 132 
0.039458 0.478476 2.2529 171 153 139 
0.268089 0.544844 2.5153 175 165 155 
0.0499189 0.488276 2.2487 169 153 138 
0.070705 0.530669 2.24747 81 65 50 
0.0648556 0.547862 2.247 108 96 80 
0.0656364 0.554265 2.24646 84 71 55 
-0.190658 0.610845 2.41672 171 169 157 
-0.231647 0.612813 2.40594 168 165 160 
-0.231705 0.620692 2.40508 166 163 158 
0.07112 0.590793 2.24648 121 104 86 
-0.370399 0.62993 2.37517 126 122 119 
0.0759562 0.59513 2.24442 117 101 78 
-0.7421 0.658888 2.29037 148 144 135 
0.0736161 0.64633 2.2418 215 198 180 
0.0524166 0.664562 2.24426 176 159 141 
0.430478 0.744164 2.51378 160 160 152 
0.270697 0.75548 2.48004 173 174 166 
-0.289175 0.734944 2.36965 82 79 72 
0.0693165 0.694625 2.23989 166 153 137 
-0.226866 0.742104 2.38096 164 163 159 
0.46358 0.797781 2.5099 186 179 171 
0.325063 0.80036 2.48427 235 233 221 
0.363024 0.803634 2.49201 195 186 177 
0.35922 0.803236 2.49011 101 92 83 
-0.0375794 0.783296 2.41257 130 126 117 
0.306879 0.80464 2.47808 127 123 112 
-0.0183239 0.788936 2.41571 122 117 111 
0.299791 0.807553 2.47544 101 97 86 
0.295256 0.809371 2.47304 175 172 157 
0.283561 0.812727 2.47378 192 191 171 
0.242787 0.812141 2.46438 88 85 66 
-0.00549199 0.803273 2.41518 153 148 145 
-0.0515047 0.806171 2.40494 173 168 165 
-0.0362275 0.812627 2.40488 142 134 132 
-0.0351207 0.816162 2.40596 43 38 34 
-0.0741803 0.820766 2.39813 200 191 182 
-0.100152 0.824446 2.39139 216 204 190 
-0.112138 0.824621 2.38766 184 172 160 
-0.179841 0.82585 2.37553 121 111 99 
-0.199345 0.826126 2.3704 135 131 119 
-0.268332 0.825054 2.35544 226 223 214 
-0.164381 0.83287 2.37584 90 82 71 
-0.235705 0.828489 2.36348 85 82 75 
-0.195674 0.833176 2.3694 54 47 37 
-0.169404 0.835197 2.37422 70 61 52 
-0.266619 0.83003 2.35423 236 228 217 
-0.327193 0.830885 2.34236 136 132 120 
-0.335479 0.83154 2.34156 128 119 112 
-0.288224 0.834762 2.34997 225 222 215 
-0.267337 0.836395 2.35385 211 204 194 
-0.326927 0.837776 2.34205 225 222 215 
-0.313005 0.838974 2.345 182 177 173 
-0.346278 0.83755 2.33518 232 222 213 
-0.343321 0.841506 2.33655 196 189 181 
-0.129557 -0.806783 2.78903 24 6 0 
0.282906 -0.751147 2.68945 14 0 0 
0.275503 -0.741148 2.69522 31 18 10 
0.271487 -0.730856 2.69759 9 0 0 
0.197417 -0.623034 2.71692 114 97 77 
-0.0405872 -0.589265 2.66541 137 121 106 
0.243063 -0.436935 2.68651 55 78 52 
0.302774 -0.425436 2.69701 203 226 206 
0.452214 -0.430566 2.72573 63 75 61 
0.318935 -0.424258 2.70273 210 234 212 
0.302696 -0.414722 2.69519 69 86 70 
0.301316 -0.410181 2.69246 217 239 218 
0.346995 -0.409973 2.69735 205 215 204 
0.318743 -0.409787 2.69829 218 234 224 
0.333849 -0.404131 2.69815 213 218 211 
0.348711 -0.405486 2.70095 216 229 211 
0.234484 -0.399471 2.68185 156 146 136 
0.344898 -0.395088 2.70082 221 231 220 
0.31071 -0.390848 2.69408 38 62 46 
0.228683 -0.364765 2.67934 131 126 123 
0.248151 -0.356028 2.67613 162 190 165 
0.247532 -0.349851 2.67509 73 99 74 
0.363182 -0.338646 2.69133 218 239 222 
0.32371 -0.336451 2.68609 219 240 221 
0.40262 -0.336171 2.69922 216 253 222 
0.241916 -0.332561 2.66966 58 54 51 
0.247422 -0.311009 2.66989 224 234 225 
0.305881 -0.311831 2.6789 41 53 43 
0.249237 -0.298469 2.66815 234 240 226 
0.322393 -0.277967 2.67334 221 251 227 
0.348309 -0.270465 2.67705 230 244 229 
0.387149 -0.267285 2.68605 67 84 74 
0.395246 -0.266306 2.68465 223 237 220 
0.395094 -0.255134 2.6832 219 253 226 
0.293244 -0.222417 2.65768 226 251 232 
0.353319 -0.224314 2.66887 207 231 209 
0.363216 -0.225386 2.67149 222 248 223 
0.338476 -0.223215 2.66249 214 237 219 
0.315858 -0.217366 2.66432 208 226 212 
0.327382 -0.222678 2.71549 70 81 73 
0.371903 -0.219795 2.67314 70 98 76 
0.384662 -0.221616 2.67467 71 105 78 
0.370242 -0.218856 2.67015 85 117 93 
0.527698 -0.220078 2.70119 70 57 48 
0.412519 -0.213142 2.67816 72 108 80 
0.517859 -0.214136 2.69832 19 9 0 
0.273507 -0.205802 2.65632 58 76 64 
0.314853 -0.205663 2.65827 211 236 214 
0.492214 -0.206554 2.69174 138 128 116 
0.270103 -0.200267 2.65148 227 245 229 
0.443764 -0.200444 2.6809 216 245 217 
0.328291 -0.178824 2.66127 211 234 214 
0.48066 -0.180702 2.6857 26 13 5 
0.357911 -0.178583 2.66412 181 207 182 
0.604009 -0.179185 2.70452 59 47 31 
0.352682 -0.173051 2.66434 86 122 96 
0.390076 -0.174478 2.66612 61 91 65 
0.324779 -0.172075 2.65701 62 101 74 
0.413565 -0.166866 2.66943 99 125 98 
0.501862 -0.166878 2.69129 239 229 220 
0.326887 -0.162641 2.65832 75 107 83 
0.370823 -0.159952 2.66169 214 233 214 
0.322408 -0.153274 2.65238 65 91 66 
-0.321767 -0.137847 2.53964 157 153 150 
0.609907 -0.145804 2.70642 91 78 69 
0.621495 -0.139712 2.7042 131 122 107 
-0.107538 -0.0738636 2.56614 119 118 116 
-0.111168 -0.0687247 2.56777 168 166 167 
-0.328264 -0.0612504 2.51911 103 101 102 
-0.335364 -0.0589056 2.52561 180 178 179 
-0.193944 -0.0605734 2.55512 226 226 226 
-0.341007 -0.0561738 2.52117 56 56 56 
-0.118769 -0.0590423 2.56212 158 156 157 
-0.194112 -0.051035 2.55077 117 117 117 
-0.149825 -0.048478 2.55688 218 218 218 
-0.11789 -0.0466478 2.56017 228 227 225 
-0.141861 -0.0398687 2.55707 226 226 226 
-0.283212 -0.033958 2.52853 217 221 222 
-0.306609 -0.0241281 2.52485 211 211 213 
-0.199398 -0.0216117 2.54262 193 193 193 
-0.204319 -0.0137263 2.54114 40 38 39 
-0.199937 -0.0107203 2.54041 205 205 205 
-0.29312 0.0286212 2.51342 196 196 196 
-0.290748 0.0400237 2.51253 199 197 198 
-0.311421 0.0464121 2.5038 52 52 52 
-0.412986 0.0541675 2.48369 160 160 160 
-0.33634 0.0565456 2.50059 203 203 205 
0.0183813 0.0751156 2.56243 215 216 220 
-0.362984 0.0853456 2.4911 210 210 212 
-0.211903 0.0917978 2.52323 16 14 15 
-0.426466 0.0964081 2.4751 14 14 16 
0.223117 0.0997638 2.59251 118 116 117 
-0.444267 0.100451 2.46845 34 34 36 
0.101021 0.104934 2.57004 213 213 213 
0.162611 0.112631 2.58171 90 89 87 
0.107953 0.123593 2.569 224 224 224 
0.133352 0.12532 2.57105 232 234 233 
0.101735 0.126346 2.56618 39 39 39 
-0.437622 0.134236 2.46381 121 121 123 
-0.175246 0.136472 2.51684 224 226 225 
-0.162863 0.1366 2.51799 222 220 221 
-0.147875 0.142513 2.52159 49 49 49 
-0.171204 0.148418 2.51543 169 169 171 
-0.160006 0.147424 2.51411 217 217 219 
0.126063 0.155838 2.56482 73 73 73 
-0.0390393 0.17683 2.53488 231 227 228 
-0.31607 0.18097 2.48109 83 83 85 
0.459296 0.200063 2.6118 55 53 54 
-0.0799764 0.198096 2.52251 83 81 82 
-0.314891 0.19858 2.47743 139 139 141 
-0.31253 0.205301 2.4796 49 49 51 
0.0125016 0.218066 2.53416 76 75 73 
-0.246378 0.21917 2.48761 197 197 197 
-0.152884 0.220336 2.50627 220 220 220 
-0.268373 0.226327 2.48079 223 223 225 
0.00296298 0.246479 2.53057 82 81 79 
0.0196211 0.251051 2.52939 41 37 36 
-0.137121 0.256342 2.49846 22 22 22 
-0.129451 0.25976 2.49641 188 188 188 
-0.20701 0.266429 2.4851 220 220 220 
-0.196045 0.268172 2.48707 27 27 27 
-0.174421 0.276069 2.48982 53 53 53 
-0.110205 0.302196 2.49611 64 60 57 
-0.23621 0.375277 2.45645 58 54 51 
-0.217845 0.377848 2.46086 143 139 128 
-0.0840038 0.380932 2.48247 15 17 16 
-0.206036 0.381804 2.46253 110 105 101 
-0.103726 0.395941 2.47799 213 212 210 
-0.0970158 0.422389 2.47364 29 28 26 
0.0531994 0.401388 2.25228 113 108 102 
-0.0684342 0.446144 2.47579 163 159 150 
-0.262997 0.465202 2.43223 153 149 140 
-0.291097 0.466399 2.42586 160 158 146 
-0.219232 0.484981 2.43661 168 164 152 
0.0588136 0.447197 2.25039 249 236 227 
0.0466624 0.470329 2.25077 187 171 155 
-0.118224 0.515387 2.44908 163 160 151 
-0.209115 0.565821 2.4211 160 156 145 
0.0601761 0.523554 2.24572 75 66 51 
-0.21227 0.570386 2.41889 173 169 158 
-0.334576 0.566172 2.39685 165 164 159 
0.946663 0.773284 3.14965 167 138 132 
-0.216141 0.619778 2.4099 189 184 178 
-0.0369168 0.633582 2.44184 125 117 104 
-0.333214 0.673384 2.37353 153 152 147 
-0.0557962 0.686796 2.42663 113 109 100 
0.289301 0.717874 2.4878 180 178 166 
0.360267 0.766778 2.49552 159 158 153 
0.407112 0.782849 2.50376 144 143 138 
-0.101806 0.756354 2.40361 171 168 163 
0.409847 0.797904 2.49431 150 146 143 
0.264339 0.7936 2.47218 140 136 133 
-0.0371174 0.783799 2.41361 120 117 108 
0.326851 0.80367 2.48189 135 133 121 
0.294749 0.805786 2.47597 216 210 196 
-0.779414 0.74032 2.26324 152 148 139 
0.304639 0.810691 2.47898 41 38 29 
-0.196131 0.787843 2.37833 159 158 154 
-0.00536277 0.803496 2.41546 153 148 145 
-0.0513133 0.806314 2.40539 189 184 181 
-0.255836 0.795963 2.36582 186 185 183 
-0.103999 0.808848 2.39494 159 154 148 
-0.0804209 0.81008 2.39994 159 153 141 
-0.0979562 0.80915 2.39435 199 192 184 
-0.190832 0.810316 2.37537 131 128 123 
-0.187371 0.812883 2.37422 221 216 210 
-0.184055 0.813454 2.37554 132 128 119 
-0.221191 0.82643 2.36541 128 123 119 
-0.159334 0.829583 2.37889 161 153 142 
-0.35805 0.821732 2.34162 210 210 202 
-0.175344 0.831818 2.3722 242 232 223 
-0.195631 0.833427 2.36949 54 47 37 
-0.189806 0.83446 2.36845 168 159 150 
-0.354226 0.8281 2.33939 124 120 117 
-0.240442 0.835632 2.35829 49 40 35 
-0.21885 0.839516 2.36633 139 129 120 
-0.327995 0.830918 2.3405 151 147 135 
-0.330896 0.838732 2.34226 148 141 135 
-0.326875 0.837564 2.34224 224 221 212 
-0.345863 0.838253 2.3365 224 215 208 
-0.307495 0.840072 2.34381 124 119 115 
0.0248314 0.823315 2.25745 168 165 160 
-0.62465 0.853858 2.27473 64 55 48 
0.296371 -0.738588 2.70215 172 159 153 
0.288503 -0.731222 2.70686 174 163 157 
0.291717 -0.723134 2.70858 7 0 0 
0.425406 -0.445801 2.72233 41 66 45 
0.450605 -0.42384 2.7235 72 102 76 
0.245553 -0.339847 2.67395 231 239 224 
0.308451 -0.332976 2.67964 207 228 211 
0.322963 -0.320788 2.68232 214 232 216 
0.246542 -0.312506 2.66864 208 213 207 
0.24435 -0.304097 2.66787 55 49 49 
0.248681 -0.296143 2.66555 219 226 210 
0.391071 -0.270149 2.68052 206 220 203 
0.36342 -0.270111 2.67318 213 234 215 
0.34917 -0.268424 2.67533 223 235 221 
0.250766 -0.261255 2.66157 217 215 200 
0.303069 -0.222586 2.66511 213 237 213 
0.45365 -0.227778 2.68572 221 238 219 
0.269151 -0.220384 2.65015 221 239 223 
0.524426 -0.218073 2.70112 115 105 95 
0.345837 -0.210185 2.66521 76 91 84 
0.48959 -0.207523 2.69627 102 92 80 
0.268682 -0.200941 2.65077 221 235 222 
0.325939 -0.165946 2.65656 74 124 86 
0.371154 -0.159988 2.66228 214 233 214 
0.34626 -0.157894 2.64763 213 238 219 
-0.335324 -0.0592037 2.52574 180 178 179 
-0.1958 -0.0589009 2.55063 228 228 228 
-0.150745 -0.0499349 2.56088 219 219 219 
-0.245226 -0.0433009 2.53849 41 41 41 
0.185845 0.00717261 2.60842 51 51 51 
-0.250999 0.0101894 2.52874 42 40 41 
-0.292216 0.0267757 2.51368 217 215 216 
0.0644767 0.0515974 2.57539 212 212 212 
-0.421177 0.0565026 2.48371 28 28 28 
-0.334058 0.0603794 2.50288 38 38 40 
0.0265422 0.0761738 2.56616 33 33 33 
-0.345998 0.0766612 2.49461 207 207 209 
-0.384393 0.0871529 2.48398 218 218 220 
-0.257489 0.0921113 2.50966 20 22 21 
-0.215667 0.11132 2.51384 217 219 216 
-0.267366 0.112444 2.50606 33 35 34 
-0.437646 0.126372 2.46381 207 207 209 
0.101068 0.128668 2.56669 29 29 29 
0.116966 0.126774 2.56932 229 229 229 
-0.314849 0.188527 2.4794 116 116 118 
0.0918883 0.205014 2.54947 221 222 224 
-0.20605 0.20998 2.49449 60 60 62 
-0.194095 0.214703 2.50529 227 227 227 
-0.272968 0.215831 2.48524 218 218 220 
-0.154298 0.216465 2.50615 228 228 228 
-0.246811 0.218801 2.48632 191 191 191 
-0.213383 0.230532 2.48902 226 226 228 
-0.209375 0.260621 2.48822 32 32 34 
-0.193336 0.268775 2.48823 149 149 149 
0.00232613 0.305063 2.52014 114 108 108 
0.0474734 0.317971 2.52049 88 84 83 
-0.313806 0.400014 2.43841 161 158 149 
-0.118224 0.515387 2.44908 163 160 151 
0.0569429 0.592305 2.24598 99 82 62 
0.492071 0.790119 2.51799 238 235 226 
-0.0968183 0.769974 2.40377 184 181 176 
0.294178 0.804751 2.47502 238 234 222 
-0.104441 0.808908 2.39383 140 137 130 
-0.162205 0.831625 2.37717 94 86 75 
-0.359538 0.820567 2.3378 223 223 215 
-0.245841 0.837356 2.35992 185 175 166 
-0.239346 0.836712 2.36137 64 55 50 
0.20151 -0.650256 2.70964 54 38 15 
0.374287 -0.391814 2.70065 220 237 219 
0.242932 -0.379668 2.68311 69 73 74 
0.36332 -0.341513 2.69047 215 225 216 
0.249463 -0.278719 2.66246 213 217 202 
0.321694 -0.203415 2.6587 222 243 224 
0.350203 -0.178001 2.66231 211 231 219 
-0.117061 -0.0700038 2.56071 214 212 213 
-0.337654 -0.0521044 2.51956 35 35 35 
-0.313496 -0.0546758 2.52584 204 204 204 
-0.178745 -0.0399049 2.54564 195 195 195 
0.162377 -0.0184466 2.60626 31 31 33 
-0.32848 -0.0174988 2.51724 141 141 143 
-0.426306 0.00103402 2.49404 27 28 30 
0.148583 -0.00170288 2.59755 228 228 228 
0.185165 0.0216153 2.60257 60 60 60 
-0.316488 0.0399951 2.5044 214 214 214 
0.064264 0.0532579 2.57502 217 217 217 
-0.420905 0.0548949 2.48308 26 26 26 
-0.413075 0.0617553 2.47367 206 207 209 
-0.0439367 0.0783038 2.55215 214 214 214 
-0.251237 0.082736 2.51892 217 219 218 
-0.369533 0.0847289 2.49271 107 106 111 
-0.273015 0.089126 2.50649 212 214 213 
0.1021 0.105054 2.57143 181 181 181 
0.0868331 0.111974 2.56698 225 225 225 
0.134704 0.126726 2.5734 228 228 228 
-0.162098 0.135499 2.5183 225 223 224 
-0.429033 0.138382 2.46574 203 203 205 
-0.229163 0.145873 2.50238 36 36 36 
-0.195108 0.216775 2.49958 230 230 230 
-0.210774 0.221848 2.49477 102 102 102 
-0.220581 0.234326 2.49853 29 29 31 
-0.210065 0.239549 2.49608 31 31 33 
-0.254894 0.257102 2.48298 203 203 205 
0.0118188 0.261727 2.52276 44 44 44 
-0.192764 0.270078 2.48985 50 50 50 
-0.0840988 0.382264 2.48907 15 17 16 
-0.101654 0.383884 2.48772 27 25 26 
0.289892 0.525775 2.52079 161 153 142 
-0.252738 0.745902 2.37622 88 80 77 
-0.0415239 0.79082 2.40972 152 149 140 
-0.0587585 0.808893 2.40762 133 128 125 
-0.18497 0.81326 2.37477 126 121 115 
0.0726241 0.793265 2.23797 78 69 62 
0.28525 -0.3567 2.68545 55 61 61 
0.250983 -0.286203 2.67142 235 247 227 
0.398893 -0.213784 2.72766 218 236 220 
0.311671 -0.169694 2.60325 220 222 217 
0.26725 -0.122354 2.63788 82 140 92 
0.268886 -0.122114 2.641 83 141 93 
-0.1294 -0.0695508 2.56301 218 218 218 
-0.104506 -0.0696833 2.56968 67 65 66 
0.0090483 -0.0702148 2.59259 44 44 42 
-0.113152 -0.0429924 2.56057 222 221 219 
-0.394471 -0.0165563 2.5016 29 29 29 
0.161827 -0.0175454 2.60476 40 40 42 
-0.226263 -0.00280354 2.53387 42 40 41 
0.0869121 -0.00835084 2.58977 24 25 27 
-0.204017 0.00197735 2.53729 220 218 219 
0.183667 0.0160811 2.60215 79 79 79 
-0.250044 0.0395917 2.52115 31 31 31 
0.0669982 0.0403234 2.5824 40 38 39 
-0.312741 0.0483143 2.5039 81 81 81 
0.0336946 0.0433921 2.57104 222 222 222 
-0.407814 0.0542457 2.48392 30 30 30 
-0.402865 0.0641526 2.48526 27 27 27 
-0.311684 0.0640221 2.50304 219 219 219 
0.0483926 0.0650026 2.56827 69 69 69 
-0.372607 0.0683341 2.48984 221 221 221 
-0.27468 0.0847021 2.50724 216 216 214 
-0.364072 0.0976544 2.48896 206 206 206 
0.255216 0.108796 2.5844 33 33 35 
-0.377632 0.120882 2.47985 36 36 38 
0.0788202 0.184605 2.55651 222 218 217 
-0.119781 0.200638 2.50702 51 51 51 
-0.317965 0.208041 2.47683 34 34 36 
-0.3433 0.21703 2.46683 220 220 222 
0.0889027 0.22136 2.54746 36 38 37 
-0.193127 0.222764 2.49042 228 228 228 
-0.296939 0.225529 2.47934 16 15 20 
-0.249566 0.222337 2.47333 32 32 34 
-0.322521 0.237953 2.47219 32 32 34 
-0.256854 0.263285 2.48392 219 219 221 
-0.231436 0.33166 2.49097 27 23 22 
-0.192214 0.337364 2.49673 24 20 17 
-0.0975043 0.401274 2.46897 34 34 34 
0.0193405 0.758672 2.31841 127 120 114 
-0.0753721 0.812875 2.40348 223 217 203 
-0.790835 -0.89527 2.17724 28 0 0 
-0.74278 -0.906663 2.69563 80 60 49 
-0.124258 -0.672609 2.75283 54 38 23 
-0.0926249 -0.615456 2.64209 116 103 87 
-0.140087 -0.635829 2.74404 35 23 9 
-0.127123 -0.624275 2.70924 133 118 95 
-0.105567 -0.606597 2.64444 38 25 9 
-0.138568 -0.620768 2.7242 135 118 100 
-0.116687 -0.589511 2.64297 96 82 69 
-0.041606 -0.586037 2.64886 122 106 90 
-0.119536 -0.571173 2.6355 106 94 82 
-0.166083 -0.551145 2.67469 134 117 101 
-0.149109 -0.531962 2.6295 111 98 89 
-0.016626 -0.468594 2.64685 161 146 125 
0.358741 -0.479725 2.72567 146 131 112 
0.283516 -0.465249 2.71039 134 119 98 
0.124538 -0.444322 2.67588 131 116 95 
0.447986 -0.449455 2.73426 224 232 217 
0.411073 -0.447369 2.72809 102 124 101 
0.241066 -0.439324 2.69496 104 101 92 
0.447765 -0.444784 2.74994 126 138 128 
0.427314 -0.438999 2.72072 214 228 213 
0.381149 -0.43209 2.72134 204 243 212 
0.39226 -0.431353 2.72335 219 248 220 
0.448465 -0.431678 2.73434 22 34 20 
0.428581 -0.428683 2.72349 243 254 240 
0.443221 -0.422395 2.73276 226 255 232 
0.391571 -0.419285 2.72113 48 59 53 
0.469617 -0.42005 2.7351 139 127 105 
0.630394 -0.421077 2.75873 153 141 119 
0.725208 -0.417151 2.74692 119 107 85 
0.462791 -0.400918 2.72632 162 150 136 
0.184765 -0.3815 2.67781 171 166 162 
0.359626 -0.365973 2.71107 80 101 86 
0.248357 -0.361531 2.68968 94 120 95 
0.38426 -0.340328 2.71018 215 232 214 
0.397193 -0.334503 2.70712 66 76 68 
0.469279 -0.328656 2.72209 120 106 93 
0.403706 -0.32595 2.70876 216 252 224 
0.389284 -0.320626 2.70443 218 247 219 
0.460615 -0.317658 2.71595 66 95 67 
0.471823 -0.304638 2.71953 148 135 119 
0.474107 -0.288835 2.71874 129 117 101 
0.562384 -0.281829 2.72683 89 77 61 
0.470458 -0.268135 2.70412 162 153 136 
0.542724 -0.265561 2.72118 83 71 55 
0.398041 -0.258402 2.69451 223 255 231 
0.53944 -0.258475 2.71446 243 231 215 
0.566218 -0.257011 2.72582 158 146 130 
0.3292 -0.250971 2.68137 211 246 216 
0.355399 -0.252008 2.68814 202 241 212 
0.504243 -0.244532 2.70748 75 62 46 
0.511412 -0.240473 2.71657 255 243 234 
0.401915 -0.236617 2.69166 213 246 217 
0.520806 -0.237607 2.71453 116 104 90 
0.460994 -0.233439 2.70018 32 73 41 
0.486631 -0.233412 2.70217 175 163 147 
0.407862 -0.229693 2.68825 52 77 56 
0.556278 -0.230487 2.71294 110 98 86 
0.381393 -0.227793 2.68522 61 83 62 
0.540971 -0.228212 2.71052 239 226 217 
0.549915 -0.220155 2.70979 79 67 55 
0.478988 -0.215382 2.70266 84 69 62 
0.520552 -0.213709 2.70653 42 32 23 
0.53593 -0.208691 2.7066 71 58 49 
0.443882 -0.20247 2.69089 220 255 227 
0.407935 -0.188485 2.68006 224 255 228 
0.542193 -0.189096 2.70828 25 16 1 
0.372592 -0.186039 2.67426 207 239 215 
0.611317 -0.185057 2.70898 113 102 84 
0.338181 -0.178354 2.67249 39 83 50 
0.579067 -0.179454 2.70879 179 168 150 
0.532489 -0.176755 2.69824 106 97 82 
0.510349 -0.176154 2.69954 225 215 206 
0.551002 -0.171744 2.70434 219 206 200 
0.522989 -0.170586 2.69622 219 209 199 
0.586949 -0.163231 2.70362 58 45 36 
0.548487 -0.161 2.70125 251 240 234 
0.560085 -0.161694 2.70264 243 231 219 
0.476899 -0.116697 2.68294 100 93 85 
0.244272 0.283825 2.54012 187 183 182 
1.25103 0.54095 4.4553 149 131 109 
0.333399 0.308505 2.53976 170 168 169 
-0.0470512 0.304716 2.48682 187 183 174 
1.2584 0.543809 4.38988 138 113 93 
0.02947 0.311236 2.49564 248 244 243 
1.30215 0.534262 4.23274 158 140 130 
-0.0490833 0.316248 2.48335 239 235 224 
1.28874 0.545643 4.27433 133 109 83 
1.31265 0.534998 4.19882 159 142 126 
1.28661 0.550778 4.29066 241 217 189 
1.29212 0.546877 4.24475 226 204 181 
0.0517603 0.323368 2.49842 121 121 113 
1.31718 0.543141 4.17507 117 99 87 
-0.0550006 0.327227 2.48049 130 125 122 
1.32978 0.549266 4.14612 135 117 103 
1.28989 0.573405 4.28728 152 125 95 
1.33384 0.551525 4.09797 198 181 163 
1.32803 0.561698 4.13294 109 92 72 
1.298 0.578873 4.24878 100 77 59 
1.35601 0.548017 4.02513 184 166 152 
1.29344 0.585264 4.26008 145 119 92 
1.35249 0.560101 4.05597 213 195 173 
1.33596 0.570724 4.11648 163 143 118 
1.3826 0.553859 3.99556 119 103 88 
1.38603 0.549626 3.95867 114 97 87 
-0.155787 0.343952 2.45628 231 228 223 
-0.110331 0.344884 2.46322 178 169 160 
1.32499 0.582946 4.15832 151 131 107 
1.35583 0.566523 4.0328 135 115 91 
1.36385 0.562938 4.01541 210 192 170 
0.0212115 0.351339 2.48367 178 168 156 
1.40074 0.555142 3.94045 219 201 189 
1.34689 0.574251 4.06916 146 124 100 
1.25709 0.619971 4.36625 189 163 138 
1.33981 0.582474 4.10208 166 142 118 
1.34132 0.581234 4.08483 162 138 112 
-0.00698953 0.353652 2.4704 177 172 166 
0.217304 0.358296 2.50997 168 158 146 
1.30067 0.607797 4.25862 171 149 136 
1.37719 0.570068 4.00547 124 103 84 
1.39861 0.558382 3.92021 190 173 157 
-0.0212149 0.355184 2.4718 142 141 137 
1.39326 0.564302 3.9531 185 168 152 
1.36933 0.575199 4.00366 120 98 75 
1.29054 0.608715 4.22508 162 142 131 
1.39971 0.567321 3.93991 110 93 73 
1.29461 0.616103 4.26192 241 221 197 
1.38281 0.573424 3.97435 103 85 63 
1.30557 0.614809 4.2417 143 126 106 
1.36278 0.58527 4.04666 152 125 104 
1.37389 0.580692 4.01415 121 95 72 
1.35805 0.588535 4.05503 130 104 79 
1.41103 0.57113 3.9303 208 190 170 
1.3275 0.605174 4.15636 164 138 113 
0.203735 0.367193 2.50286 156 148 137 
1.3953 0.578571 3.94158 65 45 21 
1.30198 0.624996 4.2307 149 134 115 
1.36564 0.595821 4.03163 213 189 165 
1.36708 0.593076 4.01508 130 106 82 
0.157674 0.372633 2.49871 185 177 166 
1.30113 0.629855 4.24074 255 246 234 
1.37752 0.594252 4.00321 72 50 29 
1.2896 0.636583 4.26979 255 241 215 
1.32095 0.621454 4.1611 165 139 114 
1.39233 0.589797 3.94795 128 106 85 
1.39792 0.590705 3.93134 133 107 84 
0.305489 0.379744 2.51373 181 171 161 
1.27969 0.652667 4.33193 170 152 128 
1.34117 0.616962 4.09239 161 136 106 
-0.231529 0.371154 2.43313 88 85 80 
-0.0681637 0.374687 2.46018 150 150 148 
-0.0932921 0.376287 2.45729 66 64 67 
0.317426 0.383331 2.5186 180 176 165 
1.29081 0.654246 4.28643 162 141 120 
1.25642 0.674793 4.41536 155 133 109 
-0.0822611 0.377814 2.45561 24 26 25 
-0.208699 0.376517 2.43706 123 118 114 
-0.0497062 0.380267 2.46241 149 146 139 
1.36369 0.618501 4.03689 161 133 109 
1.30139 0.65048 4.22517 172 153 136 
-0.094963 0.379286 2.447 210 210 208 
1.29083 0.659519 4.27878 155 131 107 
1.38385 0.613003 3.97943 226 202 178 
1.39772 0.608756 3.95068 206 181 159 
0.295544 0.389031 2.51234 138 128 118 
1.30906 0.6571 4.24396 152 134 112 
-0.0329005 0.383333 2.4652 186 183 176 
-0.0461185 0.382021 2.45037 85 82 77 
1.27564 0.67704 4.36365 236 212 188 
1.27701 0.672849 4.3225 164 146 122 
1.38922 0.615345 3.96034 215 189 166 
-0.0197568 0.385685 2.46422 163 160 153 
0.437118 0.39416 2.53051 174 161 153 
1.30426 0.656005 4.20835 238 218 191 
1.36807 0.629081 4.02197 154 128 101 
1.30236 0.663849 4.2344 237 220 204 
1.39729 0.618826 3.94781 56 29 8 
-0.0910799 0.388781 2.45785 105 105 103 
-0.109163 0.38761 2.44698 79 74 68 
-0.0383132 0.391737 2.4602 123 122 117 
1.28749 0.683223 4.31072 245 224 203 
1.28676 0.680105 4.29259 158 135 117 
1.38448 0.629665 3.97274 122 94 73 
0.418859 0.401931 2.52131 166 157 148 
-0.0878385 0.393415 2.44849 69 69 67 
0.358389 0.402777 2.51635 192 188 177 
1.29382 0.682532 4.27199 255 242 222 
1.30915 0.677665 4.23358 220 200 175 
1.36926 0.643029 4.02537 166 140 113 
-0.0296729 0.397314 2.46739 157 149 146 
1.24449 0.693505 4.32903 92 58 46 
1.28305 0.689071 4.2949 210 185 165 
1.28979 0.69035 4.29914 137 110 93 
1.39101 0.638122 3.96917 107 80 59 
0.2125 0.402705 2.49313 143 135 124 
1.32699 0.670597 4.15748 206 182 154 
1.27274 0.683823 4.23595 191 164 147 
1.40663 0.634238 3.93093 218 194 166 
-0.0280816 0.399016 2.45345 252 249 244 
1.21249 0.696999 4.30409 69 45 35 
1.40352 0.639025 3.94551 158 132 109 
1.29103 0.695212 4.28873 86 58 44 
1.34271 0.668244 4.11546 165 136 102 
1.29718 0.685055 4.21118 146 121 101 
1.3815 0.653008 4.01197 128 104 76 
0.303077 0.409898 2.50463 177 167 157 
-0.0774437 0.404966 2.45338 155 152 147 
1.29568 0.697427 4.25271 82 55 38 
1.30948 0.690529 4.20512 140 115 95 
1.30009 0.693814 4.22483 208 180 166 
-0.0773493 0.407515 2.46205 165 162 157 
-0.0199187 0.407805 2.45901 94 91 86 
1.38031 0.657136 3.98377 143 117 90 
0.199008 0.413883 2.48988 57 47 35 
0.365697 0.417017 2.51252 186 182 171 
1.31697 0.695522 4.1968 204 179 159 
1.33519 0.68513 4.13232 152 127 105 
1.37525 0.666523 4.02511 124 100 76 
1.39353 0.654327 3.95357 116 90 67 
1.2412 0.701499 4.2042 62 40 29 
1.38468 0.666494 4.00178 143 117 92 
0.0569874 0.376992 2.25042 216 199 179 
0.073557 0.380399 2.25623 84 71 55 
1.32515 0.697231 4.14687 158 136 122 
1.3697 0.680365 4.03767 222 197 175 
1.40103 0.667603 3.96703 204 178 155 
-0.0131602 0.419532 2.46014 234 231 226 
0.204098 0.423529 2.49221 229 221 210 
1.03642 0.706592 4.16125 186 157 149 
1.33376 0.701856 4.14315 87 68 54 
1.38475 0.67577 3.9952 129 104 82 
-0.0232402 0.419696 2.45577 190 189 185 
0.0368781 0.384504 2.24793 208 192 179 
1.40202 0.669909 3.93627 132 108 84 
0.0834256 0.3893 2.25898 185 173 159 
0.165134 0.427077 2.48002 177 173 162 
-0.0150728 0.424421 2.45154 247 244 239 
-0.212096 0.420439 2.41935 167 163 152 
0.0553774 0.388001 2.23751 222 209 200 
1.37359 0.694379 4.02375 111 86 66 
1.38283 0.691973 4.00143 216 194 173 
1.35825 0.703541 4.06066 219 194 174 
1.37039 0.699612 4.0365 189 166 148 
-0.0799631 0.43075 2.44335 187 183 172 
0.23183 0.436866 2.48595 172 166 154 
0.336044 0.43937 2.50039 162 158 147 
1.40812 0.693125 3.93929 198 176 155 
1.37427 0.70538 4.00416 238 215 201 
1.39666 0.702579 3.99217 103 80 62 
0.286528 0.441023 2.49156 120 110 100 
0.896768 0.713914 4.03787 207 170 164 
0.051692 0.397041 2.23202 128 120 117 
0.166574 0.440607 2.4775 165 161 152 
-0.230856 0.432041 2.41415 172 166 152 
0.0817907 0.399929 2.24482 79 65 52 
-0.0674668 0.439723 2.4429 162 158 149 
-0.179836 0.437798 2.42296 167 163 152 
-0.247392 0.436767 2.41202 164 160 149 
1.33695 0.707323 3.91032 181 157 147 
0.0461518 0.407945 2.23173 71 72 76 
-0.170832 0.44639 2.42548 150 146 135 
0.0709092 0.410333 2.23472 116 109 101 
1.2915 0.710945 3.87686 151 131 120 
-0.183673 0.449971 2.41705 167 163 152 
-0.162247 0.450353 2.42129 154 150 139 
-0.257738 0.449988 2.40556 161 152 147 
-0.145386 0.453296 2.42587 165 161 150 
0.292038 0.46317 2.48981 158 145 136 
0.306702 0.462878 2.49024 141 133 122 
-0.203885 0.452092 2.41272 172 168 156 
0.143707 0.46055 2.46727 230 226 214 
0.2537 0.462391 2.48372 140 132 119 
1.01067 0.712214 3.82621 43 26 19 
0.0294992 0.418846 2.23773 206 192 191 
0.168147 0.46378 2.47273 241 237 226 
0.872805 0.717298 3.81688 77 44 37 
0.88215 0.719832 3.82133 194 161 152 
1.14645 0.714424 3.78723 83 53 43 
0.208553 0.469051 2.47665 143 139 130 
0.022821 0.427278 2.24433 200 183 167 
0.247659 0.471517 2.48022 170 162 151 
0.820284 0.715355 3.77033 90 63 56 
1.33751 0.715733 3.77809 62 42 35 
-0.225932 0.460759 2.40762 175 171 160 
0.04627 0.425538 2.23178 79 75 66 
0.81998 0.722006 3.79477 155 128 121 
0.0615653 0.427049 2.23187 158 159 163 
-0.272588 0.461847 2.39917 147 143 134 
0.28534 0.476221 2.48371 116 108 97 
0.968401 0.718012 3.7455 207 176 171 
0.348004 0.479768 2.49591 148 144 133 
0.403659 0.480831 2.50601 185 181 172 
-0.243863 0.465316 2.40383 172 168 157 
0.0376508 0.432245 2.24172 81 65 50 
0.312968 0.480303 2.49008 154 146 135 
0.372075 0.48169 2.50112 226 217 208 
0.84183 0.723331 3.74424 87 49 46 
0.0751449 0.435218 2.2392 223 219 218 
0.300532 0.482292 2.48518 121 113 100 
-0.287078 0.471801 2.39666 163 161 149 
-0.174346 0.474397 2.4136 168 164 153 
0.0366562 0.437671 2.23169 124 108 92 
0.365974 0.488331 2.49554 168 161 151 
0.955577 0.719458 3.67184 86 52 43 
1.10426 0.719809 3.66813 239 205 196 
0.0249336 0.441717 2.23942 189 170 156 
0.758073 0.727886 3.69948 91 51 43 
1.03218 0.722116 3.67474 211 180 175 
1.24048 0.721042 3.67045 145 135 125 
-0.19807 0.477801 2.4101 119 113 99 
0.218411 0.486963 2.46367 156 149 139 
0.832533 0.723554 3.67086 95 61 59 
-0.250755 0.477424 2.39821 160 156 147 
0.0472085 0.440721 2.22811 215 199 183 
-0.214142 0.478551 2.40732 225 221 209 
0.273629 0.491515 2.48059 156 150 138 
0.310205 0.492768 2.4857 153 144 135 
0.0175197 0.448227 2.25176 156 140 127 
0.25944 0.491786 2.47745 218 211 201 
0.235385 0.49254 2.47366 84 80 68 
0.0574935 0.444955 2.23059 240 226 215 
0.0757599 0.44717 2.23705 196 180 165 
0.156469 0.49379 2.46173 179 172 162 
0.175402 0.496462 2.46448 176 172 161 
0.398445 0.502641 2.50226 170 161 152 
0.843481 0.720561 3.5872 220 187 180 
0.0364431 0.44909 2.22853 202 186 173 
0.287366 0.500118 2.48227 239 229 220 
0.314124 0.499124 2.47785 154 148 136 
0.859469 0.726581 3.60754 212 185 178 
0.930301 0.726421 3.61132 61 36 29 
0.0660922 0.451185 2.2322 43 27 12 
0.321908 0.502272 2.48797 179 171 158 
0.144899 0.498257 2.45991 157 153 144 
0.0255372 0.454833 2.24071 206 188 176 
0.0457835 0.452659 2.2302 193 177 162 
0.223406 0.502728 2.47236 151 143 132 
0.275512 0.505235 2.47626 124 116 105 
0.0219371 0.460896 2.25173 96 78 64 
0.0327296 0.459417 2.23383 192 176 161 
0.075429 0.458735 2.23335 87 71 56 
0.20648 0.506345 2.46543 143 139 127 
-0.275412 0.493806 2.39036 170 166 157 
0.40171 0.513516 2.49466 244 235 226 
0.832231 0.732343 3.55945 84 45 38 
0.943869 0.72869 3.54347 177 160 153 
0.292778 0.511803 2.48114 153 151 136 
0.266216 0.512012 2.47238 231 223 212 
0.219949 0.511554 2.46644 187 181 169 
-0.15556 0.503612 2.41167 162 158 147 
0.963424 0.726906 3.50155 132 107 102 
1.06 0.729398 3.50636 163 134 128 
0.238614 0.515347 2.46846 163 154 145 
0.404476 0.522101 2.50108 233 224 215 
0.0389321 0.468058 2.23353 177 159 145 
0.195704 0.515464 2.46261 137 130 120 
0.385258 0.522305 2.49832 244 240 231 
-0.114779 0.507036 2.41261 153 150 141 
0.305651 0.520561 2.48213 166 158 147 
0.903342 0.730349 3.48483 180 163 156 
0.252478 0.518854 2.47156 170 168 153 
0.0711611 0.470705 2.231 173 157 142 
1.02518 0.733701 3.49023 70 43 32 
0.0612823 0.47167 2.22987 72 56 43 
0.218724 0.521557 2.46499 161 155 143 
0.784332 0.734975 3.46801 116 76 68 
-0.195014 0.513133 2.40312 160 158 146 
0.266437 0.523549 2.46521 162 153 144 
0.24112 0.526277 2.47002 150 141 132 
0.367382 0.530303 2.48903 169 165 154 
0.0263261 0.479463 2.24167 159 142 132 
1.10315 0.734586 3.45327 173 150 142 
-0.163436 0.516403 2.4059 173 168 162 
0.0927249 0.480332 2.24563 77 64 48 
0.0448308 0.478265 2.22905 183 167 152 
0.261682 0.529544 2.47265 149 139 129 
0.194592 0.528249 2.45538 149 142 136 
0.814997 0.737365 3.42576 85 46 39 
0.895926 0.736024 3.42106 194 170 160 
0.347153 0.536625 2.48541 155 151 140 
0.304344 0.534945 2.47569 167 163 152 
0.409846 0.540496 2.49947 181 164 156 
0.766093 0.736934 3.41283 128 91 83 
0.769496 0.735812 3.40437 220 186 177 
0.828882 0.735996 3.41063 225 188 180 
0.894702 0.737222 3.41263 100 70 62 
0.0587724 0.483248 2.2244 200 184 171 
0.23689 0.533856 2.4627 181 174 164 
0.277883 0.537208 2.47484 104 100 89 
0.182174 0.534591 2.45507 237 233 222 
0.0700934 0.487685 2.2283 186 172 159 
0.196866 0.537962 2.4593 141 136 130 
1.14605 0.739632 3.38416 47 32 25 
-0.230611 0.529221 2.39437 179 175 164 
0.295391 0.543605 2.47479 162 159 144 
0.378989 0.546509 2.49145 172 168 157 
-0.142268 0.531003 2.4051 104 100 89 
0.0429106 0.491381 2.22971 176 162 149 
0.359315 0.547124 2.48515 163 159 150 
0.152256 0.541254 2.44902 135 131 120 
0.337936 0.548501 2.4861 232 228 217 
0.26059 0.546492 2.4695 237 231 219 
1.09536 0.741169 3.36094 184 170 159 
0.802469 0.743704 3.36024 170 147 141 
1.10401 0.747019 3.38244 147 134 125 
0.249867 0.548172 2.46273 230 226 214 
0.664127 0.738997 3.32548 73 38 32 
0.0547051 0.496605 2.22359 153 139 128 
1.04857 0.738635 3.32272 179 154 147 
0.289646 0.55096 2.46883 175 167 156 
0.891577 0.741163 3.31103 156 139 129 
-0.303182 0.536856 2.37806 143 142 137 
0.0390632 0.501946 2.23253 128 114 101 
-0.0674353 0.545333 2.41725 182 178 169 
0.0462401 0.501212 2.2262 191 177 164 
1.03243 0.742113 3.31086 188 160 149 
-0.25488 0.539924 2.38421 153 150 141 
0.0772858 0.502925 2.22999 175 163 151 
0.33105 0.558484 2.47721 166 162 151 
0.872696 0.743196 3.29704 218 194 184 
-0.24496 0.54233 2.38728 146 142 131 
0.263717 0.558351 2.46939 148 144 133 
-0.169336 0.547127 2.39945 229 225 214 
-0.21338 0.547184 2.39884 167 165 152 
0.0372587 0.50729 2.22451 163 149 136 
0.315167 0.563787 2.47452 148 144 133 
0.642923 0.744857 3.27038 86 57 51 
0.061339 0.509523 2.22533 55 43 31 
-0.209545 0.548806 2.3873 171 167 156 
0.0512492 0.510312 2.22798 133 119 106 
0.348743 0.567527 2.48345 179 175 164 
0.716221 0.741219 3.23883 121 93 89 
0.721656 0.745775 3.25596 74 46 42 
0.976747 0.7448 3.25502 184 147 138 
-0.248681 0.551613 2.38377 220 216 207 
0.272745 0.568709 2.46965 156 149 139 
0.0801136 0.515349 2.22855 77 63 52 
0.871347 0.744778 3.23299 211 182 176 
0.88265 0.745234 3.22363 94 64 56 
0.21565 0.570267 2.45571 127 124 109 
0.285459 0.573512 2.47099 140 134 120 
0.928186 0.746603 3.21969 212 179 170 
-0.205991 0.556327 2.37956 160 156 145 
0.06644 0.518957 2.22499 181 174 158 
0.345092 0.578353 2.4811 179 175 164 
0.953405 0.748084 3.21576 70 41 33 
1.08593 0.747999 3.21892 171 157 148 
-0.147826 0.562221 2.39826 168 164 153 
0.746992 0.749808 3.20742 204 191 183 
1.04589 0.747554 3.20336 46 23 15 
-0.256482 0.560499 2.38116 150 146 137 
-0.208809 0.56361 2.3862 167 163 152 
1.01776 0.74903 3.18537 146 126 119 
0.0591354 0.525888 2.22257 86 73 57 
-0.185813 0.569233 2.39116 161 159 147 
-0.245274 0.568965 2.38401 152 149 140 
0.997155 0.753041 3.17776 149 129 120 
-0.11775 0.57565 2.39992 142 139 130 
0.0616068 0.534975 2.23248 90 77 61 
0.383618 0.593563 2.48066 176 172 161 
0.0672322 0.533357 2.22445 204 188 173 
0.623819 0.751715 3.13923 141 121 114 
0.706378 0.752601 3.14035 145 130 123 
0.0820851 0.537883 2.22943 180 164 149 
-0.197351 0.57885 2.38567 137 134 127 
0.0564302 0.538469 2.22312 154 141 124 
0.808147 0.75571 3.12389 193 180 172 
-0.174136 0.580665 2.38477 177 175 163 
0.665422 0.753733 3.10811 188 168 159 
0.877462 0.756477 3.11457 81 48 41 
0.317248 0.603018 2.47055 165 161 150 
-0.0641094 0.590193 2.40636 151 147 136 
0.0655841 0.545524 2.22537 156 143 127 
0.751036 0.755744 3.09778 151 141 132 
0.957457 0.756481 3.0995 77 53 43 
-0.244963 0.585733 2.37584 161 161 151 
0.847402 0.756093 3.08386 163 140 132 
0.830854 0.756213 3.08312 74 51 43 
0.0761454 0.550907 2.22817 98 82 66 
0.0514329 0.552467 2.22614 179 163 148 
0.236256 0.61046 2.4556 121 117 105 
0.272286 0.613294 2.46063 155 151 142 
0.0674214 0.55644 2.22375 85 69 54 
-0.168895 0.600008 2.38771 174 170 159 
-0.300847 0.596923 2.3663 165 164 159 
0.0802248 0.560508 2.22701 112 100 78 
0.989881 0.759639 3.02264 164 136 132 
0.0526352 0.564965 2.2291 160 144 129 
-0.193497 0.606222 2.38412 148 148 136 
0.323818 0.626223 2.47294 164 158 146 
-0.242248 0.605732 2.37436 174 171 166 
-0.228187 0.605424 2.37418 168 165 160 
0.673369 0.761394 2.99572 201 180 175 
0.344975 0.632841 2.47609 134 131 124 
0.0708799 0.570176 2.22379 134 118 95 
0.0833645 0.571409 2.22868 123 106 86 
0.0522479 0.576526 2.22834 172 156 140 
0.0663585 0.580482 2.22323 97 82 61 
0.0457895 0.588177 2.22891 189 172 152 
0.0613895 0.591823 2.22736 197 179 159 
0.739717 0.769271 2.89795 245 235 225 
0.0842486 0.593832 2.22545 127 111 88 
-0.201706 0.635095 2.37432 179 175 164 
0.283676 0.657823 2.46019 158 156 144 
-0.153243 0.640773 2.37998 176 176 166 
-0.151332 0.656293 2.38405 168 165 156 
0.422934 0.685469 2.49283 187 182 176 
0.860193 0.775103 2.81031 152 135 128 
0.363508 0.688199 2.47976 189 189 181 
0.393319 0.693043 2.48794 148 145 138 
-0.219008 0.665273 2.37105 149 146 141 
0.219161 0.686162 2.44818 175 173 161 
0.542985 0.771973 2.75916 204 191 183 
0.544412 0.770723 2.75058 201 188 180 
-0.0557893 0.674247 2.39223 174 170 161 
0.087638 0.626811 2.2294 127 110 90 
0.444936 0.703197 2.50178 165 161 152 
-0.024359 0.678014 2.40096 115 111 99 
0.0648306 0.631566 2.22712 75 58 40 
0.559341 0.771602 2.72888 103 90 82 
0.041027 0.636907 2.23706 185 169 153 
0.220989 0.696142 2.4449 171 169 156 
0.28883 0.701046 2.46272 175 173 161 
0.306464 0.702725 2.46378 162 158 147 
0.078371 0.637906 2.22724 109 91 71 
0.08802 0.643786 2.23387 119 103 88 
0.215359 0.705975 2.44567 163 160 151 
0.296173 0.711804 2.46496 167 165 152 
0.318093 0.714539 2.46718 158 152 140 
0.53334 0.777009 2.68118 168 158 149 
-0.0267962 0.700795 2.39944 156 149 141 
0.0395579 0.654684 2.23443 111 95 80 
0.0880417 0.654976 2.22801 135 119 103 
0.244299 0.724072 2.45113 135 132 123 
-0.0994012 0.706183 2.38334 146 142 131 
0.052877 0.661518 2.23492 168 151 133 
0.368376 0.733893 2.48151 180 179 175 
0.0968735 0.662956 2.23422 206 193 177 
0.0698433 0.662701 2.23053 77 61 45 
0.278045 0.735284 2.45964 157 157 145 
0.332335 0.738946 2.4724 149 147 135 
0.394769 0.742485 2.48645 177 178 172 
0.24752 0.73471 2.45325 117 115 103 
0.102639 0.672789 2.24366 96 83 64 
0.310408 0.741031 2.46871 166 162 151 
-0.0358399 0.724113 2.3954 127 124 115 
0.253443 0.744923 2.45406 162 160 147 
0.472044 0.759342 2.50712 179 178 173 
0.268598 0.747021 2.45659 175 175 165 
0.637662 0.785233 2.58923 192 179 173 
-0.0886433 0.728074 2.38541 158 155 150 
0.289107 0.750786 2.46425 165 163 150 
0.356758 0.75785 2.47975 170 169 164 
0.457766 0.764828 2.5061 154 153 148 
-0.073102 0.731831 2.3873 116 113 104 
0.484719 0.770238 2.51508 127 118 111 
0.203455 0.752016 2.445 148 148 138 
0.448096 0.76948 2.50526 145 144 140 
0.688497 0.788271 2.57131 244 231 223 
0.579058 0.790637 2.57288 119 108 102 
0.25011 0.756735 2.4551 148 146 131 
0.285604 0.760071 2.46105 130 130 118 
0.301592 0.762005 2.46587 163 163 151 
0.329258 0.765936 2.47275 173 173 161 
0.41743 0.772231 2.49517 161 160 155 
0.175731 0.757304 2.43867 167 164 155 
0.480371 0.779119 2.50965 133 129 118 
0.496447 0.784157 2.52422 39 36 27 
0.208642 0.764035 2.44584 152 151 146 
0.244886 0.766515 2.45322 158 158 148 
0.405802 0.777889 2.49338 144 143 138 
0.106365 0.702587 2.24587 115 102 86 
0.493518 0.786016 2.51412 242 239 230 
0.693725 0.789353 2.53108 110 105 101 
0.26045 0.770016 2.4574 152 151 146 
0.461939 0.78332 2.50462 164 164 156 
0.425479 0.782732 2.4981 168 164 161 
0.159698 0.767183 2.43471 152 150 138 
0.289372 0.775024 2.46223 103 103 93 
0.44747 0.788725 2.50453 150 147 140 
0.226127 0.77463 2.4482 222 220 208 
0.473637 0.792213 2.50948 205 202 195 
0.728462 0.792692 2.51724 152 141 137 
-0.003091 0.761394 2.40353 109 106 97 
0.245936 0.777473 2.45299 143 140 131 
0.176656 0.774923 2.43863 144 144 134 
0.459932 0.793425 2.50231 151 147 138 
0.486715 0.797897 2.51422 118 115 106 
0.438332 0.795495 2.50226 88 87 82 
0.23585 0.780414 2.4491 133 131 119 
0.260492 0.784777 2.46124 216 213 204 
0.202364 0.779693 2.44196 113 110 105 
0.429426 0.796754 2.49738 63 58 54 
0.092724 0.716464 2.24098 101 89 75 
0.315089 0.789289 2.47 130 128 116 
0.413949 0.796333 2.49534 206 202 199 
0.398808 0.796737 2.49341 224 220 211 
0.498088 0.799738 2.50422 150 143 137 
0.54528 0.795962 2.48951 204 200 191 
0.279706 0.79118 2.46414 136 134 122 
0.38794 0.80004 2.49466 201 195 183 
0.441193 0.799073 2.49012 20 15 9 
0.343063 0.79589 2.4764 121 112 103 
0.169034 0.784882 2.43786 140 137 128 
0.358358 0.798137 2.4803 77 68 59 
0.381632 0.798976 2.48431 225 215 203 
0.30486 0.796243 2.46985 238 236 224 
0.325565 0.798696 2.48086 243 241 229 
0.244916 0.790319 2.44987 191 187 176 
0.336325 0.802335 2.48326 217 213 202 
0.230685 0.791642 2.44915 228 224 212 
0.579931 0.798462 2.47534 166 147 141 
0.214648 0.793056 2.44624 220 220 208 
0.29428 0.800171 2.46792 246 242 231 
0.323692 0.801304 2.47268 159 155 144 
0.204122 0.793945 2.44454 124 123 118 
0.336458 0.799925 2.46509 135 128 118 
0.397277 0.803853 2.47822 146 133 125 
0.373228 0.803924 2.47455 121 108 99 
0.239675 0.798875 2.45483 239 230 213 
0.162161 0.79495 2.4353 78 78 68 
0.255144 0.801111 2.45506 226 216 204 
0.271136 0.801939 2.45912 236 229 211 
-0.0168533 0.782895 2.39391 118 113 107 
-0.00436796 0.784907 2.40063 82 77 71 
0.667128 0.800012 2.45539 113 96 89 
0.284736 0.804895 2.46339 130 127 110 
0.223636 0.802327 2.44914 105 103 90 
0.172879 0.801285 2.44182 109 106 97 
0.199533 0.799508 2.43861 112 107 103 
0.235678 0.802157 2.44786 151 144 128 
0.302048 0.809051 2.46669 104 102 89 
0.17428 0.797312 2.42698 154 151 142 
0.187211 0.801288 2.43592 86 81 75 
0.250166 0.807795 2.44464 141 139 126 
0.300865 0.806273 2.43953 45 44 26 
0.0181559 0.796063 2.40383 7 2 0 
0.270047 0.809314 2.44836 128 120 107 
0.290398 0.812264 2.45594 65 66 52 
0.209377 0.807447 2.43783 158 151 133 
-0.00774446 0.795291 2.39739 57 52 49 
0.232059 0.809481 2.44243 157 138 123 
0.344061 0.808952 2.4427 54 46 43 
0.37492 0.807679 2.43388 58 41 34 
0.224551 0.806405 2.4256 125 106 91 
0.258426 0.807926 2.43112 113 99 90 
0.214782 0.809305 2.42466 32 18 5 
0.681173 0.799093 2.3982 116 103 95 
0.00783809 0.805121 2.4008 90 82 79 
0.294802 0.80903 2.4172 77 70 52 
-0.0508778 0.803034 2.38796 158 153 150 
0.303409 0.808132 2.4091 46 39 21 
0.289905 0.80935 2.40732 120 116 105 
0.377637 0.808683 2.37791 134 117 110 
0.231944 0.813189 2.38389 19 8 2 
0.173809 0.81108 2.34666 120 105 100 
0.254913 0.814744 2.34144 121 112 105 
0.39342 0.813553 2.33642 118 95 89 
0.328401 0.813799 2.32754 32 13 6 
0.687286 0.806966 2.30328 50 30 23 
0.299268 0.816667 2.28734 156 137 130 
0.560808 0.817667 2.1577 155 134 129 
-0.143197 -0.644785 2.7619 42 29 13 
0.196329 -0.620271 2.71453 117 102 81 
0.358429 -0.403733 2.70383 216 238 217 
0.336864 -0.338657 2.69715 229 250 231 
0.312338 -0.322087 2.70267 219 229 220 
0.349273 -0.271207 2.68423 235 249 234 
0.476696 -0.234376 2.70556 89 77 63 
0.439826 -0.230129 2.69779 217 248 217 
0.296867 -0.210496 2.5723 237 255 241 
0.505687 -0.216715 2.70572 117 104 95 
0.395061 -0.20825 2.68455 235 255 238 
0.549029 -0.179475 2.68955 237 224 218 
0.569436 -0.132738 2.70049 232 218 209 
-0.0440611 0.247318 2.49243 166 166 166 
1.36543 0.570253 4.03165 114 96 74 
1.3896 0.566158 3.94094 203 186 168 
-0.0785135 0.374837 2.46424 201 195 195 
-0.0230156 0.405032 2.44749 26 22 19 
1.3359 0.692549 4.14834 195 172 156 
0.294626 0.421421 2.49905 132 128 116 
0.199395 0.426362 2.48376 119 111 98 
0.371023 0.471441 2.49754 174 170 159 
0.212149 0.483723 2.47587 139 137 125 
0.982562 0.724354 3.63686 65 36 28 
0.926056 0.721334 3.5719 207 187 178 
1.03919 0.725897 3.57218 249 219 209 
0.291266 0.52025 2.47385 170 160 150 
-0.257237 0.529022 2.38709 148 145 136 
0.278407 0.548319 2.47104 164 155 146 
0.205435 0.554895 2.4604 153 149 140 
0.237048 0.556408 2.46702 180 176 165 
0.988101 0.760078 3.03413 175 150 143 
-0.117001 0.699503 2.38397 155 152 145 
0.579298 0.779352 2.65844 33 24 17 
0.0693599 0.691711 2.23189 166 153 137 
0.383701 0.803066 2.47581 131 115 100 
0.296193 0.810172 2.47905 175 172 157 
-0.0351082 0.784672 2.39193 117 114 105 
0.184148 0.80743 2.45404 149 146 137 
0.244745 0.807348 2.43635 112 113 97 
0.236134 0.807883 2.42472 114 102 86 
-0.0391995 -0.607794 2.64841 108 92 77 
0.233066 -0.436383 2.67119 237 225 213 
0.383419 -0.42714 2.71347 60 88 66 
0.346851 -0.409418 2.6971 205 215 204 
0.284356 -0.367802 2.69177 40 56 45 
0.345816 -0.363657 2.69478 61 78 59 
0.275732 -0.34468 2.6945 98 131 104 
0.38978 -0.324559 2.7179 223 238 219 
0.342846 -0.277356 2.68991 219 242 224 
0.391297 -0.226304 2.6781 222 239 223 
0.421585 -0.212274 2.68635 207 229 206 
0.264773 -0.206096 2.64952 222 245 225 
0.405109 -0.176025 2.6716 60 94 67 
0.57559 -0.16553 2.71235 133 121 109 
0.603899 -0.165837 2.71152 122 110 98 
0.332786 -0.1591 2.65909 225 243 229 
0.536657 -0.145614 2.68661 128 118 108 
0.620629 -0.138945 2.69949 131 122 107 
0.591275 -0.126976 2.70217 86 76 66 
0.598242 -0.122251 2.6961 83 73 63 
-0.0046937 0.186709 2.52747 37 36 34 
-0.119283 0.217922 2.48458 199 199 199 
-0.0400327 0.295339 2.48748 125 121 120 
-0.00127761 0.301256 2.50734 100 95 92 
0.0416863 0.310319 2.49744 162 158 155 
1.30276 0.564492 4.26524 79 57 34 
1.25114 0.595016 4.4188 176 151 120 
-0.144902 0.335413 2.44796 64 61 56 
1.37691 0.596679 3.98844 52 27 7 
1.31572 0.635374 4.20145 164 137 108 
1.29369 0.664861 4.22259 138 119 104 
-0.0988869 0.406934 2.44345 195 193 194 
0.0713511 0.373687 2.24294 154 140 129 
1.37291 0.700863 4.06435 114 91 73 
1.37451 0.706656 4.02 244 221 205 
0.985788 0.716623 3.88974 205 172 165 
1.05411 0.714075 3.86174 57 39 29 
0.0756306 0.423008 2.22592 208 208 210 
0.948039 0.723063 3.70202 243 210 201 
1.012 0.722966 3.5855 67 37 29 
0.930177 0.724556 3.58454 217 197 188 
0.737588 0.740412 3.45322 58 21 15 
0.323093 0.544529 2.48144 168 166 154 
-0.22078 0.536116 2.39415 169 165 156 
0.292201 0.557777 2.47984 139 131 118 
0.0243519 0.505992 2.24586 67 53 42 
0.250375 0.559571 2.46319 153 150 135 
-0.0662428 0.567484 2.4128 166 162 153 
0.324866 0.587794 2.49163 163 159 148 
0.777722 0.747933 3.14288 138 121 113 
0.931935 0.758139 3.09791 167 138 132 
0.0787418 0.553359 2.21587 181 166 147 
0.960349 0.760899 3.03101 142 125 117 
-0.213057 0.611586 2.37488 189 184 178 
-0.036311 0.62346 2.40363 125 117 104 
-0.0516985 0.655852 2.40024 151 144 136 
0.727703 0.777804 2.82889 158 154 145 
0.338503 0.685419 2.47372 175 176 162 
0.0621648 0.644404 2.2378 214 199 178 
0.577767 0.7784 2.69132 19 6 0 
0.0952102 0.689897 2.23857 188 175 156 
0.501025 0.784729 2.54159 26 19 13 
0.577727 0.787012 2.54589 26 13 7 
-0.100186 0.748813 2.3846 173 169 166 
