# .PCD v0.7 - Point Cloud Data file format
VERSION 0.7
FIELDS x y z rgb
SIZE 4 4 4 4
TYPE F F F U
COUNT 1 1 1 1
WIDTH 1256
HEIGHT 1
VIEWPOINT 0 0 0 1 0 0 0
POINTS 1256
DATA ascii
-0.39093399 3.51037 8.2459297 4865847
-0.37938201 3.5139999 8.25951 5720385
-0.36447701 3.50667 8.2446699 7496537
-0.34877199 3.49441 8.2182703 8943726
-0.31619 3.48103 8.1721001 9995898
-0.091873497 3.5297401 8.3083897 8549742
-0.075838499 3.52934 8.3015499 7431518
-0.060446899 3.52969 8.2961597 4932417
-0.0444558 3.5293801 8.2892799 1841181
0.00073174998 3.5271201 8.3014402 723218
0.0206869 3.53795 8.3048496 2828335
0.016822901 3.5264699 8.3017197 1446684
0.0528984 3.58447 8.4368896 8616309
0.067298397 3.5843599 8.4399405 7498344
0.119198 3.6165199 8.5106897 7170664
0.142812 3.6246901 8.5189896 6709852
0.15492301 3.62358 8.5222502 8419954
0.178349 3.6149299 8.5041103 6577751
-0.385023 3.52562 8.2573004 4865849
-0.343815 3.5127599 8.2217503 8548967
-0.330796 3.50265 8.2025003 9404018
-0.31792301 3.4951501 8.1880503 10258812
-0.30387199 3.4842601 8.1707897 10259069
-0.0985208 3.5439301 8.3151999 8154983
-0.090667203 3.5524199 8.3276596 7497567
-0.067549199 3.5445199 8.30441 5392710
-0.0603135 3.55158 8.3119202 3485487
-0.0475039 3.5397699 8.2879105 2170144
-0.0277858 3.52404 8.27038 723218
0.00660223 3.5332899 8.2828903 657426
0.0036228099 3.53546 8.2971296 722962
0.0155159 3.54301 8.3065996 1644319
0.0361562 3.53866 8.3051004 6578273
0.054836001 3.59881 8.4368896 8682874
0.116972 3.6312799 8.5033102 7170919
0.12855101 3.63274 8.5106096 5526352
0.152468 3.63217 8.5065403 6116942
-0.37854701 3.5366499 8.2581797 4799543
-0.35429001 3.53532 8.25247 7759710
-0.32057399 3.5095401 8.1905804 9535348
-0.31389999 3.5072601 8.1846504 9798520
-0.290364 3.50845 8.1935902 10456706
-0.26627299 3.5305901 8.23876 10391428
-0.250772 3.5264699 8.2407598 10193794
-0.035055298 3.54266 8.2881203 723218
0.0058174799 3.5567901 8.3105698 920597
0.0244649 3.5559499 8.3186502 5262929
0.024622699 3.55968 8.32407 5526101
0.0624802 3.64902 8.5283298 8222326
-0.34759501 3.5465 8.2531099 7957088
-0.33470699 3.5262101 8.2207298 8877675
-0.307432 3.51724 8.1828499 9798777
-0.31269801 3.5195999 8.18925 9666934
-0.30531299 3.5081501 8.16539 9601398
-0.296422 3.5197101 8.1898603 10259327
-0.284118 3.51929 8.1949196 10456963
-0.27218699 3.53475 8.2229099 10522757
-0.271146 3.52634 8.2032499 10588550
-0.25786999 3.5425501 8.2392702 10062208
-0.155606 3.5788801 8.33183 8944242
-0.134947 3.5752299 8.3278399 8878450
-0.066804796 3.5657001 8.3175201 4669503
-0.074336402 3.5783701 8.3278198 6051153
-0.052747201 3.5644 8.3068504 1314839
-0.037333801 3.5518501 8.28407 854804
-0.0054353001 3.57741 8.32652 789010
0.0115188 3.5756199 8.3256302 3091763
0.0107264 3.5725 8.3227396 2499627
-0.62684101 3.1354899 7.2743402 197126
-0.61907899 3.13922 7.2856998 65799
-0.30544999 3.5296199 8.1876698 9732984
-0.28971699 3.53145 8.2007999 10325377
-0.26495701 3.55302 8.2378702 9930878
-0.251201 3.5492401 8.2379599 9667707
-0.166015 3.5825 8.31248 9273207
-0.16601001 3.58235 8.31213 9273207
-0.16601001 3.58235 8.31213 9273207
-0.14753 3.59604 8.3400803 9339257
-0.074381098 3.5806201 8.3248301 6379860
-0.0587334 3.5790801 8.3139896 2696231
-0.044948898 3.5771 8.3017502 460046
0.00042397901 3.58849 8.3276796 1315352
0.016085301 3.5905099 8.3399801 5789272
0.023446299 3.5944901 8.3478699 6907751
0.029940899 3.6154699 8.4021502 6710116
-0.62384999 3.1472499 7.2705498 2958884
-0.614618 3.1439199 7.2695498 1117197
-0.60080498 3.14873 7.2808399 262661
-0.374055 3.55829 8.2498703 4865850
-0.374055 3.55829 8.2498703 4865850
-0.36370599 3.56706 8.2451496 4997179
-0.36477301 3.5559399 8.24084 4865592
-0.34661001 3.55935 8.2513103 7299159
-0.178829 3.6045101 8.3478098 9404793
-0.158547 3.5832901 8.3023005 9404793
-0.158547 3.5832901 8.3023005 9404793
-0.135584 3.6013 8.34972 9470843
-0.138623 3.6073699 8.3547297 9668222
-0.124318 3.6050799 8.3453302 9734013
-0.116589 3.6044199 8.3443098 9602684
-0.084321402 3.59936 8.3408899 7695462
-0.082952 3.59551 8.33253 7827048
-0.066973999 3.59323 8.3216696 4143419
-0.051311001 3.5931499 8.3119698 1183511
-0.0105955 3.6035399 8.3351002 789009
0.0079848403 3.5976801 8.3375797 3815483
0.0154765 3.6059301 8.3450298 5591890
-0.61864197 3.1574399 7.27319 4799544
-0.60099602 3.1529701 7.2662101 2169113
-0.58711302 3.1574399 7.27671 328198
-0.58058703 3.1587901 7.2874599 131591
-0.35269299 3.5689199 8.2471104 5194556
-0.339959 3.5687799 8.2474203 7299160
-0.339959 3.5687799 8.2474203 7299160
-0.339959 3.5687799 8.2474203 7299160
-0.271487 3.5648401 8.2393904 9733500
-0.25875399 3.56531 8.2398996 9536121
-0.19385 3.6219001 8.3546 9865344
-0.175993 3.6156001 8.3400898 10062723
-0.143957 3.60711 8.3335304 9997187
-0.117267 3.6294501 8.3658705 9734014
-0.0904781 3.6098101 8.3391705 8616048
-0.076233 3.6098199 8.3313904 5524555
-0.058372401 3.60724 8.3205099 1578267
-0.0024196501 3.60465 8.3263998 1118228
0.015834101 3.61321 8.3419199 4604994
-0.60080397 3.15418 7.2444501 6048323
-0.58734697 3.1696999 7.2843199 1839891
-0.58511198 3.1605201 7.2627201 2432026
-0.58235502 3.1699901 7.2878699 656904
-0.573174 3.1705599 7.28929 262663
-0.554519 3.1784501 7.29706 131338
-0.36015299 3.5797 8.2441502 4997436
-0.34620699 3.57932 8.24545 5194299
-0.33086801 3.5809 8.2470903 8022881
-0.31824699 3.57655 8.2405901 9667447
-0.30895701 3.57318 8.2277899 9864827
-0.30491599 3.57705 8.22962 9865340
-0.29313701 3.5785501 8.2360802 9996413
-0.27813101 3.57705 8.2417898 9536121
-0.14307299 3.64452 8.37959 10194565
-0.105815 3.6298699 8.3576603 9010549
-0.083065197 3.62398 8.3370504 6247506
-0.068801202 3.6238999 8.3294296 2564132
-0.056371499 3.6237299 8.3346596 920339
-0.0109664 3.6280899 8.3547401 986644
-0.00103288 3.6194301 8.3350496 1775901
0.0088772997 3.6154301 8.3217096 3091500
0.0170446 3.6258099 8.3495197 4078135
-0.62891102 3.13343 7.1830001 4733238
-0.61131603 3.1345999 7.1686101 6245442
-0.60049701 3.1547999 7.2213302 7757649
-0.585738 3.1659 7.2511001 6968909
-0.58555198 3.16536 7.2493601 7100238
-0.58035302 3.1775899 7.27494 5588287
-0.57219702 3.1795199 7.28615 1774869
-0.56285101 3.17681 7.2867198 262919
-0.537705 3.18256 7.2887902 131336
-0.345213 3.5917301 8.2378798 5063227
-0.33451 3.5910001 8.2394104 5786436
-0.32380199 3.5897 8.24049 8483689
-0.31150901 3.58882 8.2345896 9799291
-0.213451 3.61691 8.3003702 10325894
-0.217021 3.6505599 8.36584 10457480
-0.20958801 3.6400599 8.3629103 10325895
-0.149775 3.65488 8.3931103 10260102
-0.131448 3.65185 8.3903904 9799808
-0.118306 3.65994 8.3875303 7563104
-0.097600602 3.64481 8.3561602 5984331
-0.083488099 3.6460099 8.3512201 3156265
-0.054772701 3.62977 8.3242702 789011
-0.018956 3.6435599 8.36483 789266
0.001021 3.62941 8.3284702 2433572
0.0177019 3.63517 8.3406696 4077878
-0.62900901 3.1363699 7.16434 10588543
-0.61254603 3.1384599 7.1554799 9929586
-0.596645 3.1368899 7.1547399 8546649
-0.59244198 3.1501501 7.2019 8744029
-0.57064199 3.1888399 7.2771401 7100240
-0.56842101 3.1855099 7.2761898 5654081
-0.57145202 3.1807001 7.26546 6903117
-0.56118399 3.1856799 7.2767401 3615785
-0.55867302 3.18554 7.2777901 2760991
-0.54908401 3.18542 7.2797999 591368
-0.53973901 3.1861999 7.2827802 131334
-0.52994299 3.1901801 7.2748499 197126
-0.52341801 3.1903901 7.2859302 65799
-0.50898403 3.18804 7.2735801 131336
-0.338626 3.60114 8.23209 5260606
-0.328089 3.6013401 8.2357597 6115657
-0.31885099 3.60007 8.2349005 8352361
-0.305195 3.5982299 8.2307796 9667963
-0.295638 3.6136401 8.2673302 9404793
-0.289814 3.6368101 8.3269796 9601657
-0.273678 3.6401401 8.3167896 10654602
-0.21463899 3.6603401 8.3624802 10654858
-0.148803 3.66468 8.3853903 9010548
-0.129575 3.67259 8.3995504 6576209
-0.104698 3.66224 8.3696499 4273968
-0.069122799 3.64589 8.3436298 1183509
-0.053970098 3.6357801 8.3129501 591631
-0.0110872 3.6603799 8.3767996 1644315
0.0110699 3.65834 8.3653698 4274745
-0.62949401 3.14219 7.1522999 14995642
-0.61147499 3.13921 7.1542401 10587259
-0.59902799 3.1428599 7.1508198 10915707
-0.598248 3.1456299 7.1532898 11441794
-0.58243197 3.16412 7.2082901 10979190
-0.55584502 3.1967101 7.27777 5325372
-0.55317599 3.1951399 7.2750502 4799543
-0.54334098 3.1944399 7.2743301 2761249
-0.52223802 3.1976299 7.2773199 197383
-0.50083899 3.1914599 7.2695498 65800
-0.32321301 3.6095099 8.2277899 5589570
-0.32166001 3.6084001 8.2242403 5655363
-0.31213 3.6111901 8.2365198 8812911
-0.303682 3.61602 8.2428904 9470585
-0.28797001 3.6275201 8.2653999 10786190
-0.277868 3.6464 8.3199797 10983311
-0.283494 3.6454799 8.3249903 10588810
-0.240417 3.6651499 8.3449202 10391687
-0.224014 3.6658299 8.3503199 10391943
-0.225097 3.6594701 8.3379202 10523273
-0.20608801 3.67205 8.3614101 9602171
-0.181215 3.6824901 8.3855305 7233880
-0.162826 3.67905 8.3796196 5852741
-0.147668 3.67363 8.37537 5721156
-0.090068497 3.6607001 8.3578701 3222053
-0.075762697 3.65991 8.3484097 1381140
-0.060615201 3.6496401 8.31738 657935
-0.0179816 3.66661 8.3656397 1052437
0.000144196 3.6704299 8.3696604 3617330
0.0034533399 3.6731501 8.3737803 4011573
0.017894899 3.7056 8.4583197 5195328
-0.61243802 3.14256 7.1389399 15455677
-0.59240198 3.1584599 7.1746001 11243643
-0.58565199 3.1600399 7.1690602 12099207
-0.59130102 3.15941 7.16008 14139303
-0.549303 3.20891 7.28053 6311751
-0.51562101 3.20625 7.2818398 328714
-0.50886399 3.2121601 7.28018 591628
-0.49522299 3.2009699 7.2738299 65799
-0.32914901 3.6227901 8.2265501 5195070
-0.33071199 3.6238999 8.2307901 5195070
-0.32159799 3.62133 8.2196598 5523776
-0.31001699 3.6207399 8.2230301 7168088
-0.299191 3.6185999 8.2248201 9799294
-0.28619501 3.62692 8.23242 10852238
-0.27312699 3.6375501 8.2568197 10588809
-0.27116001 3.6449101 8.2926798 10851725
-0.26244301 3.6603999 8.3276396 10457223
-0.243668 3.6688001 8.3412905 10128515
-0.225003 3.6770301 8.3477802 8352360
-0.19863001 3.67748 8.3722496 8747119
-0.20778599 3.67837 8.3686104 8944497
-0.187516 3.68946 8.3953104 6970708
-0.16567899 3.67518 8.3520803 4865331
-0.16555201 3.6735401 8.34863 4865588
-0.095125303 3.6735201 8.3549004 4405559
-0.0680819 3.67436 8.3467999 854800
-0.032378402 3.6891999 8.38799 789267
0.0144197 3.7093699 8.4212303 5787207
0.0143511 3.7232201 8.4580097 6050122
-0.59775198 3.1505201 7.1333499 15653309
-0.52946597 3.1759701 7.1907001 8350556
-0.51702499 3.17851 7.1925101 5456702
-0.503304 3.2224 7.2873902 986129
-0.49037799 3.21297 7.2801299 131592
-0.49572101 3.2276199 7.29351 526092
-0.320517 3.62253 8.2203398 5523776
-0.267555 3.65623 8.2739897 9404536
-0.25894001 3.66468 8.3147497 9996672
-0.243467 3.6856101 8.3494396 8023139
-0.250397 3.6812301 8.3414898 8944241
-0.22400901 3.6842 8.3619099 7957601
-0.20596699 3.6903501 8.3726797 6115398
-0.180418 3.7128999 8.4075499 5654846
-0.158319 3.7039399 8.4037304 5260347
-0.086194403 3.68609 8.3586903 2893348
-0.067895703 3.6900899 8.3524504 723471
-0.0183686 3.7031901 8.3926697 2433315
-0.00277032 3.6988101 8.3807201 4340023
-0.00098146603 3.6949999 8.3744097 4340279
0.0029601101 3.7089901 8.4002104 4997694
-0.58467698 3.1612999 7.13411 15719616
-0.57873797 3.1700599 7.15904 15060661
-0.31306499 3.63293 8.2143698 5721155
-0.29268599 3.6367099 8.2260399 8944242
-0.27516699 3.6440301 8.2422199 9733758
-0.26223201 3.6967101 8.3493996 6904915
-0.261439 3.67398 8.31112 8812654
-0.26137099 3.6738601 8.3110199 8812655
-0.26137099 3.6738601 8.3110199 8812655
-0.224365 3.6914599 8.3502903 5918018
-0.206946 3.7230999 8.4061699 5852224
-0.208396 3.7237799 8.4054298 5918017
-0.194883 3.7261801 8.4209299 5983810
-0.18675999 3.7325001 8.4251003 6247239
-0.171923 3.72387 8.4144297 6247240
-0.161121 3.7193999 8.4050303 6115910
-0.098347202 3.7058301 8.3750601 4011312
-0.0759423 3.7037599 8.3580198 1052177
-0.039915599 3.7251 8.42027 789265
-0.0249575 3.71421 8.3920603 1775643
-0.010686 3.71734 8.39466 4142901
0.0119639 3.72576 8.4246702 6247244
0.017355001 3.7350299 8.4434004 6707536
-0.51452398 3.2044699 7.2178998 4865077
-0.510759 3.2350299 7.2862701 2563871
-0.50333101 3.2409401 7.2983298 1643543
-0.49597499 3.2472401 7.31002 1118230
-0.33254999 3.6392901 8.1944599 5918277
-0.322115 3.64452 8.2156696 5524033
-0.31324601 3.64574 8.2126999 5852484
-0.29430199 3.65768 8.2457199 6707279
-0.28745201 3.66524 8.2492905 6180935
-0.27307999 3.6643 8.2616396 6707536
-0.24021301 3.72385 8.3889904 6115139
-0.123113 3.72998 8.4147997 5786946
-0.115408 3.6912701 8.3074303 6050118
-0.083493002 3.7186 8.36619 1512215
-0.076093502 3.7260699 8.3846598 591887
-0.031681299 3.7262499 8.3937702 1315350
-0.0030507201 3.7446499 8.4282398 5984328
-0.547005 3.1970201 7.15802 15522493
-0.53796899 3.1942101 7.1561899 15258551
-0.53022897 3.19872 7.16715 14270633
-0.517124 3.1863401 7.14744 8942689
-0.50853997 3.21597 7.2107501 4338732
-0.319767 3.6416199 8.1740999 6247498
-0.27099499 3.71578 8.3543196 5918020
-0.236707 3.7348399 8.3789597 7036496
-0.237132 3.73683 8.3866901 6904910
-0.23551799 3.7385099 8.3876696 7036496
-0.20920099 3.7413001 8.4082003 6773325
-0.112418 3.7330401 8.3925104 5524033
-0.078170501 3.73294 8.3733397 657681
-0.037143402 3.7384501 8.3917704 920594
-0.034580301 3.7353101 8.39571 1183765
-0.026228201 3.7427101 8.4128304 2959400
-0.53841799 3.1982601 7.1401901 15325115
-0.51362997 3.20314 7.1580601 13416354
-0.50775403 3.20891 7.17628 7890519
-0.50215799 3.2273901 7.2172799 3352610
-0.495132 3.23262 7.2269101 2038038
-0.26942101 3.7344799 8.36133 6510155
-0.218187 3.7495699 8.3980598 7430997
-0.198829 3.7418301 8.36973 7299669
-0.114735 3.7474699 8.3898201 5458238
-0.099068202 3.73926 8.3830099 3222055
-0.102407 3.7427399 8.3851604 3682604
-0.101121 3.74348 8.3840303 3419433
-0.081500299 3.74632 8.3800297 722961
-0.048152301 3.74121 8.3905001 460814
-0.039602201 3.7511699 8.38978 920080
-0.0288748 3.75195 8.3989601 3156265
-0.0120993 3.76595 8.4334097 6444365
-0.55298698 3.2260699 7.1849198 15325370
-0.49810201 3.2146499 7.16505 11179910
-0.48633301 3.2357099 7.2168798 1445903
-0.47891301 3.2372701 7.2164001 985869
-0.25664601 3.74347 8.3606596 6576204
-0.263809 3.74087 8.3438301 6444617
-0.104875 3.75877 8.3860703 3353381
-0.0925458 3.75401 8.3813601 1380372
-0.060330499 3.7493701 8.3708601 263178
-0.049950901 3.75669 8.3771801 525833
-0.050341401 3.7505901 8.3810301 394507
-0.0306971 3.75808 8.3950596 3550765
-0.0070981998 3.76454 8.39569 6773327
-0.0039922898 3.7662101 8.4004402 6839120
0.0029775901 3.75475 8.3843203 6839120
-0.543899 3.2395699 7.19104 15258552
-0.49980101 3.2242601 7.1620598 14074025
-0.49270099 3.23138 7.17558 12955803
-0.485057 3.2322099 7.18502 7759966
-0.47837901 3.23704 7.1921201 4603191
-0.47061601 3.2442 7.2164898 657418
-0.46359301 3.2458401 7.2145801 591627
-0.255402 3.7518899 8.3471603 6707532
-0.24242599 3.7501099 8.3511696 7299668
-0.12897301 3.7621901 8.3664703 6904911
-0.116533 3.76947 8.3888302 5984070
-0.0934738 3.76108 8.3789196 1446162
-0.081465498 3.75598 8.37148 657166
-0.067480199 3.7545099 8.3614798 328712
-0.041037198 3.76352 8.3822899 2301214
-0.027382201 3.7690799 8.3882303 5984842
-0.0169822 3.76718 8.3916197 6641998
0.0058243 3.7636299 8.3716898 7299670
-0.489461 3.2333801 7.1626201 12955802
-0.473638 3.2483399 7.1943898 7432030
-0.264687 3.7567401 8.3482904 6378824
-0.25288001 3.75669 8.3288002 6641739
-0.25444299 3.7629199 8.3425999 6707532
-0.245353 3.76263 8.3459997 7299668
-0.111579 3.7290399 8.2807398 6905169
-0.116602 3.77847 8.3783998 6839377
-0.10478 3.7681999 8.3737297 5260863
-0.091615602 3.76829 8.3656197 3287590
-0.078570701 3.76952 8.3600302 3879471
-0.0381888 3.7710299 8.3762598 6181708
-0.0184936 3.77333 8.3740196 7234136
-0.0059240698 3.7660899 8.36728 7431256
0.020499 3.76792 8.35361 7694171
-0.49665001 3.23842 7.1601501 13481889
-0.47367799 3.24558 7.1809602 9339508
-0.45896199 3.2552199 7.1977701 3353899
-0.27186701 3.7649601 8.34303 6312776
-0.244697 3.7667799 8.32654 7365205
-0.13275801 3.7732601 8.3486605 7299411
-0.139807 3.7757499 8.3636599 7167826
-0.122404 3.7776101 8.35851 7036497
-0.104948 3.7781601 8.3631401 6905170
-0.091807202 3.7785299 8.3557196 6839121
-0.0646182 3.7677801 8.3494396 4668728
-0.49301499 3.24701 7.1603398 12824216
-0.48328701 3.24229 7.1496801 11837580
-0.46963599 3.26213 7.1908102 7629406
-0.272425 3.7732899 8.3333797 6838865
-0.254906 3.76211 8.31359 6839119
-0.25448599 3.76648 8.3187504 7036241
-0.131455 3.7758999 8.3341799 7233619
-0.105153 3.78847 8.3534203 7299926
-0.065375999 3.7843201 8.3529596 7497051
-0.269822 3.77142 8.3005199 6575950
-0.255714 3.7723899 8.30828 7167828
-0.091868401 3.78688 8.3412905 7497307
-0.270675 3.7832999 8.2981796 6444364
-0.26469001 3.77509 8.2735596 6444620
-0.25620401 3.7797301 8.2957497 7299671
-0.245462 3.78757 8.2985897 7497048
-0.258645 3.7876799 8.2834396 6773327
-0.26900101 3.7867601 8.2694197 6313291
-0.25663999 3.76896 8.2325802 6444620
-0.247161 3.7943399 8.2812204 7167827
-0.265414 3.7951601 8.2647495 6313548
-0.24487799 3.7880299 8.2326002 6970704
-0.23932201 3.7981601 8.2590799 7430998
-0.261962 3.7856901 8.2177496 6641999
-0.26385599 3.7977901 8.2333097 6378828
-0.24561299 3.79211 8.2142496 7036498
-0.269283 3.80301 8.2263498 6444620
-0.21861701 3.8116601 8.25387 7825755
-0.244883 3.7936101 8.1897402 6904912
-0.25015101 3.8152399 8.2056103 6773326
2.32006 -5.55305 8.10641 12091238
2.33108 -5.55304 8.1104097 13478801
1.9606 -5.6343498 8.2551003 13542538
1.97285 -5.6245298 8.2306404 12153176
2.32547 -5.5394402 8.1117601 13411466
2.34443 -5.5425401 8.1104202 13547420
2.36064 -5.5569301 8.1332798 14271657
2.33711 -5.5303602 8.1112204 13611670
2.3522899 -5.5351901 8.1196499 14205606
1.9674 -5.6219902 8.2567701 12748655
1.98157 -5.63308 8.2738895 12016708
1.96666 -5.6131201 8.2418604 13012597
2.3213699 -5.50282 8.09554 13543311
2.31902 -5.5187101 8.1067896 12816762
2.34249 -5.49826 8.0823698 13809822
2.3580201 -5.5141101 8.1084805 14534316
1.96119 -5.6020198 8.2492399 13674639
1.9742301 -5.6103301 8.2594805 12283992
1.98412 -5.6156201 8.2737703 12081987
2.3120401 -5.50981 8.1134195 12485744
1.95386 -5.5917201 8.2521095 13545109
1.9668 -5.5924401 8.2564697 13408385
1.9811 -5.6034999 8.2693396 12017995
2.3208101 -5.4923401 8.1112099 13611672
2.3162601 -5.4921398 8.1012297 13674897
1.94969 -5.6102901 8.2918901 13348243
1.9744 -5.5830598 8.2609501 12747372
2.2515199 -5.4416099 8.0508099 13468522
2.30951 -5.4813499 8.1029902 13477262
2.3139701 -5.4801202 8.1095896 13282708
1.9449199 -5.5922298 8.2871704 14205606
1.9480799 -5.5809798 8.2635603 13810335
1.9600199 -5.5687199 8.2430201 13413008
1.9948 -5.5836401 8.2764502 12278851
2.22141 -5.4524698 8.0819397 13006944
2.2304101 -5.4472399 8.0777998 12741716
2.24119 -5.4433899 8.0627403 12019790
2.3296299 -5.47961 8.1151199 13546653
1.9534301 -5.5757799 8.2740402 13809821
1.98112 -5.5791898 8.2753696 12481885
2.2167201 -5.45156 8.0931301 12214603
2.3371699 -5.4600201 8.1073999 14402219
2.6508601 -5.3109198 7.8934302 14206643
2.67365 -5.3074002 7.8764601 14008495
2.70924 -5.2916999 7.8545098 14141111
2.7283101 -5.2837 7.8530798 10260611
2.73943 -5.2932501 7.8643298 10523526
1.98885 -5.5695 8.2788696 12413780
2.22615 -5.46346 8.1258297 11882811
2.2609 -5.46316 8.1282997 12411460
2.28249 -5.4563098 8.1206102 13076849
2.6291299 -5.3045602 7.8937802 14207155
2.6419499 -5.3136702 7.9068899 14075571
2.65817 -5.2974801 7.8895202 11773078
2.66869 -5.2934098 7.8777699 12759973
2.6858499 -5.2986999 7.8840699 12036250
2.7009001 -5.2978201 7.8838301 9602426
2.71538 -5.2861099 7.8628602 9010545
2.7350399 -5.2755299 7.8582902 4406067
1.9923199 -5.5527301 8.2795897 12285534
1.99649 -5.5551 8.27493 12084299
2.2149601 -5.4679899 8.1460304 11486518
2.2325399 -5.46175 8.1409302 11817275
2.25055 -5.45502 8.1403198 12345156
2.2696099 -5.4474301 8.11765 12349783
2.5537601 -5.3049502 7.91468 14009267
2.56072 -5.3153701 7.9218402 13746094
2.5933101 -5.3221502 7.9328599 14141109
2.5759201 -5.28438 7.8797402 14009780
2.6100099 -5.3249602 7.9335499 14206902
2.61766 -5.3038402 7.9104099 11576212
2.6315 -5.2875199 7.88833 8287079
2.64571 -5.2933898 7.8905401 9602682
2.6651599 -5.2837601 7.88553 4932153
2.67816 -5.2876801 7.88586 5326910
2.6931601 -5.28719 7.8861699 4537652
2.7098801 -5.2739201 7.8669801 4143153
2.7225699 -5.2739 7.86131 4274481
2.74791 -5.2481999 7.82091 4077104
1.62746 -5.6091499 8.3812304 14403499
1.97611 -5.5472598 8.2885199 13215888
2.00402 -5.5345602 8.2661896 11887434
2.2256999 -5.4538498 8.1450701 12144956
2.23909 -5.4537101 8.1502399 12478029
2.2681 -5.4439301 8.1380997 12685176
2.48874 -5.3406 7.97857 14140852
2.5608599 -5.2948298 7.91715 8155233
2.58076 -5.2918301 7.9086499 7497819
2.5918901 -5.2849898 7.8942499 8287078
2.60728 -5.2906499 7.8987098 8418407
2.6205299 -5.2817898 7.8908601 5129276
2.63886 -5.2757702 7.88731 4274484
2.6543701 -5.2852898 7.89504 4340018
2.66959 -5.2638998 7.8723102 4077362
2.6856699 -5.2747302 7.8857498 4011825
1.56113 -5.56393 8.3273802 14338220
1.60879 -5.6206899 8.41119 14337962
1.60879 -5.6206899 8.41119 14337962
1.64227 -5.5875702 8.3559303 14337449
1.99418 -5.5398002 8.2845497 13013113
2.08181 -5.4430499 8.1420202 12217168
2.0811999 -5.4412398 8.1409597 12151119
2.2166901 -5.4415498 8.1471395 12213059
2.2308199 -5.4445601 8.1459103 12409666
2.2490001 -5.4431701 8.1510696 12480599
2.25805 -5.44595 8.1480703 12812133
2.5018899 -5.3108602 7.9509101 10128768
2.51824 -5.3032398 7.9387698 8616044
2.5336101 -5.3030901 7.9367399 7760992
2.5485301 -5.2954402 7.9210801 8155493
2.5687399 -5.27988 7.91221 4077616
2.58319 -5.2660198 7.8864598 4143154
2.59828 -5.2715101 7.8914599 4208948
2.6140699 -5.2804298 7.9075599 4011826
2.6268799 -5.2762599 7.89466 4077106
1.52078 -5.57517 8.3635502 14403500
1.5509 -5.56639 8.3436003 14403756
1.55452 -5.56846 8.3490601 14403756
1.5991 -5.5811501 8.3743401 13942693
1.60638 -5.5755601 8.36691 13811106
1.62262 -5.5894198 8.3747902 14205863
1.64249 -5.5898199 8.3832502 13087128
1.6893899 -5.6071401 8.40728 14139814
1.69471 -5.6052999 8.3980303 14403243
1.9959199 -5.5237098 8.2846498 13279626
1.99625 -5.5212898 8.2857904 13741205
2.0061901 -5.5187702 8.2716599 12549990
2.0792699 -5.4456 8.1708403 11949883
2.1935899 -5.4573798 8.18787 12409919
2.21734 -5.4274998 8.1497297 12410947
2.2311399 -5.4308701 8.1515598 12150603
2.2403901 -5.4355001 8.1489897 12216912
2.33114 -5.3248801 7.9943299 14140597
2.37181 -5.3081002 7.95998 14074804
2.51299 -5.2841401 7.9320502 3946031
2.5276401 -5.2867098 7.9337602 4011824
2.54181 -5.2841601 7.9254298 4011824
2.55601 -5.283 7.91998 4077360
1.5042599 -5.5715799 8.3765202 14403243
1.53429 -5.56953 8.3656597 14403244
1.54776 -5.5696702 8.3726301 14008742
1.55565 -5.5640802 8.3659601 13811107
1.57394 -5.5790901 8.3762598 14140328
1.58628 -5.5787802 8.3822203 13547934
1.62103 -5.5835099 8.3895998 12955284
1.64009 -5.5738802 8.3829899 12692627
1.67319 -5.5851598 8.3898401 12889492
1.68414 -5.5956101 8.4117804 13679263
1.68451 -5.59549 8.4119196 13745056
1.6975501 -5.6011 8.4221096 14535084
1.69774 -5.6015902 8.4233599 14535084
1.86766 -5.5657802 8.3730898 14205352
1.87282 -5.5650601 8.3712902 14205352
2.0192201 -5.50668 8.2710304 11956314
2.20608 -5.42626 8.1600103 12411206
2.2228601 -5.42033 8.1561699 12613212
2.2492499 -5.41576 8.1401196 13937812
2.29264 -5.3291202 8.0138502 13614508
2.31675 -5.31464 7.9823899 14009267
2.3503599 -5.3028698 7.9744301 9668475
2.36742 -5.3113999 7.98353 9668218
2.3752699 -5.3016 7.9667201 9470839
2.3900499 -5.2929602 7.9492502 9536633
2.41401 -5.28302 7.9481702 4142897
1.35366 -5.59619 8.4303598 14206378
1.4945101 -5.5724502 8.3910198 14074279
1.51059 -5.5708599 8.39007 13679521
1.5215501 -5.5696101 8.3786097 14140072
1.53503 -5.56145 8.3772402 13218714
1.57389 -5.5729098 8.3908501 12955798
1.5845799 -5.5742302 8.3900805 12955798
1.62477 -5.56955 8.3919802 12758162
1.63904 -5.5812998 8.3966703 12692627
1.67765 -5.5830498 8.4099197 13021591
1.69043 -5.5853 8.4175596 14205863
1.6906 -5.58531 8.4180002 14271399
1.87519 -5.5576601 8.3641901 14139559
1.87449 -5.55726 8.3633404 14139815
1.88025 -5.5577698 8.3639002 14008230
2.0267899 -5.4885602 8.27145 13079164
2.0590701 -5.4984798 8.2751303 12016447
2.1963501 -5.4044099 8.1441498 12149320
2.2396901 -5.4186902 8.1550198 13936526
2.2643299 -5.3463898 8.0593204 10653826
2.27931 -5.3288398 8.0191298 13153443
2.30001 -5.31708 8.0129004 7365465
2.3225901 -5.3091898 7.9927602 8418154
2.3331599 -5.2926798 7.9629402 9602426
2.33321 -5.2930102 7.96387 9405047
2.35742 -5.2892098 7.97121 4077361
2.37186 -5.2890701 7.96732 4011825
2.3823299 -5.27917 7.9495101 3945774
2.3963699 -5.27667 7.9421701 4011567
2.4110899 -5.2761002 7.9394798 4077105
1.33044 -5.56637 8.3934402 14271914
1.34874 -5.5827999 8.4203997 14272171
1.3712699 -5.5784702 8.4169197 14272426
1.3839 -5.5738001 8.40977 14272170
1.4805599 -5.5740499 8.4023104 13811107
1.50613 -5.57094 8.4044905 13021592
1.52429 -5.55832 8.3842001 12955543
1.53371 -5.5279498 8.3312502 13087128
1.56134 -5.55762 8.3810501 12823956
1.68304 -5.5743198 8.4195004 13613727
1.67186 -5.5591602 8.3859596 12758676
1.7005301 -5.5880198 8.4323997 14666670
1.87439 -5.54143 8.3634996 14074023
1.8731101 -5.5539198 8.3832397 14074024
1.86947 -5.5414901 8.3639898 14205352
1.88434 -5.5434098 8.3713102 13810852
1.87655 -5.53404 8.3564596 14073767
1.88343 -5.54807 8.3788099 13810852
2.04725 -5.48 8.26371 11692367
2.0632601 -5.4782901 8.2721004 12150090
2.13867 -5.38726 8.1325998 12344898
2.1517401 -5.3907099 8.1427603 12148549
2.18659 -5.40798 8.1572399 12215113
2.25227 -5.3885398 8.1303101 9272687
2.2834101 -5.33074 8.0398197 7102294
2.31301 -5.3039398 8.0076599 4011313
2.31586 -5.3043599 8.0058403 4077105
2.32916 -5.2891202 7.9800501 4077106
2.3373899 -5.2704301 7.9470601 4142640
1.3137 -5.5851798 8.4395504 14272171
1.33307 -5.58004 8.4345102 14271914
1.3605 -5.5788999 8.4291601 14206378
1.52355 -5.4849801 8.2944298 12823700
1.67583 -5.5504298 8.4011402 12955798
1.6962 -5.5728798 8.4210501 14535085
2.04742 -5.4758301 8.2808704 13541513
2.0656099 -5.4753098 8.2898397 13276542
2.0821099 -5.4805398 8.2901697 12020306
2.15256 -5.39221 8.16045 12020562
2.1733601 -5.3962698 8.1572599 12151891
2.2644999 -5.3113098 8.0315399 3814190
2.28304 -5.3021302 8.02073 4011058
2.2958601 -5.3116202 8.0279598 4011057
1.23331 -5.5811801 8.45788 14272172
1.2738 -5.5826001 8.4490805 14272172
1.2738 -5.5826001 8.4490805 14272172
1.2848001 -5.5839801 8.4561796 14140586
1.31989 -5.5625701 8.4292097 13548449
1.32644 -5.57127 8.4315701 14074792
1.34475 -5.5672002 8.4349499 13153691
1.3513499 -5.5760999 8.4382 13679778
1.43543 -5.5767899 8.4400501 12955286
1.5085 -5.4745898 8.2960196 13021591
1.5329601 -5.4882202 8.3105297 13021080
1.68874 -5.5619998 8.4230404 14074535
1.70193 -5.5587602 8.4217596 14666928
1.8784 -5.52916 8.3733501 14008231
1.87463 -5.5308499 8.3763504 14074023
1.8873399 -5.52247 8.3698902 13745059
2.04882 -5.46978 8.2951803 12822417
2.08214 -5.4777002 8.3094902 13541771
2.0945101 -5.4905601 8.3204498 12681836
2.15903 -5.3891602 8.1644001 13340021
1.2242 -5.5931602 8.4851103 14140329
1.2555799 -5.57793 8.4622297 13876902
1.2497801 -5.5410399 8.4135103 13548192
1.28171 -5.5608902 8.4386997 13416350
1.30537 -5.5645299 8.4417601 13219485
1.33199 -5.5690598 8.4513502 12824727
1.3692501 -5.5210199 8.3833103 12823959
1.43567 -5.53058 8.3900204 12889750
1.48682 -5.4780898 8.3141298 13284508
1.53333 -5.4795499 8.3207903 13680555
1.52338 -5.4769602 8.3039398 13219230
1.66826 -5.5388699 8.4041796 12692885
1.68198 -5.5493398 8.4239302 13482398
1.69461 -5.5471201 8.4265003 14469549
2.1489301 -5.3736701 8.1610603 13609877
1.23102 -5.5546398 8.4452896 13219483
1.30364 -5.5483699 8.44277 12824214
1.34202 -5.5660801 8.4657297 12758422
1.43928 -5.5023398 8.3725405 13482657
1.43613 -5.51087 8.38589 13416864
1.47779 -5.4932098 8.3467903 13416865
1.53303 -5.4769402 8.3218403 13615020
1.52564 -5.46275 8.3076496 13286828
1.52616 -5.4612799 8.3053503 13286828
1.5778 -5.5745802 8.4745798 12430747
1.58758 -5.5777998 8.4881697 12693147
1.8864501 -5.51087 8.3821096 13876644
1.58646 -5.5689301 8.50494 10786956
1.88064 -5.4742599 8.3844404 14205352
1.15671 -5.5117002 8.4819498 12695463
1.36726 -5.5464401 8.5476398 3360342
1.16412 -5.4988899 8.4831495 5859691
1.69762 -5.4737401 8.4548597 14863793
1.1732399 -5.4818101 8.4780903 4547437
1.18137 -5.5108299 8.54459 4219759
1.69827 -5.4482298 8.4580803 14864305
1.5502599 -5.46872 8.5110798 4089977
1.69735 -5.43713 8.4818401 14864305
0.93804097 -5.6412301 8.8130503 13284764
1.2179101 -5.4563699 8.5344 4615030
1.22493 -5.4476399 8.5309896 4746360
1.4026 -5.4958601 8.6125202 3824494
0.92151499 -5.5920801 8.7857103 13613728
1.2098 -5.43542 8.5310402 5076093
1.21705 -5.42626 8.5268698 5273472
0.93209898 -5.5785198 8.7681303 13482142
1.2266099 -5.4298501 8.5434303 5207679
0.93572098 -5.5630202 8.7814398 13350811
1.1796401 -5.4386401 8.5747099 5800583
1.68334 -5.3798499 8.4797602 14140583
1.16528 -5.4440498 8.6028404 6129035
1.1878999 -5.4180002 8.5527201 5931913
1.66134 -5.3533602 8.4604502 12561300
1.68721 -5.3715901 8.4969797 14535083
1.10311 -5.4879498 8.6900101 7245457
1.69127 -5.35992 8.5090103 14864047
0.94037199 -5.5503302 8.8515196 13219227
2.1872301 -5.2002301 8.2989302 6970198
0.90852898 -5.5152402 8.8140202 13745568
1.37728 -5.3080602 8.4770699 2958639
2.17665 -5.1728601 8.2797499 10127741
0.930314 -5.5076299 8.8249197 13482398
2.91837 -4.9532099 7.9544501 6180936
0.93212301 -5.4893398 8.8229799 13416862
2.1863699 -5.1518202 8.3011198 7692896
2.9117999 -4.9401202 7.9525299 9272948
2.92383 -4.94315 7.9563098 11378066
0.92546397 -5.47193 8.8220396 13548447
2.9179299 -4.9338999 7.9619098 14206135
1.30424 -5.2813401 8.5394402 2958384
1.31747 -5.2974701 8.55058 2958641
1.66494 -5.2539701 8.4893799 12693139
2.9177599 -4.9302602 7.98387 12033938
2.1682401 -5.1048999 8.2995796 12692890
0.93126798 -5.4362898 8.8547497 13811104
1.37588 -5.21421 8.50138 2695468
1.39338 -5.2309799 8.5328197 2498603
2.71696 -4.9230299 8.0317898 13152420
1.32617 -5.1824298 8.4638901 2629674
1.32561 -5.1744599 8.4517603 2629930
1.38902 -5.1960101 8.4935999 2499371
2.1656001 -5.0752702 8.3032999 13416355
2.70608 -4.9131598 8.0238199 12823711
1.37375 -5.1921201 8.5063801 4473416
1.4686199 -5.2504201 8.5915403 5263954
1.4750201 -5.2395201 8.5824604 5198673
2.1761899 -5.0794201 8.3137703 11903635
0.93614101 -5.4205699 8.8905201 13744798
1.37029 -5.1594801 8.4706297 5658714
1.40905 -5.1609101 8.4586496 5658714
0.92613101 -5.3913999 8.8682003 13942690
0.93427098 -5.41114 8.9083004 13744798
1.35394 -5.1582599 8.4878597 5462102
1.38597 -5.17658 8.5044699 5527383
1.46621 -5.2132502 8.5810499 5067087
2.7678101 -4.8605199 7.9974399 14797492
0.91767401 -5.3745098 8.8678398 14074531
1.48025 -5.2206602 8.61236 4936272
2.18594 -5.0553799 8.3309698 7628638
2.1859 -5.0552702 8.3307896 8812139
2.9062099 -4.8353901 7.9771199 9928823
2.92275 -4.83882 7.98596 10060666
0.90452999 -5.3714399 8.8838596 14205860
1.2736501 -5.2044902 8.5963898 5724505
2.18362 -5.0502601 8.3480301 11377291
2.1902699 -5.0429702 8.33957 6773076
2.8869801 -4.8275299 7.9921198 11573388
2.8964701 -4.8181801 7.9724398 11902609
2.9154501 -4.7976999 7.9306502 11968404
1.6961 -5.1623201 8.5434904 15126962
1.69778 -5.1650901 8.5598001 15192755
2.17729 -5.0346999 8.3474398 13481891
2.17805 -5.0344801 8.3454399 13350306
2.18436 -5.0285201 8.3407898 9732983
2.90836 -4.7730298 7.9165502 14666167
2.89801 -4.7639699 7.9024901 14468787
2.9095299 -4.7743502 7.9148998 14534325
1.67945 -5.1451402 8.5502396 13942691
2.55428 -4.9113998 8.1575298 8614249
2.8865399 -4.78478 7.9514899 14863289
2.8944299 -4.7734098 7.9225602 14534580
0.89738297 -5.3350601 8.8822002 14271910
0.93108302 -5.3468399 8.9025497 13745312
1.27846 -5.2512298 8.7431498 5001296
1.2863801 -5.24722 8.7344503 5067088
1.69107 -5.1536999 8.5685301 14929840
2.6480999 -4.8151102 8.00527 12296849
2.8801 -4.7764201 7.9437799 14731702
1.2616301 -5.2405701 8.7473001 4869453
1.6841201 -5.13451 8.5636101 14469034
2.1838601 -5.0019002 8.3493204 10193276
2.19472 -5.0065098 8.3609695 6246733
2.73966 -4.8099198 8.0332203 6706257
2.77916 -4.8155298 8.0366297 8745577
0.90096003 -5.2994099 8.8558102 13876898
0.91807801 -5.2854199 8.8390102 13876897
0.92705899 -5.3029199 8.8594904 13942690
1.2797199 -5.24262 8.7554703 4869966
1.4011199 -5.1880698 8.6788597 4804429
2.20561 -5.00914 8.3690395 3945266
0.93368602 -5.3350501 8.9313602 13416348
1.26275 -5.2325301 8.7563295 4606538
1.68459 -5.1164398 8.5633802 14534571
1.8647 -5.05128 8.4607697 14600108
2.1881499 -4.9902401 8.3586397 8417895
2.1996901 -4.9949398 8.3715 5063489
0.91219002 -5.2678299 8.8381205 13942690
0.90383798 -5.27458 8.8465796 14008482
0.92066902 -5.26231 8.8317804 13811361
1.2521501 -5.2314901 8.7781401 4474953
1.68095 -5.0984998 8.5597 14205606
1.69093 -5.1089201 8.5809698 14995376
1.8606 -5.0450201 8.4764004 14665900
1.86747 -5.0388398 8.4651804 14599851
2.1822701 -4.97475 8.3568201 10391424
2.59921 -4.8165498 8.0998402 11967117
0.90638101 -5.2506499 8.8379297 14008483
0.91321599 -5.2467799 8.8332195 13942691
0.90490103 -5.2535801 8.8416004 14008483
0.91471601 -5.24406 8.8296604 13942691
1.68565 -5.08672 8.5693398 14666156
2.1766601 -4.9598298 8.3572302 12364694
0.92286098 -5.2508001 8.8449802 13745568
1.39724 -5.0567098 8.5179901 4408900
1.86102 -5.02316 8.4698696 14665900
2.1863501 -4.96174 8.3641396 9865081
2.78881 -4.7875099 8.0739002 12427922
0.90897399 -5.2273598 8.8302498 14008483
0.91076797 -5.2402401 8.8668699 13876897
1.69335 -5.0855799 8.5974598 15061425
2.6759 -4.7781601 8.0811796 6772817
0.90318203 -5.2108002 8.8310204 14074276
1.4200701 -5.0296502 8.5261497 11707281
2.6725099 -4.7726998 8.0900602 6049095
1.23729 -5.0775099 8.6186705 9735808
1.23686 -5.0767398 8.6164398 9341051
1.23654 -5.0801702 8.6224699 9341051
0.90725601 -5.2000799 8.8450003 13942947
1.6827101 -5.0283499 8.57195 14666155
2.7792499 -4.75494 8.1034298 10980737
0.90155202 -5.1842198 8.8470201 14008483
1.2901599 -5.08884 8.7078896 13613473
1.30208 -5.0906501 8.7065296 13613473
0.91169399 -5.16922 8.8915596 14271398
0.91458797 -5.14534 8.8828497 14271398
1.66136 -4.9623399 8.5637102 12757906
1.6705 -4.9819102 8.6021004 13481884
1.6655999 -4.96527 8.5687599 12889748
2.8484099 -4.64431 8.0251303 14994616
0.90042597 -5.1340699 8.8912601 14008483
1.8592401 -4.91504 8.5121002 14797229
2.8369701 -4.6256399 8.0184698 14862774
2.8389499 -4.6173801 8.0033703 14731189
0.90895897 -5.12779 8.8826799 14337191
0.90334702 -5.1105099 8.8829603 14139812
0.91183603 -5.1041799 8.8741903 14074019
2.8283999 -4.6094398 8.0413504 14401966
1.85868 -4.85254 8.4893599 14534314
2.82249 -4.6003399 8.0486403 14270378
2.94557 -4.59443 8.0377398 14730676
2.8145599 -4.5942998 8.04842 13875365
1.85795 -4.8385501 8.4941502 14534570
2.9461601 -4.5806699 8.0429401 15257021
2.9446199 -4.5876002 8.05653 15125691
1.8521301 -4.8242302 8.4960299 14600362
1.8618 -4.8360901 8.5309496 14731435
1.68038 -4.8847799 8.6363802 14205604
1.84881 -4.8227801 8.5208101 14665899
1.8562599 -4.8137798 8.5082502 14599849
2.1714399 -4.76332 8.4181404 8416359
1.85288 -4.81213 8.5327597 14797485
2.94979 -4.54597 8.0655403 13677735
2.1732099 -4.7467499 8.4347601 8942960
2.54619 -4.6177101 8.2736301 12625301
2.9432499 -4.52561 8.1076002 13939617
2.95258 -4.5313501 8.1083202 14598316
2.96661 -4.5126901 8.0816803 14138794
2.2634201 -4.6617098 8.3697004 4273718
2.95825 -4.5086899 8.1005096 14664623
1.36081 -4.8962498 8.8144302 9863796
1.49301 -4.8262 8.6787796 12955803
1.56014 -4.7800102 8.5868397 13152409
2.2674301 -4.6536899 8.3799 4010802
2.30003 -4.6645598 8.3919001 7365469
2.9516201 -4.4969301 8.1005497 13544088
2.96367 -4.4956102 8.0974998 14532523
1.69322 -4.7989502 8.6609497 15061678
1.8594 -4.7483501 8.5534801 14731434
2.3016601 -4.6515098 8.3883801 9141364
2.95913 -4.4907699 8.1106596 13016975
2.9754901 -4.4893098 8.11094 14202532
1.40845 -4.8380499 8.7418699 13349787
1.399 -4.8256102 8.7298298 13349529
1.67998 -4.7884302 8.6675196 14139553
2.3079 -4.6420598 8.4000597 12034709
2.30777 -4.6417799 8.3995104 11968916
2.9679 -4.4770999 8.1082201 13082254
1.68761 -4.7838502 8.66222 14600615
2.94016 -4.47404 8.1069403 10316897
2.9558101 -4.4728398 8.1031704 11567733
1.68125 -4.76651 8.6586704 14074017
1.68167 -4.7676902 8.6614799 14074017
1.69191 -4.7724099 8.6728897 14863787
2.9631701 -4.4577298 8.09517 12225919
1.6857899 -4.7554898 8.6701298 14402981
1.6929801 -4.7509999 8.6635199 14864044
1.86233 -4.7018499 8.5718203 14665642
2.5332301 -4.52671 8.2537804 12033164
2.77338 -4.4744601 8.1556797 9994358
2.7733099 -4.4755998 8.1555796 9928566
2.9675601 -4.4545798 8.1121998 12817800
1.8634 -4.7023602 8.5801601 14665642
2.2602201 -4.58813 8.3873596 4076595
2.7283599 -4.4549999 8.1283998 12888732
2.9718201 -4.4412899 8.1115999 13213582
1.68997 -4.7434802 8.6791801 14732202
1.6849101 -4.7310901 8.6847696 14336933
1.6945699 -4.7329302 8.69098 14864045
2.12238 -4.62186 8.4854603 14599598
2.5673201 -4.49651 8.2481203 8810858
1.84946 -4.64153 8.5485697 14534312
2.2611699 -4.5631599 8.39888 4076339
2.9635 -4.3999801 8.1052198 13806492
1.69295 -4.70614 8.7010803 14863275
1.70359 -4.7112002 8.71276 15192753
2.12063 -4.5924802 8.4972 14533806
2.8662601 -4.4074502 8.1595297 10124148
2.9609699 -4.3940101 8.1213102 14070435
1.8592401 -4.6247401 8.5710001 14336678
2.9658501 -4.3847699 8.1269703 14861232
1.37371 -4.7311902 8.7959003 13547165
1.37361 -4.73247 8.7982903 13547165
1.86104 -4.6136699 8.5823898 14402727
2.9590199 -4.3758202 8.1307802 14334887
1.3592 -4.7190099 8.7957897 13283995
1.70227 -4.6849599 8.7254105 15126960
2.9303899 -4.3731599 8.1517096 10385775
2.9585099 -4.3687201 8.1430702 14005926
1.70504 -4.6704602 8.7297497 15126960
2.5690801 -4.4242101 8.2672396 6838356
1.18808 -4.7494998 8.9168596 10258809
1.8571301 -4.5792499 8.5859604 14534056
2.50002 -4.4314799 8.3407001 12098443
1.43411 -4.65239 8.78265 13152662
1.63301 -4.6552801 8.7922802 12692627
1.20004 -4.7038202 8.9054899 14007971
1.21117 -4.7189102 8.9275103 13942436
1.2852401 -4.6287498 8.7555704 13876130
2.2407801 -4.46773 8.4622803 7890531
1.25884 -4.6363301 8.7897596 13810336
1.56848 -4.6796899 8.8728304 14600620
1.43843 -4.5945702 8.7344398 14797487
2.08149 -4.4909101 8.5432396 13283230
2.96766 -4.2693901 8.1420603 11703951
1.08836 -4.6855402 8.9527302 12364434
1.18534 -4.6493602 8.8859396 13021847
1.20847 -4.6385002 8.8737297 14271656
2.96263 -4.2583699 8.14503 9335658
2.97335 -4.2511101 8.1395502 8349276
2.9860599 -4.2516599 8.1335497 7428689
1.16308 -4.6515899 8.9025698 13219226
2.9216499 -4.2417498 8.1543102 10385774
2.9603801 -4.2446098 8.1593599 9663596
2.9734001 -4.2379198 8.1420002 8875365
1.84668 -4.4576802 8.5981703 14534313
2.15097 -4.4128599 8.5093298 6706512
1.11553 -4.6336799 8.9495697 14929325
1.85297 -4.4608498 8.6187696 14600361
2.2957799 -4.3779898 8.4621801 6180170
2.97943 -4.2340899 8.1830902 9467761
2.9884901 -4.2261 8.17134 9336431
2.9908099 -4.2247 8.1708298 9336687
1.43819 -4.5226898 8.7609797 14863792
1.62498 -4.4789801 8.6624498 14929583
1.6631 -4.4934402 8.6990099 14139555
1.84226 -4.44098 8.5956697 14665897
2.0632901 -4.42838 8.5685501 12361615
2.2936699 -4.3767099 8.4890499 10126462
2.9795401 -4.2165899 8.1803799 8349795
1.28514 -4.5085101 8.7397099 14864305
1.44824 -4.5250401 8.7762699 14929328
1.67228 -4.5032501 8.74683 13612954
1.6684 -4.5041299 8.7385998 13678747
2.0406201 -4.4144902 8.5741701 14007465
2.4493501 -4.32868 8.4058399 7034962
2.9892499 -4.20961 8.1706495 8218722
1.4311 -4.5019202 8.7536697 14600363
1.69749 -4.4988599 8.7700796 14600102
2.28496 -4.3567801 8.4862604 10192253
2.9458201 -4.2084799 8.1972904 9138280
2.9720299 -4.1856799 8.1788397 9534325
2.0533299 -4.3730602 8.5642099 7429203
1.69368 -4.4745302 8.7812099 14139298
2.8129301 -4.1813798 8.2064505 9008751
2.21999 -4.3264799 8.5185604 10915201
2.97662 -4.1586399 8.1959896 9665909
2.98557 -4.1567602 8.1824398 9994873
2.98245 -4.14326 8.1831799 8218205
-0.16263101 -3.8830099 7.6272402 13938068
1.70215 -4.4482198 8.7927799 15060910
2.4196701 -4.2761998 8.4735603 11046790
2.9820399 -4.1325898 8.18855 11179147
2.9925799 -4.13694 8.1844597 10389886
1.8368 -4.35748 8.6467199 14665897
-0.110673 -3.8886499 7.6873899 9730153
1.84487 -4.3465199 8.6338501 14534312
2.5537701 -4.2059898 8.3642797 8612965
-0.109105 -3.882 7.6949601 13675924
1.8432699 -4.3224502 8.6322098 14599848
-0.102598 -3.8766799 7.7069201 13740686
2.9780099 -4.0969501 8.1890001 9534064
2.9904499 -4.0906901 8.1734896 9534320
1.84488 -4.3127899 8.6480303 14599848
2.74312 -4.1263099 8.2705498 7758428
2.9342401 -4.08744 8.1905603 10784387
2.97349 -4.0836601 8.1919403 11112839
2.9835401 -4.08002 8.1805801 11179146
-0.18000799 -3.8011601 7.5957999 13872018
-0.183782 -3.8337801 7.64814 13872018
2.97047 -4.0704699 8.1944904 10586239
2.9802001 -4.06846 8.1872301 10849666
-0.216842 -3.7511499 7.5093498 11901575
-0.17077801 -3.79529 7.6076999 13741203
2.3020301 -4.2294698 8.5385103 10390148
2.92503 -4.08429 8.2289801 12099222
2.9861801 -4.05512 8.1876297 9994358
-0.16808499 -3.7767401 7.5774598 13610130
-0.138357 -3.8322401 7.6946702 13938067
0.0548205 -3.97422 7.9970899 14667444
-0.21410599 -3.7413599 7.5185099 9798777
-0.16736899 -3.7793901 7.6072001 9797490
-0.164187 -3.8076301 7.6716499 9337715
-0.101375 -3.8408799 7.7474098 13741203
-0.098555498 -3.8494699 7.74998 13937552
1.85291 -4.27494 8.6704102 14468264
2.98193 -4.0447001 8.1942596 12361879
-0.200881 -3.7471499 7.56392 11966856
-0.129897 -3.8020501 7.6869102 8681074
-0.084117301 -3.8619201 7.7955198 13413011
1.84267 -4.2448502 8.6312904 14731691
1.83895 -4.2426801 8.6331797 14797228
2.9771399 -4.0336399 8.2099895 11835532
2.9956 -4.0283198 8.1913004 12560282
-0.15275601 -3.79672 7.68152 8418935
-0.143921 -3.7915001 7.6761899 8419191
-0.100928 -3.8308001 7.7581801 10126458
-0.090265699 -3.8389299 7.7862902 9665908
-0.080208398 -3.8459301 7.7990499 10520960
1.27531 -4.4082899 8.9888897 13875614
2.2883899 -4.1933799 8.54953 9073259
2.9876101 -4.0215201 8.2037802 13940906
-0.155746 -3.7883 7.6946802 7170156
-0.118833 -3.7927001 7.6988902 8222072
-0.111093 -3.7969999 7.71246 8419193
-0.102037 -3.8117599 7.7519002 8484472
-0.108958 -3.80721 7.7367101 8418936
1.85474 -4.2501502 8.6876698 14665642
1.84717 -4.2204599 8.6556101 14797228
1.8407 -4.2265601 8.66434 14863020
1.86143 -4.23488 8.6902199 14534057
2.9339001 -4.00772 8.2250204 14401968
-0.13521001 -3.77159 7.7012601 4538951
-0.102196 -3.80161 7.7577701 8353914
-0.094629303 -3.80762 7.7748199 8484472
1.70164 -4.30019 8.8518496 15258801
-0.125701 -3.74933 7.6855998 3157297
-0.102271 -3.7846799 7.7550998 5262155
2.98457 -3.9811499 8.2041502 13414561
-0.190464 -3.7156999 7.6255898 5195855
-0.182577 -3.7142999 7.6183 6116955
-0.122351 -3.75846 7.7102098 3025454
2.87831 -3.98768 8.2370596 5786176
2.98086 -3.971 8.2132502 12165011
-0.17633501 -3.7065101 7.6300998 4736076
-0.170645 -3.7127099 7.6436901 5854042
-0.173768 -3.6898899 7.5988898 4275525
-0.140278 -3.73351 7.6983299 7169386
-0.133092 -3.7339201 7.6802301 3419698
-0.12581401 -3.7506499 7.7252402 3024683
-0.127918 -3.7407601 7.69911 3090733
1.70131 -4.2726002 8.8597603 15324340
1.8532701 -4.2039399 8.7159996 14797484
2.02265 -4.19943 8.6970196 10651768
2.9875901 -3.9553001 8.2075396 9204843
-0.16491599 -3.6768601 7.5960698 4077888
-0.166877 -3.70363 7.6544199 4538438
-0.159508 -3.70925 7.6658502 5065036
-0.14702401 -3.7112501 7.66537 6907240
0.048834901 -3.8920901 8.0441399 11641231
1.69885 -4.2651801 8.8607597 15324339
2.19381 -4.1466098 8.6294498 11638668
-0.142528 -3.71316 7.6810799 6315103
0.0449026 -3.87695 8.0439796 9536118
1.6937701 -4.2495399 8.8605604 14995374
2.6737199 -4.00634 8.3623104 12888473
2.9407699 -3.9580801 8.2493 11243394
2.99226 -3.93837 8.2233295 8022369
-0.207674 -3.61957 7.51122 2827302
-0.19372299 -3.6234701 7.5264201 2695460
-0.171721 -3.66553 7.5974698 2827817
-0.15377 -3.7021699 7.6791101 4143678
1.74529 -4.2448101 8.8659096 15258547
2.0765901 -4.1455798 8.6806498 12493460
2.81201 -3.9658501 8.2938204 12888478
2.9560299 -3.92329 8.2152395 12098962
2.9997599 -3.9258399 8.2153597 6114632
-0.176029 -3.67082 7.6445899 2761763
-0.165086 -3.6912501 7.67731 2959402
2.8285201 -3.95472 8.30023 9861741
2.97404 -3.93348 8.2449903 10323581
2.9945199 -3.91816 8.2284403 5391166
2.9884801 -3.9275 8.2259998 7824735
-0.19806699 -3.6117599 7.5319901 5719613
-0.19645201 -3.65762 7.6388698 7430490
2.44505 -4.0502601 8.5306997 10651259
2.45647 -4.0591002 8.5361099 10059123
2.8410599 -3.9447601 8.2858496 11111292
-0.279468 -3.5527999 7.4374299 13675925
-0.27269199 -3.5573399 7.4500098 13806997
-0.25558501 -3.59026 7.5057302 13348254
1.86858 -4.1558099 8.7685299 14797741
-0.240998 -3.5771401 7.5026698 10717565
-0.239336 -3.5953901 7.53512 12558739
-0.220956 -3.6144199 7.5863299 13544605
-0.211124 -3.63411 7.6402202 10980220
2.33392 -4.0652599 8.5922604 12954008
-0.27957699 -3.53352 7.4369302 12952977
-0.242342 -3.5956199 7.5672002 9140337
-0.23568299 -3.6047101 7.5938902 9337458
2.90132 -3.85305 8.1751604 14593931
2.98877 -3.8689599 8.2186604 13938830
-0.28810999 -3.51982 7.4349499 6312525
-0.277771 -3.5590301 7.50877 13150871
1.04423 -4.3148799 9.1813097 4863287
2.3353 -4.04356 8.5918303 13085594
2.9976001 -3.8715401 8.2445402 14267795
3.00331 -3.86657 8.2279902 13611928
-0.28064799 -3.5509601 7.52248 8416356
3.00687 -3.8620801 8.2456198 8682596
-0.289893 -3.51173 7.4484601 3353126
3.00207 -3.8518801 8.2500496 8028268
-0.193141 -3.6078999 7.6782398 6759210
3.0063 -3.83847 8.2434301 8030583
-0.301164 -3.53687 7.54776 11634564
1.68382 -4.1384201 8.9126902 14601132
1.8718899 -4.0840402 8.79352 14929327
1.8651299 -4.0893002 8.8015203 14929583
2.0311899 -4.0581698 8.7452698 6838354
2.92419 -3.84079 8.2625704 14858647
1.68986 -4.12819 8.9245501 15127475
1.85966 -4.0757399 8.80791 14994864
1.8662 -4.07125 8.7978497 14994863
2.15253 -4.0311198 8.7158298 7363671
2.9988899 -3.82671 8.2520304 7965304
-0.36601299 -3.4786501 7.4655099 11033954
-0.27248701 -3.5322399 7.5823598 7613749
-0.22191501 -3.56827 7.6705499 9121853
-0.19047 -3.5659201 7.66889 9709882
-0.147102 -3.6010399 7.7502499 7483189
1.67926 -4.1215401 8.91117 14271398
3.0077 -3.81389 8.2481699 7899769
-0.331018 -3.50279 7.54776 8204857
-0.32249099 -3.5056601 7.55691 6824745
-0.184037 -3.5612299 7.6760702 9644601
-0.17681199 -3.5769401 7.7063999 9579834
-0.17755701 -3.5689399 7.6882 9645113
-0.162121 -3.57723 7.7008901 9383738
1.6655999 -4.10186 8.9047699 13087129
1.67513 -4.1057401 8.9119501 13811105
1.68559 -4.1120801 8.9246902 14864047
2.9526701 -3.81036 8.2747402 8358523
3.00422 -3.80094 8.2498703 7898742
3.01617 -3.80495 8.2520199 8093807
-0.226969 -3.54161 7.65696 9775673
-0.214591 -3.53034 7.63939 9840953
-0.209436 -3.54335 7.6697502 9710137
-0.20462599 -3.54881 7.67803 9710393
-0.19029801 -3.5504999 7.6688399 9644857
-0.172556 -3.58125 7.7329702 8729148
1.68125 -4.09584 8.9244604 14666155
1.69321 -4.1015601 8.9367399 15390390
2.9067299 -3.7959199 8.2704496 10509392
2.99648 -3.7890401 8.2471704 7964791
1.66506 -4.08288 8.9112797 13021592
1.68736 -4.0861201 8.9368496 15193011
2.2387099 -3.9753101 8.6938105 13349021
2.8191299 -3.8190701 8.3301802 14191732
-0.238226 -3.5039501 7.6061802 9972796
-0.23091801 -3.50843 7.6179199 10038589
-0.230895 -3.5096099 7.6202502 10038589
-0.22697601 -3.5165701 7.6391101 9908030
-0.200464 -3.52986 7.6659698 8664127
-0.206861 -3.5325301 7.6742702 8795456
1.66968 -4.0707002 8.9193096 13350555
2.82551 -3.8094599 8.3402205 12737365
2.90941 -3.7848201 8.2855101 9464413
2.9193399 -3.7827599 8.27703 9995636
-0.29092699 -3.4769101 7.5812001 9907260
-0.277069 -3.4847701 7.5954099 9973054
-0.20005 -3.5220001 7.6800299 3611166
-0.200571 -3.5211899 7.6795802 3480093
-0.17861401 -3.5351601 7.7203398 2760479
1.67501 -4.0605798 8.9320698 14140069
1.6855299 -4.0661898 8.9414902 15127474
2.83078 -3.7987101 8.3475103 12074565
2.9222701 -3.76792 8.2779903 4800050
-0.231722 -3.49909 7.6549602 3873310
-0.220327 -3.49966 7.6593099 2890012
-0.21693499 -3.4948399 7.6504102 2824732
2.9929099 -3.7542701 8.2744799 12101519
-0.36580801 -3.39905 7.4363999 9972794
-0.36662501 -3.4158499 7.48347 10038845
-0.229937 -3.4858799 7.6550102 2628639
