ply                 
format ascii 1.0    
element vertex 1269
property float x    
property float y    
property float z    
property uchar red  
property uchar green
property uchar blue 
end_header          
0.714703 0.0502015 3.3941 183 195 123 
0.763212 0.051865 3.34094 195 216 125 
0.785614 0.0516276 3.33964 208 196 170 
0.726152 0.0556669 3.36635 157 170 116 
0.735121 0.0628556 3.34626 185 216 113 
0.773762 0.0683512 3.32166 226 238 172 
0.7261 0.0710313 3.34934 31 28 0 
0.734366 0.0707286 3.33727 186 199 127 
0.771699 0.0724651 3.30649 229 236 194 
0.748994 0.0730775 3.3176 46 67 0 
0.747517 0.0761921 3.31777 199 217 133 
0.769591 0.0760774 3.30495 247 255 201 
0.754198 0.0778405 3.31252 18 37 0 
0.053493 0.100278 3.57616 52 41 9 
0.0663645 0.102529 3.56719 199 182 136 
0.741144 0.0968976 3.29912 176 194 118 
0.0284287 0.1119 3.56368 183 173 138 
0.745807 0.104061 3.28229 194 213 149 
0.0756748 0.113636 3.55783 102 76 25 
0.751896 0.111249 3.27096 185 189 152 
0.74978 0.117097 3.26285 228 233 193 
0.762164 0.118325 3.25174 238 236 223 
-0.173201 0.126351 3.45311 43 38 0 
-0.333023 0.149957 3.4271 159 140 100 
0.747382 0.145022 3.23616 125 119 107 
0.751544 0.145249 3.23135 59 53 41 
0.167494 0.556718 3.92552 4 0 0 
0.149493 0.556635 3.91109 3 0 0 
-0.0261542 -0.0105325 3.58465 100 121 106 
-0.0113629 -0.0106597 3.59435 109 132 112 
0.711262 -0.00125423 3.45865 186 115 113 
-0.0734426 0.0216477 3.59239 123 111 99 
0.517717 0.0404793 3.44245 219 196 154 
-0.0981163 0.0517802 3.60934 171 186 167 
0.587387 0.0637686 3.45336 73 21 0 
0.0397248 0.0894807 3.59109 98 112 77 
0.752246 0.101504 3.2771 35 45 0 
0.00688329 0.111427 3.56302 172 178 134 
0.0617438 0.109664 3.56025 192 173 131 
0.753753 0.104029 3.26756 239 237 214 
0.0497729 0.114083 3.54931 202 183 141 
0.0342703 0.119853 3.54313 96 74 37 
-0.3145 0.120763 3.41196 168 151 108 
0.00788943 0.189366 3.50478 77 54 10 
-0.907273 0.583752 4.43137 214 152 29 
0.167675 0.556255 3.92416 7 2 0 
0.149393 0.556858 3.91178 3 0 0 
0.699886 -0.0371462 3.51617 49 40 35 
0.517118 0.040621 3.44844 217 197 160 
0.738152 0.0776002 3.32483 41 53 0 
0.0366381 0.0961806 3.5809 11 21 0 
0.0546373 0.10366 3.57204 62 49 17 
0.0167699 0.111459 3.56352 22 28 0 
0.0254274 0.112699 3.56244 183 175 136 
0.0337502 0.118661 3.53766 74 54 21 
0.748266 0.113098 3.28112 152 158 112 
0.0465993 0.125778 3.53963 112 86 35 
0.756074 0.139219 3.24051 81 78 63 
-0.0358668 0.158362 3.53043 94 92 54 
0.28875 0.379411 3.94165 3 3 1 
0.643304 0.402834 3.37836 125 124 122 
0.382833 0.500904 3.96972 79 78 74 
-0.910075 0.58648 4.43887 228 162 39 
0.150406 0.557299 3.91763 3 0 0 
0.69588 1.13397 4.31367 157 122 20 
0.718822 1.16604 4.31814 112 73 0 
0.500185 1.59555 4.37664 217 203 177 
0.5355 1.63484 4.38484 231 215 199 
0.193251 -0.0617584 3.6304 164 126 89 
-0.283798 0.0907249 3.44294 82 60 13 
0.0881689 0.10697 3.56322 213 188 131 
0.0671421 0.11657 3.57353 90 68 21 
-1.07495 0.374337 4.38817 145 106 41 
-0.942702 0.457593 4.45264 231 156 11 
-0.349883 1.26244 5.03523 216 201 182 
0.727676 1.17463 4.31659 169 136 21 
-0.216366 1.36956 5.01067 81 62 32 
0.609845 1.5667 4.41164 226 183 44 
0.48931 1.65006 4.38421 225 213 199 
0.510065 1.70134 4.40149 137 125 127 
-0.0185923 -0.00651696 3.58443 121 123 109 
-0.1704 0.117862 3.46405 175 173 122 
0.757377 0.113214 3.25113 57 59 37 
-0.323108 0.127183 3.42776 168 148 98 
0.00530112 0.210028 3.51027 65 42 10 
-1.04753 0.432188 4.39959 116 59 6 
-0.946494 0.459422 4.4617 230 154 6 
-1.08921 0.468742 4.33838 241 225 209 
0.647128 0.402597 3.37174 124 124 122 
-0.221576 1.23213 5.02266 143 87 4 
-0.881792 1.2883 5.1851 184 171 165 
-0.679651 1.3701 5.01128 111 101 92 
0.612114 1.56258 4.39297 235 192 64 
0.628719 1.57378 4.41693 244 214 160 
0.449401 1.61913 4.45783 50 37 28 
0.373975 1.61817 4.40713 161 147 134 
0.49155 1.70391 4.41673 192 182 181 
0.19557 -0.0600388 3.61425 184 153 99 
0.721284 0.0388968 3.41106 211 217 155 
0.00668128 0.118156 3.56852 187 169 119 
0.80009 0.169626 3.25204 41 40 36 
-1.12074 0.355725 4.38387 243 228 205 
-1.04477 0.446737 4.36464 246 207 16 
-1.03848 0.448403 4.4194 225 175 18 
-1.08963 0.467464 4.34736 240 227 210 
-0.299948 1.20326 5.11654 230 208 169 
-0.194585 1.18739 4.9981 145 92 0 
-0.27277 1.22659 5.05328 170 120 9 
-0.381313 1.25995 5.08787 213 196 176 
0.598957 1.09805 4.31279 225 181 12 
-0.86385 1.36629 5.03349 126 113 105 
-0.225908 1.36287 5.01324 70 56 29 
0.65847 1.54135 4.40753 136 86 1 
0.485577 1.62993 4.36666 211 198 179 
0.567664 1.64082 4.41109 63 50 34 
0.490742 1.70795 4.42588 192 182 181 
-0.250972 -0.36261 4.02416 40 17 0 
-0.273325 -0.358754 4.028 30 9 0 
0.692055 -0.0471794 3.55324 36 27 20 
0.700124 -0.0364941 3.53162 225 216 207 
0.313398 -0.0669132 3.52473 39 24 3 
0.699123 -0.0232827 3.51676 94 84 74 
0.695256 -0.0245426 3.53566 33 20 11 
0.716175 -0.0189981 3.48637 68 0 0 
0.707221 -0.0179201 3.49932 54 1 0 
0.693188 -0.014843 3.52998 166 156 146 
0.695474 -0.0131166 3.51213 179 165 156 
0.7074 -0.0113202 3.49051 86 29 20 
0.713039 -0.00650737 3.47141 72 0 0 
0.699601 -0.0076886 3.49808 162 97 95 
0.706533 0.00135554 3.47815 146 91 88 
0.7109 0.0118262 3.46063 137 133 98 
0.721634 0.0291588 3.42415 26 27 0 
0.703366 0.0297688 3.45935 36 48 0 
0.705695 0.040913 3.4455 48 62 0 
0.717171 0.0455713 3.41154 49 54 0 
0.728185 0.049532 3.3862 163 191 91 
0.720586 0.0499759 3.40281 61 81 0 
0.70176 0.0492751 3.45544 35 38 0 
0.728584 0.0564462 3.3775 149 161 99 
0.723087 0.0568394 3.39399 82 105 1 
0.597711 0.0486321 3.4752 109 62 0 
0.781439 0.0685487 3.33003 84 80 43 
0.708373 0.060594 3.42474 195 189 157 
0.752827 0.0663262 3.3406 72 94 12 
0.710695 0.0641938 3.41155 166 169 100 
0.73773 0.07117 3.35273 184 197 115 
0.724499 0.069273 3.37549 173 172 126 
0.7193 0.0702458 3.3846 153 159 97 
0.729375 0.0718118 3.36412 50 46 0 
0.772161 0.0763974 3.31607 253 255 210 
-0.0373402 -0.000762051 3.61287 21 39 23 
0.742602 0.0750849 3.34019 69 81 7 
0.750179 0.0768709 3.32934 183 205 104 
0.763413 0.079667 3.32065 66 88 6 
0.590608 0.0645574 3.47188 100 49 0 
0.728038 0.0797799 3.35485 129 92 48 
0.716766 0.0800945 3.38051 169 167 116 
0.742662 0.0855851 3.33072 234 238 188 
0.751691 0.0877003 3.31269 181 207 116 
0.722632 0.0908341 3.3567 86 94 8 
0.737718 0.0939506 3.32099 199 205 157 
0.743548 0.0975942 3.30956 167 189 107 
0.713984 0.0951907 3.37769 74 69 11 
0.755969 0.102593 3.29653 62 81 17 
0.74456 0.111549 3.2951 40 56 0 
0.754316 0.111946 3.28152 198 201 170 
0.758915 0.118069 3.2736 165 174 127 
0.726849 0.12792 3.31599 43 65 0 
0.728973 0.133833 3.30577 44 68 0 
0.74987 0.145588 3.24691 136 134 121 
0.730345 0.144018 3.28764 161 155 139 
-0.368459 0.0792827 3.41668 156 134 97 
-0.0404566 0.158659 3.56121 7 21 0 
-0.153525 0.158529 3.47364 149 164 107 
0.455529 0.233248 4.09609 134 98 0 
-0.335337 0.150436 3.44903 148 130 94 
-0.982229 0.199581 4.49679 255 200 133 
-0.789835 0.263719 4.62001 122 55 0 
-1.11358 0.234284 4.43032 201 168 65 
0.673358 0.359017 3.39701 46 45 41 
-0.810186 0.34814 4.55826 181 151 78 
-0.631896 0.408775 4.49294 29 14 0 
-1.11596 0.486601 4.3596 222 204 190 
0.875874 -0.115895 3.37897 244 229 198 
0.311936 -0.0613838 3.5352 32 17 0 
0.718764 0.00390238 3.45037 193 201 152 
0.727839 0.0204974 3.41899 127 127 99 
0.707091 0.0210872 3.46509 172 175 120 
0.713696 0.0460485 3.42952 214 213 182 
0.71831 0.0822314 3.36871 152 150 112 
-0.0742649 0.0211497 3.62396 117 99 89 
0.738924 0.120909 3.29189 15 27 0 
0.471451 0.110699 3.97308 100 91 74 
0.0925641 0.0802474 3.66746 4 19 0 
-0.316068 0.1208 3.43506 164 149 108 
-0.866708 0.193425 4.60108 187 118 1 
-0.937494 0.211235 4.58494 188 142 118 
-0.505769 0.390857 4.57181 103 73 0 
0.40379 0.469028 3.94171 105 105 97 
-0.641182 0.498798 4.54646 51 51 43 
-0.7749 0.502042 4.4961 153 91 0 
-0.0622792 0.863812 4.8091 201 160 18 
-0.208694 1.37686 4.98897 193 172 143 
0.874138 -0.110297 3.38938 163 143 106 
0.89586 -0.0290816 3.26471 153 110 18 
0.724759 -0.0127142 3.46297 59 30 22 
0.893948 0.0323984 3.27536 82 38 0 
0.774252 0.0439384 3.36519 85 84 30 
0.745492 0.128108 3.27161 224 222 209 
-0.0749697 0.0532188 3.59844 28 11 1 
-0.0480716 0.0657734 3.62793 111 113 99 
-0.0604399 0.0780497 3.59298 0 39 9 
-0.341951 0.0871076 3.42425 89 74 53 
-0.311411 0.127201 3.42676 92 71 28 
0.558935 0.221535 3.56112 104 104 94 
-0.162958 0.15422 3.45829 42 66 18 
0.548626 0.226734 3.55249 6 3 0 
-0.333797 0.139659 3.45252 139 121 81 
0.542917 0.242792 3.5491 6 6 6 
0.721375 0.267804 3.43396 128 66 5 
0.644847 0.282126 3.43321 81 37 0 
-0.957672 0.169533 4.55532 239 111 40 
0.627099 0.29371 3.4436 144 126 44 
-0.859659 0.215984 4.59014 175 113 0 
-0.914659 0.284305 4.37984 91 40 0 
-0.919688 0.300394 4.38472 87 35 0 
0.646091 0.404884 3.39302 169 168 164 
-0.761609 0.346338 4.55497 186 139 0 
-0.880686 0.364625 4.54664 64 18 0 
-0.713026 0.441485 4.51607 109 56 0 
-0.675368 0.444688 4.46871 138 104 0 
-0.609415 0.48099 4.53156 101 97 94 
-0.83955 0.467202 4.50737 241 203 56 
0.433242 0.556143 3.91431 20 7 0 
-0.809987 0.488398 4.50941 135 84 3 
0.139898 0.552978 3.92032 61 62 57 
0.364018 0.680374 4.19246 30 0 0 
0.494602 0.735485 3.92541 3 0 0 
-0.0836143 0.986025 4.85506 147 124 31 
-0.139129 1.12749 4.94989 202 160 16 
-0.186882 1.17286 4.97588 167 109 0 
-0.325972 1.27502 4.99255 114 102 88 
0.85669 -0.104227 3.43179 122 90 7 
0.882616 0.0324968 3.29527 86 37 4 
-0.280983 -0.074209 3.78096 122 107 100 
0.0255821 0.113801 3.5917 190 181 140 
0.0673452 0.117465 3.57231 120 98 57 
-0.383618 0.082402 3.39045 203 181 132 
-0.146029 0.176045 3.4745 123 106 52 
-0.893658 0.208122 4.60867 182 99 5 
-0.863192 0.236939 4.57571 100 42 0 
-0.787622 0.304108 4.61767 57 28 0 
-1.15616 0.259837 4.40857 150 135 116 
0.419853 0.458337 3.92204 102 95 85 
-0.740385 0.402225 4.52052 185 136 0 
-0.846736 0.444733 4.5165 215 177 32 
-0.641725 0.488654 4.53391 9 4 1 
-0.80704 0.48452 4.49656 174 128 34 
-1.04217 0.488695 4.35196 124 92 31 
-0.125725 0.909513 4.8428 220 180 5 
-0.12484 0.939174 4.85671 120 80 0 
-0.0867104 0.964678 4.84277 29 6 0 
-0.129715 1.16574 4.9612 125 75 4 
-0.187799 1.1798 5.00067 161 100 7 
-0.169544 1.24545 4.96201 145 98 6 
-0.333861 1.28688 5.02525 86 73 64 
0.728475 1.4768 4.41826 239 192 18 
0.519703 1.57714 4.36847 230 216 189 
-0.0971911 -0.0177303 3.61045 76 77 59 
-0.0189856 -0.00670782 3.61796 115 118 97 
-0.319782 0.081428 3.40868 225 199 142 
0.460682 0.223589 4.12193 170 140 8 
0.552397 0.395698 3.49517 189 151 6 
0.315353 0.428952 3.97741 55 52 47 
0.674992 0.423575 3.3699 171 172 167 
-0.049837 0.388713 3.77967 46 5 3 
-0.673432 0.415582 4.4824 107 69 6 
-0.636723 0.431362 4.48519 180 151 25 
-0.720762 0.447607 4.54079 112 60 0 
-0.0695969 0.876103 4.80166 115 72 3 
-0.111586 0.890144 4.82612 220 176 19 
1.72034 1.27305 5.17236 199 189 180 
0.594686 1.06045 4.39471 171 133 10 
-0.29752 1.17235 5.09267 145 109 13 
-0.129374 1.16251 4.94849 130 83 5 
-0.296571 1.18954 5.08747 233 214 172 
-0.169078 1.24193 4.94874 143 93 6 
-0.677693 1.36938 5.00178 114 102 90 
0.761328 1.5226 4.44135 240 194 13 
0.656394 1.54027 4.40179 137 86 0 
0.701446 1.59244 4.39618 164 121 6 
0.695779 1.66734 4.39239 99 77 38 
0.605173 1.66832 4.34183 209 202 186 
0.873529 -0.0328455 3.41505 83 26 0 
-0.235823 0.0536618 3.51937 194 170 110 
0.0068114 0.117453 3.55812 181 163 115 
0.00681024 0.121089 3.63194 139 147 106 
0.459502 0.223352 4.11094 167 138 2 
0.623747 0.279005 3.45933 174 141 8 
0.645817 0.297767 3.41725 178 146 9 
-1.03109 0.261175 4.39185 254 239 216 
-1.08068 0.333476 4.42633 248 198 15 
-1.05991 0.327746 4.34163 222 161 46 
0.432057 0.466758 3.93064 98 91 81 
0.435618 0.470401 3.9641 97 89 78 
-0.719532 0.42078 4.50473 242 202 29 
-0.719432 0.449988 4.53121 113 61 1 
0.0142906 1.12366 4.91306 194 154 7 
-0.0703726 1.12279 4.92276 205 157 11 
0.598659 1.09697 4.31275 231 185 12 
-0.300718 1.15878 5.03358 163 126 12 
-0.160551 1.22952 4.93897 137 89 4 
-0.378848 1.25339 5.05787 210 195 174 
-0.218073 1.27468 4.95151 158 119 2 
-0.225531 1.35944 5.00044 74 59 30 
-0.87492 1.30824 5.11045 112 102 93 
-0.309118 1.36457 5.02873 109 99 90 
-0.606781 1.32846 5.02971 185 174 172 
-0.867531 1.33231 5.06278 189 179 170 
1.31364 1.53132 4.6911 202 191 185 
0.645922 1.46618 4.40647 222 177 14 
0.797189 1.53086 4.46564 236 191 10 
0.534602 1.56509 4.47402 157 136 107 
0.570635 1.55391 4.33669 175 138 34 
0.57937 1.57682 4.40528 133 96 7 
0.705905 1.60357 4.42431 171 127 18 
0.448053 1.61237 4.43021 55 39 24 
0.564354 1.63051 4.38504 60 45 24 
0.489174 1.6313 4.35669 219 207 183 
0.552323 1.7096 4.44976 104 95 90 
0.619446 1.70518 4.33159 140 129 123 
-0.391744 -0.0739761 3.91295 210 188 139 
-0.395068 -0.0608675 3.904 176 190 139 
-0.167493 0.18222 3.42041 198 176 127 
0.74577 0.129867 3.26162 225 227 206 
0.58014 1.59563 4.42044 119 91 51 
0.679171 0.356217 3.39432 120 119 117 
-0.821807 0.488142 4.51873 224 177 63 
-0.220023 -0.122197 3.6881 0 17 0 
0.785289 0.0901697 3.29849 63 66 19 
-0.215897 1.36806 5.00716 78 63 30 
0.501281 1.59787 4.37069 228 212 189 
-0.356751 0.0781258 3.39559 50 32 12 
-1.08868 0.454038 4.36643 254 233 212 
-1.04687 0.491216 4.3555 120 97 56 
-0.875507 1.31152 5.12429 112 102 93 
-0.677201 1.3655 5.00198 113 101 89 
-0.862461 1.36294 5.02822 126 116 107 
0.521103 1.68864 4.37917 141 131 129 
0.687965 -0.047452 3.52852 199 190 181 
0.680936 -0.0413354 3.53801 62 52 43 
0.686919 -0.0372269 3.51917 214 206 195 
0.691198 -0.0360162 3.50928 210 202 189 
0.691944 -0.0232085 3.49887 94 84 74 
0.678315 -0.0238658 3.52061 191 181 169 
0.694406 -0.0132694 3.47093 175 116 108 
0.706111 -0.00679752 3.45456 106 21 16 
0.691996 -0.00746688 3.4792 160 95 91 
0.696878 -0.00436111 3.46573 147 106 100 
0.68184 -0.0058486 3.50264 157 141 125 
0.697761 0.00117641 3.45666 128 69 61 
0.692602 0.0152561 3.45314 151 93 79 
0.709359 0.0288159 3.39478 67 71 21 
0.691313 0.0227961 3.46113 136 88 74 
0.702471 0.0371213 3.41098 162 173 104 
0.691384 0.036605 3.44018 111 116 60 
0.717988 0.0491758 3.36217 147 175 64 
0.711387 0.0503714 3.36957 153 175 77 
0.706876 0.0507967 3.38226 174 195 94 
0.701695 0.0479268 3.40846 171 169 131 
0.728764 0.0660058 3.32976 78 101 0 
0.713181 0.063962 3.35822 141 158 80 
0.70149 0.0600628 3.39326 63 72 5 
0.748973 0.0788136 3.28805 109 130 61 
0.564483 0.0359097 3.45824 255 249 71 
0.72888 0.0854214 3.29905 217 229 181 
0.696986 0.0806257 3.40095 62 41 20 
0.733086 0.0965748 3.2857 160 184 98 
0.716993 0.0918186 3.3167 90 110 11 
0.704007 0.113168 3.35744 161 129 114 
0.735729 0.128926 3.23925 209 207 195 
0.707695 0.115855 3.34398 133 119 90 
0.71611 0.1234 3.28551 157 187 75 
0.722628 0.126369 3.26049 143 143 133 
-0.367487 -0.0664887 3.90784 49 41 5 
0.470646 0.110646 3.96659 115 110 88 
-0.11351 0.0343613 3.65179 29 48 28 
0.0512726 0.100924 3.58798 54 39 8 
-0.316524 0.120651 3.43141 151 136 97 
-0.166176 0.182048 3.42988 184 167 115 
-0.605 0.160901 4.68081 64 48 15 
-0.700208 0.184336 4.60901 73 50 0 
-0.696081 0.187336 4.59801 184 162 86 
-0.671732 0.205175 4.56415 82 78 66 
-0.773711 0.320472 4.62182 176 114 0 
0.448216 0.61355 3.75845 60 43 0 
-0.705335 0.478042 4.5294 162 113 0 
-0.82006 0.490716 4.55561 217 174 79 
-0.255647 -0.372113 4.01969 28 11 0 
0.706957 -0.0189327 3.46385 90 13 3 
0.675923 -0.0242985 3.54189 162 152 142 
0.766483 0.00222954 3.40156 161 145 120 
0.698494 0.0204631 3.44415 165 165 111 
0.694009 0.0486475 3.4158 145 154 61 
0.709649 0.0876074 3.35042 38 46 0 
0.737158 0.102651 3.2664 191 214 136 
0.753619 0.121163 3.23882 221 218 201 
0.733958 0.118713 3.26255 43 46 19 
0.749172 0.134191 3.22265 216 212 200 
0.543915 0.226802 3.53923 24 24 22 
0.644329 0.364237 3.38309 45 44 42 
-0.542491 0.271854 4.55787 32 21 3 
-0.605007 0.282362 4.51691 44 43 39 
0.403443 0.506803 3.92503 34 30 29 
-0.505995 0.392536 4.60293 104 71 0 
0.464963 0.589438 3.73823 172 142 32 
-0.990528 0.354722 4.55264 188 119 28 
-0.565744 0.476862 4.5847 89 82 74 
-1.07639 0.368142 4.41386 181 147 73 
-0.926576 0.473307 4.49544 207 133 36 
-0.0589877 0.865135 4.82434 197 158 19 
-0.32165 1.29136 5.05072 103 91 77 
0.873968 0.0323787 3.27781 88 45 0 
0.709697 0.0127478 3.42241 71 85 6 
0.713032 0.0664611 3.36775 90 113 22 
0.739872 0.0772632 3.29852 184 215 95 
-0.377744 -0.0639631 3.91206 183 172 127 
-0.0748846 0.0202171 3.60736 110 95 92 
-0.121927 0.0378149 3.65982 106 119 102 
-0.0960368 0.0496068 3.63434 146 161 140 
-0.226681 0.0628019 3.51112 171 165 117 
0.630563 0.29645 3.41275 178 149 23 
0.519732 0.29845 3.55536 56 55 53 
-0.805136 0.315772 4.60207 222 191 64 
-0.499061 0.384145 4.6006 160 127 22 
-0.803392 0.329775 4.58759 218 181 48 
0.437941 0.553596 3.87399 98 60 0 
-0.568083 0.478763 4.59471 91 89 77 
0.0932421 0.582252 3.93222 61 60 56 
-0.608597 0.4837 4.56212 108 104 101 
0.0921338 0.594871 3.93817 4 3 0 
-0.114507 0.793873 4.91051 209 168 14 
-0.0689731 0.896292 4.84379 105 60 3 
0.620314 1.10139 4.30392 223 179 22 
0.397939 1.09747 4.44715 30 2 0 
-0.12416 1.18609 4.9726 217 175 31 
-0.292509 1.19253 5.13117 227 198 140 
0.758317 -0.0804049 3.56934 250 246 235 
0.693776 -0.0243428 3.48083 236 222 213 
0.720873 0.11165 3.28572 80 105 14 
-0.0801365 -0.00983302 3.61218 19 36 18 
0.00645561 0.11364 3.58479 152 159 125 
0.0194734 0.113083 3.56239 172 156 123 
0.621066 0.290958 3.42955 159 132 27 
-0.331197 0.133434 3.44615 154 134 97 
-0.347967 0.211227 3.46909 100 81 49 
-0.716557 0.167567 4.61212 227 194 61 
0.434633 0.441219 3.92482 10 7 2 
-0.673171 0.417886 4.49974 113 75 12 
-0.552286 0.481154 4.60855 24 16 0 
-1.08335 0.36088 4.40679 247 224 174 
-0.778672 0.500347 4.51746 139 73 0 
-1.04294 0.489765 4.36296 116 86 22 
-0.134212 0.788501 4.90286 111 67 0 
-0.100256 0.795063 4.86637 147 99 0 
-0.049705 0.846598 4.81167 193 153 22 
-0.124765 0.910482 4.85051 220 179 9 
-0.0905129 0.918726 4.84986 128 83 0 
0.766492 1.17091 4.32356 47 11 0 
-0.124466 1.17735 5.00424 132 82 0 
-0.219908 1.23299 5.01814 147 93 3 
-0.312763 1.26902 5.05684 146 131 110 
0.578728 1.58615 4.41332 140 106 45 
0.499899 1.59773 4.36373 222 208 182 
0.866586 -0.101453 3.36764 147 113 49 
0.810312 -0.09406 3.59105 21 17 16 
0.886459 -0.0329378 3.25119 141 116 52 
0.734858 0.170592 3.49886 220 178 16 
0.582015 0.217054 3.53984 182 146 10 
0.710319 0.261149 3.40809 135 77 3 
0.508587 0.248982 4.06325 185 156 39 
0.416351 0.499821 3.9224 85 81 72 
-0.720795 0.448825 4.55727 102 49 0 
-1.07638 0.382047 4.4117 139 102 14 
0.362081 0.67773 4.1853 57 23 0 
-1.04278 0.49185 4.37652 118 88 24 
-0.127363 0.936246 4.83575 114 73 0 
-0.0829851 1.0219 4.90237 62 28 0 
0.619392 1.10463 4.32224 233 185 17 
-0.153076 1.14622 5.01017 123 78 0 
-0.21367 1.23362 5.03807 154 103 14 
-0.353726 1.23678 5.10063 127 111 86 
-0.311701 1.27341 5.07019 138 123 104 
-0.538664 1.35918 5.05746 149 138 132 
0.863481 -0.10597 3.41299 148 119 49 
0.873648 -0.0330593 3.41532 93 34 0 
-0.0936976 -0.0130794 3.67474 66 71 51 
0.576698 0.216039 3.52529 185 146 7 
0.498214 0.246928 4.05686 183 154 16 
0.636458 0.295318 3.39392 191 155 7 
-0.176542 0.193307 3.42782 81 56 26 
0.614781 0.431192 3.41242 8 7 5 
-0.669011 0.197006 4.50913 23 22 17 
0.52698 0.475032 3.5656 209 161 17 
0.392979 0.519259 3.95605 86 85 80 
-0.495125 0.39063 4.58244 184 147 4 
-0.81216 0.36145 4.53881 227 182 18 
-1.16458 0.304754 4.51748 131 95 9 
0.432346 0.646935 4.00382 21 13 2 
-1.05729 0.36972 4.44863 220 178 6 
-0.719221 0.456063 4.58399 104 48 1 
-0.947093 0.464476 4.48738 231 155 10 
-1.0285 0.474646 4.42414 228 187 11 
0.600746 1.09776 4.31973 233 191 11 
-0.491025 1.11199 5.5905 190 179 173 
-0.237288 1.12272 5.14653 240 193 15 
-0.0676939 1.12782 4.94294 209 162 14 
-0.289846 1.1876 5.16235 134 99 5 
-0.192423 1.19173 5.00633 142 87 0 
-0.0421413 1.25372 4.96634 226 182 15 
-0.26619 1.2347 5.07809 163 116 0 
-0.156415 1.23787 4.97597 140 93 13 
-0.37431 1.26952 5.12225 210 194 179 
0.793083 1.52769 4.454 240 201 12 
-0.708314 1.36191 5.0743 189 176 168 
0.512931 1.53966 4.39685 169 150 118 
0.650935 1.57963 4.41313 244 227 199 
-0.868357 1.33981 5.09428 182 171 165 
-0.676743 1.37575 5.03948 109 96 87 
-0.862946 1.36655 5.0449 120 109 103 
1.31333 1.77951 4.22695 143 133 121 
-0.819455 1.39373 5.00537 122 112 103 
0.454229 1.62181 4.45339 50 37 20 
0.697614 -0.018779 3.50071 137 127 117 
-0.0983741 0.0455561 3.62773 142 158 132 
0.649828 0.364729 3.39101 45 44 42 
0.723342 0.0927556 3.33703 159 177 69 
0.516993 0.250738 4.05753 156 132 44 
0.668579 0.358881 3.38642 40 37 32 
0.730047 0.115231 3.293 69 98 0 
0.470983 0.111206 3.96897 119 114 92 
-0.075272 0.0530837 3.61058 44 24 17 
0.690182 0.201867 3.54152 73 38 6 
0.363342 0.679582 4.18451 50 17 0 
-0.195928 1.38066 4.99423 131 107 69 
-0.786027 0.332928 4.56289 111 61 10 
-1.08532 0.357275 4.3843 247 224 174 
-0.646133 0.556701 4.61362 84 72 58 
-1.04348 0.489175 4.35739 116 86 22 
-0.612751 1.33936 5.07836 185 175 166 
-0.709679 1.3505 5.04551 182 169 161 
0.629274 0.392034 3.416 94 93 89 
-0.171504 0.422245 3.76905 114 99 78 
-1.12072 0.343889 4.41565 239 228 200 
1.30513 1.49711 4.78261 201 191 182 
-0.140762 1.18472 4.96384 222 178 9 
1.31908 1.53676 4.71087 206 196 187 
-0.381321 1.26102 5.08989 210 194 179 
-0.609905 1.33322 5.05497 184 174 165 
-0.678905 1.37181 5.02593 109 96 87 
0.543573 1.57514 4.3984 223 207 174 
0.375649 1.60461 4.39002 168 152 136 
0.488141 1.69796 4.4001 192 181 179 
0.609898 1.56689 4.41248 232 187 23 
-0.219622 1.22836 5.01349 154 103 14 
-0.311677 1.36444 5.0398 110 99 97 
-0.381644 1.26042 5.08888 210 194 179 
-0.218533 1.27848 4.96168 146 108 0 
0.707449 -0.0357407 3.53512 204 196 185 
0.73041 -0.00440506 3.47094 182 118 108 
0.719591 -0.00648063 3.47545 107 19 15 
0.697165 -0.0175636 3.55239 90 79 59 
0.712877 -0.00441043 3.4905 149 114 110 
0.69992 -0.0121403 3.53972 176 163 147 
0.706008 -0.00216168 3.51051 152 92 91 
0.734897 0.0512382 3.40479 151 176 82 
0.70767 0.0346964 3.48298 120 106 80 
0.709862 0.0367632 3.4688 129 134 76 
0.724324 0.0469396 3.42221 207 204 169 
0.721151 0.0510178 3.41325 68 78 18 
0.718812 0.048756 3.43465 138 137 106 
0.730223 0.0580587 3.39561 91 120 4 
0.742486 0.0653017 3.37176 171 184 105 
0.776047 0.0794223 3.32687 114 125 56 
0.708645 0.0450394 3.48828 104 106 56 
0.747748 0.0717835 3.35802 180 194 109 
0.760044 0.0782758 3.33422 159 179 84 
0.73386 0.0697829 3.37981 158 150 111 
0.715882 0.0613287 3.42676 175 169 143 
0.712241 0.0595484 3.45066 136 145 52 
0.755924 0.0901918 3.32777 215 226 170 
0.726252 0.0787819 3.3833 155 146 103 
0.748773 0.090018 3.33536 202 209 165 
0.750602 0.0972711 3.31934 76 95 16 
0.71969 0.0809357 3.40511 59 51 14 
0.776822 0.121369 3.27121 210 209 188 
0.755217 0.119982 3.29293 34 39 17 
0.724533 0.106286 3.39016 114 87 68 
0.762984 0.147621 3.24669 60 56 44 
0.740204 0.147963 3.29799 132 122 113 
-0.48447 0.0157837 3.47885 64 45 2 
-0.970535 0.243428 4.38826 255 255 146 
-0.70772 0.476881 4.51709 153 97 0 
-0.329962 -0.366444 4.05956 33 16 0 
0.702621 -0.0403852 3.5537 101 93 82 
0.706356 -0.0336204 3.54579 103 93 83 
0.711847 -0.0187301 3.52323 114 100 89 
0.729197 0.0121273 3.45419 69 82 10 
0.692739 -0.0116549 3.56801 59 50 33 
0.715482 0.00721188 3.47515 177 104 97 
0.722206 0.0111088 3.46493 144 155 95 
0.733604 0.0203778 3.43038 177 189 113 
0.730132 0.0191593 3.4408 65 80 0 
0.710462 0.0143191 3.48044 173 90 76 
0.727494 0.0302696 3.43585 167 187 92 
0.727609 0.0743253 3.39351 142 156 69 
0.743732 0.0829048 3.35498 97 86 20 
0.714526 0.0680338 3.44372 173 161 135 
0.766378 0.102596 3.29947 95 107 43 
0.722445 0.0893292 3.38671 151 141 88 
0.757219 0.11128 3.30094 86 101 36 
0.736409 0.12619 3.31044 81 109 0 
0.744738 0.13384 3.30366 58 65 32 
0.754719 0.140582 3.25856 38 39 25 
0.748022 0.155507 3.26195 101 101 93 
0.731713 0.159113 3.33131 114 106 44 
-0.120015 -0.00424114 3.64597 96 115 93 
0.548381 0.244687 3.55263 34 34 34 
-0.545264 0.0486427 3.19456 183 161 124 
-0.322454 0.119818 3.41374 170 153 110 
0.569049 0.389503 3.52342 177 150 19 
-0.597602 0.178315 4.58321 91 71 21 
0.406649 0.527904 3.9564 55 54 52 
-1.05155 0.466363 4.32036 241 220 157 
-0.256464 -0.37106 4.01794 40 16 0 
-0.275467 -0.359682 4.01294 46 26 0 
0.698977 -0.0385981 3.57112 103 96 80 
0.729477 -0.00423157 3.454 234 227 209 
0.712232 0.00450149 3.48561 98 33 29 
0.714988 0.0221138 3.46894 158 170 98 
0.716419 0.0288562 3.44034 41 51 1 
0.750887 0.0777304 3.3453 95 106 30 
0.732993 0.0809618 3.34661 127 95 46 
0.740857 0.0871898 3.34386 164 187 71 
0.727387 0.0816496 3.37382 127 128 88 
0.717167 0.07894 3.4171 189 171 151 
0.729078 0.0968724 3.37603 147 164 68 
0.744214 0.115478 3.31463 66 92 0 
0.767812 0.132331 3.25264 205 202 187 
0.734127 0.139782 3.30826 53 66 13 
0.741736 0.153958 3.28048 31 34 5 
-0.237525 -0.112223 3.66774 78 142 107 
-0.281081 -0.0383195 3.77799 43 23 14 
0.65197 0.287535 3.44323 103 62 0 
0.524094 0.334171 3.59987 160 137 25 
0.660105 0.407356 3.40182 117 116 112 
-0.154632 0.175753 3.43855 134 114 63 
-0.791953 0.215095 4.61038 122 64 0 
0.453435 0.627922 3.76755 242 211 86 
0.493994 0.645989 3.79563 90 47 0 
-0.636575 0.288634 4.49809 49 46 41 
-0.852221 0.221554 4.60009 238 193 30 
-0.502159 0.383171 4.58609 174 143 18 
-0.989726 0.24691 4.33953 182 155 84 
-0.10674 0.79983 4.93916 217 174 20 
-0.957019 0.459817 4.47482 228 150 14 
-0.121655 1.18886 4.98273 223 179 18 
0.73861 0.0769818 3.36506 70 55 22 
0.77539 0.104747 3.29379 240 235 215 
0.735361 0.112363 3.30685 80 107 10 
0.739595 0.136172 3.29409 34 34 24 
-0.290572 -0.0459727 3.78272 33 19 8 
0.0439886 0.120812 3.55893 201 184 132 
-0.364369 0.0726277 3.39492 24 11 0 
-0.470768 0.0523022 3.44544 177 156 111 
-0.600637 0.176477 4.60013 62 51 6 
-0.700706 0.187876 4.56065 149 130 53 
0.447641 0.604057 3.76353 13 0 0 
-0.86274 0.216844 4.60117 161 97 0 
-0.523648 0.351221 4.55556 18 9 4 
-1.16214 0.256158 4.39718 143 127 111 
-1.1292 0.27706 4.40711 217 194 162 
-0.826849 0.488569 4.51641 218 177 23 
-0.074204 0.82319 4.83876 161 116 1 
0.602053 1.06168 4.3987 184 146 11 
-0.11893 0.942736 4.86634 124 83 0 
0.409939 1.17584 4.49128 39 23 0 
0.7594 -0.0261312 3.55002 243 231 219 
0.76756 0.221649 3.44119 222 180 20 
-0.0588057 0.0151888 3.60276 45 12 7 
-0.276386 -0.0387374 3.76269 57 43 32 
-0.29727 -0.0375812 3.77352 170 179 160 
0.728823 0.26478 3.4366 119 64 0 
0.562407 0.39204 3.51556 196 160 10 
-0.357234 0.208888 3.44076 100 80 45 
0.439941 0.467803 3.93993 101 95 83 
0.405514 0.512044 3.93489 10 8 11 
0.445643 0.627084 3.91695 32 17 0 
-0.75916 0.349622 4.54605 177 122 0 
-0.643607 0.394379 4.47134 126 103 33 
-1.1124 0.401115 4.36605 164 146 126 
-0.0659525 0.883112 4.83487 108 68 6 
0.581818 1.68995 4.42184 173 161 163 
0.894331 -0.10459 3.40599 164 138 77 
0.705801 -0.0103907 3.51638 222 204 194 
0.610375 0.187236 3.52661 187 146 6 
0.741333 0.279574 3.4279 230 177 13 
0.660065 0.300561 3.43145 185 146 9 
0.549271 0.370337 3.81473 11 12 7 
0.423105 0.532782 4.01095 82 81 77 
-0.518627 0.38048 4.60685 78 59 16 
-0.645185 0.432425 4.47535 171 141 27 
-0.726709 0.42495 4.51725 235 190 11 
-1.18022 0.265696 4.41232 211 194 176 
-1.07691 0.33922 4.53834 171 106 22 
-1.14904 0.368003 4.3868 237 213 175 
-0.951812 0.460048 4.44438 230 154 9 
-0.916668 0.47513 4.49491 124 61 7 
-0.242343 0.83657 5.00174 173 130 15 
-0.122258 0.912397 4.86227 225 182 8 
1.45074 1.55136 4.74195 193 182 176 
1.42785 1.5658 4.79985 158 148 136 
-0.0350315 1.26115 4.99103 220 173 5 
1.32555 1.78945 4.246 148 138 129 
-0.226575 1.36416 5.00016 91 69 20 
0.567143 1.63612 4.40219 91 76 69 
0.451825 1.62193 4.44954 61 47 36 
0.639703 1.68669 4.38774 218 206 190 
0.497486 1.63639 4.37941 221 208 191 
0.55651 1.68592 4.38604 178 168 169 
0.697293 -0.0361418 3.52459 204 196 185 
0.72201 -0.00291111 3.45111 193 188 166 
0.711192 -0.00691216 3.46696 107 19 15 
0.75932 0.0562655 3.34051 117 142 41 
0.700567 0.0297295 3.45246 54 68 0 
0.710716 0.050383 3.40288 68 78 18 
0.729612 0.0633832 3.35907 171 184 105 
0.732972 0.0680863 3.34891 113 129 41 
0.721131 0.0686694 3.36737 158 150 111 
0.73565 0.0769971 3.33324 111 126 41 
0.752205 0.111514 3.27657 164 169 129 
0.737073 0.106842 3.2949 123 151 40 
0.743413 0.119536 3.27309 177 179 155 
0.73182 0.153313 3.25986 153 158 117 
-0.337114 0.149704 3.43341 156 136 103 
0.867372 -0.151079 3.51633 255 229 119 
0.698925 -0.019359 3.50989 114 100 89 
0.705051 0.00677976 3.46458 177 104 97 
0.705827 0.0647134 3.41423 113 102 84 
0.740429 0.11015 3.28529 86 101 36 
-0.115497 0.0348231 3.64045 16 29 12 
0.0507331 0.116405 3.5622 207 183 135 
-0.405675 0.0750687 3.42518 186 164 125 
0.513417 0.482619 3.57021 117 79 0 
-0.608486 0.276514 4.51565 17 17 9 
-0.630958 0.404144 4.50472 103 87 38 
-0.255768 -0.370973 4.01959 40 16 0 
0.729226 0.0802899 3.3429 127 95 46 
-0.282913 -0.0217251 3.76716 0 26 1 
-0.336671 0.140503 3.42958 154 132 95 
0.437369 0.552644 3.86844 99 62 0 
0.467111 0.590107 3.74497 184 147 30 
-0.860431 0.217492 4.61522 158 92 0 
-0.805663 0.485781 4.52644 217 170 38 
-1.04929 0.46906 4.33648 242 220 160 
0.728807 0.0851769 3.32666 178 205 90 
0.717199 0.0864105 3.35539 25 31 0 
0.740542 0.165885 3.51684 215 175 26 
-0.847082 0.445409 4.5306 205 162 23 
-1.04217 0.488234 4.35441 127 95 20 
-0.125285 0.939131 4.85213 124 83 0 
0.394279 0.464044 3.95287 104 104 96 
0.401654 0.511092 3.92965 10 8 11 
0.619165 1.10386 4.32088 223 180 13 
-0.0824644 1.02229 4.90591 83 50 0 
-0.813398 0.478597 4.53395 63 28 8 
1.44171 1.54714 4.73156 193 182 176 
1.34287 1.55162 4.75748 202 192 182 
0.658239 1.47826 4.44651 220 177 3 
0.651559 1.57811 4.41326 247 226 183 
0.716448 0.0449073 3.40769 134 136 99 
-0.334282 0.150169 3.43817 156 136 103 
0.742944 0.0874058 3.31881 216 224 175 
-0.315186 0.120841 3.4256 170 153 110 
-0.0530587 0.0157373 3.60642 26 3 0 
-0.848369 0.445246 4.52614 205 162 23 
-1.07263 0.3797 4.40372 138 100 15 
-0.334926 1.29034 5.04504 77 62 55 
-0.648995 1.3459 5.08733 153 140 132 
0.53636 1.63697 4.3858 222 210 188 
1.32702 1.54383 4.73784 202 192 182 
0.566632 1.63673 4.4017 91 76 69 
-0.713224 1.3584 5.06865 188 175 166 
-0.357958 1.23335 5.08187 131 114 94 
-0.312853 1.37421 5.04669 108 98 89 
-0.27791 1.38239 5.01713 128 117 111 
0.869981 -0.169424 3.4905 179 155 107 
0.778527 -0.0523449 3.52118 114 99 78 
0.693309 -0.0473704 3.54445 230 221 214 
0.701696 -0.0355029 3.5303 244 234 224 
0.697245 -0.0369333 3.53966 230 220 210 
0.689667 -0.0342708 3.52839 50 40 30 
0.711069 -0.0185957 3.49828 67 9 8 
0.727377 -0.00462409 3.46817 193 134 128 
0.723132 -0.00618211 3.47924 63 0 0 
0.709217 -0.0181183 3.52036 84 70 57 
0.700512 -0.00752781 3.49797 181 117 108 
0.71161 -0.00471727 3.48919 177 135 136 
0.732166 0.0118304 3.45736 27 39 0 
0.705836 0.00646267 3.46537 179 119 111 
0.709927 0.00456715 3.48158 47 0 0 
0.732593 0.0118599 3.47561 174 176 136 
0.68492 -0.00875174 3.54888 28 16 4 
0.720151 0.0212689 3.46889 177 189 127 
0.713819 0.0149804 3.48366 153 94 86 
0.725811 0.0306138 3.43391 172 179 125 
0.735229 0.0465348 3.40734 45 68 0 
0.727754 0.052489 3.39476 186 211 119 
0.811589 0.0911687 3.3149 77 61 10 
0.711814 0.0204802 3.53218 137 85 72 
0.729783 0.0474818 3.42758 224 225 193 
0.797012 0.0877465 3.32411 66 87 0 
0.782487 0.080001 3.34132 41 62 0 
0.700888 0.0363951 3.45951 146 151 111 
0.73012 0.0486776 3.44334 208 197 179 
0.734968 0.0635826 3.38582 175 178 123 
0.748129 0.0666629 3.38526 48 53 0 
0.758151 0.0763421 3.35173 43 58 0 
0.759632 0.0824618 3.33671 42 54 0 
0.735242 0.0656225 3.42924 171 187 114 
0.7219 0.0716328 3.38445 163 172 107 
0.772714 0.103028 3.3053 24 34 0 
0.709989 0.0651409 3.41841 55 46 17 
0.765311 0.0980934 3.32615 182 204 131 
0.703917 0.0508808 3.48765 123 111 71 
0.750895 0.0946749 3.33118 241 249 200 
0.72918 0.0810828 3.38926 180 173 129 
0.757897 0.111216 3.30142 35 46 0 
0.771181 0.120305 3.27946 181 181 157 
0.719922 0.0793637 3.41314 199 170 152 
0.749915 0.119311 3.28776 37 44 11 
0.70846 0.0796152 3.43056 168 152 139 
0.772917 0.122716 3.29871 236 238 214 
0.729521 0.0907813 3.40484 32 2 0 
0.732192 0.0835043 3.44509 19 5 0 
0.712931 0.0824364 3.4418 43 29 16 
0.707922 0.069098 3.50619 163 134 92 
0.777398 0.145173 3.25561 197 191 179 
-0.0886 -0.146791 3.63922 63 98 74 
0.731212 0.125609 3.30516 51 70 0 
0.768361 0.142272 3.27072 13 17 2 
0.734572 0.136383 3.30799 38 52 0 
0.753187 0.147714 3.28014 223 222 201 
0.732729 0.135408 3.32013 27 45 0 
0.75935 0.156842 3.27203 91 93 80 
0.730662 0.135784 3.37263 118 109 70 
0.734382 0.147735 3.35462 139 118 87 
0.741996 0.172437 3.32216 65 41 29 
0.746168 0.181016 3.3139 31 6 0 
-0.0805925 -0.00999363 3.6135 42 43 27 
-0.271535 -0.0700359 3.78969 127 117 108 
0.54848 0.227916 3.55148 24 24 14 
-0.0630638 0.055931 3.62046 32 4 1 
0.652874 0.289871 3.44612 77 38 0 
0.0680319 0.110573 3.57142 104 81 37 
0.542375 0.244506 3.54561 12 8 9 
0.0319266 0.119555 3.57393 76 57 17 
-0.324811 -0.0180489 4.78659 14 14 6 
-0.331507 -0.0127469 4.77633 156 157 152 
0.511849 0.482272 3.56781 105 65 0 
0.489885 0.436789 3.92066 18 3 0 
-0.373407 0.218968 3.58114 44 17 6 
0.403361 0.520963 3.95055 12 11 9 
0.478579 0.640958 3.77863 82 48 0 
-0.630298 0.263719 4.50093 26 27 22 
-0.63421 0.265138 4.51207 82 81 76 
-0.614069 0.274748 4.49948 22 20 21 
-0.825239 0.486065 4.51317 221 182 81 
0.894982 -0.0337982 3.42129 83 28 0 
0.705545 -0.0522368 3.55633 62 53 46 
0.720713 -0.0191199 3.48508 64 0 0 
0.699992 0.00867266 3.50993 159 91 80 
0.778515 0.0780599 3.3146 63 67 0 
0.715538 0.0311793 3.46798 16 26 0 
0.709538 0.0365841 3.42944 176 187 121 
0.719841 0.0572332 3.35148 114 138 40 
0.838521 0.0939473 3.32836 253 223 173 
0.727248 0.0715014 3.42025 39 40 0 
0.70385 0.0674747 3.45038 136 137 67 
0.778408 0.12384 3.27009 244 238 224 
0.708763 0.0594458 3.50994 133 86 58 
0.788382 0.124992 3.31102 236 238 214 
0.732411 0.105861 3.38664 25 19 0 
0.748031 0.134336 3.30542 18 21 0 
0.72274 0.100893 3.44566 21 0 0 
0.790579 0.15307 3.2735 38 34 22 
0.735652 0.126471 3.36722 143 147 97 
0.471973 0.0451667 3.4803 187 168 138 
0.742253 0.153817 3.31927 178 171 143 
0.543565 0.111568 3.48107 90 49 0 
0.764364 0.230489 3.28232 82 66 33 
-0.0899502 -0.0151518 3.61056 100 78 67 
0.559025 0.222618 3.55891 113 111 99 
-0.262537 -0.0300633 3.75607 21 39 13 
-0.0457984 0.0662392 3.62188 105 116 102 
-0.323169 0.0790051 3.40796 74 55 13 
-0.398147 0.0753889 3.45596 179 154 123 
0.652524 0.40561 3.39453 119 115 112 
-0.302987 0.128579 3.43254 106 82 44 
0.555396 0.388521 3.50884 197 164 61 
-0.266743 -0.0260714 4.71097 224 206 122 
0.570066 0.366174 4.04375 44 28 5 
-0.380617 0.0221699 4.80046 94 93 88 
0.479291 0.439921 3.91845 78 66 42 
0.531911 0.483545 3.73824 56 11 0 
0.519882 0.495832 3.73329 187 147 25 
0.411866 0.464047 3.94433 34 30 29 
0.469711 0.583899 3.7562 117 76 0 
-0.692719 0.189537 4.58683 192 169 99 
0.49804 0.691589 3.92521 85 72 40 
0.494073 0.73288 3.95861 5 6 1 
-0.509731 0.391908 4.58233 111 77 0 
0.892006 -0.168438 3.51153 173 144 86 
0.859036 -0.174522 3.54889 228 206 185 
0.940822 -0.126486 3.42414 172 158 123 
0.852681 -0.157031 3.54811 132 91 11 
0.901761 -0.0945469 3.43043 255 255 147 
0.904491 -0.0321346 3.45515 84 29 0 
0.777229 -0.0420926 3.50129 150 134 118 
0.701902 -0.0338745 3.54991 66 56 46 
0.712714 0.00167131 3.43024 56 57 26 
0.717829 0.0295107 3.4418 25 34 0 
0.705583 0.0242122 3.46503 166 173 103 
0.709967 0.0245989 3.49277 148 102 89 
0.712328 0.0355077 3.54747 68 23 0 
0.774961 0.0888724 3.3713 179 197 98 
0.695102 0.0508083 3.4512 18 17 0 
0.736707 0.0793913 3.37927 163 164 122 
0.720016 0.0666605 3.46634 137 142 60 
0.775287 0.116921 3.32871 176 203 98 
0.481995 0.025271 3.50404 107 84 30 
0.740782 0.140895 3.31457 11 20 0 
0.757127 0.168487 3.53419 211 166 39 
0.77858 0.22399 3.44782 233 183 36 
-0.0483784 0.0244138 3.60166 64 39 34 
-0.0694231 0.0229162 3.60988 131 112 106 
0.660795 0.263477 3.4317 118 68 0 
-0.0402293 0.0452958 3.62206 60 33 26 
-0.0167015 0.0499202 3.6355 107 126 104 
-0.262805 -0.0258284 3.77668 165 180 159 
-0.0819174 0.0522782 3.60229 32 2 0 
0.516978 0.265667 3.57267 40 39 35 
0.65694 0.368181 3.41551 113 112 110 
0.68226 0.390916 3.36604 120 119 115 
0.523215 0.33396 3.59842 160 131 29 
0.564991 0.404175 3.4873 184 154 40 
0.572524 0.377858 3.92445 100 88 48 
0.500078 0.466925 3.57766 212 174 27 
0.53346 0.486475 3.57168 214 171 15 
0.422103 0.504903 3.93556 92 88 85 
0.423327 0.551493 3.90462 17 5 0 
-0.185611 0.329297 4.5692 15 14 12 
0.686269 0.702837 3.74492 105 66 7 
-0.574611 0.261103 4.51734 53 52 47 
0.56502 0.755253 3.93439 18 13 10 
-0.64225 0.421959 4.49905 151 128 26 
-0.746063 0.402509 4.52844 171 120 0 
-0.103715 0.792758 4.85594 162 117 0 
-0.165935 0.781502 4.91335 203 154 36 
-0.0637037 0.826364 4.81103 224 185 28 
-0.0689088 0.899994 4.84194 78 33 0 
-0.910621 0.586243 4.4431 236 175 69 
-0.0932862 0.92079 4.84816 107 61 0 
-0.0327868 1.25316 4.96524 217 176 32 
0.864903 -0.15884 3.5574 123 86 8 
0.898829 -0.10916 3.51046 164 107 0 
0.679603 -0.0290474 3.45412 58 7 6 
0.689113 -0.0346823 3.57542 199 185 174 
0.807177 0.0753566 3.33837 255 241 196 
0.713463 0.0414222 3.46525 23 21 0 
0.748061 0.100121 3.34633 33 54 0 
0.769841 0.129507 3.28973 228 227 209 
0.713845 0.0933239 3.43193 20 0 0 
0.780178 0.13526 3.40394 130 136 74 
0.804761 0.228494 3.35435 158 125 46 
0.716902 0.183347 3.5742 32 2 0 
-0.0251368 0.000218118 3.60083 116 127 111 
-0.0389515 0.000377399 3.60556 16 33 15 
0.720939 0.263937 3.42919 120 66 6 
-0.279913 -0.0386238 3.80644 180 181 165 
0.562635 0.241057 3.56616 32 31 27 
0.698701 0.39477 3.38226 117 118 112 
-0.296755 0.173315 3.40949 87 64 22 
-0.531654 0.0867436 3.63422 70 47 6 
-0.385187 0.181365 4.54412 57 56 52 
-0.397689 0.212733 4.59641 30 19 0 
-0.758073 0.349952 4.5502 177 129 0 
-0.635664 0.39881 4.4961 128 110 44 
-0.902716 0.482131 4.49424 197 152 27 
-0.123807 0.940005 4.85538 125 79 0 
-0.0874707 1.01874 4.89439 67 35 0 
-0.521977 1.12573 5.51396 180 170 161 
0.666029 1.69021 4.37345 145 135 125 
-0.687616 1.36905 4.99644 112 99 91 
0.95833 -0.143494 3.44958 238 227 209 
0.926133 -0.104587 3.48592 118 84 20 
0.896998 -0.046762 3.37778 166 103 6 
-0.0800254 -0.236809 3.62931 101 0 7 
-0.152539 -0.254897 3.63411 95 0 7 
0.739749 0.0588568 3.34455 189 225 93 
0.7549 0.0814763 3.38425 63 52 24 
0.733053 0.0843646 3.42031 64 33 4 
0.739855 0.0998236 3.37302 147 173 63 
0.724156 0.17046 3.4973 225 179 21 
0.888612 0.230612 3.51211 93 43 8 
0.504651 0.477963 3.53928 223 172 18 
0.431514 0.55346 3.87169 98 60 0 
0.70156 0.707955 3.76696 106 57 1 
-0.6328 0.438009 4.51253 182 153 23 
-0.715275 0.447354 4.54284 89 42 0 
-0.0643259 0.7748 4.88387 131 96 0 
-0.135498 0.788828 4.91896 111 68 0 
-0.172902 0.779167 4.89958 203 154 36 
-0.128491 0.908883 4.84817 233 191 17 
-0.456809 1.09526 5.5362 99 85 76 
-0.173482 1.23781 4.95065 152 101 0 
0.723846 1.60313 4.42438 185 138 30 
-0.309173 1.18989 5.08887 243 220 176 
0.0484319 1.38315 4.98979 102 87 68 
0.560493 1.6312 4.3937 108 90 78 
0.515625 1.65055 4.40887 224 209 188 
0.511771 1.7099 4.4409 186 175 173 
-0.879216 1.32938 5.05407 193 180 174 
0.410946 0.524343 3.87342 155 122 7 
-0.248746 1.11436 5.10562 240 196 11 
0.0870264 1.36697 5.06883 164 148 133 
-0.392824 1.25437 5.06443 221 206 187 
0.905316 -0.0942271 3.43402 255 255 147 
0.7051 -0.0480798 3.55573 230 221 214 
0.711605 -0.036448 3.53148 36 26 16 
0.704291 -0.0378314 3.54668 230 220 210 
0.69876 -0.0411976 3.56658 55 42 33 
0.706249 -0.0234548 3.52134 60 51 42 
0.7311 -0.0049178 3.4718 193 134 128 
0.715705 -0.0137661 3.50406 181 119 120 
0.720982 -0.00667578 3.47749 63 0 0 
0.712713 -0.00447389 3.49028 177 135 136 
0.713922 0.00691527 3.47266 179 119 111 
0.73312 0.0213931 3.43 212 215 162 
0.724795 0.0111018 3.46886 174 176 136 
0.699626 -0.00693146 3.53829 53 42 24 
0.693992 -0.00887611 3.55721 28 16 4 
0.710057 0.0147731 3.47987 153 94 86 
0.725884 0.0306619 3.43345 172 179 125 
0.744266 0.0517403 3.39187 46 70 0 
0.743335 0.055747 3.37936 156 176 87 
0.731198 0.0456881 3.42169 60 67 16 
0.728369 0.050641 3.40558 59 78 0 
0.733916 0.0569657 3.39077 177 191 114 
0.70628 0.0344643 3.48071 132 120 98 
0.707427 0.0368018 3.46499 146 151 111 
0.722425 0.0516197 3.41539 67 78 12 
0.738754 0.0728583 3.36905 40 41 0 
0.721061 0.0537794 3.44173 44 36 17 
0.717563 0.0606976 3.41759 47 50 3 
0.759759 0.0889021 3.32384 40 57 0 
0.70827 0.0447287 3.48764 141 131 96 
0.727101 0.0715668 3.38906 163 172 107 
0.763121 0.103754 3.30368 216 229 160 
0.707977 0.0583296 3.45973 16 20 0 
0.713732 0.0676023 3.44466 172 161 139 
0.745288 0.102653 3.32704 189 199 138 
0.768377 0.120818 3.27675 181 181 157 
0.726198 0.0894397 3.37936 21 23 0 
0.753425 0.120011 3.29045 37 44 11 
0.719125 0.0904881 3.39558 32 2 0 
0.740294 0.113164 3.32646 100 124 36 
0.758557 0.130784 3.27175 220 222 201 
0.774885 0.139303 3.25083 92 82 72 
0.723938 0.106582 3.38956 163 132 111 
0.738928 0.124956 3.31876 168 188 93 
0.754961 0.141405 3.25916 13 17 2 
0.734093 0.135586 3.32103 27 45 0 
0.737743 0.15184 3.3151 186 181 151 
0.731596 0.14725 3.352 139 118 87 
0.742211 0.172084 3.27535 138 109 95 
0.774027 0.230628 3.42016 214 165 70 
-0.283052 -0.0776023 3.77314 124 105 99 
-0.101424 0.0456149 3.6199 173 182 163 
-0.476196 0.168512 3.56998 146 131 92 
-0.638744 0.263107 4.50374 82 81 76 
0.740713 -0.0273759 3.51083 58 7 6 
0.703151 -0.0221331 3.53112 233 224 215 
0.719536 0.00133264 3.45518 42 36 0 
0.748447 0.090561 3.32447 240 251 195 
0.747138 0.12315 3.30337 60 76 5 
0.76281 0.150984 3.25022 38 34 22 
0.748939 0.156452 3.26354 106 110 95 
0.635285 0.292376 3.44868 159 138 47 
-0.358955 0.073516 3.41122 34 18 0 
-0.659018 0.219538 4.53139 105 98 88 
0.49877 0.692486 3.92553 85 72 40 
-0.0924951 0.770191 4.90355 194 160 36 
0.852564 -0.0925251 3.53545 77 21 0 
0.740165 -0.0145665 3.47979 144 103 97 
0.7166 0.0289309 3.44049 25 34 0 
0.731138 0.0791361 3.37397 163 164 122 
0.753626 0.103727 3.31345 59 86 9 
0.719237 0.0788447 3.42027 201 180 159 
0.754453 0.115174 3.31085 176 203 98 
0.76067 0.130973 3.28375 239 237 222 
0.744345 0.147316 3.27564 209 208 188 
0.522447 0.33432 3.59722 160 131 29 
-0.526716 0.0692581 3.59644 68 45 4 
-0.809818 0.486632 4.51986 212 164 28 
-0.646276 1.34463 5.08271 167 154 145 
0.861397 -0.121511 3.43192 221 202 185 
0.767717 0.222289 3.44169 230 179 26 
0.72916 0.264152 3.43669 120 66 6 
0.660703 0.265507 3.43327 107 56 0 
-0.321803 0.12232 3.42344 183 161 120 
-0.338405 0.132217 3.42498 166 144 95 
-0.758476 0.349523 4.54979 177 129 0 
-0.0776796 1.12904 4.95622 218 169 14 
-0.0988321 1.24127 5.00136 223 179 30 
-0.229751 1.25303 5.00663 240 213 166 
-0.537046 1.36169 5.06618 150 137 131 
0.764972 -0.0778934 3.58778 200 195 189 
-0.106414 -0.145283 3.62455 27 111 59 
0.73209 0.125602 3.30343 96 121 20 
0.520016 0.481225 3.55375 223 172 18 
0.404905 0.512029 3.9338 11 9 10 
0.599949 1.06092 4.39392 186 148 13 
-0.132007 0.788431 4.92546 111 68 0 
-0.189438 0.785764 4.96157 203 165 30 
-0.143293 0.849909 4.88257 181 132 13 
0.568248 1.63573 4.40417 108 90 78 
0.406055 1.6175 4.43032 185 172 155 
-0.757041 0.45602 4.52631 108 63 0 
-0.841624 0.453678 4.5079 229 188 10 
-0.147061 0.847483 4.8689 157 106 0 
-0.246681 1.11555 5.10793 240 196 11 
-0.504386 1.13093 5.54848 199 186 180 
-0.271676 1.2295 5.05533 198 151 9 
-0.680146 1.37075 5.01812 113 100 92 
-0.822269 1.38902 4.98396 121 111 102 
0.835355 -0.153722 3.53764 144 100 3 
0.705524 0.0689584 3.41061 179 170 139 
0.728891 0.130017 3.29566 177 190 120 
0.752611 0.146903 3.23909 13 9 0 
0.761922 0.23962 3.38607 171 125 13 
-0.369336 0.07963 3.40868 138 118 81 
-0.237713 0.208846 3.41327 255 251 207 
0.512393 0.482838 3.56751 105 65 0 
-0.29456 -0.041023 3.8102 112 124 104 
0.644229 0.281852 3.43156 90 43 0 
0.532482 0.370717 3.51595 186 160 63 
-0.215159 1.38405 5.01656 193 176 160 
-0.538441 1.36074 5.06334 150 137 131 
0.422293 1.62577 4.45088 185 172 155 
-0.868031 1.33749 5.07816 193 180 174 
-0.719485 0.424278 4.54163 240 199 13 
0.656177 1.47691 4.44008 235 194 16 
-0.296485 1.20535 5.1145 239 223 187 
0.720448 0.044962 3.40298 211 225 148 
0.745108 0.104235 3.29581 39 60 0 
-0.0982649 0.045745 3.62372 173 182 163 
-0.620927 1.3413 5.09267 189 176 167 
0.536877 1.63873 4.39017 224 211 194 
0.704222 0.0153087 3.47439 163 95 82 
0.692899 0.106657 3.3383 146 158 82 
0.694363 0.155372 3.26972 163 150 134 
0.405212 1.16319 4.47278 46 18 0 
0.702702 -0.00264149 3.50521 180 110 102 
0.704835 0.144183 3.2418 196 198 176 
0.698498 0.133511 3.28971 50 73 0 
0.696261 0.053547 3.44654 129 138 71 
0.694519 0.19073 3.22899 113 97 84 
0.521638 0.486076 3.73621 118 79 20 
0.699418 0.138322 3.27811 51 65 4 
0.696568 0.123671 3.33267 145 152 82 
0.5213 0.301997 3.58108 7 6 4 
0.466991 0.584158 3.75662 120 69 0 
0.697559 0.0286654 3.48924 61 4 0 
0.650566 0.285016 3.44154 111 68 0 
0.64384 0.299787 3.43699 191 158 27 
-0.117649 1.1807 4.99699 140 90 1 
-0.367807 1.29439 5.12185 162 150 138 
0.525575 0.334646 3.60271 174 145 27 
-0.126356 1.13731 4.98763 219 180 17 
-0.883478 1.32816 5.0421 189 176 168 
0.528802 1.55079 4.44499 174 156 118 
-0.731595 1.34644 5.01386 198 186 174 
-0.900226 1.30243 5.08663 129 117 105 
0.703293 0.14349 3.32457 129 108 81 
0.705919 0.140629 3.26186 175 171 159 
0.699204 0.272843 3.39864 234 192 32 
-0.084986 0.970281 4.86698 14 4 3 
0.56326 1.6922 4.40183 172 161 157 
0.522033 0.497173 3.75469 120 79 0 
-0.634362 0.26473 4.51595 83 81 68 
0.62807 0.291121 3.44358 186 154 41 
0.55257 0.255556 3.55445 103 103 103 
-0.678171 0.415451 4.48079 101 58 0 
-0.827444 0.487318 4.50962 242 188 40 
-0.717019 0.444366 4.5262 134 78 3 
-0.047003 1.1282 4.98503 210 163 13 
-0.321365 1.23058 5.14277 162 146 121 
-0.88597 1.30517 5.12426 129 117 105 
-0.615331 0.49216 4.55357 12 11 6 
-0.0638576 0.90288 4.85463 119 70 4 
-0.120023 0.943655 4.86053 135 85 0 
0.660541 1.48216 4.44955 233 192 12 
0.523726 1.55111 4.43785 174 156 118 
0.526609 1.69594 4.40102 120 107 98 
0.493224 1.69863 4.41322 192 181 175 
-0.0871338 0.96741 4.85648 16 2 0 
0.53043 1.55264 4.44525 174 156 118 
0.881219 -0.151521 3.53641 255 241 122 
0.742717 0.0991872 3.2847 97 119 34 
0.753962 0.12955 3.23062 174 172 160 
0.712742 0.0297393 3.4223 150 168 86 
0.714345 0.0617129 3.38993 114 141 24 
0.716556 0.0685882 3.38153 157 176 86 
0.707676 0.0569283 3.40701 100 110 47 
0.699042 0.0232467 3.47625 156 95 90 
-0.427628 0.0897405 3.42668 184 159 119 
0.706695 0.0664328 3.39985 83 86 41 
0.728885 0.140227 3.26234 50 44 20 
-0.476093 0.0702777 3.4687 180 156 122 
0.699986 0.0354944 3.45749 126 133 81 
0.716788 0.110912 3.32503 93 121 11 
0.723684 0.134938 3.2781 174 168 156 
0.71028 0.0813748 3.38172 90 76 31 
0.713643 0.0884967 3.3703 91 80 35 
0.718552 0.121986 3.31433 75 94 5 
0.700263 0.046782 3.45962 155 155 119 
0.705782 0.062922 3.43279 172 165 139 
0.712111 0.103604 3.35833 137 119 97 
0.720512 0.138836 3.29324 175 176 144 
0.711984 0.102243 3.3753 96 61 41 
0.704838 0.0821282 3.42148 96 89 71 
0.699263 0.0510394 3.48181 121 115 67 
0.704261 0.0774175 3.43529 152 145 117 
0.7166 0.141447 3.33008 72 45 16 
0.721129 0.159825 3.29669 100 87 78 
0.714122 0.11094 3.43346 138 107 78 
-0.298015 0.359671 3.87377 39 0 0 
0.735829 0.0910504 3.31337 163 184 105 
0.723595 0.0648902 3.37318 96 91 49 
0.704579 0.0132733 3.47387 199 109 101 
0.70794 0.0775519 3.39142 82 60 23 
0.720245 0.125212 3.30397 87 112 10 
0.701222 0.0560063 3.4519 52 59 0 
0.725816 0.179398 3.24903 108 90 88 
0.714402 0.127135 3.35207 116 108 59 
0.702825 0.0606528 3.48131 122 122 50 
0.700885 0.0772532 3.4523 130 135 35 
0.726309 0.16669 3.28594 36 15 14 
0.727834 0.18263 3.27878 132 99 90 
-0.394784 0.232783 3.49115 163 145 105 
0.61335 0.296534 3.43217 189 156 61 
-0.0150867 1.26175 4.98671 204 162 42 
0.906325 -0.0329253 3.2818 151 116 26 
0.714835 0.0433221 3.40618 89 92 39 
0.728167 0.105736 3.29698 78 113 0 
0.722501 0.0702092 3.3623 172 178 118 
0.699115 0.0263078 3.46255 164 169 102 
