ply                 
format ascii 1.0    
element vertex 1271
property float x    
property float y    
property float z    
property uchar red  
property uchar green
property uchar blue 
end_header          
-1.10433 0.484235 4.34071 222 204 190 
0.866102 -0.111568 3.36112 244 229 198 
0.309617 -0.0579015 3.51462 32 17 0 
0.710922 0.00656269 3.43134 193 201 152 
0.719948 0.0229148 3.40012 127 127 99 
0.699356 0.0235142 3.44589 172 175 120 
0.705967 0.0481136 3.41054 214 213 182 
0.710664 0.0837628 3.35 152 150 112 
-0.0715145 0.0234654 3.60289 117 99 89 
0.731191 0.121865 3.27364 15 27 0 
0.46554 0.112118 3.95083 100 91 74 
0.0928678 0.081837 3.64605 4 19 0 
-0.309505 0.121701 3.41519 164 149 108 
-0.85815 0.194165 4.57998 187 118 1 
-0.928208 0.211791 4.56436 188 142 118 
-0.500975 0.389168 4.54826 103 73 0 
0.398783 0.465603 3.91914 105 105 97 
-0.634801 0.495913 4.52354 51 51 43 
-0.766917 0.499207 4.47412 153 91 0 
-0.0638825 0.856173 4.78282 201 160 18 
-0.209206 1.36315 4.96179 193 172 143 
0.864358 -0.106043 3.37146 163 143 106 
0.886089 -0.0260061 3.24749 153 110 18 
0.716803 -0.00981638 3.44391 59 30 22 
0.884165 0.0346228 3.25807 82 38 0 
0.765856 0.0460154 3.34679 85 84 30 
0.737717 0.128952 3.25348 224 222 209 
-0.0721327 0.0551018 3.57748 28 11 1 
-0.0457027 0.0675115 3.60678 111 113 99 
-0.0577912 0.0796066 3.57198 0 39 9 
-0.335009 0.0884318 3.40456 89 74 53 
-0.304881 0.128016 3.40693 92 71 28 
0.552941 0.221217 3.54078 104 104 94 
-0.158498 0.154699 3.43794 42 66 18 
0.542809 0.226339 3.53219 6 3 0 
-0.327073 0.140331 3.43263 139 121 81 
0.537178 0.242171 3.52876 6 6 6 
0.713458 0.266802 3.41487 128 66 5 
0.637995 0.280906 3.4138 81 37 0 
-0.948088 0.170529 4.53506 239 111 40 
0.62046 0.292332 3.42404 144 126 44 
-0.851128 0.216468 4.56895 175 113 0 
-0.90484 0.283944 4.35953 91 40 0 
-0.909844 0.299863 4.36444 87 35 0 
0.639296 0.401934 3.37374 169 168 164 
-0.75395 0.3453 4.53299 186 139 0 
-0.871817 0.363456 4.5255 64 18 0 
-0.705751 0.439304 4.49376 109 56 0 
-0.668323 0.442409 4.4463 138 104 0 
-0.603326 0.478276 4.50852 101 97 94 
-0.830953 0.464833 4.48588 241 203 56 
0.427875 0.551519 3.89185 20 7 0 
-0.801693 0.485761 4.48765 135 84 3 
0.138585 0.548456 3.89745 61 62 57 
0.358738 0.674338 4.16863 30 0 0 
0.488291 0.728445 3.90293 3 0 0 
-0.0851365 0.976904 4.8285 147 124 31 
-0.140304 1.11676 4.92302 202 160 16 
-0.187561 1.16163 4.9489 167 109 0 
-0.325023 1.26277 4.9658 114 102 88 
0.847036 -0.100044 3.41358 122 90 7 
0.872926 0.0347268 3.27779 86 37 4 
-0.276014 -0.0706605 3.75985 122 107 100 
0.0270439 0.114896 3.57059 190 181 140 
0.0682908 0.118504 3.55127 120 98 57 
-0.376029 0.0837658 3.37102 203 181 132 
-0.141857 0.176249 3.45404 123 106 52 
-0.884874 0.208713 4.58774 182 99 5 
-0.854572 0.237183 4.5545 100 42 0 
-0.779922 0.3036 4.59579 57 28 0 
-1.14437 0.259883 4.39025 150 135 116 
0.414687 0.455041 3.8996 102 95 85 
-0.732831 0.400518 4.49844 185 136 0 
-0.838094 0.442624 4.49503 215 177 32 
-0.63529 0.485879 4.51104 9 4 1 
-0.798731 0.481918 4.47485 174 128 34 
-1.03113 0.486211 4.33243 124 92 31 
-0.126646 0.901384 4.81645 220 180 5 
-0.125824 0.930696 4.83034 120 80 0 
-0.0881463 0.955815 4.81627 29 6 0 
-0.131059 1.15453 4.93422 125 75 4 
-0.18855 1.16853 4.97368 161 100 7 
-0.170416 1.23328 4.93494 145 98 6 
-0.332933 1.27453 4.99844 86 73 64 
0.717295 1.46033 4.39393 239 192 18 
0.511455 1.55928 4.34355 230 216 189 
-0.0940729 -0.0149196 3.58951 76 77 59 
-0.0169564 -0.00401678 3.5969 115 118 97 
-0.313068 0.0828175 3.38895 225 199 142 
0.454442 0.223585 4.09895 170 140 8 
0.546629 0.392933 3.47502 189 151 6 
0.311475 0.426093 3.95453 55 52 47 
0.66785 0.420355 3.35084 171 172 167 
-0.0480496 0.386313 3.75761 46 5 3 
-0.666452 0.41365 4.46 107 69 6 
-0.630157 0.429223 4.46256 180 151 25 
-0.713491 0.445373 4.51838 112 60 0 
-0.0710848 0.868309 4.7754 115 72 3 
-0.112627 0.882221 4.79977 220 176 19 
1.69565 1.26133 5.15323 199 189 180 
0.585524 1.04952 4.37031 171 133 10 
-0.29723 1.16144 5.06574 145 109 13 
-0.130679 1.15132 4.92155 130 83 5 
-0.296281 1.1784 5.06051 233 214 172 
-0.169911 1.22979 4.92171 143 93 6 
-0.672751 1.35675 4.97651 114 102 90 
0.749636 1.50557 4.41707 240 194 13 
0.64621 1.52293 4.37721 137 86 0 
0.690653 1.57439 4.37176 164 121 6 
0.685055 1.6483 4.36794 99 77 38 
0.595813 1.64918 4.31723 209 202 186 
0.863668 -0.0296522 3.39696 83 26 0 
-0.230574 0.0554735 3.49899 194 170 110 
0.00863725 0.118477 3.53713 181 163 115 
0.00839724 0.122108 3.61067 139 147 106 
0.453314 0.223344 4.08802 167 138 2 
0.617118 0.277842 3.4397 174 141 8 
0.638978 0.296316 3.39785 178 146 9 
-1.02026 0.26113 4.37245 254 239 216 
-1.06956 0.332715 4.40713 248 198 15 
-1.04866 0.326987 4.32254 222 161 46 
0.426696 0.463357 3.9082 98 91 81 
0.430102 0.466975 3.9415 97 89 78 
-0.712139 0.418832 4.48249 242 202 29 
-0.712147 0.447726 4.50889 113 61 1 
0.0112741 1.11277 4.88607 194 154 7 
-0.0723331 1.112 4.8958 205 157 11 
0.589668 1.08546 4.28868 231 185 12 
-0.300184 1.14795 5.00672 163 126 12 
-0.161457 1.2175 4.91193 137 89 4 
-0.377482 1.24157 5.03118 210 195 174 
-0.218311 1.2622 4.92457 158 119 2 
-0.225866 1.34599 4.9733 74 59 30 
-0.86833 1.29696 5.0863 112 102 93 
-0.308525 1.35121 5.00167 109 99 90 
-0.602709 1.31619 5.00408 185 174 172 
-0.860837 1.32067 5.03859 189 179 170 
1.29442 1.51508 4.66956 202 191 185 
0.635885 1.44982 4.38186 222 177 14 
0.784947 1.51375 4.44141 236 191 10 
0.525841 1.54752 4.44869 157 136 107 
0.561805 1.53632 4.31211 175 138 34 
0.570186 1.55896 4.3803 133 96 7 
0.694983 1.58544 4.39985 171 127 18 
0.440587 1.59416 4.40483 55 39 24 
0.555421 1.61192 4.36009 60 45 24 
0.481335 1.61266 4.33157 219 207 183 
0.543345 1.69007 4.42449 104 95 90 
0.609914 1.68554 4.30709 140 129 123 
-0.385914 -0.0700293 3.89017 210 188 139 
-0.389167 -0.0571138 3.88129 176 190 139 
-0.162706 0.182124 3.40155 198 176 127 
0.737723 0.130639 3.2429 225 227 206 
0.567393 1.57319 4.38352 119 91 51 
0.671275 0.353624 3.37373 120 119 117 
-0.813226 0.484806 4.48876 224 177 63 
-0.215441 -0.117755 3.6673 0 17 0 
0.776466 0.0916307 3.27942 63 66 19 
-0.217941 1.35033 4.96397 78 63 30 
0.490109 1.57551 4.3346 228 212 189 
-0.349362 0.0793874 3.37799 50 32 12 
-1.07673 0.45127 4.34024 254 233 212 
-1.03532 0.487919 4.32904 120 97 56 
-0.868491 1.29593 5.08294 112 102 93 
-0.672461 1.34869 4.9611 113 101 89 
-0.855334 1.34657 4.98803 126 116 107 
0.509455 1.66471 4.34272 141 131 129 
0.691715 -0.044756 3.5382 199 190 181 
0.684631 -0.0386653 3.5475 62 52 43 
0.690796 -0.0345891 3.52905 214 206 195 
0.695158 -0.0333901 3.51935 210 202 189 
0.696024 -0.0206516 3.50915 94 84 74 
0.682255 -0.0212952 3.53051 191 181 169 
0.698826 -0.0107743 3.48182 175 116 108 
0.710616 -0.00433958 3.46569 106 21 16 
0.696325 -0.00499587 3.4899 160 95 91 
0.701331 -0.00191035 3.47669 147 106 100 
0.685965 -0.00337584 3.51289 157 141 125 
0.702321 0.00359771 3.46781 128 69 61 
0.697252 0.0176109 3.46438 151 93 79 
0.714601 0.0310962 3.40713 67 71 21 
0.695862 0.0251179 3.47218 136 88 74 
0.707557 0.0393684 3.42302 162 173 104 
0.696203 0.0388596 3.45168 111 116 60 
0.723556 0.0513658 3.37509 147 175 64 
0.716922 0.0525576 3.3824 153 175 77 
0.712289 0.0529822 3.39486 174 195 94 
0.706815 0.0501265 3.42055 171 169 131 
0.734635 0.0681261 3.34323 78 101 0 
0.718835 0.0660919 3.37124 141 158 80 
0.706803 0.0622098 3.40565 63 72 5 
0.755181 0.0808843 3.30214 109 130 61 
0.570346 0.0381832 3.47047 255 249 71 
0.735144 0.0874711 3.31311 217 229 181 
0.702227 0.0826843 3.41317 62 41 20 
0.739478 0.098585 3.29996 160 184 98 
0.72314 0.0938437 3.33049 90 110 11 
0.709725 0.1151 3.37047 161 129 114 
0.742684 0.130838 3.25433 209 207 195 
0.713549 0.117779 3.35724 133 119 90 
0.722654 0.125319 3.29989 157 187 75 
0.729437 0.128286 3.2753 143 143 133 
-0.359615 -0.063532 3.91225 49 41 5 
0.471029 0.112417 3.96575 115 110 88 
-0.105082 0.036716 3.66295 29 48 28 
0.0593801 0.103012 3.60012 54 39 8 
-0.305731 0.122822 3.44804 151 136 97 
-0.155789 0.18406 3.44624 184 167 115 
-0.599484 0.161914 4.65606 64 48 15 
-0.693369 0.18515 4.58685 73 50 0 
-0.689242 0.188129 4.57632 184 162 86 
-0.665015 0.205811 4.5439 82 78 66 
-0.766159 0.319715 4.59843 176 114 0 
0.450996 0.612206 3.7627 60 43 0 
-0.698186 0.475784 4.50973 162 113 0 
-0.811844 0.488212 4.53426 217 174 79 
-0.249114 -0.36711 4.02134 28 11 0 
0.711339 -0.0164133 3.47479 90 13 3 
0.679604 -0.0217143 3.5513 162 152 142 
0.771022 0.00462723 3.41326 161 145 120 
0.703195 0.0227915 3.45553 165 165 111 
0.699112 0.0508456 3.4278 145 154 61 
0.715425 0.0896434 3.36359 38 46 0 
0.743763 0.104643 3.281 191 214 136 
0.760398 0.123093 3.25375 221 218 201 
0.740627 0.120651 3.27721 43 46 19 
0.756205 0.136086 3.23791 216 212 200 
0.548777 0.228165 3.5493 24 24 22 
0.650083 0.365129 3.39558 45 44 42 
-0.537083 0.271767 4.53812 32 21 3 
-0.598771 0.28224 4.49861 44 43 39 
0.404772 0.505664 3.925 34 30 29 
-0.501234 0.390997 4.58112 104 71 0 
0.467835 0.588305 3.74297 172 142 32 
-0.980563 0.353698 4.53067 188 119 28 
-0.560272 0.474425 4.56326 89 82 74 
-1.06543 0.367294 4.39672 181 147 73 
-0.917152 0.471174 4.47592 207 133 36 
-0.0615336 0.856354 4.7917 197 158 19 
-0.322259 1.27464 5.00656 103 91 77 
0.87892 0.0346079 3.29091 88 45 0 
0.714577 0.0151049 3.43418 71 85 6 
0.718564 0.0685806 3.38057 90 113 22 
0.74604 0.0793411 3.31251 184 215 95 
-0.369843 -0.0610169 3.91632 183 172 127 
-0.0662588 0.0226154 3.6196 110 95 92 
-0.113526 0.0401574 3.67078 106 119 102 
-0.0875511 0.0519005 3.64589 146 161 140 
-0.216686 0.0650694 3.52593 171 165 117 
0.636135 0.297598 3.42486 178 149 23 
0.524564 0.299452 3.56507 56 55 53 
-0.797191 0.315108 4.57936 222 191 64 
-0.494362 0.382706 4.57891 160 127 22 
-0.795424 0.328984 4.56545 218 181 48 
0.439469 0.552235 3.87513 98 60 0 
-0.562634 0.476271 4.57286 91 89 77 
0.0974315 0.58093 3.93351 61 60 56 
-0.602571 0.481267 4.54147 108 104 101 
0.0962642 0.593435 3.93925 4 3 0 
-0.116949 0.785641 4.87427 209 168 14 
-0.071559 0.886957 4.81021 105 60 3 
0.613508 1.09189 4.28807 223 179 22 
0.392655 1.08754 4.42762 30 2 0 
-0.127148 1.17154 4.93238 217 175 31 
-0.294088 1.17664 5.08334 227 198 140 
0.760726 -0.07748 3.57743 250 246 235 
0.698079 -0.0217902 3.49152 236 222 213 
0.727377 0.11361 3.30007 80 105 14 
-0.0715098 -0.00732495 3.62437 19 36 18 
0.0148274 0.115691 3.59714 152 159 125 
0.0279872 0.115145 3.57525 172 156 123 
0.626516 0.292112 3.44138 159 132 27 
-0.320474 0.135572 3.46243 154 134 97 
-0.337389 0.213176 3.48467 100 81 49 
-0.709554 0.168566 4.58981 227 194 61 
0.435674 0.440543 3.92474 10 7 2 
-0.666216 0.416369 4.48154 113 75 12 
-0.547075 0.478586 4.58617 24 16 0 
-1.07232 0.36012 4.38988 247 224 174 
-0.770756 0.497881 4.49787 139 73 0 
-1.03223 0.487878 4.34774 116 86 22 
-0.1363 0.780409 4.86703 111 67 0 
-0.102534 0.787058 4.83213 147 99 0 
-0.0522604 0.838146 4.77963 193 153 22 
-0.126614 0.900963 4.81671 220 179 9 
-0.0928514 0.909056 4.816 128 83 0 
0.756975 1.15991 4.30546 47 11 0 
-0.127709 1.16266 4.96253 132 82 0 
-0.221814 1.21741 4.97572 147 93 3 
-0.313543 1.25259 5.01243 146 131 110 
0.570701 1.56978 4.39244 140 106 45 
0.49373 1.58212 4.34534 222 208 182 
0.870507 -0.0985808 3.37926 147 113 49 
0.811782 -0.0910157 3.59811 21 17 16 
0.891707 -0.0304505 3.26482 141 116 52 
0.738266 0.172151 3.5083 220 178 16 
0.586501 0.218437 3.5496 182 146 10 
0.715145 0.26238 3.41964 135 77 3 
0.507199 0.249507 4.05874 185 156 39 
0.417579 0.498727 3.92239 85 81 72 
-0.713591 0.446794 4.53646 102 49 0 
-1.06542 0.381064 4.3946 139 102 14 
0.360681 0.674114 4.17668 57 23 0 
-1.03209 0.489894 4.36076 118 88 24 
-0.129066 0.926464 4.80254 114 73 0 
-0.0859281 1.01035 4.86582 62 28 0 
0.612355 1.09495 4.30573 233 185 17 
-0.155909 1.132 4.96832 123 78 0 
-0.215822 1.21784 4.99468 154 103 14 
-0.354153 1.22049 5.05416 127 111 86 
-0.312594 1.25678 5.0251 138 123 104 
-0.536077 1.34143 5.01242 149 138 132 
0.866805 -0.103029 3.42368 148 119 49 
0.876726 -0.0304753 3.42569 93 34 0 
-0.0855406 -0.0105289 3.68535 66 71 51 
0.581426 0.217448 3.53546 185 146 7 
0.497037 0.247487 4.05264 183 154 16 
0.642213 0.296496 3.40639 191 155 7 
-0.166109 0.1953 3.44424 81 56 26 
0.62039 0.431761 3.42438 8 7 5 
-0.662097 0.197796 4.49113 23 22 17 
0.531463 0.475081 3.57461 209 161 17 
0.394041 0.51793 3.95511 86 85 80 
-0.490371 0.389166 4.5615 184 147 4 
-0.803962 0.360423 4.51853 227 182 18 
-1.15282 0.304301 4.49558 131 95 9 
0.43229 0.644311 4.0008 21 13 2 
-1.04654 0.368774 4.43028 220 178 6 
-0.712131 0.453865 4.56207 104 48 1 
-0.937454 0.462459 4.46806 231 155 10 
-1.01799 0.472704 4.4067 228 187 11 
0.594039 1.08825 4.30348 233 191 11 
-0.491956 1.09372 5.51817 190 179 173 
-0.239834 1.10781 5.09813 240 193 15 
-0.0712676 1.11434 4.90417 209 162 14 
-0.291683 1.17151 5.11297 134 99 5 
-0.194642 1.17687 4.96457 142 87 0 
-0.0463772 1.23807 4.92605 226 182 15 
-0.267822 1.21858 5.03277 163 116 0 
-0.158965 1.22253 4.93547 140 93 13 
-0.374567 1.25251 5.07459 210 194 179 
0.78087 1.51067 4.42973 240 201 12 
-0.703291 1.34395 5.02781 189 176 168 
0.506191 1.52434 4.37725 169 150 118 
0.641742 1.56304 4.39168 244 227 199 
-0.861017 1.32193 5.046 182 171 165 
-0.672052 1.35794 4.99478 109 96 87 
-0.855565 1.34875 4.99901 120 109 103 
1.29373 1.75829 4.20416 143 133 121 
-0.812598 1.37594 4.96157 122 112 103 
0.447621 1.60504 4.43184 50 37 20 
0.692974 -0.0159835 3.4973 137 127 117 
-0.0958726 0.0477717 3.62382 142 158 132 
0.646105 0.364056 3.38876 45 44 42 
0.719292 0.094474 3.33575 159 177 69 
0.511336 0.250933 4.04466 156 132 44 
0.664691 0.358255 3.3842 40 37 32 
0.726166 0.116743 3.29227 69 98 0 
0.466368 0.112919 3.95812 119 114 92 
-0.0729272 0.0552278 3.60689 44 24 17 
0.685288 0.202622 3.53718 73 38 6 
0.358744 0.674854 4.16876 50 17 0 
-0.196296 1.36472 4.9594 131 107 69 
-0.778217 0.332194 4.5415 111 61 10 
-1.07439 0.356425 4.36676 247 224 174 
-0.639959 0.553204 4.59048 84 72 58 
-1.03299 0.486901 4.34008 116 86 22 
-0.607483 1.32402 5.04192 185 175 166 
-0.703077 1.33522 5.00997 182 169 161 
0.625614 0.391107 3.4134 94 93 89 
-0.168836 0.421047 3.7623 114 99 78 
-1.10941 0.343168 4.39748 239 228 200 
1.28273 1.47828 4.74905 201 191 182 
-0.141768 1.17168 4.93016 222 178 9 
1.29698 1.51763 4.67899 206 196 187 
-0.379257 1.24659 5.05309 210 194 179 
-0.604654 1.31807 5.01915 184 174 165 
-0.672706 1.35628 4.99084 109 96 87 
0.535224 1.5584 4.37612 223 207 174 
0.369559 1.58779 4.36823 168 152 136 
0.48047 1.67969 4.37768 192 181 179 
0.59644 1.54716 4.38106 232 187 23 
-0.221557 1.21293 4.97085 154 103 14 
-0.312316 1.34665 4.99614 110 99 97 
-0.381167 1.24432 5.0446 210 194 179 
-0.220442 1.26234 4.92014 146 108 0 
0.698515 -0.0330766 3.52486 204 196 185 
0.721446 -0.00212757 3.46152 182 118 108 
0.710751 -0.00417688 3.46601 107 19 15 
0.688283 -0.0150774 3.54187 90 79 59 
0.704063 -0.00211536 3.48085 149 114 110 
0.691056 -0.0097226 3.52939 176 163 147 
0.697193 0.000126235 3.50058 152 92 91 
0.726144 0.0528904 3.39623 151 176 82 
0.698938 0.036576 3.47341 120 106 80 
0.701163 0.0386112 3.45943 129 134 76 
0.715636 0.048649 3.41345 207 204 169 
0.712543 0.0526802 3.40463 68 78 18 
0.710138 0.0504553 3.42572 138 137 106 
0.721572 0.0596362 3.38719 91 120 4 
0.733778 0.0667886 3.36363 171 184 105 
0.767086 0.0807325 3.31923 114 125 56 
0.699877 0.0468139 3.47862 104 106 56 
0.739029 0.0731953 3.35005 180 194 109 
0.751262 0.0796054 3.32653 159 179 84 
0.725222 0.0712301 3.37159 158 150 111 
0.707278 0.0628938 3.41794 175 169 143 
0.703579 0.0611468 3.44151 136 145 52 
0.747217 0.0913984 3.32016 215 226 170 
0.717697 0.0801409 3.37505 155 146 103 
0.740123 0.0912319 3.32767 202 209 165 
0.741991 0.098403 3.31185 76 95 16 
0.711116 0.0822852 3.39656 59 51 14 
0.768071 0.12223 3.26424 210 209 188 
0.746648 0.120873 3.28574 34 39 17 
0.715964 0.107367 3.38178 114 87 68 
0.754495 0.148216 3.24005 60 56 44 
0.731786 0.148579 3.29074 132 122 113 
-0.479569 0.0180186 3.47385 64 45 2 
-0.961068 0.243711 4.36826 255 255 146 
-0.701403 0.474096 4.49257 153 97 0 
-0.327649 -0.359705 4.04452 33 16 0 
0.693668 -0.0376545 3.54318 101 93 82 
0.697389 -0.0309691 3.53537 103 93 83 
0.702903 -0.016257 3.51311 114 100 89 
0.720323 0.0142195 3.445 69 82 10 
0.683844 -0.00921852 3.55726 59 50 33 
0.706694 0.00937267 3.4657 177 104 97 
0.713373 0.0132204 3.4556 144 155 95 
0.724779 0.0223664 3.42152 177 189 113 
0.721298 0.0211681 3.43179 65 80 0 
0.701715 0.0164101 3.47092 173 90 76 
0.718711 0.0321601 3.4269 167 187 92 
0.718986 0.0757346 3.3851 142 156 69 
0.73506 0.0842017 3.34704 97 86 20 
0.705868 0.06954 3.43466 173 161 135 
0.757648 0.103661 3.29219 95 107 43 
0.713913 0.0905826 3.37839 151 141 88 
0.748595 0.11226 3.29366 86 101 36 
0.728005 0.127031 3.30308 81 109 0 
0.736254 0.134599 3.29636 58 65 32 
0.74629 0.141253 3.2518 38 39 25 
0.739659 0.156034 3.25515 101 101 93 
0.723265 0.159631 3.32363 114 106 44 
-0.119237 -0.00175424 3.63691 96 115 93 
0.541345 0.244425 3.54227 34 34 34 
-0.539535 0.0504591 3.19344 183 161 124 
-0.319078 0.121097 3.40876 170 153 110 
0.561823 0.387702 3.51325 177 150 19 
-0.59283 0.179186 4.55687 91 71 21 
0.399804 0.524324 3.93938 55 54 52 
-1.04116 0.464262 4.30206 241 220 157 
-0.254935 -0.364325 4.00341 40 16 0 
-0.273701 -0.35309 3.99856 46 26 0 
0.689995 -0.0358705 3.56034 103 96 80 
0.720609 -0.00196918 3.44483 234 227 209 
0.703441 0.00669903 3.47603 98 33 29 
0.706239 0.0241148 3.45958 158 170 98 
0.707756 0.0307656 3.43137 41 51 1 
0.742167 0.079073 3.33748 95 106 30 
0.7245 0.0822766 3.33882 127 95 46 
0.732273 0.0884385 3.33608 164 187 71 
0.718848 0.0829734 3.36568 127 128 88 
0.708582 0.0803177 3.4084 189 171 151 
0.720509 0.0980421 3.36784 147 164 68 
0.735697 0.116426 3.3072 66 92 0 
0.759233 0.133077 3.24591 205 202 187 
0.72575 0.140486 3.30091 53 66 13 
0.733377 0.154509 3.27346 31 34 5 
-0.235473 -0.10868 3.65897 78 142 107 
-0.278771 -0.0353796 3.76749 43 23 14 
0.644042 0.286781 3.43411 103 62 0 
0.517164 0.332959 3.58876 160 137 25 
0.652194 0.405365 3.3931 117 116 112 
-0.153047 0.176479 3.43246 134 114 63 
-0.784689 0.215557 4.58414 122 64 0 
0.446692 0.623374 3.75359 242 211 86 
0.486597 0.641155 3.78105 90 47 0 
-0.631179 0.28816 4.47389 49 46 41 
-0.844191 0.22196 4.57436 238 193 30 
-0.498618 0.381359 4.5591 174 143 18 
-0.980053 0.247186 4.32075 182 155 84 
-0.109656 0.791265 4.90109 217 174 20 
-0.947648 0.45749 4.45247 228 150 14 
-0.124328 1.17434 4.94339 223 179 18 
0.729969 0.0783461 3.35701 70 55 22 
0.766569 0.105785 3.28655 240 235 215 
0.726984 0.11334 3.29955 80 107 10 
0.731215 0.136905 3.28692 34 34 24 
-0.288168 -0.0429528 3.77218 33 19 8 
0.0431014 0.122005 3.5504 201 184 132 
-0.360542 0.0743112 3.39045 24 11 0 
-0.465959 0.0542104 3.4408 177 156 111 
-0.595849 0.17737 4.57338 62 51 6 
-0.694574 0.188662 4.5353 149 130 53 
0.440994 0.599792 3.7497 13 0 0 
-0.85458 0.217313 4.57547 161 97 0 
-0.519781 0.349859 4.52943 18 9 4 
-1.15054 0.256389 4.3779 143 127 111 
-1.11794 0.277034 4.3874 217 194 162 
-0.819043 0.485733 4.49242 218 177 23 
-0.0773068 0.81451 4.80329 161 116 1 
0.59038 1.05008 4.37139 184 146 11 
-0.121395 0.932282 4.83024 124 83 0 
0.400803 1.16262 4.46245 39 23 0 
0.749709 -0.0235583 3.53936 243 231 219 
0.758173 0.221531 3.43183 222 180 20 
-0.0586076 0.0174502 3.59412 45 12 7 
-0.274097 -0.0358069 3.75243 57 43 32 
-0.294768 -0.0346516 3.76317 170 179 160 
0.719931 0.264224 3.42735 119 64 0 
0.555294 0.39022 3.50553 196 160 10 
-0.353566 0.209423 3.43543 100 80 45 
0.432718 0.464927 3.92317 101 95 83 
0.398773 0.508677 3.91829 10 8 11 
0.438409 0.622342 3.9004 32 17 0 
-0.752243 0.348419 4.52116 177 122 0 
-0.638074 0.392624 4.44771 126 103 33 
-1.10133 0.399727 4.34708 164 146 126 
-0.0691529 0.873562 4.79944 108 68 6 
0.570417 1.66957 4.39361 173 161 163 
0.883569 -0.101329 3.39715 164 138 77 
0.696978 -0.00801058 3.50639 222 204 194 
0.602669 0.187554 3.51652 187 146 6 
0.732321 0.278858 3.41873 230 177 13 
0.652064 0.299667 3.42244 185 146 9 
0.541111 0.368615 3.79996 11 12 7 
0.41581 0.529068 3.99284 82 81 77 
-0.514901 0.378692 4.5794 78 59 16 
-0.639628 0.430199 4.45161 171 141 27 
-0.720164 0.422822 4.49286 235 190 11 
-1.16841 0.265821 4.39276 211 194 176 
-1.06613 0.338338 4.5151 171 106 22 
-1.13756 0.366987 4.36757 237 213 175 
-0.942506 0.457758 4.42273 230 154 9 
-0.907771 0.47256 4.47186 124 61 7 
-0.243313 0.827418 4.96241 173 130 15 
-0.12467 0.902402 4.8263 225 182 8 
1.42267 1.52978 4.70326 193 182 176 
1.39977 1.54376 4.75975 158 148 136 
-0.0390769 1.24538 4.95111 220 173 5 
1.30315 1.76693 4.21903 148 138 129 
-0.227577 1.3471 4.9607 91 69 20 
0.556048 1.61662 4.37448 91 76 69 
0.442299 1.60263 4.4212 61 47 36 
0.627559 1.6664 4.36006 218 206 190 
0.487559 1.61715 4.35244 221 208 191 
0.545657 1.66582 4.35869 178 168 169 
0.696466 -0.0330973 3.52279 204 196 185 
0.721546 -0.000165229 3.45034 193 188 166 
0.710719 -0.00412796 3.46601 107 19 15 
0.759381 0.0585246 3.34116 117 142 41 
0.700339 0.0322249 3.45175 54 68 0 
0.710815 0.0527084 3.40288 68 78 18 
0.729876 0.0656 3.35961 171 184 105 
0.733285 0.0702664 3.34958 113 129 41 
0.72142 0.0708504 3.36783 158 150 111 
0.736069 0.0791098 3.33412 111 126 41 
0.752915 0.113372 3.27812 164 169 129 
0.737809 0.108738 3.29628 123 151 40 
0.744262 0.121341 3.27472 177 179 155 
0.732907 0.154886 3.26169 153 158 117 
-0.327667 0.151737 3.4381 156 136 103 
0.864394 -0.147058 3.51378 255 229 119 
0.698205 -0.0164565 3.5083 114 100 89 
0.704669 0.00945677 3.46369 177 104 97 
0.705867 0.0669323 3.41405 113 102 84 
0.74121 0.112022 3.28678 86 101 36 
-0.108836 0.037418 3.64074 16 29 12 
0.0565122 0.118444 3.56307 207 183 135 
-0.395766 0.0774778 3.4304 186 164 125 
0.514003 0.481538 3.5677 117 79 0 
-0.602337 0.276399 4.4941 17 17 9 
-0.624532 0.402598 4.48333 103 87 38 
-0.25024 -0.364947 4.01278 40 16 0 
0.729633 0.0823806 3.34366 127 95 46 
-0.275729 -0.0187196 3.76559 0 26 1 
-0.327202 0.142583 3.43436 154 132 95 
0.436098 0.550343 3.8602 99 62 0 
0.46657 0.587738 3.73911 184 147 30 
-0.851934 0.217915 4.59039 158 92 0 
-0.797482 0.483267 4.50423 217 170 38 
-1.03834 0.467293 4.3201 242 220 160 
0.729369 0.0872321 3.32766 178 205 90 
0.717635 0.0884605 3.35602 25 31 0 
0.739019 0.167264 3.51451 215 175 26 
-0.838484 0.443346 4.5083 205 162 23 
-1.03131 0.48622 4.33746 127 95 20 
-0.12726 0.928983 4.8172 124 83 0 
0.392853 0.462464 3.94313 104 104 96 
0.400309 0.509091 3.92031 10 8 11 
0.610445 1.09304 4.29906 223 180 13 
-0.0854758 1.01056 4.86878 83 50 0 
-0.80516 0.476141 4.51149 63 28 8 
1.41152 1.52405 4.6903 193 182 176 
1.31459 1.52867 4.71615 202 192 182 
0.647306 1.46141 4.42006 220 177 3 
0.640999 1.56013 4.3876 247 226 183 
0.711567 0.04711 3.40278 134 136 99 
-0.329261 0.151451 3.43547 156 136 103 
0.738214 0.0891584 3.31495 216 224 175 
-0.31028 0.122353 3.42308 170 153 110 
-0.0508392 0.0182492 3.60086 26 3 0 
-0.839684 0.443196 4.50421 205 162 23 
-1.06166 0.378562 4.38499 138 100 15 
-0.333315 1.27513 5.00743 77 62 55 
-0.643027 1.32995 5.04907 153 140 132 
0.527822 1.61874 4.36142 222 210 188 
1.30389 1.52381 4.70287 202 192 182 
0.557586 1.61837 4.37689 91 76 69 
-0.706363 1.3424 5.03098 188 175 166 
-0.357881 1.2176 5.0383 131 114 94 
-0.313561 1.35611 5.0034 108 98 89 
-0.279134 1.36424 4.97451 128 117 111 
0.856647 -0.165418 3.47814 179 155 107 
0.766758 -0.0496382 3.50893 114 99 78 
0.683041 -0.0446724 3.53254 230 221 214 
0.691412 -0.0329507 3.51861 244 234 224 
0.686928 -0.0343582 3.52778 230 220 210 
0.679647 -0.0317286 3.51686 50 40 30 
0.700904 -0.016257 3.48714 67 9 8 
0.717184 -0.00246455 3.45749 193 134 128 
0.712908 -0.00399753 3.46837 63 0 0 
0.698881 -0.0157698 3.50879 84 70 57 
0.69053 -0.00530807 3.4869 181 117 108 
0.701511 -0.0025379 3.47822 177 135 136 
0.721971 0.0138009 3.44683 27 39 0 
0.696091 0.00851075 3.45494 179 119 111 
0.699925 0.00664067 3.47076 47 0 0 
0.722189 0.013837 3.46467 174 176 136 
0.674752 -0.00648187 3.5369 28 16 4 
0.710052 0.0231464 3.4582 177 189 127 
0.703709 0.0169378 3.47274 153 94 86 
0.715978 0.0323747 3.4239 172 179 125 
0.72549 0.048111 3.39778 45 68 0 
0.718289 0.0540039 3.38552 186 211 119 
0.801361 0.0922035 3.30648 77 61 10 
0.701218 0.0223952 3.52021 137 85 72 
0.71991 0.0490542 3.41762 224 225 193 
0.786991 0.0888315 3.31566 66 87 0 
0.772544 0.0811784 3.33265 41 62 0 
0.691251 0.0381156 3.44917 146 151 111 
0.720057 0.0502393 3.43303 208 197 179 
0.725457 0.0649732 3.37668 175 178 123 
0.738359 0.0680101 3.376 48 53 0 
0.748568 0.077578 3.34307 43 58 0 
0.750201 0.0836334 3.32835 42 54 0 
0.725209 0.0669925 3.41915 171 187 114 
0.71264 0.072947 3.37543 163 172 107 
0.763379 0.103977 3.29744 24 34 0 
0.700574 0.0665345 3.40878 55 46 17 
0.755835 0.0990933 3.3179 182 204 131 
0.693894 0.0524455 3.47664 123 111 71 
0.741673 0.0957255 3.32299 241 249 200 
0.719696 0.0822889 3.38004 180 173 129 
0.748867 0.112093 3.29374 35 46 0 
0.762131 0.121079 3.27208 181 181 157 
0.710338 0.0805945 3.4035 199 170 152 
0.741185 0.120116 3.28041 37 44 11 
0.698914 0.0808533 3.42065 168 152 139 
0.763602 0.123459 3.29091 236 238 214 
0.719816 0.0918797 3.39524 32 2 0 
0.721988 0.0846782 3.43461 19 5 0 
0.703162 0.0836395 3.4316 43 29 16 
0.6976 0.0704588 3.49469 163 134 92 
0.768514 0.145699 3.24864 197 191 179 
-0.0880069 -0.142899 3.63049 63 98 74 
0.722574 0.126357 3.29756 51 70 0 
0.759397 0.142823 3.26345 13 17 2 
0.725815 0.137014 3.30027 38 52 0 
0.744383 0.14822 3.2728 223 222 201 
0.723859 0.136046 3.31218 27 45 0 
0.750498 0.15725 3.26477 91 93 80 
0.721229 0.136403 3.36359 118 109 70 
0.725031 0.148224 3.34587 139 118 87 
0.732802 0.172669 3.31393 65 41 29 
0.736981 0.181157 3.30579 31 6 0 
-0.0800346 -0.00746154 3.60498 42 43 27 
-0.269415 -0.0667388 3.77884 127 117 108 
0.540471 0.227635 3.54005 24 24 14 
-0.0627591 0.0578171 3.61164 32 4 1 
0.643788 0.288839 3.43577 77 38 0 
0.0670091 0.111864 3.56284 104 81 37 
0.534485 0.244048 3.5343 12 8 9 
0.0313029 0.12077 3.56543 76 57 17 
-0.322581 -0.0143238 4.75833 14 14 6 
-0.329184 -0.00910026 4.7483 156 157 152 
0.504009 0.479148 3.55573 105 65 0 
0.480622 0.433894 3.90224 18 3 0 
-0.369929 0.219348 3.57353 44 17 6 
0.395489 0.517141 3.93217 12 11 9 
0.47014 0.635755 3.76273 82 48 0 
-0.624196 0.263829 4.479 26 27 22 
-0.628052 0.265235 4.48996 82 81 76 
-0.608163 0.274719 4.4775 22 20 21 
-0.816802 0.483628 4.4915 221 182 81 
0.881748 -0.0314243 3.40991 83 28 0 
0.694927 -0.0494785 3.54405 62 53 46 
0.71049 -0.0167878 3.47413 64 0 0 
0.689884 0.0107186 3.49858 159 91 80 
0.768977 0.0792623 3.30653 63 67 0 
0.705527 0.03295 3.45733 16 26 0 
0.700066 0.0382896 3.41967 176 187 121 
0.71104 0.0587004 3.34323 114 138 40 
0.827626 0.0949309 3.31944 253 223 173 
0.717461 0.0728125 3.41041 39 40 0 
0.694195 0.06885 3.44013 136 137 67 
0.769347 0.124576 3.26285 244 238 224 
0.698403 0.0609156 3.49839 133 86 58 
0.77863 0.125694 3.30284 236 238 214 
0.722847 0.106798 3.37738 25 19 0 
0.739058 0.134976 3.29765 18 21 0 
0.712698 0.101884 3.43523 21 0 0 
0.781101 0.15348 3.26593 38 34 22 
0.726212 0.127187 3.35829 143 147 97 
0.466144 0.0469294 3.47139 187 168 138 
0.733198 0.154255 3.31122 178 171 143 
0.536429 0.112586 3.47141 90 49 0 
0.755037 0.2301 3.27451 82 66 33 
-0.0892766 -0.0125706 3.60213 100 78 67 
0.55078 0.222381 3.54727 113 111 99 
-0.260451 -0.0272029 3.74571 21 39 13 
-0.0456831 0.0680218 3.61297 105 116 102 
-0.319598 0.0806399 3.40333 74 55 13 
-0.394103 0.0770746 3.45067 179 154 123 
0.643754 0.403364 3.38493 119 115 112 
-0.29971 0.129778 3.42737 106 82 44 
0.547392 0.386472 3.49782 197 164 61 
-0.265378 -0.0223281 4.68375 224 206 122 
0.558756 0.363982 4.0223 44 28 5 
-0.377589 0.0253931 4.77221 94 93 88 
0.470225 0.437004 3.90015 78 66 42 
0.522764 0.480172 3.72286 56 11 0 
0.510998 0.492346 3.71812 187 147 25 
0.40389 0.460921 3.92608 34 30 29 
0.461509 0.579417 3.74082 117 76 0 
-0.685788 0.190593 4.56373 192 169 99 
0.488655 0.685514 3.90642 85 72 40 
0.484632 0.726247 3.9392 5 6 1 
-0.505042 0.390402 4.55832 111 77 0 
0.877981 -0.164412 3.4985 173 144 86 
0.845287 -0.170375 3.53536 228 206 185 
0.926589 -0.12306 3.41236 172 158 123 
0.839076 -0.153093 3.53464 132 91 11 
0.888312 -0.0914748 3.41888 255 255 147 
0.890582 -0.0297652 3.44288 84 29 0 
0.765669 -0.0395181 3.48944 150 134 118 
0.691396 -0.0313281 3.53777 66 56 46 
0.703241 0.00375351 3.42052 56 57 26 
0.708067 0.031291 3.4317 25 34 0 
0.695821 0.0260656 3.45456 166 173 103 
0.699816 0.0264544 3.48166 148 102 89 
0.701562 0.0372577 3.53515 68 23 0 
0.764812 0.0899606 3.36206 179 197 98 
0.685641 0.0523728 3.44106 18 17 0 
0.727179 0.0806083 3.37019 163 164 122 
0.709872 0.068034 3.45559 137 142 60 
0.765523 0.117709 3.32023 176 203 98 
0.475811 0.0272429 3.4946 107 84 30 
0.731821 0.14147 3.30665 11 20 0 
0.745418 0.16866 3.52142 211 166 39 
0.767195 0.223532 3.43651 233 183 36 
-0.0481366 0.0265983 3.59318 64 39 34 
-0.068967 0.0251251 3.60136 131 112 106 
0.651758 0.262741 3.42165 118 68 0 
-0.0401552 0.0472859 3.61318 60 33 26 
-0.0169574 0.0518651 3.62627 107 126 104 
-0.260755 -0.0229923 3.76597 165 180 159 
-0.0813079 0.0541988 3.5939 32 2 0 
0.509302 0.264988 3.56099 40 39 35 
0.647889 0.366299 3.40549 113 112 110 
0.673217 0.388817 3.35678 120 119 115 
0.515169 0.332482 3.58603 160 131 29 
0.55689 0.401946 3.4765 184 154 40 
0.561718 0.375571 3.90531 100 88 48 
0.4924 0.463984 3.56553 212 174 27 
0.525226 0.483261 3.55937 214 171 15 
0.413973 0.501263 3.91733 92 88 85 
0.415299 0.547312 3.88692 17 5 0 
-0.185393 0.328338 4.54368 15 14 12 
0.674419 0.696525 3.72812 105 66 7 
-0.569178 0.261223 4.4949 53 52 47 
0.554457 0.748232 3.91491 18 13 10 
-0.635984 0.42018 4.47702 151 128 26 
-0.738529 0.40102 4.50633 171 120 0 
-0.104695 0.785414 4.82405 162 117 0 
-0.165933 0.774363 4.88082 203 154 36 
-0.0652985 0.818538 4.77971 224 185 28 
-0.0703908 0.89114 4.81003 78 33 0 
-0.901343 0.582704 4.42271 236 175 69 
-0.0943689 0.911692 4.81631 107 61 0 
-0.0346274 1.2392 4.93069 217 176 32 
0.850929 -0.154867 3.5436 123 86 8 
0.884472 -0.105837 3.49715 164 107 0 
0.670569 -0.0266055 3.44429 58 7 6 
0.67862 -0.0321036 3.56287 199 185 174 
0.796821 0.0765663 3.32957 255 241 196 
0.703505 0.0430803 3.45466 23 21 0 
0.738715 0.101115 3.33783 33 54 0 
0.760707 0.130188 3.28216 228 227 209 
0.704132 0.0944055 3.42188 20 0 0 
0.769437 0.135826 3.39381 130 136 74 
0.79387 0.228019 3.34475 158 125 46 
0.705618 0.18338 3.56094 32 2 0 
-0.0251357 0.00263544 3.59233 116 127 111 
-0.0388245 0.00279749 3.59702 16 33 15 
0.710842 0.263123 3.41872 120 66 6 
-0.277745 -0.0356302 3.79529 180 181 165 
0.554251 0.240606 3.5543 32 31 27 
0.689202 0.392577 3.37254 117 118 112 
-0.293488 0.174118 3.40458 87 64 22 
-0.52679 0.0884069 3.62628 70 47 6 
-0.382172 0.18239 4.52042 57 56 52 
-0.394496 0.213393 4.57177 30 19 0 
-0.750379 0.349097 4.52782 177 129 0 
-0.629488 0.397302 4.47411 128 110 44 
-0.893445 0.479785 4.47312 197 152 27 
-0.124397 0.930696 4.8236 125 79 0 
-0.0885917 1.00824 4.86159 67 35 0 
-0.515778 1.11372 5.47202 180 170 161 
0.653955 1.67014 4.34616 145 135 125 
-0.679785 1.35488 4.96516 112 99 91 
0.943384 -0.139841 3.43706 238 227 209 
0.91137 -0.10135 3.4728 118 84 20 
0.884338 -0.0442686 3.36742 166 103 6 
-0.079529 -0.232055 3.62077 101 0 7 
-0.151346 -0.249974 3.62565 95 0 7 
0.730647 0.060292 3.33626 189 225 93 
0.744981 0.0826581 3.37491 63 52 24 
0.723126 0.0855303 3.41038 64 33 4 
0.730348 0.100824 3.36403 147 173 63 
0.713427 0.170653 3.48558 225 179 21 
0.874261 0.229888 3.49837 93 43 8 
0.497134 0.474942 3.52781 223 172 18 
0.423475 0.549275 3.85453 98 60 0 
0.689314 0.701507 3.74963 106 57 1 
-0.626638 0.436025 4.4902 182 153 23 
-0.708075 0.445309 4.52034 89 42 0 
-0.065952 0.767608 4.85116 131 96 0 
-0.135974 0.781533 4.88609 111 68 0 
-0.172793 0.772083 4.86737 203 154 36 
-0.129023 0.900014 4.81657 233 191 17 
-0.451607 1.08354 5.49335 99 85 76 
-0.1731 1.22442 4.91737 152 101 0 
0.710404 1.58377 4.39557 185 138 30 
-0.306666 1.17721 5.05384 243 220 176 
0.0453866 1.36715 4.95426 102 87 68 
0.549953 1.61208 4.36647 108 90 78 
0.505879 1.63131 4.38171 224 209 188 
0.502108 1.6898 4.41322 186 175 173 
-0.868793 1.31596 5.02268 193 180 174 
0.403272 0.52055 3.85643 155 122 7 
-0.247208 1.10256 5.06985 240 196 11 
0.0832887 1.35091 5.03143 164 148 133 
-0.389055 1.24103 5.03037 221 206 187 
0.89379 -0.0910472 3.42406 255 255 147 
0.695775 -0.0452806 3.54464 230 221 214 
0.702311 -0.0337938 3.52076 36 26 16 
0.695021 -0.0351502 3.53574 230 220 210 
0.689466 -0.0384646 3.55533 55 42 33 
0.697078 -0.0209471 3.51079 60 51 42 
0.721834 -0.00264553 3.46192 193 134 128 
0.706487 -0.011376 3.49373 181 119 120 
0.71183 -0.00437903 3.46757 63 0 0 
0.703607 -0.00219132 3.48019 177 135 136 
0.704888 0.00906563 3.46284 179 119 111 
0.724042 0.0233623 3.42076 212 215 162 
0.715626 0.0132027 3.45904 174 176 136 
0.69045 -0.00459081 3.52746 53 42 24 
0.684798 -0.00650162 3.54609 28 16 4 
0.701035 0.0168444 3.46993 153 94 86 
0.716883 0.0325368 3.42417 172 179 125 
0.735225 0.0533696 3.38315 46 70 0 
0.734376 0.0573299 3.37084 156 176 87 
0.722178 0.0473973 3.41256 60 67 16 
0.719475 0.0522924 3.39672 59 78 0 
0.725023 0.0585432 3.3821 177 191 114 
0.697295 0.0363262 3.47074 132 120 98 
0.69851 0.0386314 3.45528 146 151 111 
0.71356 0.0532666 3.40639 67 78 12 
0.729906 0.0742607 3.36069 40 41 0 
0.712068 0.0554144 3.43231 44 36 17 
0.708748 0.0622515 3.40856 47 50 3 
0.750865 0.0901173 3.31607 40 57 0 
0.699213 0.046483 3.47753 141 131 96 
0.718304 0.0729934 3.38044 163 172 107 
0.754287 0.10481 3.2962 216 229 160 
0.699068 0.0599275 3.45006 16 20 0 
0.704819 0.0690941 3.4352 172 161 139 
0.736568 0.103734 3.31927 189 199 138 
0.759615 0.121693 3.26963 181 181 157 
0.717457 0.0906771 3.37087 21 23 0 
0.74479 0.120903 3.28318 37 44 11 
0.710392 0.0917216 3.38685 32 2 0 
0.73164 0.114138 3.3187 100 124 36 
0.749953 0.131562 3.26474 220 222 201 
0.766173 0.139985 3.24405 92 82 72 
0.715161 0.107643 3.38088 163 132 111 
0.730329 0.125808 3.31112 168 188 93 
0.746472 0.142075 3.25234 13 17 2 
0.72554 0.136331 3.31335 27 45 0 
0.729164 0.152417 3.30747 186 181 151 
0.722897 0.147879 3.34383 139 118 87 
0.733783 0.172451 3.26829 138 109 95 
0.764288 0.230345 3.41054 214 165 70 
-0.280794 -0.0741905 3.76256 124 105 99 
-0.100845 0.0476562 3.61103 173 182 163 
-0.471653 0.169486 3.56293 146 131 92 
-0.633074 0.263062 4.48082 82 81 76 
0.731109 -0.0248392 3.5003 58 7 6 
0.69397 -0.0196328 3.52042 233 224 215 
0.710522 0.00353132 3.44563 42 36 0 
0.739706 0.0917638 3.31675 240 251 195 
0.738514 0.124015 3.29592 60 76 5 
0.754259 0.151553 3.24349 38 34 22 
0.740498 0.156974 3.25666 106 110 95 
0.627315 0.291522 3.43917 159 138 47 
-0.355306 0.0752877 3.40629 34 18 0 
-0.653109 0.220029 4.50805 105 98 88 
0.490349 0.686713 3.90775 85 72 40 
-0.0948928 0.762587 4.86871 194 160 36 
0.84122 -0.0892699 3.52405 77 21 0 
0.730731 -0.012188 3.46975 144 103 97 
0.707692 0.0308301 3.43115 25 34 0 
0.722365 0.0804776 3.36555 163 164 122 
0.744868 0.104789 3.30585 59 86 9 
0.710373 0.0802076 3.41116 201 180 159 
0.745691 0.116119 3.30327 176 203 98 
0.751967 0.131749 3.27654 239 237 222 
0.735903 0.147933 3.2686 209 208 188 
0.515292 0.333029 3.58571 160 131 29 
-0.521721 0.0711816 3.58923 68 45 4 
-0.802046 0.483988 4.49704 212 164 28 
-0.640553 1.32936 5.04616 167 154 145 
0.850551 -0.118038 3.42226 221 202 185 
0.757954 0.222096 3.43176 230 179 26 
0.719951 0.263535 3.42697 120 66 6 
0.652476 0.264926 3.42393 107 56 0 
-0.31853 0.123645 3.41818 183 161 120 
-0.334976 0.133459 3.41973 166 144 95 
-0.751335 0.348483 4.52633 177 129 0 
-0.0804313 1.11614 4.9196 218 169 14 
-0.101346 1.22664 4.96365 223 179 30 
-0.230197 1.23849 4.9696 240 213 166 
-0.532902 1.34602 5.0294 150 137 131 
0.754621 -0.0747482 3.57589 200 195 189 
-0.105776 -0.14135 3.61585 27 111 59 
0.723672 0.126448 3.29605 96 121 20 
0.513027 0.478364 3.54276 223 172 18 
0.397902 0.508541 3.91665 11 9 10 
0.587779 1.04913 4.3656 186 148 13 
-0.133833 0.780583 4.89033 111 68 0 
-0.190433 0.777971 4.92596 203 165 30 
-0.144867 0.841286 4.8484 181 132 13 
0.556404 1.61589 4.375 108 90 78 
0.396842 1.5983 4.40165 185 172 155 
-0.749906 0.453701 4.5032 108 63 0 
-0.833482 0.451462 4.48547 229 188 10 
-0.148553 0.838926 4.83507 157 106 0 
-0.247014 1.10275 5.06879 240 196 11 
-0.501027 1.11719 5.50008 199 186 180 
-0.271545 1.21522 5.01744 198 151 9 
-0.673929 1.3554 4.98318 113 100 92 
-0.81409 1.37381 4.95047 121 111 102 
0.831779 -0.14972 3.53296 144 100 3 
0.704909 0.0708918 3.40872 179 170 139 
0.729093 0.131451 3.29553 177 190 120 
0.75307 0.148208 3.23975 13 9 0 
0.760649 0.240055 3.38395 171 125 13 
-0.359783 0.0816843 3.411 138 118 81 
-0.229086 0.210042 3.41507 255 251 207 
0.512437 0.481116 3.56308 105 65 0 
-0.28779 -0.038008 3.80503 112 124 104 
0.644043 0.281972 3.42927 90 43 0 
0.532837 0.370061 3.51258 186 160 63 
-0.216849 1.36714 4.97726 193 176 160 
-0.53569 1.34448 5.02375 150 137 131 
0.414865 1.60732 4.42435 185 172 155 
-0.860895 1.32192 5.0388 193 180 174 
-0.712235 0.422384 4.51921 240 199 13 
0.645005 1.45973 4.4125 235 194 16 
-0.297468 1.19071 5.07274 239 223 187 
0.715394 0.0471222 3.39742 211 225 148 
0.740341 0.105765 3.29166 39 60 0 
-0.0956659 0.0479724 3.61725 173 182 163 
-0.615561 1.32593 5.05582 189 176 167 
0.528232 1.62012 4.36467 224 211 194 
0.684728 0.0168869 3.45524 163 95 82 
0.675023 0.107047 3.322 146 158 82 
0.677173 0.155172 3.25471 163 150 134 
0.394421 1.14963 4.44183 46 18 0 
0.682962 -0.000811874 3.48546 180 110 102 
0.687368 0.144112 3.22698 196 198 176 
0.680925 0.133568 3.27423 50 73 0 
0.677428 0.0546207 3.4282 129 138 71 
0.67782 0.190122 3.21478 113 97 84 
0.509501 0.482124 3.71815 118 79 20 
0.681909 0.138321 3.26281 51 65 4 
0.678807 0.123848 3.31653 145 152 82 
0.50831 0.300227 3.56452 7 6 4 
0.456725 0.579241 3.73953 120 69 0 
0.678306 0.030076 3.47004 61 4 0 
0.635079 0.283305 3.42546 111 68 0 
0.628665 0.297916 3.42117 191 158 27 
-0.118349 1.16766 4.96152 140 90 1 
-0.363053 1.28075 5.08799 162 150 138 
0.512694 0.332489 3.58595 174 145 27 
-0.126932 1.12494 4.95261 219 180 17 
-0.869074 1.31785 5.02118 189 176 168 
0.514741 1.53081 4.41142 174 156 118 
-0.719578 1.33509 4.99063 198 186 174 
-0.885635 1.29228 5.06488 129 117 105 
0.687069 0.142982 3.30935 129 108 81 
0.689815 0.140133 3.24747 175 171 159 
0.68393 0.270877 3.38325 234 192 32 
-0.0863523 0.960408 4.83467 14 4 3 
0.550225 1.67017 4.37049 172 161 157 
0.512159 0.492957 3.73799 120 79 0 
-0.627908 0.264529 4.50189 83 81 68 
0.616325 0.289071 3.42944 186 154 41 
0.541811 0.253917 3.53955 103 103 103 
-0.670735 0.414127 4.46837 101 58 0 
-0.818051 0.485773 4.49918 242 188 40 
-0.709033 0.442871 4.51351 134 78 3 
-0.049986 1.11538 4.94758 210 163 13 
-0.319571 1.217 5.10418 162 146 121 
-0.874526 1.29397 5.09522 129 117 105 
-0.609121 0.49007 4.53781 12 11 6 
-0.0663555 0.89374 4.82176 119 70 4 
-0.121642 0.934216 4.82794 135 85 0 
0.648053 1.46303 4.41884 233 192 12 
0.513927 1.53191 4.40874 174 156 118 
0.516978 1.67486 4.37246 120 107 98 
0.484089 1.67764 4.38462 192 181 175 
-0.0884692 0.957544 4.82472 16 2 0 
0.521247 1.53351 4.41676 174 156 118 
0.860908 -0.149923 3.51692 255 241 122 
0.726163 0.0987365 3.26995 97 119 34 
0.7376 0.128768 3.21657 174 172 160 
0.695793 0.0301022 3.40574 150 168 86 
0.697617 0.0617482 3.37388 114 141 24 
0.699863 0.0685433 3.3656 157 176 86 
0.690958 0.0570387 3.39075 100 110 47 
0.682058 0.0237435 3.459 156 95 90 
-0.43275 0.0948317 3.41562 184 159 119 
0.690049 0.0664542 3.38371 83 86 41 
0.712752 0.139449 3.24805 50 44 20 
-0.480857 0.0757727 3.4573 180 156 122 
0.683103 0.0358603 3.44053 126 133 81 
0.700465 0.110454 3.30993 93 121 11 
0.707545 0.134226 3.26363 174 168 156 
0.693715 0.0812322 3.36585 90 76 31 
0.697109 0.088268 3.35457 91 80 35 
0.702294 0.121414 3.29939 75 94 5 
0.683428 0.0470275 3.44267 155 155 119 
0.689028 0.0629811 3.41621 172 165 139 
0.695699 0.103235 3.34281 137 119 97 
0.70437 0.138099 3.2786 175 176 144 
0.695517 0.101884 3.35956 96 61 41 
0.68822 0.0819963 3.4051 96 89 71 
0.682389 0.0512466 3.46456 121 115 67 
0.687585 0.0773348 3.41872 152 145 117 
0.700406 0.140687 3.315 72 45 16 
0.705075 0.158876 3.28206 100 87 78 
0.697502 0.110464 3.41696 138 107 78 
-0.30226 0.361055 3.857 39 0 0 
0.719222 0.0907063 3.29827 163 184 105 
0.706817 0.0648557 3.3573 96 91 49 
0.687498 0.013845 3.45661 199 109 101 
0.691356 0.0774565 3.37542 82 60 23 
0.704014 0.124605 3.28916 87 112 10 
0.684438 0.0561541 3.43506 52 59 0 
0.709953 0.17826 3.23503 108 90 88 
0.698096 0.126521 3.33668 116 108 59 
0.68595 0.0607453 3.46407 122 122 50 
0.6842 0.0771848 3.43552 130 135 35 
0.710253 0.165658 3.27144 36 15 14 
0.711855 0.18144 3.2644 132 99 90 
-0.399324 0.236364 3.47961 163 145 105 
0.598814 0.294635 3.41668 189 156 61 
-0.0167286 1.24681 4.95094 204 162 42 
0.887206 -0.0327981 3.26595 151 116 26 
0.697963 0.0435414 3.38986 89 92 39 
0.711768 0.105287 3.28217 78 113 0 
0.705793 0.0701275 3.34658 172 178 118 
0.682193 0.0267687 3.44551 164 169 102 
0.690919 0.0490405 3.40867 92 87 65 
0.695525 0.119202 3.28374 85 113 2 
0.693612 0.0632034 3.4361 140 148 49 
0.685108 0.0670739 3.42993 141 147 61 
0.684006 0.0683574 3.44163 37 42 0 
0.704538 0.134761 3.32376 66 48 10 
0.690701 0.0990419 3.41296 36 19 3 
0.696567 0.09462 3.44733 42 39 0 
0.693887 0.104318 3.42966 34 18 0 
-0.325183 0.194064 3.3935 85 62 20 
0.545085 0.235141 3.51074 93 76 22 
0.494117 0.316681 3.57992 62 59 54 
0.501205 0.482209 3.7046 61 19 0 
-0.218837 0.400359 3.78154 47 5 6 
0.373621 0.505529 3.96727 79 74 71 
0.421279 0.60478 3.74393 50 13 0 
-0.0379418 0.822352 4.81814 221 180 10 
0.698175 0.10968 3.32682 79 83 32 
0.69291 0.10736 3.38366 75 13 0 
0.490173 0.494653 3.55352 203 166 26 
0.426042 0.624558 3.75869 134 91 0 
0.520723 0.76088 3.93189 44 43 39 
-0.300123 1.35753 5.03001 155 142 136 
0.691951 0.0632556 3.4052 214 202 180 
0.695154 0.123856 3.32687 128 142 54 
0.699067 0.152295 3.27498 183 169 158 
0.731758 0.112487 3.45786 150 115 34 
0.540185 0.380479 3.49807 22 18 6 
0.548757 0.761068 3.90729 32 32 24 
0.552045 0.782054 3.93549 100 91 84 
-0.657717 0.540275 4.58961 26 23 18 
-0.0441689 0.800164 4.82778 231 192 13 
-0.0662106 0.794819 4.89052 152 103 1 
-0.127313 1.1239 4.96768 208 163 20 
-0.230322 1.1057 5.10079 235 194 8 
-0.286449 1.18483 5.09229 240 222 186 
-0.484832 1.1193 5.52006 190 177 169 
0.428766 0.532414 3.89889 168 137 12 
-0.197095 0.577908 4.05783 61 58 51 
-0.66285 0.521044 4.57229 24 13 7 
-0.218018 1.10585 5.12607 228 186 16 
-0.229246 1.23603 4.98723 238 217 174 
-0.213924 1.354 5.00105 82 59 9 
0.679501 0.102908 3.35181 141 108 91 
-0.0119965 1.24657 4.95519 204 162 42 
0.683109 0.186775 3.22439 108 90 88 
0.850084 -0.1477 3.51077 255 242 128 
0.67988 0.148705 3.25648 63 46 36 
-0.499616 0.0811014 3.64682 94 71 30 
-0.479934 0.0699315 3.60754 117 92 51 
-0.063808 0.869775 4.80861 92 48 3 
-0.0401985 1.11093 4.9501 205 161 30 
-0.213251 1.27347 4.95422 172 128 3 
-0.0714141 1.0154 4.88925 74 37 0 
-0.128739 1.1235 4.95285 221 175 27 
-0.510336 1.11705 5.48296 190 177 169 
-0.21211 1.35569 4.98758 112 83 15 
-0.279722 1.19084 5.10356 236 222 193 
-0.367843 1.27383 5.08307 171 157 148 
0.681417 0.0462254 3.43809 157 158 127 
-0.448779 0.174455 3.59388 155 137 101 
0.410342 0.464245 3.93293 48 47 45 
-0.086491 0.795712 4.86506 160 112 4 
0.417513 0.516041 3.94127 9 8 13 
0.682095 0.143798 3.27236 175 176 144 
0.681351 0.126488 3.29619 59 76 0 
0.682006 0.130305 3.33213 116 108 59 
0.688808 0.176724 3.25574 41 0 0 
0.686859 0.145902 3.24158 43 34 17 
0.684225 0.158612 3.29009 79 49 21 
0.491739 0.480808 3.56423 99 60 1 
0.606578 0.404821 3.40523 92 91 86 
0.688562 0.125747 3.34299 131 70 67 
0.687466 0.11347 3.31958 62 70 13 
0.483779 0.478095 3.55783 67 30 0 
0.666144 -0.0160474 3.49633 77 69 56 
0.659341 -0.0235632 3.5152 209 197 181 
0.668025 0.00566681 3.48056 161 103 89 
0.658862 -0.00621576 3.52849 168 155 138 
0.680218 0.0783615 3.37675 171 149 125 
0.682426 0.0869582 3.3669 126 99 70 
0.686783 0.0901036 3.35727 151 128 84 
0.703807 0.15422 3.24254 160 171 131 
0.684676 0.104929 3.35378 147 124 108 
0.686519 0.114876 3.33472 162 151 121 
0.695254 0.148631 3.2786 171 172 141 
0.692651 0.145617 3.31792 130 107 73 
0.618339 0.278725 3.40648 113 67 0 
0.423969 0.619265 3.74475 116 80 0 
0.66044 -0.014676 3.52066 191 178 162 
0.697576 0.138355 3.27747 20 32 0 
0.697787 0.152251 3.26889 31 13 1 
0.701124 0.126836 3.2899 82 97 12 
-1.275 1.65344 4.47255 176 166 165 
0.704999 0.159241 3.23249 103 101 86 
-0.09595 0.795705 4.85805 113 83 0 
0.687765 0.0539241 3.33976 81 103 21 
-0.838058 1.33995 5.09302 181 168 160 
-0.801201 1.386 4.98105 127 115 103 
0.710239 0.100668 3.29335 190 209 145 
-0.452902 -0.0836865 3.44248 130 107 101 
0.704254 0.0922975 3.3232 163 181 81 
0.71634 0.121076 3.2672 57 65 26 
0.711536 0.144511 3.24572 187 186 165 
0.685563 0.0893845 3.39636 40 7 2 
0.552509 0.213696 3.52298 174 144 58 
0.628491 1.45324 4.3951 227 187 12 
-0.244041 1.10607 5.08065 236 194 11 
0.054423 0.0512325 3.9206 31 14 0 
0.519095 1.53564 4.40306 176 154 113 
-0.818032 1.37686 4.96607 127 115 103 
0.701585 0.140947 3.20738 51 48 39 
0.695173 0.12499 3.29774 56 75 0 
0.689953 0.152056 3.29724 125 110 53 
-0.0425825 0.521939 4.18803 52 51 47 
0.686758 0.1003 3.36138 146 66 55 
0.690052 0.109483 3.34954 179 149 138 
0.693468 0.138641 3.24995 175 171 159 
0.691082 0.164667 3.22357 38 35 26 
0.706912 0.10013 3.25555 191 200 155 
0.704244 0.113421 3.22732 199 199 175 
0.700521 0.131931 3.28782 75 99 15 
0.701467 0.154669 3.24926 134 107 77 
0.703781 0.144336 3.22706 44 44 36 
0.695776 0.135053 3.29973 67 84 13 
0.700271 0.166608 3.23578 39 32 22 
0.690058 0.159566 3.28671 146 123 107 
0.683841 0.181475 3.26241 128 100 96 
0.676302 -0.172112 3.46642 160 120 25 
0.704714 0.150186 3.26983 57 33 31 
0.649224 -0.216505 4.56706 17 0 0 
0.657362 -0.0317088 4.45158 78 56 15 
0.879874 0.21379 4.28833 113 105 94 
0.843384 0.247339 4.2768 45 22 16 
0.862433 0.253726 4.28582 73 54 48 
0.709083 -0.037271 4.40647 201 148 108 
0.899597 0.202268 4.28885 36 11 6 
1.24036 0.523644 4.17854 159 144 105 
0.0320795 -0.195667 4.66118 239 232 222 
0.731406 0.0496578 3.40174 81 108 11 
0.763006 0.0770909 3.41749 162 173 97 
0.772369 0.0739677 3.44099 112 137 36 
0.751348 0.128606 3.32148 105 135 21 
0.740923 0.131399 3.30566 159 176 96 
0.737551 -0.00215342 3.49129 114 33 32 
0.741438 0.0578106 3.40683 177 211 99 
0.743193 0.135853 3.38429 113 106 62 
0.739628 0.00198864 3.48431 214 123 122 
0.726209 0.156217 3.24883 107 104 97 
0.744569 0.142601 3.31715 51 64 11 
0.489519 -0.0136098 3.25285 143 68 72 
0.633257 0.0402141 3.30682 81 108 11 
0.599192 0.0583467 3.24846 156 149 105 
0.493381 0.0279359 3.19207 185 189 152 
0.543852 0.0361038 3.23683 90 104 45 
0.625546 0.0744934 3.24292 117 122 28 
0.527318 0.0549623 3.1855 78 74 26 
0.513548 0.0544894 3.18301 156 168 92 
0.413012 0.0409947 3.10889 75 85 25 
0.500231 0.0502264 3.19568 89 91 54 
1.17583 0.206571 3.65663 39 39 31 
0.589678 0.117856 3.18437 75 99 15 
0.623087 0.119131 3.22825 63 84 5 
0.697493 0.125174 3.34147 40 29 1 
0.445528 0.0441023 3.13993 75 85 25 
0.636986 0.132315 3.19805 145 137 135 
0.537132 0.0766829 3.18661 160 180 95 
0.672149 0.133527 3.25008 51 64 11 
0.714088 0.152035 3.29321 178 172 150 
0.705153 0.0802894 3.3581 157 154 101 
4.25158 -0.722019 12.3972 53 36 8 
1.0108 -0.252913 5.30252 45 14 12 
-0.342496 -0.346156 4.03987 143 123 88 
-0.291183 -0.0990255 3.77471 51 64 47 
-0.292063 -0.107879 3.80177 56 67 51 
0.677657 0.053226 3.43129 123 132 69 
0.690093 0.0858312 3.39472 57 7 0 
0.69103 0.0767221 3.42015 158 152 130 
0.699777 0.137782 3.31805 119 96 62 
0.710058 0.166771 3.27176 37 15 17 
0.728769 0.219062 3.24271 81 73 60 
0.736229 0.224906 3.25359 98 89 80 
0.437349 0.581555 3.7317 146 98 0 
-0.142265 0.533652 4.07791 64 63 61 
-0.0924234 0.460312 4.5646 95 51 0 
