ply                 
format ascii 1.0    
element vertex 357
property float x    
property float y    
property float z    
property uchar red  
property uchar green
property uchar blue 
end_header          
0.121487 -0.1138 3.69231 44 120 81 
0.794589 -0.0329259 3.5276 83 68 49 
0.737478 -0.0156336 3.51408 190 109 105 
0.00297073 -0.0115346 3.64059 111 136 115 
0.738225 0.046317 3.43853 193 204 136 
0.73774 0.0504966 3.43549 40 55 0 
0.782904 0.0500709 3.39561 68 77 24 
0.735151 0.0515226 3.44226 183 195 123 
0.784046 0.0533459 3.38928 195 216 125 
0.806633 0.0531382 3.38782 208 196 170 
0.746674 0.0570943 3.4147 157 170 116 
0.755697 0.0643909 3.39474 185 216 113 
0.794644 0.0700247 3.37009 226 238 172 
0.746582 0.0726242 3.39784 31 28 0 
0.754915 0.0723483 3.38583 186 199 127 
0.79255 0.0741965 3.35509 229 236 194 
0.769655 0.074768 3.36625 46 67 0 
0.76816 0.0779091 3.36642 199 217 133 
0.790417 0.0778417 3.35357 247 255 201 
0.774892 0.0795895 3.36118 18 37 0 
0.06798 0.100641 3.62337 52 41 9 
0.0809431 0.102951 3.61451 199 182 136 
0.761682 0.0988263 3.34799 176 194 118 
0.0426456 0.112334 3.61087 183 173 138 
0.766364 0.106089 3.33128 194 213 149 
0.0902989 0.114191 3.60523 102 76 25 
0.772487 0.11337 3.32001 185 189 152 
0.770338 0.119283 3.31199 228 233 193 
0.782823 0.120556 3.3009 238 236 223 
-0.161007 0.126638 3.50005 43 38 0 
-0.322145 0.150101 3.47291 159 140 100 
0.76785 0.147512 3.28554 125 119 107 
0.772047 0.147754 3.28075 59 53 41 
0.182946 0.560298 3.96837 4 0 0 
0.164775 0.560213 3.95406 3 0 0 
-0.0121847 -0.0113369 3.63177 100 121 106 
0.00276083 -0.0114479 3.64146 109 132 112 
0.731817 -0.000489641 3.50622 186 115 113 
-0.059911 0.0210267 3.63914 123 111 99 
0.536445 0.0413397 3.49111 219 196 154 
-0.0847922 0.0513516 3.65573 171 186 167 
0.606723 0.0649381 3.50164 73 21 0 
0.0541403 0.0896969 3.63814 98 112 77 
0.772862 0.103525 3.3261 35 45 0 
0.020909 0.111813 3.61012 172 178 134 
0.0762539 0.110152 3.60759 192 173 131 
0.774373 0.106091 3.31663 239 237 214 
0.0641438 0.114602 3.59669 202 183 141 
0.0484792 0.120401 3.59049 96 74 37 
-0.303505 0.120726 3.45815 168 151 108 
0.0216693 0.190538 3.55214 77 54 10 
-0.895741 0.582934 4.4597 214 152 29 
0.183126 0.559835 3.96704 7 2 0 
0.164674 0.560436 3.95474 3 0 0 
0.720449 -0.0367894 3.56325 49 40 35 
0.535847 0.0414732 3.49705 217 197 160 
0.758714 0.0793073 3.37349 41 53 0 
0.0509921 0.0964652 3.62801 11 21 0 
0.0691199 0.104062 3.61928 62 49 17 
0.0308839 0.111865 3.61066 22 28 0 
0.0396136 0.113135 3.60962 183 175 136 
0.0479437 0.119206 3.58507 74 54 21 
0.768825 0.115215 3.3301 152 158 112 
0.0609012 0.12641 3.58705 112 86 35 
0.776633 0.141657 3.2898 81 78 63 
-0.0223618 0.159122 3.57747 94 92 54 
0.305514 0.381855 3.98495 3 3 1 
0.662399 0.407292 3.42681 125 124 122 
0.40017 0.50435 4.01241 79 78 74 
-0.89852 0.585646 4.46706 228 162 39 
0.165706 0.560866 3.96053 3 0 0 
0.714512 1.14075 4.35032 157 122 20 
0.73753 1.173 4.35463 112 73 0 
0.516755 1.60431 4.41176 217 203 177 
0.552211 1.6438 4.41978 231 215 199 
0.2094 -0.0626604 3.67784 164 126 89 
-0.272456 0.0904579 3.48926 82 60 13 
0.102929 0.107482 3.61063 213 188 131 
0.0817199 0.11711 3.62076 90 68 21 
-1.06366 0.372139 4.41577 145 106 41 
-0.931132 0.456093 4.48095 231 156 11 
-0.335477 1.26437 5.0579 216 201 182 
0.746418 1.18166 4.35307 169 136 21 
-0.201714 1.37238 5.0342 81 62 32 
0.627159 1.57532 4.44643 226 183 44 
0.505717 1.65902 4.41906 225 213 199 
0.526513 1.71049 4.43601 137 125 127 
-0.00456267 -0.00727002 3.63158 121 123 109 
-0.158144 0.118064 3.51096 175 173 122 
0.778003 0.115392 3.30032 57 59 37 
-0.312135 0.127158 3.47374 168 148 98 
0.0190407 0.211367 3.55751 65 42 10 
-1.0362 0.430301 4.42715 116 59 6 
-0.934895 0.457899 4.48984 230 154 6 
-1.07806 0.466945 4.36577 241 225 209 
0.666254 0.407073 3.42023 124 124 122 
-0.206752 1.23452 5.04666 143 87 4 
-0.867606 1.28721 5.19949 184 171 165 
-0.666038 1.37078 5.03029 111 101 92 
0.629436 1.57129 4.42805 235 192 64 
0.646136 1.58245 4.45164 244 214 160 
0.465722 1.62747 4.49166 50 37 28 
0.38979 1.62657 4.44145 161 147 134 
0.507901 1.71293 4.45097 192 182 181 
0.211706 -0.0609025 3.66184 184 153 99 
0.74182 0.0401011 3.45902 211 217 155 
0.0207082 0.118592 3.61556 187 169 119 
0.82097 0.172375 3.30093 41 40 36 
-1.10945 0.353301 4.41093 243 228 205 
-1.03356 0.444977 4.39254 246 207 16 
-1.02708 0.446577 4.44679 225 175 18 
-1.07845 0.465644 4.37466 240 227 210 
-0.285093 1.20492 5.13864 230 208 169 
-0.179674 1.18984 5.02289 145 92 0 
-0.258032 1.22866 5.07646 170 120 9 
-0.36684 1.26155 5.10948 213 196 176 
0.617061 1.10456 4.34975 225 181 12 
-0.850198 1.36586 5.04983 126 113 105 
-0.211276 1.36564 5.03673 70 56 29 
0.676118 1.54993 4.44242 136 86 1 
0.501979 1.63887 4.40178 211 198 179 
0.584581 1.64974 4.4457 63 50 34 
0.507092 1.71694 4.45999 192 182 181 
-0.239687 -0.370865 4.10829 40 17 0 
-0.262453 -0.366987 4.11236 30 9 0 
0.716176 -0.0473204 3.61849 36 27 20 
0.724192 -0.0364273 3.59627 225 216 207 
0.332094 -0.0678497 3.59115 39 24 3 
0.723052 -0.0229984 3.58102 94 84 74 
0.719271 -0.0243144 3.60046 33 20 11 
0.740115 -0.018577 3.54974 68 0 0 
0.731126 -0.0175173 3.56307 54 1 0 
0.717114 -0.0144656 3.59463 166 156 146 
0.7193 -0.0126815 3.57627 179 165 156 
0.731237 -0.0108077 3.55404 86 29 20 
0.736808 -0.00588763 3.5344 72 0 0 
0.723384 -0.007147 3.56186 162 97 95 
0.730251 0.00206812 3.54137 146 91 88 
0.734537 0.0127202 3.52338 137 133 98 
0.74513 0.0303626 3.48594 26 27 0 
0.72687 0.0309089 3.52214 36 48 0 
0.729114 0.0422321 3.50793 48 62 0 
0.740493 0.0470138 3.47304 49 54 0 
0.751464 0.0510751 3.44702 163 191 91 
0.743888 0.0514947 3.46409 61 81 0 
0.725186 0.0506947 3.51816 35 38 0 
0.751799 0.0580949 3.43812 149 161 99 
0.746346 0.0584667 3.45505 82 105 1 
0.619875 0.0498758 3.53891 109 62 0 
0.804939 0.0704855 3.38922 84 80 43 
0.731651 0.0622181 3.48664 195 189 157 
0.776058 0.068183 3.40019 72 94 12 
0.733904 0.065886 3.4731 166 169 100 
0.760853 0.0730585 3.41269 184 197 115 
0.747623 0.0710934 3.43608 173 172 126 
0.742423 0.0720628 3.44545 153 159 97 
0.752474 0.0736855 3.4244 50 46 0 
0.795429 0.0784405 3.37497 253 255 210 
-0.0236388 -0.00133691 3.68366 21 39 23 
0.765691 0.0770459 3.39983 69 81 7 
0.773278 0.0788771 3.38868 183 205 104 
0.786607 0.081737 3.37971 66 88 6 
0.612633 0.0660242 3.53556 100 49 0 
0.75104 0.0817693 3.41491 129 92 48 
0.739811 0.0820472 3.44127 169 167 116 
0.765669 0.0876962 3.39014 234 238 188 
0.774672 0.0898689 3.37163 181 207 116 
0.745567 0.0929641 3.41686 86 94 8 
0.760574 0.0961755 3.38019 199 205 157 
0.766389 0.0998856 3.36847 167 189 107 
0.736946 0.0973486 3.43841 74 69 11 
0.778862 0.104979 3.35508 62 81 17 
0.767287 0.114038 3.35367 40 56 0 
0.777062 0.114463 3.33973 198 201 170 
0.78165 0.120679 3.33161 165 174 127 
0.749485 0.130585 3.37516 43 65 0 
0.751558 0.136587 3.36471 44 68 0 
0.772253 0.148558 3.30434 136 134 121 
0.752791 0.146918 3.34612 161 155 139 
-0.360117 0.0797564 3.48454 156 134 97 
-0.0271621 0.160632 3.63066 7 21 0 
-0.142066 0.160416 3.54154 149 164 107 
0.478714 0.23689 4.17877 134 98 0 
-0.326591 0.151998 3.51746 148 130 94 
-0.986983 0.20063 4.60098 255 200 133 
-0.790703 0.266357 4.72744 122 55 0 
-1.12104 0.235948 4.53295 201 168 65 
0.695518 0.364739 3.45868 46 45 41 
-0.811474 0.352586 4.66343 181 151 78 
-0.629297 0.414675 4.59466 29 14 0 
-1.12346 0.493528 4.45957 222 204 190 
0.901222 -0.116387 3.43875 244 229 198 
0.33065 -0.0622597 3.60192 32 17 0 
0.742453 0.00470992 3.51284 193 201 152 
0.751394 0.0215961 3.48061 127 127 99 
0.730689 0.0221014 3.52797 172 175 120 
0.737104 0.0474707 3.49152 214 213 182 
0.741284 0.084227 3.42916 152 150 112 
-0.0611457 0.0208556 3.69523 117 99 89 
0.761546 0.123516 3.35043 15 27 0 
0.494465 0.11224 4.05169 100 91 74 
0.108275 0.0810688 3.739 4 19 0 
-0.306998 0.121948 3.50301 164 149 108 
-0.869174 0.19443 4.70838 187 118 1 
-0.94152 0.212551 4.69202 188 142 118 
-0.500516 0.396566 4.6757 103 73 0 
0.424915 0.47668 4.01978 105 105 97 
-0.638962 0.506637 4.65009 51 51 43 
-0.775476 0.509755 4.59865 153 91 0 
-0.0478804 0.880724 4.91971 201 160 18 
-0.198099 1.40597 5.10713 193 172 143 
0.899537 -0.110737 3.44942 163 143 106 
0.920364 -0.0281707 3.32167 153 110 18 
0.748641 -0.0121534 3.52571 59 30 22 
0.918428 0.0340807 3.33268 82 38 0 
0.797967 0.0454941 3.42526 85 84 30 
0.768032 0.130831 3.32963 224 222 209 
-0.0619568 0.0534661 3.66909 28 11 1 
-0.0346065 0.0662204 3.69919 111 113 99 
-0.0472553 0.0787138 3.66338 0 39 9 
-0.333222 0.0877253 3.49212 89 74 53 
-0.302285 0.128458 3.4945 92 71 28 
0.580799 0.225197 3.62739 104 104 94 
-0.151653 0.156041 3.52586 42 66 18 
0.570297 0.230464 3.61863 6 3 0 
-0.32501 0.141057 3.52103 139 121 81 
0.564455 0.246751 3.61515 6 6 6 
0.744551 0.272333 3.49622 128 66 5 
0.666997 0.286765 3.49585 81 37 0 
-0.962021 0.169926 4.66149 239 111 40 
0.649059 0.298492 3.50657 144 126 44 
-0.861962 0.217498 4.69693 175 113 0 
-0.917701 0.287257 4.47937 91 40 0 
-0.92287 0.303676 4.48447 87 35 0 
0.667798 0.411201 3.45476 169 168 164 
-0.761824 0.350798 4.65974 186 139 0 
-0.88352 0.369347 4.65182 64 18 0 
-0.712237 0.448007 4.61907 109 56 0 
-0.673705 0.451273 4.56977 138 104 0 
-0.606473 0.488466 4.63447 101 97 94 
-0.841507 0.474131 4.61077 241 203 56 
0.454572 0.565266 3.99144 20 7 0 
-0.81133 0.495804 4.61266 135 84 3 
0.156395 0.561755 3.999 61 62 57 
0.385286 0.692217 4.2788 30 0 0 
0.516702 0.747725 4.0027 3 0 0 
-0.0697907 1.00579 4.96751 147 124 31 
-0.126611 1.15081 5.06639 202 160 16 
-0.175496 1.19726 5.09352 167 109 0 
-0.317938 1.30171 5.11136 114 102 88 
0.882204 -0.104704 3.49302 122 90 7 
0.907117 0.0341389 3.35309 86 37 4 
-0.270852 -0.0766458 3.85787 122 107 100 
0.0400111 0.115138 3.66157 190 181 140 
0.0823428 0.11893 3.64143 120 98 57 
-0.375512 0.0829317 3.45776 203 181 132 
-0.134484 0.178205 3.5424 123 106 52 
-0.896766 0.209415 4.71641 182 99 5 
-0.865557 0.238909 4.68191 100 42 0 
-0.788487 0.307637 4.72499 57 28 0 
-1.1645 0.262 4.51069 150 135 116 
0.441167 0.465801 3.99944 102 95 85 
-0.740145 0.407889 4.62389 185 136 0 
-0.84884 0.451181 4.62025 215 177 32 
-0.639488 0.496263 4.63709 9 4 1 
-0.80829 0.491836 4.59937 174 128 34 
-1.04807 0.495722 4.45116 124 92 31 
-0.112748 0.927485 4.95497 220 180 5 
-0.111861 0.957872 4.96949 120 80 0 
-0.0729475 0.983911 4.95473 29 6 0 
-0.117021 1.18999 5.0781 125 75 4 
-0.176409 1.20451 5.11942 161 100 7 
-0.157888 1.27145 5.07895 145 98 6 
-0.326012 1.31402 5.14546 86 73 64 
0.756488 1.50514 4.5113 239 192 18 
0.543248 1.60682 4.46047 230 216 189 
-0.0843912 -0.0186556 3.6815 76 77 59 
-0.00498144 -0.00735919 3.68877 115 118 97 
-0.310723 0.0820052 3.47598 225 199 142 
0.4841 0.227056 4.20539 170 140 8 
0.573502 0.401877 3.55989 189 151 6 
0.335217 0.435849 4.05693 55 52 47 
0.696884 0.430154 3.43095 171 172 167 
-0.0365829 0.394365 3.8552 46 5 3 
-0.671712 0.421574 4.58399 107 69 6 
-0.634248 0.437727 4.58667 180 151 25 
-0.720182 0.454265 4.64464 112 60 0 
-0.0553933 0.893255 4.91201 115 72 3 
-0.0982946 0.907631 4.93752 220 176 19 
1.77809 1.30366 5.29466 199 189 180 
0.620689 1.08046 4.48721 171 133 10 
-0.288605 1.19725 5.21574 145 109 13 
-0.116689 1.18661 5.06486 130 83 5 
-0.287664 1.21481 5.21028 233 214 172 
-0.157425 1.26777 5.06512 143 93 6 
-0.678009 1.39799 5.12239 114 102 90 
0.790068 1.55205 4.53519 240 194 13 
0.68281 1.56964 4.49451 137 86 0 
0.728599 1.62282 4.48859 164 121 6 
0.722681 1.69913 4.48475 99 77 38 
0.630031 1.6996 4.43267 209 202 186 
0.899003 -0.0322737 3.47582 83 26 0 
-0.225383 0.053798 3.58889 194 170 110 
0.0208668 0.118851 3.62718 181 163 115 
0.0210422 0.122482 3.70299 139 147 106 
0.482847 0.226816 4.19406 167 138 2 
0.64579 0.28358 3.52272 174 141 8 
0.667834 0.302616 3.47943 178 146 9 
-1.03663 0.26351 4.49254 254 239 216 
-1.08749 0.337277 4.52845 248 198 15 
-1.06598 0.331437 4.44076 222 161 46 
0.453606 0.474392 4.00827 98 91 81 
0.457383 0.478141 4.04272 97 89 78 
-0.718834 0.426844 4.60733 242 202 29 
-0.718818 0.456698 4.6348 113 61 1 
0.0302303 1.14687 5.02746 194 154 7 
-0.0563313 1.14593 5.03783 205 157 11 
0.624186 1.11728 4.40238 231 185 12 
-0.291902 1.18304 5.15403 163 126 12 
-0.148702 1.25503 5.05488 137 89 4 
-0.371996 1.27991 5.17968 210 195 174 
-0.207586 1.30123 5.0682 158 119 2 
-0.215286 1.38821 5.11916 74 59 30 
-0.880107 1.33594 5.23664 112 102 93 
-0.300802 1.39352 5.14886 109 99 90 
-0.605409 1.35637 5.15128 185 174 172 
-0.87244 1.36028 5.1868 189 179 170 
1.35585 1.56368 4.79338 202 191 185 
0.672283 1.49414 4.49932 222 177 14 
0.826783 1.56068 4.56024 236 191 10 
0.559033 1.59536 4.56968 157 136 107 
0.595015 1.58298 4.42746 175 138 34 
0.604242 1.6068 4.49827 133 96 7 
0.733329 1.63442 4.51779 171 127 18 
0.47049 1.64314 4.52463 55 39 24 
0.58874 1.66136 4.47743 60 45 24 
0.511956 1.66183 4.44824 219 207 183 
0.576724 1.74251 4.54456 104 95 90 
0.644455 1.73709 4.42209 140 129 123 
-0.385371 -0.0761517 3.97197 210 188 139 
-0.388747 -0.0628674 3.9629 176 190 139 
-0.158142 0.184162 3.47599 198 176 127 
0.766235 0.132635 3.31489 225 227 206 
0.595782 1.61543 4.48109 119 91 51 
0.698495 0.361424 3.44879 120 119 117 
-0.822383 0.491794 4.57909 224 177 63 
-0.211086 -0.124441 3.74593 0 17 0 
0.806242 0.0925155 3.35174 63 66 19 
-0.210443 1.38408 5.07195 78 63 30 
0.515944 1.61757 4.43098 228 212 189 
-0.349574 0.0784771 3.45069 50 32 12 
-1.09196 0.456657 4.42361 254 233 212 
-1.0497 0.49439 4.41278 120 97 56 
-0.878399 1.3248 5.18636 112 102 93 
-0.677587 1.38002 5.06412 113 101 89 
-0.865059 1.37675 5.08921 126 116 107 
0.535825 1.70942 4.43936 141 131 129 
