ply                 
format ascii 1.0    
element vertex 1177
property float x    
property float y    
property float z    
property uchar red  
property uchar green
property uchar blue 
end_header          
0.111367 -0.0986924 3.68031 44 120 81 
0.770168 -0.0229353 3.54089 83 68 49 
0.714751 -0.005941 3.52633 190 109 105 
-0.00253528 0.000620847 3.62897 111 136 115 
0.717855 0.0544234 3.45451 193 204 136 
0.71748 0.0585078 3.45159 40 55 0 
0.762971 0.0579515 3.41511 68 77 24 
0.714749 0.059523 3.45793 183 195 123 
0.764294 0.0611499 3.40911 195 216 125 
0.786525 0.0608968 3.40845 208 196 170 
0.726866 0.0649217 3.43208 157 170 116 
0.736328 0.0720277 3.41335 185 216 113 
0.77534 0.0774533 3.39111 226 238 172 
0.727315 0.0801088 3.41598 31 28 0 
0.735847 0.079816 3.40481 186 199 127 
0.773754 0.0815403 3.37673 229 236 194 
0.750915 0.0821496 3.38663 46 67 0 
0.74945 0.0852298 3.38673 199 217 133 
0.771713 0.0851167 3.37519 247 255 201 
0.756227 0.0868615 3.38193 18 37 0 
0.061076 0.109198 3.61336 52 41 9 
0.0737748 0.111401 3.60522 199 182 136 
0.743694 0.10574 3.36884 176 194 118 
0.0366899 0.120615 3.60102 183 173 138 
0.748818 0.112857 3.353 194 213 149 
0.0830108 0.122283 3.59658 102 76 25 
0.755199 0.119995 3.34241 185 189 152 
0.753343 0.125805 3.33464 228 233 193 
0.765972 0.127044 3.32444 238 236 223 
-0.159928 0.135116 3.49215 43 38 0 
-0.316351 0.158431 3.46362 159 140 100 
0.75177 0.153545 3.30911 125 119 107 
0.756048 0.153785 3.30466 59 53 41 
0.168747 0.551279 3.93699 4 0 0 
0.151467 0.551382 3.92335 3 0 0 
-0.0171311 0.000835973 3.62037 100 121 106 
-0.00274865 0.000708225 3.62979 109 132 112 
0.709486 0.00883424 3.51868 186 115 113 
-0.0633785 0.0323913 3.62636 123 111 99 
0.519087 0.0501276 3.49874 219 196 154 
-0.0875547 0.0618942 3.64148 171 186 167 
0.587526 0.0729762 3.51048 73 21 0 
0.0474312 0.0986289 3.62713 98 112 77 
0.755357 0.110334 3.34828 35 45 0 
0.0156051 0.120174 3.59994 172 178 134 
0.0693372 0.118402 3.59856 192 173 131 
0.757138 0.112854 3.33928 239 237 214 
0.0577373 0.122757 3.588 202 183 141 
0.0426281 0.128431 3.5818 96 74 37 
-0.298247 0.1298 3.44992 168 151 108 
0.0172816 0.196661 3.54461 77 54 10 
-0.865862 0.571534 4.37839 214 152 29 
0.16894 0.550847 3.93575 7 2 0 
0.151361 0.55159 3.92399 3 0 0 
0.696635 -0.026374 3.57236 49 40 35 
0.518362 0.0502665 3.50434 217 197 160 
0.739963 0.0866176 3.39313 41 53 0 
0.0445259 0.105198 3.61746 11 21 0 
0.0622459 0.112513 3.6095 62 49 17 
0.0252784 0.120194 3.60062 22 28 0 
0.0337651 0.121402 3.59979 183 175 136 
0.0421694 0.127274 3.57668 74 54 21 
0.751299 0.121803 3.35191 152 158 112 
0.0547513 0.134231 3.57873 112 86 35 
0.760273 0.147777 3.3135 81 78 63 
-0.0258687 0.166234 3.56801 94 92 54 
0.285944 0.379183 3.9553 3 3 1 
0.644934 0.407305 3.43901 125 124 122 
0.376913 0.49661 3.98207 79 78 74 
-0.868459 0.574057 4.38512 228 162 39 
0.152269 0.551942 3.92939 3 0 0 
0.672324 1.10032 4.2962 157 122 20 
0.694308 1.13099 4.30046 112 73 0 
0.483278 1.5405 4.34673 217 203 177 
0.517026 1.57778 4.35439 231 215 199 
0.196951 -0.0494958 3.6681 164 126 89 
-0.268324 0.100271 3.48027 82 60 13 
0.0951769 0.115735 3.60195 213 188 131 
0.0744887 0.12514 3.6111 90 68 21 
-1.02721 0.371947 4.33817 145 106 41 
-0.899837 0.450883 4.39805 231 156 11 
-0.332559 1.20272 4.91824 216 201 182 
0.702876 1.13929 4.2992 169 136 21 
-0.206438 1.30417 4.89799 81 62 32 
0.587648 1.51171 4.38027 226 183 44 
0.472747 1.59233 4.35295 225 213 199 
0.492339 1.64071 4.36851 137 125 127 
-0.00972019 0.00475419 3.62027 121 123 109 
-0.157263 0.12677 3.50264 175 173 122 
0.761231 0.121985 3.32377 57 59 37 
-0.306702 0.136084 3.46467 168 148 98 
0.0147291 0.216895 3.54958 65 42 10 
-1.00069 0.42715 4.34854 116 59 6 
-0.90335 0.452554 4.40616 230 154 6 
-1.04124 0.462657 4.29195 241 225 209 
0.648886 0.407142 3.43286 124 124 122 
-0.21162 1.17444 4.90921 143 87 4 
-0.832023 1.22327 5.04129 184 171 165 
-0.643154 1.30486 4.89187 111 101 92 
0.590271 1.50851 4.36368 235 192 64 
0.605629 1.51834 4.3854 244 214 160 
0.432957 1.55987 4.41848 50 37 28 
0.361684 1.56076 4.37161 161 147 134 
0.474271 1.64247 4.38173 192 182 181 
0.199446 -0.0478627 3.65309 184 153 99 
0.720761 0.0483615 3.47407 211 217 155 
0.015366 0.126752 3.60506 187 169 119 
0.803674 0.177848 3.32537 41 40 36 
-1.0711 0.354224 4.33369 243 228 205 
-0.998459 0.441344 4.31675 246 207 16 
-0.991711 0.442468 4.36646 225 175 18 
-1.04151 0.461351 4.30009 240 227 210 
-0.285761 1.14483 4.98999 230 208 169 
-0.186127 1.13295 4.88841 145 92 0 
-0.259984 1.16844 4.93522 170 120 9 
-0.362208 1.19895 4.96371 213 196 176 
0.579075 1.06583 4.29389 225 181 12 
-0.816458 1.30069 4.90863 126 113 105 
-0.215471 1.29783 4.90024 70 56 29 
0.634366 1.48769 4.37766 136 86 1 
0.469511 1.57372 4.33718 211 198 179 
0.547289 1.58254 4.37854 63 50 34 
0.473307 1.64598 4.38995 192 182 181 
-0.23958 -0.339771 4.03257 40 17 0 
-0.261275 -0.335979 4.03608 30 9 0 
0.685646 -0.0361021 3.59372 36 27 20 
0.694082 -0.0256942 3.57331 225 216 207 
0.315846 -0.0548551 3.56471 39 24 3 
0.69349 -0.0127821 3.55922 94 84 74 
0.689244 -0.0139884 3.5771 33 20 11 
0.710937 -0.00864584 3.53051 68 0 0 
0.701851 -0.00756319 3.54274 54 1 0 
0.687374 -0.00450061 3.5717 166 156 146 
0.690049 -0.00283005 3.5548 179 165 156 
0.702257 -0.00110866 3.53438 86 29 20 
0.70826 0.00358176 3.51629 72 0 0 
0.694444 0.00246614 3.54151 162 97 95 
0.701735 0.0112993 3.52265 146 91 88 
0.706464 0.0215431 3.50604 137 133 98 
0.717927 0.0385117 3.47144 26 27 0 
0.699147 0.0391382 3.50477 36 48 0 
0.701791 0.0500593 3.49162 48 62 0 
0.713896 0.0546201 3.4594 49 54 0 
0.725348 0.0584993 3.43535 163 191 91 
0.717474 0.0589395 3.45112 61 81 0 
0.697702 0.058258 3.50103 35 38 0 
0.725973 0.0652907 3.42706 149 161 99 
0.720161 0.0656751 3.44273 82 105 1 
0.595329 0.0577975 3.51917 109 62 0 
0.779122 0.0771232 3.38215 84 80 43 
0.704964 0.0693621 3.47189 195 189 157 
0.750738 0.0749796 3.39204 72 94 12 
0.707576 0.0728991 3.45935 166 169 100 
0.735607 0.0797527 3.40351 184 197 115 
0.722035 0.0778912 3.42511 173 172 126 
0.716705 0.0788467 3.43376 153 159 97 
0.727114 0.0803864 3.41431 50 46 0 
0.770392 0.0848671 3.36875 253 255 210 
-0.028265 0.0105436 3.64658 21 39 23 
0.740721 0.0836029 3.39158 69 81 7 
0.748448 0.0853563 3.38128 183 205 104 
0.761682 0.088091 3.37306 66 88 6 
0.588473 0.073415 3.51596 100 49 0 
0.72605 0.0882238 3.40545 129 92 48 
0.714337 0.0885226 3.42984 169 167 116 
0.741043 0.0939311 3.38253 234 238 188 
0.750386 0.0960179 3.36538 181 207 116 
0.720715 0.0990878 3.40718 86 94 8 
0.73645 0.102174 3.3732 199 205 157 
0.742481 0.105763 3.36233 167 189 107 
0.711702 0.10335 3.42713 74 69 11 
0.755039 0.110678 3.34996 62 81 17 
0.743874 0.119508 3.34851 40 56 0 
0.753822 0.119906 3.3356 198 201 170 
0.758564 0.125937 3.32804 165 174 127 
0.725954 0.135593 3.36833 43 65 0 
0.728313 0.141426 3.35858 44 68 0 
0.75041 0.153098 3.30241 136 134 121 
0.730142 0.151483 3.34125 161 155 139 
-0.351702 0.0896155 3.45842 156 134 97 
-0.0306074 0.166553 3.59745 7 21 0 
-0.140753 0.166882 3.51368 149 164 107 
0.444566 0.23627 4.10053 134 98 0 
-0.319118 0.159356 3.4894 148 130 94 
-0.944347 0.205275 4.46856 255 200 133 
-0.758093 0.265958 4.58089 122 55 0 
-1.07178 0.239215 4.40762 201 168 65 
0.671787 0.362283 3.44506 46 45 41 
-0.777917 0.347355 4.52448 181 151 78 
-0.606602 0.40561 4.46452 29 14 0 
-1.07455 0.482941 4.34221 222 204 190 
0.870164 -0.104119 3.42956 244 229 198 
0.314255 -0.0494202 3.57463 32 17 0 
0.714414 0.0137606 3.49635 193 201 152 
0.724127 0.0300066 3.46657 127 127 99 
0.702636 0.0306248 3.51023 172 175 120 
0.710039 0.0550865 3.47648 214 213 182 
0.716153 0.0906317 3.4186 152 150 112 
-0.0644266 0.0320303 3.65689 117 99 89 
0.738431 0.12873 3.3454 15 27 0 
0.462106 0.117952 3.98649 100 91 74 
0.0982402 0.0894499 3.69865 4 19 0 
-0.300201 0.13026 3.47617 164 149 108 
-0.83222 0.19877 4.56381 187 118 1 
-0.900401 0.216069 4.54916 188 142 118 
-0.485222 0.38751 4.53654 103 73 0 
0.397671 0.465782 3.95677 105 105 97 
-0.615208 0.49166 4.51339 51 51 43 
-0.744098 0.495614 4.46742 153 91 0 
-0.0608886 0.83577 4.75095 201 160 18 
-0.20066 1.32099 4.91233 193 172 143 
0.868169 -0.0985908 3.43945 163 143 106 
0.893273 -0.0190806 3.32063 153 110 18 
0.719941 -0.00252522 3.50836 59 30 22 
0.891178 0.0414166 3.33077 82 38 0 
0.771088 0.0529385 3.41564 85 84 30 
0.745428 0.135842 3.32604 224 222 209 
-0.0648601 0.063394 3.63271 28 11 1 
-0.0387797 0.0756003 3.66072 111 113 99 
-0.050562 0.087659 3.62757 0 39 9 
-0.325656 0.0972435 3.46577 89 74 53 
-0.29559 0.136553 3.46827 92 71 28 
0.555779 0.22691 3.60024 104 104 94 
-0.149919 0.162715 3.49901 42 66 18 
0.545895 0.232051 3.59203 6 3 0 
-0.317631 0.148767 3.49275 139 121 81 
0.540411 0.247784 3.58877 6 6 6 
0.717805 0.272492 3.48058 128 66 5 
0.642845 0.286689 3.47939 81 37 0 
-0.920167 0.176158 4.52216 239 111 40 
0.625227 0.298023 3.48915 144 126 44 
-0.825488 0.220442 4.55379 175 113 0 
-0.880104 0.287201 4.36095 91 40 0 
-0.884891 0.302696 4.36544 87 35 0 
0.645207 0.407379 3.44106 169 168 164 
-0.731217 0.345527 4.52143 186 139 0 
-0.845812 0.363437 4.51392 64 18 0 
-0.684528 0.437072 4.48571 109 56 0 
-0.648482 0.440438 4.44232 138 104 0 
-0.584741 0.47461 4.49977 101 97 94 
-0.806338 0.462199 4.47783 241 203 56 
0.426871 0.550523 3.93126 20 7 0 
-0.77782 0.482473 4.47965 135 84 3 
0.142079 0.548127 3.93586 61 62 57 
0.355216 0.667587 4.18901 30 0 0 
0.48646 0.724276 3.94169 3 0 0 
-0.0813865 0.95154 4.79227 147 124 31 
-0.134673 1.08453 4.8774 202 160 16 
-0.180173 1.1273 4.90075 167 109 0 
-0.312372 1.22464 4.91585 114 102 88 
0.849865 -0.0924883 3.47965 122 90 7 
0.87945 0.0415295 3.3497 86 37 4 
-0.267337 -0.0605444 3.80446 122 107 100 
0.0336532 0.122472 3.62669 190 181 140 
0.0747168 0.126015 3.60849 120 98 57 
-0.366556 0.0927375 3.43325 203 181 132 
-0.133376 0.184044 3.51452 123 106 52 
-0.858044 0.212903 4.57076 182 99 5 
-0.828961 0.24062 4.54058 100 42 0 
-0.755916 0.304699 4.57872 57 28 0 
-1.11316 0.264029 4.38762 150 135 116 
0.413587 0.455546 3.93849 102 95 85 
-0.710897 0.399388 4.48985 185 136 0 
-0.813228 0.440544 4.48622 215 177 32 
-0.615789 0.482036 4.50193 9 4 1 
-0.775075 0.478853 4.46789 174 128 34 
-1.00327 0.484825 4.33511 124 92 31 
-0.121559 0.879 4.78134 220 180 5 
-0.12076 0.907019 4.79383 120 80 0 
-0.0842797 0.931437 4.78123 29 6 0 
-0.12573 1.12062 4.88749 125 75 4 
-0.181168 1.13334 4.92293 161 100 7 
-0.163491 1.19656 4.88823 145 98 6 
-0.319942 1.23515 4.94513 86 73 64 
0.702357 1.4281 4.39647 239 192 18 
0.503257 1.52685 4.35043 230 216 189 
-0.0868037 -0.00594959 3.64404 76 77 59 
-0.0103736 0.00470334 3.65147 115 118 97 
-0.303836 0.0916434 3.45098 225 199 142 
0.449043 0.226816 4.12446 170 140 8 
0.551076 0.397755 3.53759 189 151 6 
0.311274 0.426812 3.98976 55 52 47 
0.674151 0.42586 3.4192 171 172 167 
-0.0412688 0.3901 3.80357 46 5 3 
-0.646609 0.412339 4.45489 107 69 6 
-0.611236 0.427392 4.45741 180 151 25 
-0.691839 0.442771 4.50832 112 60 0 
-0.0677911 0.84764 4.74423 115 72 3 
-0.107995 0.86077 4.76632 220 176 19 
1.61849 1.21005 5.07419 199 189 180 
0.573899 1.02939 4.37498 171 133 10 
-0.285797 1.12471 5.00537 145 109 13 
-0.125328 1.11782 4.87611 130 83 5 
-0.284853 1.14112 5.00072 233 214 172 
-0.162977 1.19353 4.87634 143 93 6 
-0.647044 1.31576 4.92481 114 102 90 
0.733353 1.47123 4.41756 240 194 13 
0.633705 1.48982 4.38122 137 86 0 
0.677137 1.53991 4.37615 164 121 6 
0.671903 1.61199 4.37261 99 77 38 
0.586052 1.61499 4.32614 209 202 186 
0.866958 -0.0225553 3.4638 83 26 0 
-0.221884 0.0641561 3.55695 194 170 110 
0.0156234 0.126141 3.59475 181 163 115 
0.0149152 0.129555 3.66469 139 147 106 
0.44811 0.226633 4.11429 167 138 2 
0.621556 0.283529 3.50408 174 141 8 
0.644196 0.302116 3.4642 178 146 9 
-0.992498 0.265112 4.37211 254 239 216 
-1.03989 0.334722 4.40381 248 198 15 
-1.02082 0.329652 4.32576 222 161 46 
0.42528 0.463613 3.94655 98 91 81 
0.428122 0.466834 3.97773 97 89 78 
-0.690879 0.417283 4.47536 242 202 29 
-0.690604 0.445134 4.49956 113 61 1 
0.0115639 1.08105 4.84416 194 154 7 
-0.0690732 1.08036 4.85299 205 157 11 
0.579525 1.06622 4.29991 231 185 12 
-0.288666 1.11314 4.95263 163 126 12 
-0.154826 1.18192 4.86759 137 89 4 
-0.362823 1.20276 4.97441 210 195 174 
-0.209559 1.22482 4.87887 158 119 2 
-0.21675 1.30422 4.92264 74 59 30 
-0.834291 1.25587 5.02272 112 102 93 
-0.296309 1.30875 4.94814 109 99 90 
-0.579489 1.2758 4.94969 185 174 172 
-0.827585 1.27989 4.98004 189 179 170 
1.25319 1.46975 4.6449 202 191 185 
0.623441 1.41858 4.38554 222 177 14 
0.767112 1.47826 4.43978 236 191 10 
0.515433 1.51195 4.44689 157 136 107 
0.552794 1.50528 4.32142 175 138 34 
0.559793 1.52515 4.38426 133 96 7 
0.680763 1.54968 4.40182 171 127 18 
0.433356 1.55906 4.40671 55 39 24 
0.545883 1.57742 4.36566 60 45 24 
0.474252 1.57944 4.33958 219 207 183 
0.533131 1.65128 4.42467 104 95 90 
0.600044 1.65071 4.31675 140 129 123 
-0.37597 -0.0595485 3.92307 210 188 139 
-0.379169 -0.0468427 3.91462 176 190 139 
-0.154313 0.190093 3.46164 198 176 127 
0.749746 0.137652 3.32539 225 227 206 
0.55857 1.54079 4.39196 119 91 51 
0.680297 0.360217 3.44943 120 119 117 
-0.788814 0.481141 4.4717 224 177 63 
-0.207776 -0.107657 3.71531 0 17 0 
0.787727 0.0983408 3.3612 63 66 19 
-0.209566 1.30748 4.90948 78 63 30 
0.483941 1.54484 4.3461 228 212 189 
-0.3405 0.0881565 3.43558 50 32 12 
-1.04676 0.450235 4.33053 254 233 212 
-1.00658 0.485948 4.32077 120 97 56 
-0.834105 1.25266 5.00807 112 102 93 
-0.646908 1.30639 4.90128 113 101 89 
-0.822411 1.3037 4.92302 126 116 107 
0.502885 1.63154 4.3536 141 131 129 
0.668604 -0.0358031 3.53467 199 190 181 
0.661633 -0.0298547 3.54366 62 52 43 
0.667816 -0.0259126 3.52585 214 206 195 
0.672153 -0.0247599 3.51646 210 202 189 
0.673125 -0.0123651 3.50663 94 84 74 
0.659508 -0.0129559 3.52725 191 181 169 
0.676124 -0.00276636 3.48018 175 116 108 
0.687796 0.00347607 3.46463 106 21 16 
0.67363 0.00287075 3.48802 160 95 91 
0.678638 0.00586255 3.47524 147 106 100 
0.663331 0.00447563 3.51025 157 141 125 
0.679699 0.0112236 3.46665 128 69 61 
0.674818 0.0248847 3.46334 151 93 79 
0.692321 0.0379945 3.40794 67 71 21 
0.673419 0.0322027 3.47092 136 88 74 
0.685312 0.0460715 3.42333 162 173 104 
0.673977 0.0455917 3.4511 111 116 60 
0.701432 0.0577526 3.37693 147 175 64 
0.694872 0.0589242 3.38397 153 175 77 
0.69023 0.0593429 3.39605 174 195 94 
0.684646 0.0565616 3.42096 171 169 131 
0.712618 0.0740991 3.34608 78 101 0 
0.696885 0.0721278 3.37318 141 158 80 
0.684798 0.0683477 3.40652 63 72 5 
0.733177 0.0865425 3.30631 109 130 61 
0.550886 0.0451283 3.46857 255 249 71 
0.713457 0.0929982 3.31683 217 229 181 
0.680332 0.0883173 3.41388 62 41 20 
0.717873 0.103853 3.30413 160 184 98 
0.701562 0.0992261 3.33368 90 110 11 
0.688144 0.119957 3.37254 161 129 114 
0.721544 0.1354 3.25979 209 207 195 
0.692005 0.122579 3.3597 133 119 90 
0.70147 0.129986 3.30399 157 187 75 
0.708352 0.132902 3.2801 143 143 133 
-0.354511 -0.0521383 3.89605 49 41 5 
0.451621 0.117185 3.94669 115 110 88 
-0.107787 0.0447679 3.65397 29 48 28 
0.0524082 0.109032 3.59303 54 39 8 
-0.303902 0.129108 3.44547 151 136 97 
-0.157415 0.188578 3.44358 184 167 115 
-0.58139 0.166248 4.61199 64 48 15 
-0.672507 0.188956 4.54718 73 50 0 
-0.668605 0.191838 4.5371 184 162 86 
-0.64545 0.208901 4.50587 82 78 66 
-0.742458 0.318971 4.55935 176 114 0 
0.434559 0.602912 3.75263 60 43 0 
-0.677293 0.469779 4.47404 162 113 0 
-0.786931 0.482058 4.49889 217 174 79 
-0.247442 -0.346378 4.00011 28 11 0 
0.688388 -0.00828347 3.47342 90 13 3 
0.656747 -0.0133451 3.54736 162 152 142 
0.747361 0.0120987 3.4142 161 145 120 
0.68072 0.0299219 3.45481 165 165 111 
0.677058 0.0572733 3.42796 145 154 61 
0.6937 0.0951158 3.36581 38 46 0 
0.722277 0.10978 3.28572 191 214 136 
0.738892 0.127806 3.25933 221 218 201 
0.719274 0.125425 3.28203 43 46 19 
0.734985 0.14053 3.24392 216 212 200 
0.529878 0.230121 3.54546 24 24 22 
0.630369 0.363949 3.39731 45 44 42 
-0.521853 0.272258 4.499 32 21 3 
-0.581686 0.282622 4.46196 44 43 39 
0.388617 0.498598 3.90855 34 30 29 
-0.486735 0.387047 4.53989 104 71 0 
0.450967 0.579778 3.73356 172 142 32 
-0.95049 0.352644 4.49772 188 119 28 
-0.543667 0.467771 4.52359 89 82 74 
-1.03438 0.366524 4.37071 181 147 73 
-0.889493 0.46623 4.44447 207 133 36 
-0.0616571 0.832321 4.7373 197 158 19 
-0.310434 1.23294 4.9433 103 91 77 
0.854428 0.0411631 3.29625 88 45 0 
0.692004 0.0224082 3.43414 71 85 6 
0.696565 0.0745522 3.38229 90 113 22 
0.724128 0.0850438 3.31634 184 215 95 
-0.364418 -0.0496786 3.90005 183 172 127 
-0.0701134 0.0309814 3.6118 110 95 92 
-0.115977 0.0481294 3.6616 106 119 102 
-0.0907127 0.0595153 3.63746 146 161 140 
-0.216837 0.0725812 3.52106 171 165 117 
0.616293 0.297987 3.42547 178 149 23 
0.506375 0.299528 3.56085 56 55 53 
-0.772631 0.314669 4.5416 222 191 64 
-0.480141 0.379037 4.53767 160 127 22 
-0.771035 0.328102 4.52828 218 181 48 
0.422642 0.543985 3.86077 98 60 0 
-0.545871 0.469517 4.53278 91 89 77 
0.0905452 0.572234 3.91664 61 60 56 
-0.58465 0.474611 4.50326 108 104 101 
0.0894346 0.584329 3.92217 4 3 0 
-0.114857 0.763892 4.81562 209 168 14 
-0.0711857 0.861611 4.75497 105 60 3 
0.590543 1.06248 4.25873 223 179 22 
0.37649 1.05718 4.39123 30 2 0 
-0.123674 1.13395 4.87152 217 175 31 
-0.283274 1.13782 5.01521 227 198 140 
0.735507 -0.0677119 3.573 250 246 235 
0.675273 -0.0134892 3.48954 236 222 213 
0.706061 0.118544 3.30418 80 105 14 
-0.0752773 0.00185133 3.6164 19 36 18 
0.00904301 0.121454 3.59017 152 159 125 
0.0218508 0.120918 3.56892 172 156 123 
0.606737 0.292598 3.44142 159 132 27 
-0.31819 0.141563 3.45962 154 134 97 
-0.334438 0.217273 3.48147 100 81 49 
-0.688137 0.172987 4.55022 227 194 61 
0.418431 0.435388 3.90818 10 7 2 
-0.646743 0.412404 4.44661 113 75 12 
-0.530755 0.471641 4.54533 24 16 0 
-1.04116 0.35962 4.36424 247 224 174 
-0.747528 0.491429 4.46359 139 73 0 
-1.00255 0.483416 4.32324 116 86 22 
-0.133458 0.758997 4.80893 111 67 0 
-0.101102 0.765541 4.77571 147 99 0 
-0.0528008 0.814894 4.72581 193 153 22 
-0.124021 0.875229 4.76156 220 179 9 
-0.0915784 0.88288 4.76064 128 83 0 
0.72936 1.12769 4.2761 47 11 0 
-0.124167 1.12505 4.89991 132 82 0 
-0.214292 1.17789 4.91322 147 93 3 
-0.302092 1.21165 4.9487 146 131 110 
0.549865 1.52267 4.35954 140 106 45 
0.475792 1.53562 4.31451 222 208 182 
0.844735 -0.0887412 3.38164 147 113 49 
0.785078 -0.0809298 3.5933 21 17 16 
0.867063 -0.022416 3.27078 141 116 52 
0.715012 0.175354 3.50673 220 178 16 
0.566664 0.220589 3.54595 182 146 10 
0.693488 0.263534 3.42082 135 77 3 
0.486605 0.249717 4.03648 185 156 39 
0.401046 0.491861 3.90607 85 81 72 
-0.692003 0.441711 4.49967 102 49 0 
-1.03437 0.379867 4.36867 139 102 14 
0.34539 0.660256 4.15043 57 23 0 
-1.00225 0.485306 4.33573 118 88 24 
-0.126363 0.899881 4.7482 114 73 0 
-0.0846044 0.979705 4.80798 62 28 0 
0.589324 1.06523 4.27558 233 185 17 
-0.151264 1.09568 4.90553 123 78 0 
-0.208474 1.17804 4.93108 154 103 14 
-0.340912 1.18054 4.98841 127 111 86 
-0.301124 1.21549 4.96059 138 123 104 
-0.515557 1.29819 4.95111 149 138 132 
0.840612 -0.0929978 3.42472 148 119 49 
0.850531 -0.0222836 3.42697 93 34 0 
-0.0888314 -0.00121328 3.67556 66 71 51 
0.561807 0.219665 3.53222 185 146 7 
0.476788 0.247795 4.0306 183 154 16 
0.622367 0.296959 3.40754 191 155 7 
-0.167455 0.199569 3.44172 81 56 26 
0.601318 0.428877 3.42532 8 7 5 
-0.643089 0.201246 4.4554 23 22 17 
0.51357 0.47049 3.57067 209 161 17 
0.378107 0.510348 3.9375 86 85 80 
-0.47639 0.385322 4.52107 184 147 4 
-0.779694 0.358642 4.48359 227 182 18 
-1.11801 0.305496 4.46685 131 95 9 
0.415364 0.632482 3.98187 21 13 2 
-1.01563 0.36778 4.40262 220 178 6 
-0.690352 0.448424 4.52413 104 48 1 
-0.909262 0.457908 4.43722 231 155 10 
-0.988035 0.468391 4.3796 228 187 11 
0.571614 1.05882 4.27337 233 191 11 
-0.470415 1.05454 5.42528 190 179 173 
-0.23136 1.07138 5.02848 240 193 15 
-0.070235 1.0791 4.84435 209 162 14 
-0.280856 1.13253 5.04305 134 99 5 
-0.188342 1.13898 4.90239 142 87 0 
-0.0460457 1.19753 4.86514 226 182 15 
-0.258209 1.17854 4.96744 163 116 0 
-0.154099 1.183 4.87475 140 93 13 
-0.360329 1.21111 5.00791 210 194 179 
0.752431 1.46447 4.39556 240 201 12 
-0.676124 1.30145 4.96771 189 176 168 
0.4875 1.47921 4.34475 169 150 118 
0.618508 1.51601 4.35908 244 227 199 
-0.827705 1.28109 4.9871 182 171 165 
-0.646344 1.31513 4.93609 109 96 87 
-0.822891 1.30748 4.9426 120 109 103 
1.25302 1.7077 4.18584 143 133 121 
-0.781849 1.33384 4.90654 122 112 103 
0.430902 1.55637 4.39687 50 37 20 
0.689101 -0.00826924 3.5251 137 127 117 
-0.0874153 0.0556876 3.64535 142 158 132 
0.645787 0.365999 3.42095 45 44 42 
0.718298 0.100447 3.36956 159 177 69 
0.502848 0.252344 4.04735 156 132 44 
0.664166 0.360275 3.4166 40 37 32 
0.725962 0.122456 3.32755 69 98 0 
0.459981 0.118124 3.9651 119 114 92 
-0.064767 0.062978 3.6291 44 24 17 
0.681298 0.206478 3.56379 73 38 6 
0.353535 0.664418 4.16514 50 17 0 
-0.18792 1.32101 4.90406 131 107 69 
-0.752654 0.332003 4.51719 111 61 10 
-1.04219 0.357117 4.35442 247 224 174 
-0.617903 0.545305 4.56262 84 72 58 
-1.00186 0.484042 4.32922 116 86 22 
-0.583597 1.28212 4.98187 185 175 166 
-0.675743 1.29398 4.95295 182 169 161 
0.625229 0.392529 3.4447 94 93 89 
-0.158922 0.421466 3.77858 114 99 78 
-1.07602 0.344163 4.38351 239 228 200 
1.23704 1.42883 4.70787 201 191 182 
-0.13572 1.13574 4.87667 222 178 9 
1.25276 1.46834 4.64327 206 196 187 
-0.364224 1.20648 4.99091 210 194 179 
-0.580956 1.27684 4.96089 184 174 165 
-0.646531 1.31447 4.93516 109 96 87 
0.523828 1.518 4.36125 223 207 174 
0.363453 1.54738 4.35395 168 152 136 
0.471016 1.63577 4.36292 192 181 179 
0.587968 1.5098 4.37636 232 187 23 
-0.212788 1.17477 4.91367 154 103 14 
-0.300124 1.30299 4.93633 110 99 97 
-0.366759 1.20388 4.98001 210 194 179 
-0.211345 1.22336 4.86746 146 108 0 
0.675556 -0.0243856 3.52205 204 196 185 
0.698563 0.00566639 3.46083 182 118 108 
0.688239 0.00368512 3.46538 107 19 15 
0.665489 -0.00682353 3.53855 90 79 59 
0.681604 0.00571864 3.47978 149 114 110 
0.66835 -0.00162634 3.52655 176 163 147 
0.674704 0.00793072 3.49884 152 92 91 
0.704131 0.0592737 3.398 151 176 82 
0.676825 0.0434305 3.47274 120 106 80 
0.679178 0.0454053 3.45927 129 134 76 
0.693781 0.0551568 3.41479 207 204 169 
0.690957 0.0590928 3.40638 68 78 18 
0.688314 0.05693 3.4267 138 137 106 
0.699892 0.0658628 3.3894 91 120 4 
0.711975 0.0728216 3.36646 171 184 105 
0.744625 0.0863771 3.32293 114 125 56 
0.677655 0.0534104 3.47771 104 106 56 
0.717225 0.0790668 3.35326 180 194 109 
0.729327 0.0853054 3.33031 159 179 84 
0.703637 0.0771708 3.37429 158 150 111 
0.685702 0.0690671 3.41929 175 169 143 
0.681786 0.0673703 3.44201 136 145 52 
0.725547 0.0968314 3.32425 215 226 170 
0.696371 0.0858822 3.37779 155 146 103 
0.718618 0.0966796 3.33163 202 209 165 
0.72065 0.103685 3.31633 76 95 16 
0.689716 0.0879804 3.39862 59 51 14 
0.746429 0.126939 3.26978 210 209 188 
0.725524 0.125643 3.291 34 39 17 
0.694625 0.112456 3.3843 114 87 68 
0.733748 0.152394 3.24663 60 56 44 
0.711178 0.152745 3.29612 132 122 113 
-0.46324 0.0271703 3.50636 64 45 2 
-0.930439 0.248229 4.36765 255 255 146 
-0.67834 0.469682 4.47003 153 97 0 
-0.31674 -0.341512 4.04537 33 16 0 
0.670611 -0.0288114 3.53969 101 93 82 
0.674309 -0.022316 3.53214 103 93 83 
0.679961 -0.00802243 3.51071 114 100 89 
0.697768 0.0215899 3.44502 69 82 10 
0.660995 -0.00109581 3.55336 59 50 33 
0.684366 0.016898 3.46518 177 104 97 
0.690931 0.0206324 3.45534 144 155 95 
0.702422 0.029512 3.42236 177 189 113 
0.698909 0.0283536 3.4323 65 80 0 
0.679517 0.0237687 3.4703 173 90 76 
0.696511 0.0390741 3.42766 167 187 92 
0.69744 0.0815758 3.38743 142 156 69 
0.713451 0.0898178 3.35042 97 86 20 
0.684102 0.0755528 3.43539 173 161 135 
0.735987 0.1088 3.29701 95 107 43 
0.692686 0.0960786 3.38108 151 141 88 
0.727273 0.117219 3.29861 86 101 36 
0.707361 0.131689 3.30813 81 109 0 
0.715393 0.139071 3.30147 58 65 32 
0.725688 0.145594 3.25817 38 39 25 
0.719274 0.160057 3.26154 101 101 93 
0.702521 0.163521 3.32807 114 106 44 
-0.113167 0.00720844 3.6509 96 115 93 
0.524676 0.246317 3.54213 34 34 34 
-0.522414 0.0594316 3.23585 183 161 124 
-0.306636 0.128549 3.43735 170 153 110 
0.544803 0.386009 3.51376 177 150 19 
-0.57383 0.183395 4.52647 91 71 21 
0.383493 0.516701 3.92202 55 54 52 
-1.00891 0.464235 4.30764 241 220 157 
-0.246344 -0.34613 4.00415 40 16 0 
-0.264429 -0.335249 4.00024 46 26 0 
0.666818 -0.0270439 3.55617 103 96 80 
0.698037 0.0058049 3.44486 234 227 209 
0.681081 0.0143049 3.47515 98 33 29 
0.684051 0.0312674 3.45933 158 170 98 
0.685925 0.0377308 3.43217 41 51 1 
0.720416 0.0847988 3.34105 95 106 30 
0.70344 0.0879606 3.34272 127 95 46 
0.710951 0.0939641 3.33991 164 187 71 
0.697609 0.0886453 3.36873 127 128 88 
0.687112 0.086064 3.41008 189 171 151 
0.699189 0.103352 3.37078 147 164 68 
0.714684 0.121307 3.31195 66 92 0 
0.738194 0.137573 3.2522 205 202 187 
0.705228 0.144841 3.30608 53 66 13 
0.712972 0.15856 3.2794 31 34 5 
-0.225871 -0.0975771 3.67619 78 142 107 
-0.268341 -0.0254204 3.78072 43 23 14 
0.624872 0.287609 3.43609 103 62 0 
0.500836 0.332493 3.58705 160 137 25 
0.633347 0.403451 3.39641 117 116 112 
-0.145109 0.182499 3.45481 134 114 63 
-0.758646 0.219132 4.55851 122 64 0 
0.43105 0.614173 3.74528 242 211 86 
0.468943 0.630903 3.77036 90 47 0 
-0.610675 0.289382 4.45139 49 46 41 
-0.816105 0.22561 4.55203 238 193 30 
-0.483203 0.378319 4.52407 174 143 18 
-0.949237 0.251946 4.32451 182 155 84 
-0.11334 0.765652 4.82102 217 174 20 
-0.916834 0.455533 4.44267 228 150 14 
-0.126851 1.13076 4.85977 223 179 18 
0.708417 0.0841097 3.36015 70 55 22 
0.744644 0.110859 3.29138 240 235 215 
0.706417 0.118316 3.30474 80 107 10 
0.710688 0.141345 3.29245 34 34 24 
-0.277463 -0.0328275 3.78553 33 19 8 
0.0444447 0.128198 3.56282 201 184 132 
-0.34701 0.082509 3.42125 24 11 0 
-0.449995 0.062901 3.47371 177 156 111 
-0.576745 0.181594 4.54168 62 51 6 
-0.671814 0.192971 4.51057 149 130 53 
0.425622 0.591338 3.74174 13 0 0 
-0.82614 0.221142 4.55351 161 97 0 
-0.503467 0.348218 4.4979 18 9 4 
-1.11501 0.261447 4.38476 143 127 111 
-1.08306 0.28139 4.39195 217 194 162 
-0.791992 0.481717 4.47425 218 177 23 
-0.081679 0.789105 4.73182 161 116 1 
0.558939 1.0166 4.31994 184 146 11 
-0.123626 0.901666 4.75744 124 83 0 
0.377608 1.1246 4.40847 39 23 0 
0.724351 -0.015138 3.53477 243 231 219 
0.734422 0.22361 3.43152 222 180 20 
-0.0542139 0.0259223 3.60804 45 12 7 
-0.263749 -0.0258643 3.76625 57 43 32 
-0.283831 -0.0246957 3.77716 170 179 160 
0.697825 0.26536 3.428 119 64 0 
0.538639 0.388535 3.50651 196 160 10 
-0.340426 0.215725 3.46373 100 80 45 
0.415198 0.45911 3.90603 101 95 83 
0.382789 0.501718 3.9022 10 8 11 
0.421082 0.611792 3.8843 32 17 0 
-0.727422 0.348017 4.49886 177 122 0 
-0.6173 0.390791 4.42701 126 103 33 
-1.06723 0.401279 4.35252 164 146 126 
-0.0737963 0.845595 4.72808 108 68 6 
0.541223 1.61095 4.34224 173 161 163 
0.854902 -0.0912322 3.39559 164 138 77 
0.674418 1.09821e-05 3.50443 222 204 194 
0.5839 0.190761 3.51613 187 146 6 
0.709861 0.279613 3.41946 230 177 13 
0.632753 0.30019 3.4247 185 146 9 
0.520723 0.366003 3.78723 11 12 7 
0.398058 0.520758 3.97186 82 81 77 
-0.498866 0.375682 4.54327 78 59 16 
-0.618822 0.427152 4.43031 171 141 27 
-0.696486 0.420129 4.47124 235 190 11 
-1.13229 0.27067 4.39924 211 194 176 
-1.03145 0.339962 4.50631 171 106 22 
-1.10241 0.369395 4.37335 237 213 175 
-0.912034 0.45604 4.41509 230 154 9 
-0.878039 0.469712 4.45878 124 61 7 
-0.240657 0.800229 4.88018 173 130 15 
-0.12676 0.873179 4.75398 225 182 8 
1.3369 1.45972 4.60729 193 182 176 
1.31381 1.4718 4.65907 158 148 136 
-0.0459129 1.19752 4.8644 220 173 5 
1.23967 1.70028 4.16636 148 138 129 
-0.224651 1.29634 4.87844 91 69 20 
0.527675 1.56076 4.32464 91 76 69 
0.418809 1.54751 4.3704 61 47 36 
0.596076 1.60813 4.30999 218 206 190 
0.462909 1.56272 4.3058 221 208 191 
0.518193 1.60859 4.31039 178 168 169 
0.673409 -0.0245812 3.51985 204 196 185 
0.698645 0.00742117 3.44988 193 188 166 
0.687947 0.00358097 3.46509 107 19 15 
0.736808 0.0646202 3.34416 117 142 41 
0.678131 0.0390443 3.45152 54 68 0 
0.688912 0.0590083 3.4043 68 78 18 
0.707942 0.07157 3.36231 171 184 105 
0.711385 0.0761252 3.35258 113 129 41 
0.699652 0.0767101 3.37036 158 150 111 
0.714295 0.0847652 3.33761 111 126 41 
0.731418 0.118263 3.28327 164 169 129 
0.716499 0.113741 3.30101 123 151 40 
0.723058 0.126072 3.28008 177 179 155 
0.712252 0.158921 3.26761 153 158 117 
-0.323268 0.157623 3.45268 156 136 103 
0.835953 -0.13571 3.50922 255 229 119 
0.675301 -0.0083818 3.50593 114 100 89 
0.682144 0.016836 3.46294 177 104 97 
0.684008 0.0729014 3.41515 113 102 84 
0.719936 0.116955 3.29179 86 101 36 
-0.109426 0.0451297 3.64442 16 29 12 
0.0518178 0.124103 3.56706 207 183 135 
-0.390134 0.0848084 3.44649 186 164 125 
0.497274 0.47735 3.56598 117 79 0 
-0.584964 0.277165 4.46337 17 17 9 
-0.606286 0.399325 4.45363 103 87 38 
-0.247216 -0.345991 4.00264 40 16 0 
0.707932 0.0879674 3.34691 127 95 46 
-0.271906 -0.00944064 3.76727 0 26 1 
-0.322836 0.148638 3.44906 154 132 95 
0.419508 0.542551 3.84674 99 62 0 
0.450076 0.57971 3.73097 184 147 30 
-0.825705 0.221017 4.55976 158 92 0 
-0.773381 0.477965 4.47728 217 170 38 
-1.00971 0.464929 4.311 242 220 160 
0.70788 0.0927141 3.33145 178 205 90 
0.696151 0.093921 3.359 25 31 0 
0.715285 0.170644 3.51182 215 175 26 
-0.813148 0.439483 4.48222 205 162 23 
-1.00258 0.483172 4.32709 127 95 20 
-0.125741 0.900419 4.7528 124 83 0 
0.376868 0.456864 3.92601 104 104 96 
0.384354 0.502214 3.90431 10 8 11 
0.584713 1.06158 4.25994 223 180 13 
-0.0856247 0.9776 4.79959 83 50 0 
-0.780759 0.471055 4.48429 63 28 8 
1.34487 1.46336 4.61638 193 182 176 
1.25212 1.46772 4.64111 202 192 182 
0.619786 1.41379 4.37353 220 177 3 
0.614422 1.50956 4.34358 247 226 183 
0.706766 0.0541807 3.42107 134 136 99 
-0.316479 0.158594 3.4637 156 136 103 
0.734559 0.0955155 3.33597 216 224 175 
-0.297768 0.129855 3.45148 170 153 110 
-0.0430362 0.0268063 3.6197 26 3 0 
-0.812653 0.440144 4.48391 205 162 23 
-1.03075 0.378876 4.37658 138 100 15 
-0.319261 1.23212 4.93864 77 62 55 
-0.616747 1.28571 4.98107 153 140 132 
0.515395 1.57286 4.33355 222 210 188 
1.25237 1.46723 4.64108 202 192 182 
0.543866 1.57185 4.34763 91 76 69 
-0.677784 1.29849 4.96556 188 175 166 
-0.342703 1.17663 4.96794 131 114 94 
-0.299637 1.30993 4.93604 108 98 89 
-0.26634 1.31829 4.90971 128 117 111 
0.828997 -0.153292 3.47499 179 155 107 
0.740098 -0.0405843 3.50409 114 99 78 
0.659148 -0.035673 3.52811 230 221 214 
0.667775 -0.0242736 3.51499 244 234 224 
0.662996 -0.0256451 3.52351 230 220 210 
0.656673 -0.0230686 3.51373 50 40 30 
0.678491 -0.00800761 3.4858 67 9 8 
0.695695 0.00544937 3.45814 193 134 128 
0.690913 0.00393964 3.46816 63 0 0 
0.675164 -0.00756546 3.50551 84 70 57 
0.668503 0.00266461 3.48574 181 117 108 
0.679395 0.00535748 3.47741 177 135 136 
0.700676 0.0213047 3.44801 27 39 0 
0.675527 0.0161738 3.45618 179 119 111 
0.678217 0.0143099 3.47052 47 0 0 
0.699661 0.0212893 3.46419 174 176 136 
0.650476 0.00145893 3.53174 28 16 4 
0.688425 0.030393 3.45854 177 189 127 
0.681405 0.0243126 3.47192 153 94 86 
0.695904 0.039459 3.42673 172 179 125 
0.706595 0.0548793 3.40253 45 68 0 
0.700248 0.0606747 3.39126 186 211 119 
0.784326 0.0981258 3.31606 77 61 10 
0.676215 0.0295115 3.51532 137 85 72 
0.699817 0.0557248 3.42065 224 225 193 
0.770201 0.0948376 3.32508 66 87 0 
0.755284 0.0873091 3.34109 41 62 0 
0.670631 0.0450167 3.4504 146 151 111 
0.698881 0.0568163 3.43463 208 197 179 
0.707643 0.0714052 3.38295 175 178 123 
0.719938 0.0743389 3.38189 48 53 0 
0.731712 0.0838007 3.35132 43 58 0 
0.734228 0.0897862 3.33775 42 54 0 
0.704451 0.0731778 3.42158 171 187 114 
0.695286 0.0792124 3.38196 163 172 107 
0.748522 0.109783 3.30866 24 34 0 
0.681617 0.0728322 3.4128 55 46 17 
0.739707 0.104891 3.32745 182 204 131 
0.671221 0.058861 3.47514 123 111 71 
0.726125 0.101634 3.33277 241 249 200 
0.701432 0.0882722 3.3857 180 173 129 
0.734583 0.117758 3.30537 35 46 0 
0.74843 0.126621 3.28482 181 181 157 
0.690898 0.0865212 3.40732 199 170 152 
0.727907 0.125694 3.29311 37 44 11 
0.679034 0.0867313 3.42344 168 152 139 
0.748566 0.128827 3.3021 236 238 214 
0.700172 0.0975235 3.39922 32 2 0 
0.699718 0.0903005 3.43513 19 5 0 
0.682252 0.0893737 3.43318 43 29 16 
0.673347 0.0762938 3.49118 163 134 92 
0.755794 0.150838 3.26276 197 191 179 
-0.0895867 -0.131123 3.63367 63 98 74 
0.708494 0.131704 3.30895 51 70 0 
0.745638 0.1479 3.27627 13 17 2 
0.711173 0.142079 3.31114 38 52 0 
0.730478 0.153148 3.28512 223 222 201 
0.708503 0.141057 3.32211 27 45 0 
0.73657 0.161995 3.2773 91 93 80 
0.70272 0.141081 3.3694 118 109 70 
0.706983 0.15268 3.35258 139 118 87 
0.715715 0.176688 3.32234 65 41 29 
0.720075 0.185015 3.31459 31 6 0 
-0.0815904 0.00107969 3.60906 42 43 27 
-0.269027 -0.0565853 3.7738 127 117 108 
0.518779 0.229124 3.5345 24 24 14 
-0.0650816 0.0647678 3.6146 32 4 1 
0.620955 0.28892 3.43415 77 38 0 
0.0623056 0.117497 3.56694 104 81 37 
0.512986 0.245101 3.52899 12 8 9 
0.02736 0.126215 3.56972 76 57 17 
-0.320401 -0.00453923 4.68938 14 14 6 
-0.326745 0.000456271 4.68024 156 157 152 
0.479728 0.472787 3.5458 105 65 0 
0.449173 0.425965 3.86965 18 3 0 
-0.3665 0.222762 3.57985 44 17 6 
0.367613 0.506394 3.89956 12 11 9 
0.441155 0.621946 3.73852 82 48 0 
-0.61143 0.263255 4.43545 26 27 22 
-0.615054 0.264589 4.44579 82 81 76 
-0.595934 0.27372 4.43378 22 20 21 
-0.797101 0.475466 4.4503 221 182 81 
0.855653 -0.0229181 3.41028 83 28 0 
0.669815 -0.040363 3.53829 62 53 46 
0.688478 -0.00851624 3.47371 64 0 0 
0.666858 0.0182298 3.49608 159 91 80 
0.753633 0.0855713 3.31721 63 67 0 
0.683925 0.0399414 3.45764 16 26 0 
0.681099 0.0452808 3.42341 176 187 121 
0.696127 0.0654553 3.35278 114 138 40 
0.808883 0.100688 3.32757 253 223 173 
0.697476 0.0788989 3.41367 39 40 0 
0.673488 0.0749658 3.44154 136 137 67 
0.756027 0.130089 3.27619 244 238 224 
0.674202 0.0670159 3.49484 133 86 58 
0.762225 0.130903 3.31274 236 238 214 
0.704095 0.11216 3.38268 25 19 0 
0.724111 0.140073 3.30846 18 21 0 
0.69067 0.107074 3.43578 21 0 0 
0.765777 0.158196 3.27757 38 34 22 
0.708098 0.13213 3.36467 143 147 97 
0.453452 0.0539321 3.47627 187 168 138 
0.717234 0.158813 3.32072 178 171 143 
0.520007 0.117763 3.4735 90 49 0 
0.737663 0.232854 3.28378 82 66 33 
-0.090561 -0.00390484 3.60653 100 78 67 
0.52837 0.223935 3.54094 113 111 99 
-0.259991 -0.0181176 3.74253 21 39 13 
-0.0484488 0.0747113 3.61559 105 116 102 
-0.314328 0.0876541 3.4206 74 55 13 
-0.388695 0.0840311 3.4653 179 154 123 
0.621239 0.400613 3.38493 119 115 112 
-0.295297 0.135748 3.44265 106 82 44 
0.52483 0.383512 3.49266 197 164 61 
-0.266181 -0.0123618 4.61849 224 206 122 
0.520624 0.357412 3.9788 44 28 5 
-0.372779 0.0335716 4.70373 94 93 88 
0.439331 0.429032 3.86797 78 66 42 
0.49295 0.471911 3.70108 56 11 0 
0.482036 0.483837 3.69714 187 147 25 
0.376029 0.452284 3.89417 34 30 29 
0.433584 0.567879 3.71859 117 76 0 
-0.670247 0.192665 4.51586 192 169 99 
0.455807 0.668027 3.87179 85 72 40 
0.451273 0.706821 3.90219 5 6 1 
-0.495618 0.384532 4.5075 111 77 0 
0.84762 -0.152243 3.49266 173 144 86 
0.814017 -0.15793 3.52697 228 206 185 
0.899746 -0.112201 3.41279 172 158 123 
0.808026 -0.141141 3.52634 132 91 11 
0.862518 -0.0814034 3.41945 255 255 147 
0.861395 -0.0213682 3.43975 84 29 0 
0.740255 -0.0307273 3.48632 150 134 118 
0.6666 -0.0227135 3.53243 66 56 46 
0.684731 0.0116138 3.42476 56 57 26 
0.68796 0.038399 3.43418 25 34 0 
0.674815 0.0332573 3.45536 166 173 103 
0.677024 0.0335562 3.48003 148 102 89 
0.675352 0.0439015 3.5286 68 23 0 
0.745924 0.0957608 3.36822 179 197 98 
0.665713 0.0589508 3.44307 18 17 0 
0.70907 0.0866477 3.37634 163 164 122 
0.687473 0.0740699 3.45522 137 142 60 
0.748191 0.122993 3.32876 176 203 98 
0.461951 0.0346637 3.49776 107 84 30 
0.716418 0.146368 3.31676 11 20 0 
0.715645 0.171317 3.51254 211 166 39 
0.739735 0.225017 3.43273 233 183 36 
-0.0502697 0.0343271 3.59749 64 39 34 
-0.070764 0.0328937 3.60539 131 112 106 
0.629887 0.263695 3.42153 118 68 0 
-0.0429359 0.0544852 3.61594 60 33 26 
-0.0205919 0.0589115 3.62783 107 126 104 
-0.260458 -0.0140042 3.76153 165 180 159 
-0.0828146 0.0612888 3.59831 32 2 0 
0.487662 0.265325 3.5541 40 39 35 
0.624505 0.364311 3.40419 113 112 110 
0.650782 0.386626 3.35812 120 119 115 
0.491437 0.330496 3.57609 160 131 29 
0.533969 0.398583 3.47182 184 154 40 
0.526048 0.369345 3.87035 100 88 48 
0.468618 0.458094 3.55556 212 174 27 
0.499771 0.476585 3.54853 214 171 15 
0.385505 0.49113 3.88534 92 88 85 
0.387155 0.535766 3.85669 17 5 0 
-0.189493 0.323933 4.48615 15 14 12 
0.635499 0.679359 3.70014 105 66 7 
-0.558201 0.260598 4.44935 53 52 47 
0.517815 0.727698 3.8775 18 13 10 
-0.622513 0.41391 4.43378 151 128 26 
-0.721334 0.395592 4.46305 171 120 0 
-0.110794 0.759379 4.74494 162 117 0 
-0.168651 0.748781 4.79956 203 154 36 
-0.0734882 0.79114 4.70259 224 185 28 
-0.0779847 0.860273 4.73109 78 33 0 
-0.879861 0.571625 4.38652 236 175 69 
-0.100601 0.880059 4.73777 107 61 0 
-0.0420762 1.19108 4.8437 217 176 32 
0.81859 -0.142838 3.53405 123 86 8 
0.852783 -0.0953146 3.49019 164 107 0 
0.65249 -0.0179829 3.44784 58 7 6 
0.653029 -0.0234712 3.55569 199 185 174 
0.779148 0.0827957 3.33803 255 241 196 
0.681894 0.049807 3.45498 23 21 0 
0.722302 0.106829 3.34645 33 54 0 
0.746398 0.135479 3.29413 228 227 209 
0.683383 0.09988 3.42388 20 0 0 
0.746934 0.140195 3.3959 130 136 74 
0.77057 0.230058 3.34765 158 125 46 
0.675565 0.185466 3.54967 32 2 0 
-0.0276588 0.0109274 3.59664 116 127 111 
-0.0411608 0.0110853 3.60113 16 33 15 
0.686557 0.263864 3.41738 120 66 6 
-0.277311 -0.0262864 3.78918 180 181 165 
0.531185 0.241555 3.5471 32 31 27 
0.665134 0.389984 3.37218 117 118 112 
-0.289142 0.179288 3.42058 87 64 22 
-0.520814 0.0947735 3.63129 70 47 6 
-0.3782 0.184332 4.46944 57 56 52 
-0.389714 0.214065 4.5176 30 19 0 
-0.732661 0.345512 4.4834 177 129 0 
-0.616321 0.391864 4.43092 128 110 44 
-0.871663 0.472037 4.43404 197 152 27 
-0.128959 0.898412 4.74558 125 79 0 
-0.0945306 0.971812 4.78008 67 35 0 
-0.493727 1.06979 5.36077 180 170 161 
0.612363 1.60526 4.28253 145 135 125 
-0.656004 1.30765 4.89425 112 99 91 
0.913669 -0.1285 3.43461 238 227 209 
0.879876 -0.0909966 3.4672 118 84 20 
0.862373 -0.035353 3.37253 166 103 6 
-0.0812521 -0.21823 3.62452 101 0 7 
-0.151947 -0.23576 3.62938 95 0 7 
0.715358 0.0669993 3.34587 189 225 93 
0.726024 0.0886054 3.38042 63 52 24 
0.702602 0.0912668 3.4132 64 33 4 
0.712552 0.106419 3.37065 147 173 63 
0.686897 0.173557 3.48031 225 179 21 
0.837391 0.230214 3.48608 93 43 8 
0.474222 0.469105 3.52015 223 172 18 
0.395461 0.537912 3.82619 98 60 0 
0.649021 0.683745 3.71973 106 57 1 
-0.613334 0.429082 4.44596 182 153 23 
-0.691628 0.43812 4.47572 89 42 0 
-0.0740647 0.741846 4.76879 131 96 0 
-0.140176 0.755377 4.80356 111 68 0 
-0.175255 0.746755 4.78724 203 154 36 
-0.133497 0.869184 4.73908 233 191 17 
-0.432812 1.04025 5.37813 99 85 76 
-0.173377 1.17864 4.83569 152 101 0 
0.664197 1.52048 4.32602 185 138 30 
-0.29937 1.13312 4.96653 243 220 176 
0.0344797 1.31213 4.86406 102 87 68 
0.513054 1.55025 4.3032 108 90 78 
0.47177 1.56919 4.31919 224 209 188 
0.46841 1.6247 4.34909 186 175 173 
-0.83668 1.27117 4.95238 193 180 174 
0.376551 0.510388 3.82899 155 122 7 
-0.243206 1.06102 4.97902 240 196 11 
0.070381 1.29502 4.93419 164 148 133 
-0.377725 1.19519 4.94734 221 206 187 
0.864103 -0.0808583 3.42116 255 255 147 
0.671666 -0.0360338 3.53959 230 221 214 
0.678527 -0.024902 3.51694 36 26 16 
0.671169 -0.0261986 3.53121 230 220 210 
0.665379 -0.0293929 3.54981 55 42 33 
0.67377 -0.0124163 3.50765 60 51 42 
0.698723 0.00532582 3.46095 193 134 128 
0.683207 -0.00313198 3.49133 181 119 120 
0.689002 0.00365487 3.46653 63 0 0 
0.6808 0.00579842 3.47862 177 135 136 
0.682476 0.0167437 3.46221 179 119 111 
0.701931 0.0306305 3.42202 212 215 162 
0.692859 0.0207537 3.45836 174 176 136 
0.667015 0.00350172 3.52349 53 42 24 
0.661143 0.00166012 3.54117 28 16 4 
0.678615 0.0243194 3.46899 153 94 86 
0.694986 0.0395738 3.4254 172 179 125 
0.713651 0.059851 3.38617 46 70 0 
0.713177 0.0637207 3.37455 156 176 87 
0.700358 0.0540387 3.41427 60 67 16 
0.698189 0.0588203 3.39936 59 78 0 
0.703898 0.0649104 3.3854 177 191 114 
0.675008 0.0432787 3.4698 132 120 98 
0.676573 0.0455256 3.45519 146 151 111 
0.692267 0.0597739 3.40864 67 78 12 
0.709155 0.0802371 3.36501 40 41 0 
0.690156 0.0618502 3.43315 44 36 17 
0.687592 0.0685311 3.41079 47 50 3 
0.730491 0.0957106 3.32228 40 57 0 
0.676665 0.0531527 3.47613 141 131 96 
0.697504 0.0790044 3.38396 163 172 107 
0.734331 0.110066 3.30335 216 229 160 
0.677244 0.0662537 3.45021 16 20 0 
0.683134 0.0751778 3.43603 172 161 139 
0.716685 0.109017 3.32561 189 199 138 
0.740184 0.126577 3.278 181 181 157 
0.696944 0.0962494 3.3749 21 23 0 
0.725572 0.125814 3.29119 37 44 11 
0.689747 0.0972602 3.39018 32 2 0 
0.711967 0.119176 3.32516 100 124 36 
0.731052 0.136245 3.27357 220 222 201 
0.747214 0.144476 3.25356 92 82 72 
0.694471 0.112771 3.38439 163 132 111 
0.710919 0.130578 3.31799 168 188 93 
0.72806 0.146548 3.26187 13 17 2 
0.70626 0.140851 3.3202 27 45 0 
0.709893 0.156547 3.31451 186 181 151 
0.702892 0.152046 3.34909 139 118 87 
0.71542 0.176196 3.27724 138 109 95 
0.740706 0.232033 3.41098 214 165 70 
-0.273374 -0.0630352 3.76694 124 105 99 
-0.0973131 0.0555613 3.62006 173 182 163 
-0.458356 0.175521 3.58117 146 131 92 
-0.614738 0.263938 4.44653 82 81 76 
0.706596 -0.0162466 3.49694 58 7 6 
0.670545 -0.0111288 3.51678 233 224 215 
0.688321 0.0113466 3.44584 42 36 0 
0.719766 0.097339 3.32317 240 251 195 
0.719189 0.128839 3.30341 60 76 5 
0.735789 0.155806 3.25328 38 34 22 
0.722196 0.161101 3.26608 106 110 95 
0.608738 0.291947 3.4412 159 138 47 
-0.344015 0.0831975 3.43009 34 18 0 
-0.634046 0.222365 4.47229 105 98 88 
0.467676 0.672018 3.88371 85 72 40 
-0.100331 0.737974 4.78765 194 160 36 
0.811095 -0.0789011 3.51665 77 21 0 
0.707023 -0.00396541 3.46812 144 103 97 
0.685999 0.0379252 3.43221 25 34 0 
0.701802 0.086307 3.36978 163 164 122 
0.725024 0.110051 3.31271 59 86 9 
0.68908 0.0860126 3.41317 201 180 159 
0.725882 0.121106 3.31023 176 203 98 
0.732653 0.136397 3.28472 239 237 222 
0.717447 0.152254 3.27753 209 208 188 
0.49795 0.331972 3.58201 160 131 29 
-0.507542 0.07927 3.60707 68 45 4 
-0.777424 0.477786 4.46547 212 164 28 
-0.618897 1.28161 4.96603 167 154 145 
0.822882 -0.107091 3.42058 221 202 185 
0.73407 0.223945 3.43118 230 179 26 
0.697825 0.264417 3.4275 120 66 6 
0.633251 0.266029 3.42626 107 56 0 
-0.308002 0.130579 3.44079 183 161 120 
-0.324095 0.140243 3.44254 166 144 95 
-0.728521 0.346562 4.49153 177 129 0 
-0.0865662 1.07461 4.83313 218 169 14 
-0.106541 1.17942 4.87372 223 179 30 
-0.228583 1.19199 4.88345 240 213 166 
-0.516268 1.29674 4.94745 150 137 131 
0.727078 -0.0646546 3.56755 200 195 189 
-0.10239 -0.128996 3.62485 27 111 59 
0.704938 0.13125 3.30386 96 121 20 
0.496713 0.473587 3.54131 223 172 18 
0.379273 0.500313 3.89489 11 9 10 
0.551445 1.01316 4.30407 186 148 13 
-0.137361 0.755184 4.8086 111 68 0 
-0.191216 0.75268 4.84294 203 165 30 
-0.147528 0.813777 4.77061 181 132 13 
0.521946 1.55576 4.31271 108 90 78 
0.370852 1.54061 4.3424 185 172 155 
-0.727081 0.448276 4.46998 108 63 0 
-0.807922 0.446569 4.45547 229 188 10 
-0.150958 0.811718 4.75855 157 106 0 
-0.245057 1.06096 4.97437 240 196 11 
-0.485799 1.07008 5.37312 199 186 180 
-0.268011 1.16933 4.92834 198 151 9 
-0.650937 1.30811 4.90944 113 100 92 
-0.785207 1.32786 4.88349 121 111 102 
0.803628 -0.13799 3.52687 144 100 3 
0.683349 0.0768343 3.41053 179 170 139 
0.708815 0.136037 3.30214 177 190 120 
0.73312 0.152478 3.24846 13 9 0 
0.738139 0.241681 3.38609 171 125 13 
-0.3551 0.0893595 3.42666 138 118 81 
-0.226766 0.214757 3.42896 255 251 207 
0.495353 0.47629 3.56011 105 65 0 
-0.284008 -0.0276483 3.80234 112 124 104 
0.624395 0.282682 3.43092 90 43 0 
0.515542 0.368432 3.51182 186 160 63 
-0.210963 1.31684 4.89791 193 176 160 
-0.515633 1.29709 4.94864 150 137 131 
0.394722 1.55249 4.37131 185 172 155 
-0.827444 1.27794 4.97047 193 180 174 
-0.690855 0.417719 4.48367 240 199 13 
0.614251 1.40881 4.35541 235 194 16 
-0.288036 1.14722 4.98781 239 223 187 
0.710286 0.0536638 3.41373 211 225 148 
0.736982 0.111257 3.31235 39 60 0 
-0.0869263 0.0558763 3.63212 173 182 163 
-0.589946 1.28053 4.98411 189 176 167 
0.514829 1.56977 4.32639 224 211 194 
