ply                 
format ascii 1.0    
element vertex 1226
property float x    
property float y    
property float z    
property uchar red  
property uchar green
property uchar blue 
end_header          
0.10999 -0.109333 3.66659 44 120 81 
0.775886 -0.0314081 3.50818 83 68 49 
0.719504 -0.0142045 3.49404 190 109 105 
-0.00649852 -0.00820407 3.6151 111 136 115 
0.720901 0.0469496 3.41892 193 204 136 
0.720452 0.05108 3.41589 40 55 0 
0.76543 0.0505293 3.37675 68 77 24 
0.717847 0.0521064 3.42259 183 195 123 
0.766613 0.05376 3.37047 195 216 125 
0.788993 0.0535098 3.3693 208 196 170 
0.72945 0.0575652 3.39531 157 170 116 
0.738533 0.0647437 3.37556 185 216 113 
0.777283 0.0702196 3.3515 226 238 172 
0.72951 0.0729069 3.37853 31 28 0 
0.737839 0.0726069 3.36668 186 199 127 
0.775322 0.0743366 3.33654 229 236 194 
0.752572 0.0749546 3.34737 46 67 0 
0.751098 0.0780644 3.34752 199 217 133 
0.773229 0.0779451 3.335 247 255 201 
0.757805 0.0797093 3.34239 18 37 0 
0.0579789 0.102314 3.59825 52 41 9 
0.0708136 0.104553 3.58949 199 182 136 
0.744861 0.0987511 3.32909 176 194 118 
0.0330525 0.113908 3.5858 183 173 138 
0.749629 0.105914 3.3125 194 213 149 
0.0801112 0.115616 3.58031 102 76 25 
0.755787 0.113098 3.30136 185 189 152 
0.753727 0.118946 3.29334 228 233 193 
0.766174 0.120176 3.28244 238 236 223 
-0.167592 0.128475 3.47559 43 38 0 
-0.326687 0.152078 3.44885 159 140 100 
0.751514 0.146862 3.26695 125 119 107 
0.755704 0.147092 3.26223 59 53 41 
0.17098 0.555554 3.94123 4 0 0 
0.153127 0.555525 3.927 3 0 0 
-0.0214204 -0.0079813 3.60633 100 121 106 
-0.00670881 -0.00811676 3.61596 109 132 112 
0.713994 0.000767202 3.48616 186 115 113 
-0.0684759 0.0240898 3.61362 123 111 99 
0.521019 0.0425146 3.46921 219 196 154 
-0.0930237 0.0540993 3.63011 171 186 167 
0.590479 0.0656902 3.48029 73 21 0 
0.0442363 0.0915614 3.61288 98 112 77 
0.756093 0.103362 3.30742 35 45 0 
0.0116003 0.113449 3.58503 172 178 134 
0.0662306 0.111666 3.58262 192 173 131 
0.75766 0.10589 3.29802 239 237 214 
0.0543326 0.116081 3.57177 202 183 141 
0.0389096 0.121839 3.56559 96 74 37 
-0.308281 0.122998 3.43409 168 151 108 
0.0127543 0.191122 3.52754 77 54 10 
-0.894181 0.580944 4.42997 214 152 29 
0.171162 0.555099 3.9399 7 2 0 
0.153026 0.555745 3.92768 3 0 0 
0.702282 -0.0350078 3.54271 49 40 35 
0.520394 0.0426542 3.47511 217 197 160 
0.741701 0.0794708 3.35444 41 53 0 
0.0411855 0.0982398 3.60282 11 21 0 
0.0591284 0.105683 3.5942 62 49 17 
0.0214436 0.113475 3.58558 22 28 0 
0.0300666 0.114706 3.58456 183 175 136 
0.0383995 0.120656 3.56021 74 54 21 
0.752097 0.114936 3.31135 152 158 112 
0.0511984 0.127737 3.5622 112 86 35 
0.760171 0.141057 3.2713 81 78 63 
-0.0308819 0.160236 3.5526 94 92 54 
0.291311 0.379306 3.95787 3 3 1 
0.646875 0.403941 3.40624 125 124 122 
0.384794 0.499891 3.98562 79 78 74 
-0.896925 0.58362 4.43727 228 162 39 
0.154018 0.556162 3.93342 3 0 0 
0.694325 1.1262 4.3221 157 122 20 
0.717071 1.15795 4.32652 112 73 0 
0.500264 1.58305 4.38214 217 203 177 
0.535251 1.62187 4.3902 231 215 199 
0.196904 -0.0591297 3.65259 164 126 89 
-0.277742 0.0930429 3.46492 82 60 13 
0.0925381 0.108967 3.5857 213 188 131 
0.071587 0.118532 3.59571 90 68 21 
-1.06041 0.373838 4.38726 145 106 41 
-0.929298 0.456056 4.45078 231 156 11 
-0.34181 1.24825 5.01827 216 201 182 
0.725866 1.16649 4.32505 169 136 21 
-0.209999 1.35408 4.99492 81 62 32 
0.608755 1.55415 4.41675 226 183 44 
0.489487 1.63696 4.38937 225 213 199 
0.510008 1.68757 4.40623 137 125 127 
-0.0138881 -0.00398819 3.60614 121 123 109 
-0.164817 0.120009 3.48642 175 173 122 
0.76139 0.115074 3.28182 57 59 37 
-0.316841 0.129388 3.44961 168 148 98 
0.010185 0.211698 3.5329 65 42 10 
-1.03318 0.431066 4.39846 116 59 6 
-0.933014 0.457845 4.45959 230 154 6 
-1.0746 0.4674 4.33834 241 225 209 
0.650729 0.403722 3.39973 124 124 122 
-0.215254 1.21843 5.00671 143 87 4 
-0.865806 1.27269 5.16065 184 171 165 
-0.666978 1.35459 4.99333 111 101 92 
0.6111 1.55027 4.39861 235 192 64 
0.627437 1.56113 4.422 244 214 160 
0.449604 1.6056 4.46095 50 37 28 
0.375085 1.60511 4.41121 161 147 134 
0.491594 1.68993 4.42095 192 182 181 
0.199256 -0.0574252 3.63672 184 153 99 
0.724307 0.0408176 3.43934 211 217 155 
0.0113961 0.120146 3.59043 187 169 119 
0.804102 0.17139 3.28287 41 40 36 
-1.10573 0.35544 4.38283 243 228 205 
-1.03057 0.445544 4.36431 246 207 16 
-1.02414 0.447066 4.41781 225 175 18 
-1.07498 0.466112 4.34711 240 227 210 
-0.292583 1.18931 5.09718 230 208 169 
-0.188647 1.17447 4.98313 145 92 0 
-0.265767 1.21276 5.03611 170 120 9 
-0.372785 1.24542 5.06906 213 196 176 
0.598186 1.09063 4.3209 225 181 12 
-0.848517 1.35064 5.01388 126 113 105 
-0.219425 1.34747 4.99742 70 56 29 
0.656953 1.52909 4.413 136 86 1 
0.485852 1.61718 4.37226 211 198 179 
0.567002 1.62755 4.41592 63 50 34 
0.490755 1.69384 4.42988 192 182 181 
-0.24574 -0.357724 4.04082 40 17 0 
-0.267957 -0.353873 4.0446 30 9 0 
0.693682 -0.0449666 3.57609 36 27 20 
0.701823 -0.0343361 3.55473 225 216 207 
0.316793 -0.0643488 3.54789 39 24 3 
0.700907 -0.0211811 3.54004 94 84 74 
0.696967 -0.0224319 3.55872 33 20 11 
0.718031 -0.0169277 3.50998 68 0 0 
0.709054 -0.0158472 3.52279 54 1 0 
0.694942 -0.0127724 3.55311 166 156 146 
0.697304 -0.0110549 3.53546 179 165 156 
0.70928 -0.00927465 3.51408 86 29 20 
0.714989 -0.00448505 3.49519 72 0 0 
0.701483 -0.00565232 3.52157 162 97 95 
0.708486 0.00335078 3.50186 146 91 88 
0.712925 0.013778 3.48454 137 133 98 
0.723802 0.0310411 3.44845 26 27 0 
0.705443 0.0316557 3.48328 36 48 0 
0.707836 0.0427575 3.46958 48 62 0 
0.719431 0.0473982 3.43597 49 54 0 
0.730527 0.051343 3.4109 163 191 91 
0.722878 0.0517863 3.42733 61 81 0 
0.703876 0.0510874 3.47941 35 38 0 
0.730972 0.0582347 3.40228 149 161 99 
0.725417 0.0586253 3.41861 82 105 1 
0.600177 0.0505209 3.49895 109 62 0 
0.783873 0.0702709 3.3553 84 80 43 
0.710617 0.0623672 3.44904 195 189 157 
0.755312 0.068074 3.36576 72 94 12 
0.712996 0.0659562 3.43598 166 169 100 
0.740216 0.0729083 3.37777 184 197 115 
0.726922 0.0710195 3.4003 173 172 126 
0.7217 0.0719894 3.40931 153 159 97 
0.731837 0.0735499 3.38904 50 46 0 
0.774706 0.078106 3.34147 253 255 210 
-0.0325867 0.00178733 3.63502 21 39 23 
0.745134 0.0768109 3.36535 69 81 7 
0.752738 0.0785895 3.35462 183 205 104 
0.76597 0.0813695 3.346 66 88 6 
0.59313 0.0663896 3.49567 100 49 0 
0.730556 0.081495 3.37987 129 92 48 
0.719203 0.0818062 3.40527 169 167 116 
0.745249 0.0872795 3.35597 234 238 188 
0.754336 0.0893889 3.33813 181 207 116 
0.72517 0.092514 3.3817 86 94 8 
0.740377 0.0956255 3.34634 199 205 157 
0.746245 0.0992582 3.33503 167 189 107 
0.716457 0.0968519 3.40249 74 69 11 
0.758691 0.104238 3.32212 62 81 17 
0.747336 0.113175 3.3207 40 56 0 
0.757126 0.11357 3.30726 198 201 170 
0.761754 0.119675 3.29941 165 174 127 
0.729598 0.129494 3.34139 43 65 0 
0.731768 0.135393 3.33127 44 68 0 
0.752894 0.147135 3.27297 136 134 121 
0.733232 0.145557 3.31332 161 155 139 
-0.362275 0.0818195 3.44081 156 134 97 
-0.0355022 0.160557 3.58396 7 21 0 
-0.14804 0.160584 3.49729 149 164 107 
0.456517 0.233838 4.11152 134 98 0 
-0.32921 0.152683 3.47286 148 130 94 
-0.971113 0.201209 4.5059 255 200 133 
-0.779883 0.264536 4.62673 122 55 0 
-1.10169 0.235821 4.44067 201 168 65 
0.6761 0.359741 3.42164 46 45 41 
-0.800132 0.348361 4.56619 181 151 78 
-0.623288 0.40846 4.50202 29 14 0 
-1.1041 0.486404 4.37122 222 204 190 
0.877542 -0.113592 3.40373 244 229 198 
0.315312 -0.0588388 3.55825 32 17 0 
0.720799 0.00588045 3.47439 193 201 152 
0.730001 0.0224087 3.44334 127 127 99 
0.709118 0.0230045 3.48894 172 175 120 
0.715884 0.0478714 3.45377 214 213 182 
0.7208 0.0839394 3.39359 152 150 112 
-0.0693487 0.0236297 3.64597 117 99 89 
0.741743 0.122512 3.31753 15 27 0 
0.472679 0.112163 3.99039 100 91 74 
0.096705 0.0823209 3.68898 4 19 0 
-0.310027 0.123145 3.45903 164 149 108 
-0.856228 0.194914 4.60818 187 118 1 
-0.926479 0.21265 4.59239 188 142 118 
-0.498095 0.390432 4.57934 103 73 0 
0.405824 0.468426 3.95958 105 105 97 
-0.632369 0.49766 4.55456 51 51 43 
-0.765127 0.501116 4.50521 153 91 0 
-0.0582366 0.858057 4.81154 201 160 18 
-0.20299 1.36536 4.98764 193 172 143 
0.875759 -0.108008 3.41403 163 143 106 
0.898162 -0.0271176 3.2906 153 110 18 
0.726694 -0.0106757 3.48684 59 30 22 
0.896244 0.0341691 3.30117 82 38 0 
0.776515 0.04574 3.3901 85 84 30 
0.748394 0.129695 3.29744 224 222 209 
-0.0699968 0.0555662 3.62075 28 11 1 
-0.0432415 0.068036 3.6499 111 113 99 
-0.0555032 0.080282 3.61536 0 39 9 
-0.335848 0.0895942 3.44832 89 74 53 
-0.305379 0.129525 3.45082 92 71 28 
0.561347 0.222679 3.58393 104 104 94 
-0.15743 0.15631 3.48209 42 66 18 
0.551123 0.227873 3.5754 6 3 0 
-0.327682 0.14194 3.47632 139 121 81 
0.545467 0.243871 3.57205 6 6 6 
0.723681 0.268771 3.45819 128 66 5 
0.647479 0.283105 3.45745 81 37 0 
-0.946607 0.17133 4.56333 239 111 40 
0.629767 0.294646 3.46773 144 126 44 
-0.849243 0.217291 4.59747 175 113 0 
-0.904273 0.285363 4.39103 91 40 0 
-0.909242 0.301332 4.39583 87 35 0 
0.648992 0.405473 3.4177 169 168 164 
-0.751944 0.346536 4.56295 186 139 0 
-0.870096 0.364794 4.55482 64 18 0 
-0.703736 0.44094 4.52477 109 56 0 
-0.666435 0.444176 4.47827 138 104 0 
-0.600884 0.479999 4.53993 101 97 94 
-0.829289 0.466587 4.51629 241 203 56 
0.435255 0.555062 3.9326 20 7 0 
-0.799931 0.487583 4.51829 135 84 3 
0.143634 0.552187 3.93858 61 62 57 
0.365674 0.677786 4.20643 30 0 0 
0.496338 0.733257 3.94354 3 0 0 
-0.0793291 0.978935 4.85654 147 124 31 
-0.134285 1.11863 4.94933 202 160 16 
-0.181541 1.16347 4.97479 167 109 0 
-0.319157 1.2647 4.99124 114 102 88 
0.858155 -0.101931 3.45599 122 90 7 
0.88484 0.0342715 3.32088 86 37 4 
-0.275294 -0.071121 3.80103 122 107 100 
0.0301817 0.115815 3.61411 190 181 140 
0.0718033 0.119442 3.59494 120 98 57 
-0.377388 0.0849511 3.41481 203 181 132 
-0.140559 0.178029 3.49815 123 106 52 
-0.882935 0.209504 4.61564 182 99 5 
-0.852765 0.238092 4.58331 100 42 0 
-0.777664 0.304587 4.62444 57 28 0 
-1.14402 0.261244 4.41931 150 135 116 
0.421847 0.457824 3.94019 102 95 85 
-0.730904 0.40201 4.52914 185 136 0 
-0.836417 0.444284 4.52525 215 177 32 
-0.632931 0.487626 4.54225 9 4 1 
-0.797035 0.483761 4.50567 174 128 34 
-1.03084 0.488432 4.36369 124 92 31 
-0.121077 0.903264 4.84458 220 180 5 
-0.120191 0.932579 4.85818 120 80 0 
-0.0823971 0.957852 4.84453 29 6 0 
-0.124948 1.15643 4.96038 125 75 4 
-0.182461 1.17021 4.99901 161 100 7 
-0.164315 1.23538 4.96124 145 98 6 
-0.326959 1.27626 5.0232 86 73 64 
0.726973 1.46663 4.42814 239 192 18 
0.520237 1.56682 4.37946 230 216 189 
-0.0921898 -0.0150629 3.6326 76 77 59 
-0.0143234 -0.00414633 3.64004 115 118 97 
-0.313754 0.0839236 3.4329 225 199 142 
0.461535 0.224212 4.13694 170 140 8 
0.555237 0.396215 3.51875 189 151 6 
0.317794 0.428601 3.99477 55 52 47 
0.677903 0.424117 3.39482 171 172 167 
-0.0449525 0.389286 3.79984 46 5 3 
-0.664515 0.41527 4.4917 107 69 6 
-0.628071 0.430886 4.49443 180 151 25 
-0.711368 0.446972 4.54903 112 60 0 
-0.0654665 0.870268 4.80427 115 72 3 
-0.107071 0.88413 4.82825 220 176 19 
1.70263 1.2588 5.16375 199 189 180 
0.5941 1.05395 4.40503 171 133 10 
-0.291087 1.16252 5.08895 145 109 13 
-0.124601 1.15329 4.94797 130 83 5 
-0.290135 1.17955 5.08388 233 214 172 
-0.163846 1.23197 4.94827 143 93 6 
-0.667309 1.35852 5.00061 114 102 90 
0.759465 1.51185 4.45077 240 194 13 
0.655629 1.5298 4.41205 137 86 0 
0.700366 1.58153 4.40652 164 121 6 
0.694822 1.65587 4.40282 99 77 38 
0.605189 1.65735 4.35326 209 202 186 
0.87507 -0.0308401 3.43944 83 26 0 
-0.230141 0.0561537 3.54251 194 170 110 
0.0115456 0.119485 3.5809 181 163 115 
0.0114338 0.123062 3.65388 139 147 106 
0.460402 0.223989 4.12613 167 138 2 
0.626348 0.279979 3.48329 174 141 8 
0.64853 0.298708 3.44166 178 146 9 
-1.01987 0.262487 4.40286 254 239 216 
-1.06896 0.334248 4.43676 248 198 15 
-1.0486 0.328667 4.35351 222 161 46 
0.433953 0.466166 3.94867 98 91 81 
0.437379 0.469712 3.98163 97 89 78 
-0.710225 0.420428 4.51364 242 202 29 
-0.710062 0.449351 4.53963 113 61 1 
0.0176315 1.11483 4.91318 194 154 7 
-0.0661947 1.11403 4.92276 205 157 11 
0.598408 1.09057 4.32458 231 185 12 
-0.29425 1.1494 5.03127 163 126 12 
-0.155407 1.21973 4.93873 137 89 4 
-0.371507 1.243 5.05508 210 195 174 
-0.212328 1.26444 4.95104 158 119 2 
-0.219674 1.34807 4.99886 74 59 30 
-0.862419 1.29765 5.10691 112 102 93 
-0.302413 1.35309 5.02659 109 99 90 
-0.597092 1.31776 5.02781 185 174 172 
-0.855195 1.32173 5.06036 189 179 170 
1.30494 1.51792 4.69479 202 191 185 
0.645169 1.45629 4.41663 222 177 14 
0.794896 1.51982 4.47457 236 191 10 
0.534597 1.55411 4.483 157 136 107 
0.570862 1.54391 4.34821 175 138 34 
0.579269 1.56615 4.41555 133 96 7 
0.704663 1.59236 4.43411 171 127 18 
0.448979 1.60144 4.44009 55 39 24 
0.564499 1.61958 4.39571 60 45 24 
0.490044 1.62069 4.36794 219 207 183 
0.552371 1.69758 4.45923 104 95 90 
0.619416 1.69398 4.34321 140 129 123 
-0.385695 -0.070708 3.92884 210 188 139 
-0.388992 -0.0576799 3.92001 176 190 139 
-0.162023 0.1842 3.44382 198 176 127 
0.749774 0.131484 3.28994 225 227 206 
0.579146 1.58375 4.42751 119 91 51 
0.682624 0.35714 3.42074 120 119 117 
-0.811495 0.486799 4.5208 224 177 63 
-0.214793 -0.118951 3.70809 0 17 0 
0.788968 0.0918203 3.32649 63 66 19 
-0.210916 1.3546 4.99762 78 63 30 
0.501188 1.58646 4.37873 228 212 189 
-0.350755 0.0805916 3.41863 50 32 12 
-1.07643 0.453492 4.37086 254 233 212 
-1.03499 0.490345 4.36027 120 97 56 
-0.862646 1.29839 5.10977 112 102 93 
-0.666897 1.3524 4.99141 113 101 89 
-0.849936 1.34978 5.01638 126 116 107 
0.52086 1.67636 4.38699 141 131 129 
0.685159 -0.0449977 3.54009 199 190 181 
0.67815 -0.0389216 3.54945 62 52 43 
0.684156 -0.0348556 3.53084 214 206 195 
0.688434 -0.03366 3.52105 210 202 189 
0.689219 -0.0209558 3.51076 94 84 74 
0.675613 -0.0215939 3.53223 191 181 169 
0.691761 -0.0111029 3.48312 175 116 108 
0.703447 -0.00469105 3.46696 106 21 16 
0.689344 -0.00534136 3.49129 160 95 91 
0.694236 -0.00226538 3.47797 147 106 100 
0.679186 -0.00372415 3.51447 157 141 125 
0.695147 0.00322722 3.46901 128 69 61 
0.69004 0.0172019 3.4655 151 93 79 
0.706898 0.0306415 3.4078 67 71 21 
0.688743 0.0246866 3.47341 136 88 74 
0.699995 0.0388909 3.4238 162 173 104 
0.688898 0.0383877 3.45269 111 116 60 
0.715597 0.050844 3.37553 147 175 64 
0.709001 0.0520347 3.38283 153 175 77 
0.704477 0.05246 3.39538 174 195 94 
0.699246 0.0496161 3.42131 171 169 131 
0.726428 0.0675454 3.34347 78 101 0 
0.71083 0.0655247 3.37159 141 158 80 
0.699093 0.0616612 3.40625 63 72 5 
0.746686 0.0802528 3.30224 109 130 61 
0.562708 0.0377642 3.47009 255 249 71 
0.726657 0.086823 3.31305 217 229 181 
0.694621 0.0820744 3.41388 62 41 20 
0.730907 0.0978971 3.29986 160 184 98 
0.714783 0.0931796 3.33049 90 110 11 
0.701764 0.114378 3.37083 161 129 114 
0.733705 0.130029 3.25382 209 207 195 
0.705467 0.117045 3.35749 133 119 90 
0.714034 0.124542 3.2996 157 187 75 
0.7206 0.127491 3.27483 143 143 133 
-0.362663 -0.0631451 3.91227 49 41 5 
0.468494 0.111928 3.9726 115 110 88 
-0.110775 0.0366002 3.65955 29 48 28 
0.0528346 0.102517 3.59686 54 39 8 
-0.31224 0.122274 3.44079 151 136 97 
-0.162923 0.183114 3.43969 184 167 115 
-0.596874 0.162152 4.67565 64 48 15 
-0.691166 0.185397 4.60485 73 50 0 
-0.687094 0.188366 4.59403 184 162 86 
-0.66304 0.206005 4.56065 82 78 66 
-0.763778 0.320105 4.61773 176 114 0 
0.447137 0.610595 3.76724 60 43 0 
-0.696146 0.476033 4.52684 162 113 0 
-0.809652 0.488628 4.55269 217 174 79 
-0.25201 -0.365819 4.02272 28 11 0 
0.704251 -0.0167318 3.47615 90 13 3 
0.673169 -0.022015 3.55328 162 152 142 
0.763655 0.00422309 3.41472 161 145 120 
0.695931 0.0223647 3.45663 165 165 111 
0.691585 0.0503359 3.42856 145 154 61 
0.707372 0.0890005 3.36387 38 46 0 
0.735033 0.103931 3.28076 191 214 136 
0.751498 0.122311 3.25346 221 218 201 
0.731854 0.119883 3.2769 43 46 19 
0.747146 0.135255 3.23744 216 212 200 
0.542239 0.227168 3.55029 24 24 22 
0.642569 0.363631 3.39612 45 44 42 
-0.535102 0.271894 4.55457 32 21 3 
-0.597014 0.282348 4.51417 44 43 39 
0.402307 0.504555 3.93172 34 30 29 
-0.49883 0.391239 4.59928 104 71 0 
0.463769 0.586707 3.74726 172 142 32 
-0.978491 0.354177 4.54962 188 119 28 
-0.557915 0.474716 4.58138 89 82 74 
-1.06383 0.367609 4.41271 181 147 73 
-0.915233 0.471529 4.49328 207 133 36 
-0.0561226 0.858071 4.81839 197 158 19 
-0.31538 1.27918 5.04187 103 91 77 
0.871053 0.0340788 3.2926 88 45 0 
0.707128 0.0146976 3.43514 71 85 6 
0.710679 0.0680062 3.38107 90 113 22 
0.737609 0.0787176 3.31261 184 215 95 
-0.372827 -0.0606358 3.91642 183 172 127 
-0.0724585 0.0225486 3.61563 110 95 92 
-0.119121 0.0400298 3.6675 106 119 102 
-0.0934082 0.0517052 3.64238 146 161 140 
-0.223078 0.0648448 3.51994 171 165 117 
0.62875 0.296325 3.42543 178 149 23 
0.518247 0.298252 3.56622 56 55 53 
-0.794913 0.315489 4.59829 222 191 64 
-0.491983 0.382932 4.59693 160 127 22 
-0.793206 0.329348 4.584 218 181 48 
0.436655 0.550985 3.88139 98 60 0 
-0.560212 0.476591 4.59128 91 89 77 
0.0947155 0.579446 3.9381 61 60 56 
-0.600347 0.481533 4.55912 108 104 101 
0.0936161 0.591941 3.94396 4 3 0 
-0.111085 0.78749 4.90311 209 168 14 
-0.0659669 0.888851 4.8376 105 60 3 
0.617199 1.09281 4.30706 223 179 22 
0.396617 1.08859 4.44778 30 2 0 
-0.120259 1.17515 4.96486 217 175 31 
-0.28662 1.18122 5.12083 227 198 140 
0.754934 -0.0777134 3.58077 250 246 235 
0.691089 -0.0220879 3.49291 236 222 213 
0.718765 0.112872 3.29983 80 105 14 
-0.0776879 -0.00724493 3.62038 19 36 18 
0.00836266 0.11515 3.59358 152 159 125 
0.0212984 0.114594 3.57144 172 156 123 
0.619247 0.290864 3.44201 159 132 27 
-0.326775 0.134962 3.45543 154 134 97 
-0.34335 0.212139 3.47819 100 81 49 
-0.707346 0.16882 4.60793 227 194 61 
0.433185 0.439544 3.93155 10 7 2 
-0.664403 0.416504 4.49744 113 75 12 
-0.544558 0.478936 4.60497 24 16 0 
-1.07075 0.360428 4.4057 247 224 174 
-0.768745 0.498168 4.51507 139 73 0 
-1.03076 0.488035 4.36258 116 86 22 
-0.130567 0.782211 4.8956 111 67 0 
-0.0969863 0.788741 4.85971 147 99 0 
-0.0469494 0.839764 4.80593 193 153 22 
-0.121115 0.902921 4.84426 220 179 9 
-0.0872446 0.911041 4.84361 128 83 0 
0.762104 1.16156 4.32692 47 11 0 
-0.120579 1.16641 4.99593 132 82 0 
-0.21487 1.22147 5.00971 147 93 3 
-0.306616 1.25706 5.04782 146 131 110 
0.576224 1.57249 4.41529 140 106 45 
0.498239 1.58419 4.36621 222 208 182 
0.863266 -0.0987737 3.38153 147 113 49 
0.806529 -0.0912797 3.60247 21 17 16 
0.883553 -0.0308041 3.26628 141 116 52 
0.732066 0.171332 3.51105 220 178 16 
0.580096 0.217482 3.55106 182 146 10 
0.708021 0.261258 3.4211 135 77 3 
0.506089 0.248935 4.06837 185 156 39 
0.415119 0.497636 3.92918 85 81 72 
-0.71143 0.447102 4.55423 102 49 0 
-1.06382 0.381374 4.41058 139 102 14 
0.361045 0.673546 4.18884 57 23 0 
-1.03057 0.490084 4.37594 118 88 24 
-0.123666 0.928428 4.82974 114 73 0 
-0.0797026 1.01295 4.89549 62 28 0 
0.616253 1.09596 4.32515 233 185 17 
-0.148882 1.13564 5.00174 123 78 0 
-0.208694 1.22203 5.02934 154 103 14 
-0.347098 1.22511 5.09091 127 111 86 
-0.305566 1.26134 5.06089 138 123 104 
-0.529861 1.34644 5.04867 149 138 132 
0.860013 -0.10323 3.42644 148 119 49 
0.870163 -0.0308601 3.4288 93 34 0 
-0.0911622 -0.0104391 3.68227 66 71 51 
0.57485 0.216484 3.53664 185 146 7 
0.495814 0.246908 4.06202 183 154 16 
0.634647 0.29521 3.40678 191 155 7 
-0.173189 0.194293 3.4377 81 56 26 
0.613183 0.430078 3.42511 8 7 5 
-0.660439 0.197935 4.50634 23 22 17 
0.525597 0.473434 3.57652 209 161 17 
0.391878 0.516863 3.96233 86 85 80 
-0.4881 0.38936 4.57906 184 147 4 
-0.801954 0.360722 4.53591 227 182 18 
-1.15094 0.304863 4.5149 131 95 9 
0.430969 0.643306 4.00977 21 13 2 
-1.04483 0.369135 4.44704 220 178 6 
-0.709821 0.454241 4.58062 104 48 1 
-0.935569 0.462811 4.48531 231 155 10 
-1.01632 0.472996 4.42294 228 187 11 
0.597776 1.08918 4.32262 233 191 11 
-0.482391 1.10067 5.57222 190 179 173 
-0.232105 1.11212 5.1358 240 193 15 
-0.0644924 1.11756 4.93557 209 162 14 
-0.28398 1.17625 5.15146 134 99 5 
-0.187739 1.18068 4.99803 142 87 0 
-0.0391199 1.24195 4.95878 226 182 15 
-0.260592 1.22303 5.06872 163 116 0 
-0.15211 1.22635 4.9682 140 93 13 
-0.367404 1.25743 5.11222 210 194 179 
0.788424 1.51436 4.45585 240 201 12 
-0.697566 1.3493 5.06541 189 176 168 
0.511024 1.52653 4.39884 169 150 118 
0.647785 1.56604 4.41534 244 227 199 
-0.855796 1.32759 5.08523 182 171 165 
-0.666396 1.36305 5.03109 109 96 87 
-0.850525 1.35419 5.03666 120 109 103 
1.30541 1.7649 4.2339 143 133 121 
-0.807572 1.38112 4.99768 122 112 103 
0.452873 1.60769 4.45461 50 37 20 
0.69831 -0.0166235 3.51805 137 127 117 
-0.0931201 0.0477553 3.64253 142 158 132 
0.651543 0.36468 3.40947 45 44 42 
0.724688 0.0942284 3.35607 159 177 69 
0.517032 0.250962 4.06793 156 132 44 
0.670207 0.35886 3.40495 40 37 32 
0.731565 0.116585 3.31245 69 98 0 
0.471562 0.112608 3.98045 119 114 92 
-0.0701378 0.0552199 3.62559 44 24 17 
0.690926 0.202647 3.55849 73 38 6 
0.364578 0.676171 4.19317 50 17 0 
-0.190226 1.36835 4.9896 131 107 69 
-0.775208 0.33287 4.56521 111 61 10 
-1.07221 0.357362 4.38952 247 224 174 
-0.636417 0.554349 4.61525 84 72 58 
-1.03069 0.488128 4.3631 116 86 22 
-0.602577 1.32763 5.07236 185 175 166 
-0.698489 1.33892 5.04023 182 169 161 
0.63102 0.391809 3.43418 94 93 89 
-0.165644 0.421858 3.78244 114 99 78 
-1.10726 0.344089 4.42042 239 228 200 
1.29538 1.48309 4.78263 201 191 182 
-0.135769 1.17457 4.95961 222 178 9 
1.30968 1.52269 4.71228 206 196 187 
-0.373721 1.24982 5.08338 210 194 179 
-0.599778 1.32165 5.04941 184 174 165 
-0.668043 1.36003 5.02101 109 96 87 
0.543272 1.563 4.40446 223 207 174 
0.376928 1.59242 4.39615 168 152 136 
0.488445 1.68478 4.4062 192 181 179 
0.608767 1.55456 4.41806 232 187 23 
-0.214789 1.21682 5.0044 154 103 14 
-0.305777 1.35123 5.02993 110 99 97 
-0.375056 1.24825 5.07767 210 194 179 
-0.213593 1.26661 4.95383 146 108 0 
0.694436 -0.033445 3.53063 204 196 185 
0.71697 -0.00248939 3.46691 182 118 108 
0.706324 -0.00453624 3.47143 107 19 15 
0.684408 -0.0154822 3.5479 90 79 59 
0.699744 -0.00248887 3.48639 149 114 110 
0.687102 -0.010124 3.53533 176 163 147 
0.693042 -0.000265183 3.50631 152 92 91 
0.721375 0.0524964 3.40138 151 176 82 
0.694713 0.0361568 3.4791 120 106 80 
0.696842 0.0381992 3.46501 129 134 76 
0.710994 0.0482522 3.4187 207 204 169 
0.707851 0.0522844 3.40982 68 78 18 
0.705608 0.050049 3.4311 138 137 106 
0.71676 0.0592393 3.39228 91 120 4 
0.728791 0.0663927 3.36857 171 184 105 
0.761791 0.0803343 3.32395 114 125 56 
0.695706 0.0463764 3.48438 104 106 56 
0.733959 0.0727968 3.35493 180 194 109 
0.746035 0.0792087 3.33128 159 179 84 
0.720339 0.0708253 3.37663 158 150 111 
0.70273 0.0624756 3.4233 175 169 143 
0.699205 0.0607161 3.44706 136 145 52 
0.741995 0.0909878 3.32492 215 226 170 
0.712872 0.0797221 3.38014 155 146 103 
0.734975 0.0908195 3.33249 202 209 165 
0.736761 0.0979886 3.3166 76 95 16 
0.706492 0.081853 3.40187 59 51 14 
0.762533 0.121795 3.26878 210 209 188 
0.741306 0.120435 3.29042 34 39 17 
0.711263 0.106904 3.38704 114 87 68 
0.748921 0.147754 3.24455 60 56 44 
0.726624 0.148101 3.29561 132 122 113 
-0.480077 0.0182081 3.48375 64 45 2 
-0.957861 0.244771 4.39854 255 255 146 
-0.697464 0.475626 4.52097 153 97 0 
-0.325709 -0.360834 4.06087 33 16 0 
0.689719 -0.0380328 3.5491 101 93 82 
0.693392 -0.03135 3.54125 103 93 83 
0.698782 -0.0166389 3.51886 114 100 89 
0.715769 0.0138475 3.45033 69 82 10 
0.680102 -0.00964303 3.56345 59 50 33 
0.70231 0.00899505 3.47118 177 104 97 
0.708916 0.0128435 3.46102 144 155 95 
0.720064 0.0219994 3.42667 177 189 113 
0.716685 0.0207965 3.43705 65 80 0 
0.697398 0.0160196 3.47648 173 90 76 
0.714104 0.0317767 3.43218 167 187 92 
0.714244 0.075317 3.39029 142 156 69 
0.730054 0.083791 3.35199 97 86 20 
0.701445 0.0691006 3.44017 173 161 135 
0.752264 0.103245 3.29682 95 107 43 
0.709175 0.0901483 3.38359 151 141 88 
0.743271 0.111832 3.29835 86 101 36 
0.722838 0.12658 3.30789 81 109 0 
0.731041 0.134136 3.30116 58 65 32 
0.740785 0.1408 3.25634 38 39 25 
0.734234 0.155556 3.25977 101 101 93 
0.718362 0.159122 3.32877 114 106 44 
-0.11997 -0.00192056 3.64645 96 115 93 
0.538506 0.243825 3.54959 34 34 34 
-0.541203 0.0508958 3.20041 183 161 124 
-0.320434 0.121202 3.41685 170 153 110 
0.559075 0.386999 3.5209 177 150 19 
-0.588255 0.179356 4.58598 91 71 21 
0.400279 0.523892 3.95207 55 54 52 
-1.03864 0.466377 4.33066 241 220 157 
-0.253418 -0.365332 4.01831 40 16 0 
-0.27215 -0.354078 4.01361 46 26 0 
0.686179 -0.0362665 3.56642 103 96 80 
0.715997 -0.00231683 3.45007 234 227 209 
0.699132 0.00631763 3.48158 98 33 29 
0.701827 0.0237203 3.46504 158 170 98 
0.703219 0.0303849 3.4367 41 51 1 
0.737061 0.0786743 3.34233 95 106 30 
0.71944 0.0818771 3.34368 127 95 46 
0.727194 0.088028 3.34095 164 187 71 
0.713993 0.0825574 3.37075 127 128 88 
0.704016 0.0798802 3.41376 189 171 151 
0.715689 0.0976 3.37297 147 164 68 
0.730509 0.115987 3.312 66 92 0 
0.753675 0.132639 3.25042 205 202 187 
0.720633 0.140017 3.3058 53 66 13 
0.728083 0.154027 3.2782 31 34 5 
-0.235762 -0.108851 3.66934 78 142 107 
-0.278356 -0.0355997 3.77968 43 23 14 
0.640357 0.286111 3.44062 103 62 0 
0.514837 0.33231 3.59685 160 137 25 
0.648569 0.40459 3.39984 117 116 112 
-0.154776 0.176413 3.44009 134 114 63 
-0.780296 0.216175 4.6165 122 64 0 
0.446108 0.62283 3.76453 242 211 86 
0.486173 0.640611 3.7923 90 47 0 
-0.627065 0.28884 4.50162 49 46 41 
-0.839938 0.222721 4.60754 238 193 30 
-0.494103 0.382181 4.58669 174 143 18 
-0.977067 0.248287 4.35021 182 155 84 
-0.103007 0.793279 4.93209 217 174 20 
-0.944367 0.459489 4.48313 228 150 14 
-0.117427 1.17801 4.97569 223 179 18 
0.725004 0.0779387 3.36198 70 55 22 
0.761129 0.105366 3.29116 240 235 215 
0.721773 0.112915 3.30429 80 107 10 
0.72596 0.136446 3.29166 34 34 24 
-0.28769 -0.0431799 3.78452 33 19 8 
0.0414337 0.121775 3.55844 201 184 132 
-0.361841 0.0744736 3.39855 24 11 0 
-0.466714 0.0544218 3.45011 177 156 111 
-0.591193 0.177534 4.6029 62 51 6 
-0.690207 0.189019 4.56535 149 130 53 
0.440345 0.599239 3.7605 13 0 0 
-0.85034 0.218068 4.60888 161 97 0 
-0.515375 0.350598 4.5568 18 9 4 
-1.1479 0.257903 4.41154 143 127 111 
-1.11515 0.278597 4.42065 217 194 162 
-0.815323 0.487581 4.52222 218 177 23 
-0.0711863 0.816373 4.83213 161 116 1 
0.594673 1.05093 4.39162 184 146 11 
-0.11517 0.93471 4.85998 124 83 0 
0.405679 1.16416 4.48465 39 23 0 
0.745626 -0.023969 3.54527 243 231 219 
0.754054 0.220881 3.43801 222 180 20 
-0.0598062 0.0172842 3.6028 45 12 7 
-0.273779 -0.0360154 3.76437 57 43 32 
-0.294345 -0.0348593 3.7754 170 179 160 
0.716035 0.263552 3.43376 119 64 0 
0.552524 0.38952 3.51314 196 160 10 
-0.354697 0.209531 3.44406 100 80 45 
0.432965 0.464423 3.93542 101 95 83 
0.399083 0.50822 3.93067 10 8 11 
0.438783 0.621931 3.91298 32 17 0 
-0.748159 0.349576 4.5512 177 122 0 
-0.634169 0.393697 4.47472 126 103 33 
-1.09877 0.401787 4.37803 164 146 126 
-0.0630371 0.875611 4.82821 108 68 6 
0.5762 1.67252 4.41709 173 161 163 
0.877822 -0.101501 3.40145 164 138 77 
0.692809 -0.00839645 3.51208 222 204 194 
0.599377 0.186978 3.52331 187 146 6 
0.728346 0.278162 3.42509 230 177 13 
0.648378 0.298991 3.42898 185 146 9 
0.54021 0.367964 3.81028 11 12 7 
0.416638 0.528664 4.00619 82 81 77 
-0.510277 0.379552 4.60767 78 59 16 
-0.635776 0.431393 4.47848 171 141 27 
-0.716219 0.424194 4.5216 235 190 11 
-1.16579 0.267437 4.42708 211 194 176 
-1.06284 0.340151 4.55002 171 106 22 
-1.13503 0.369009 4.39981 237 213 175 
-0.939321 0.459713 4.45265 230 154 9 
-0.904339 0.474537 4.50232 124 61 7 
-0.236524 0.829986 4.99577 173 130 15 
-0.118475 0.904718 4.85596 225 182 8 
1.43305 1.53297 4.73177 193 182 176 
1.41058 1.54718 4.78917 158 148 136 
-0.0319236 1.24918 4.98323 220 173 5 
1.31075 1.77006 4.24267 148 138 129 
-0.22086 1.35172 4.99393 91 69 20 
0.561509 1.61928 4.39735 91 76 69 
0.447775 1.60547 4.44464 61 47 36 
0.633281 1.66922 4.38314 218 206 190 
0.492714 1.61976 4.37493 221 208 191 
0.551098 1.66862 4.38155 178 168 169 
0.690644 -0.0336943 3.52667 204 196 185 
0.715219 -0.000753093 3.45382 193 188 166 
0.704496 -0.00471916 3.46956 107 19 15 
0.752349 0.0579207 3.34417 117 142 41 
0.694061 0.0315969 3.45528 54 68 0 
0.704182 0.0520838 3.40611 68 78 18 
0.722945 0.0649807 3.36264 171 184 105 
0.726287 0.0696457 3.35256 113 129 41 
0.714553 0.0702194 3.3709 158 150 111 
0.728967 0.0784847 3.33703 111 126 41 
0.745469 0.112722 3.28084 164 169 129 
0.730466 0.108088 3.29904 123 151 40 
0.736785 0.120681 3.27741 177 179 155 
0.725382 0.154179 3.26437 153 158 117 
-0.333025 0.151377 3.43977 156 136 103 
0.858643 -0.147598 3.51793 255 229 119 
0.692301 -0.0170635 3.51213 114 100 89 
0.698447 0.00885038 3.46724 177 104 97 
0.699361 0.0662794 3.41743 113 102 84 
0.7338 0.111372 3.28949 86 101 36 
-0.113409 0.0370407 3.64427 16 29 12 
0.0511696 0.117874 3.56602 207 183 135 
-0.401031 0.0773465 3.43188 186 164 125 
0.509496 0.480439 3.57358 117 79 0 
-0.600327 0.276401 4.51547 17 17 9 
-0.622524 0.402945 4.50492 103 87 38 
-0.252272 -0.365386 4.02062 40 16 0 
0.722608 0.0817456 3.34663 127 95 46 
-0.279097 -0.0190122 3.77088 0 26 1 
-0.332597 0.142244 3.43595 154 132 95 
0.434183 0.549448 3.8696 99 62 0 
0.463723 0.586736 3.74725 184 147 30 
-0.849736 0.218123 4.61641 158 92 0 
-0.795505 0.484167 4.52798 217 170 38 
-1.03756 0.468436 4.3422 242 220 160 
0.722215 0.0865998 3.33052 178 205 90 
0.710705 0.0878107 3.35906 25 31 0 
0.733778 0.166426 3.51949 215 175 26 
-0.836564 0.444216 4.5325 205 162 23 
-1.03044 0.48742 4.35989 127 95 20 
-0.121636 0.930938 4.84541 124 83 0 
0.391415 0.461606 3.95313 104 104 96 
0.398774 0.508232 3.93022 10 8 11 
0.614351 1.09399 4.31846 223 180 13 
-0.0792291 1.01296 4.89841 83 50 0 
-0.803162 0.477046 4.53547 63 28 8 
1.42717 1.53005 4.72482 193 182 176 
1.32943 1.53448 4.75033 202 192 182 
0.653437 1.46415 4.44368 220 177 3 
0.647027 1.56314 4.41111 247 226 183 
0.715519 0.0468628 3.41651 134 136 99 
-0.326995 0.152295 3.44991 156 136 103 
0.74212 0.0890947 3.32834 216 224 175 
-0.308025 0.123122 3.43731 170 153 110 
-0.0479961 0.0182909 3.61566 26 3 0 
-0.837202 0.44438 4.53035 205 162 23 
-1.06017 0.37994 4.41108 138 100 15 
-0.327807 1.27877 5.03909 77 62 55 
-0.638607 1.33442 5.08236 153 140 132 
0.535615 1.62319 4.38782 222 210 188 
1.31588 1.52767 4.7334 202 192 182 
0.565526 1.6228 4.40345 91 76 69 
-0.702216 1.34707 5.06436 188 175 166 
-0.35186 1.2215 5.07188 131 114 94 
-0.307116 1.36085 5.03745 108 98 89 
-0.272477 1.36906 5.0085 128 117 111 
0.861567 -0.165706 3.49256 179 155 107 
0.768834 -0.0498305 3.52095 114 99 78 
0.683367 -0.0449616 3.54283 230 221 214 
0.691794 -0.0332037 3.52895 244 234 224 
0.687264 -0.0346313 3.53809 230 220 210 
0.679773 -0.0319871 3.52692 50 40 30 
0.701208 -0.0164436 3.49736 67 9 8 
0.717563 -0.00258414 3.46774 193 134 128 
0.713288 -0.00413805 3.47864 63 0 0 
0.699322 -0.0159898 3.5192 84 70 57 
0.690554 -0.00550083 3.49684 181 117 108 
0.701719 -0.00270379 3.48834 177 135 136 
0.722304 0.0137089 3.45704 27 39 0 
0.695974 0.00837774 3.46469 179 119 111 
0.700005 0.00648737 3.48074 47 0 0 
0.722673 0.0137202 3.47508 174 176 136 
0.674849 -0.00676388 3.54703 28 16 4 
0.710169 0.0230269 3.46823 177 189 127 
0.703886 0.0167923 3.48285 153 94 86 
0.716008 0.0323196 3.43378 172 179 125 
0.725396 0.0481029 3.40752 45 68 0 
0.717974 0.054007 3.39501 186 211 119 
0.802097 0.0924465 3.31693 77 61 10 
0.701609 0.0221762 3.53068 137 85 72 
0.719869 0.0490138 3.42746 224 225 193 
0.787426 0.0890319 3.32583 66 87 0 
0.772842 0.0813333 3.34271 41 62 0 
0.690912 0.0379939 3.45874 146 151 111 
0.720141 0.0501793 3.44303 208 197 179 
0.725115 0.0649937 3.38616 175 178 123 
0.738274 0.0680512 3.38574 48 53 0 
0.748426 0.0776797 3.35271 43 58 0 
0.749933 0.0837547 3.33785 42 54 0 
0.725187 0.0669584 3.42905 171 187 114 
0.711981 0.0729494 3.3846 163 172 107 
0.763035 0.104155 3.30685 24 34 0 
0.699973 0.0664786 3.41806 55 46 17 
0.755577 0.0992406 3.32742 182 204 131 
0.693752 0.0522917 3.48651 123 111 71 
0.741102 0.0958364 3.3322 241 249 200 
0.719189 0.0822969 3.3894 180 173 129 
0.748139 0.112248 3.30279 35 46 0 
0.761507 0.121285 3.28121 181 181 157 
0.709854 0.0805611 3.41291 199 170 152 
0.740145 0.120269 3.28914 37 44 11 
0.698289 0.0807775 3.42996 168 152 139 
0.763089 0.12364 3.30019 236 238 214 
0.719422 0.0918721 3.40476 32 2 0 
0.722021 0.0846295 3.44464 19 5 0 
0.702722 0.0835588 3.44113 43 29 16 
0.697605 0.0702906 3.5048 163 134 92 
0.767573 0.14592 3.25749 197 191 179 
-0.0948504 -0.143419 3.63008 63 98 74 
0.721286 0.126457 3.30608 51 70 0 
0.758511 0.143024 3.27237 13 17 2 
0.72453 0.137109 3.30883 38 52 0 
0.743201 0.148375 3.28145 223 222 201 
0.722639 0.136125 3.32082 27 45 0 
0.749326 0.15742 3.27344 91 93 80 
0.720329 0.136418 3.37265 118 109 70 
0.724055 0.148267 3.35484 139 118 87 
0.731604 0.172748 3.32268 65 41 29 
0.735727 0.181244 3.3145 31 6 0 
-0.0869108 -0.00823774 3.6048 42 43 27 
-0.275609 -0.067669 3.7787 127 117 108 
0.537915 0.227139 3.54764 24 24 14 
-0.0694635 0.0568989 3.61189 32 4 1 
0.641652 0.288565 3.44393 77 38 0 
0.0605071 0.110953 3.56406 104 81 37 
0.531796 0.243537 3.54175 12 8 9 
0.0246699 0.119817 3.56633 76 57 17 
-0.323785 -0.016809 4.76978 14 14 6 
-0.330454 -0.0115659 4.75958 156 157 152 
0.500904 0.478396 3.56314 105 65 0 
0.479992 0.433093 3.91315 18 3 0 
-0.377067 0.217977 3.57173 44 17 6 
0.394248 0.516189 3.94242 12 11 9 
0.468252 0.634899 3.77214 82 48 0 
-0.627102 0.261755 4.48585 26 27 22 
-0.63092 0.263153 4.49693 82 81 76 
-0.611034 0.272651 4.48447 22 20 21 
-0.81963 0.48158 4.49859 221 182 81 
0.886324 -0.0313157 3.42399 83 28 0 
0.695598 -0.0497812 3.55473 62 53 46 
0.710899 -0.0169463 3.48442 64 0 0 
0.68995 0.0105155 3.50863 159 91 80 
0.769085 0.0794514 3.31633 63 67 0 
0.705526 0.0328307 3.46726 16 26 0 
0.699633 0.0382157 3.42908 176 187 121 
0.710238 0.0587498 3.35216 114 138 40 
0.828911 0.0951918 3.33045 253 223 173 
0.717194 0.0727797 3.42005 39 40 0 
0.693698 0.0687448 3.44958 136 137 67 
0.768756 0.124802 3.272 244 238 224 
0.69844 0.0607373 3.50852 133 86 58 
0.778464 0.125883 3.31249 236 238 214 
0.722242 0.106809 3.3867 25 19 0 
0.738032 0.1351 3.30646 18 21 0 
0.712414 0.101815 3.44497 21 0 0 
0.780648 0.15372 3.27529 38 34 22 
0.725406 0.12722 3.36741 143 147 97 
0.462229 0.0465274 3.47687 187 168 138 
0.731985 0.154336 3.31992 178 171 143 
0.53339 0.112212 3.47813 90 49 0 
0.753603 0.23022 3.28312 82 66 33 
-0.096206 -0.0133337 3.60182 100 78 67 
0.548436 0.221902 3.5551 113 111 99 
-0.266793 -0.0281613 3.74542 21 39 13 
-0.0523102 0.0670879 3.61343 105 116 102 
-0.328104 0.0797954 3.3996 74 55 13 
-0.402248 0.0761842 3.44692 179 154 123 
0.640735 0.402974 3.39236 119 115 112 
-0.30797 0.128765 3.4242 106 82 44 
0.544265 0.385875 3.50504 197 164 61 
-0.266694 -0.0247006 4.69466 224 206 122 
0.5599 0.363249 4.03571 44 28 5 
-0.378896 0.0229198 4.78357 94 93 88 
0.469479 0.436186 3.9109 78 66 42 
0.521194 0.479477 3.73236 56 11 0 
0.509205 0.491608 3.72735 187 147 25 
0.402649 0.459969 3.93623 34 30 29 
0.459433 0.578561 3.74983 117 76 0 
-0.688563 0.188424 4.57098 192 169 99 
0.488007 0.684779 3.9178 85 72 40 
0.4842 0.725538 3.95099 5 6 1 
-0.507218 0.38837 4.56745 111 77 0 
0.883638 -0.16474 3.5137 173 144 86 
0.850109 -0.170785 3.54992 228 206 185 
0.933398 -0.123114 3.42827 172 158 123 
0.843645 -0.153464 3.54899 132 91 11 
0.893547 -0.0914882 3.43348 255 255 147 
0.895536 -0.0297027 3.45745 84 29 0 
0.767525 -0.0396697 3.50121 150 134 118 
0.691893 -0.0316115 3.54829 66 56 46 
0.703039 0.00367774 3.4301 56 57 26 
0.707961 0.0312124 3.44146 25 34 0 
0.695684 0.0259413 3.46432 166 173 103 
0.699924 0.0262937 3.49174 148 102 89 
0.702057 0.0370279 3.54579 68 23 0 
0.76499 0.0900553 3.37209 179 197 98 
0.685009 0.0522511 3.45033 18 17 0 
0.726825 0.0806463 3.37967 163 164 122 
0.709814 0.0679313 3.46554 137 142 60 
0.76539 0.117869 3.32993 176 203 98 
0.472213 0.026835 3.50045 107 84 30 
0.730667 0.141565 3.31537 11 20 0 
0.746113 0.168559 3.53253 211 166 39 
0.767393 0.223559 3.44704 233 183 36 
-0.0549648 0.0257721 3.59328 64 39 34 
-0.075805 0.0242853 3.60134 131 112 106 
0.649677 0.262507 3.42981 118 68 0 
-0.0467867 0.0463957 3.61363 60 33 26 
-0.0234023 0.05096 3.6271 107 126 104 
-0.266968 -0.0239882 3.76591 165 180 159 
-0.088203 0.0533008 3.59378 32 2 0 
0.506472 0.2644 3.56831 40 39 35 
0.645347 0.365982 3.41335 113 112 110 
0.670417 0.388526 3.36441 120 119 115 
0.512543 0.331852 3.59377 160 131 29 
0.553775 0.401379 3.48376 184 154 40 
0.562041 0.374903 3.91737 100 88 48 
0.489256 0.463216 3.57286 212 174 27 
0.522371 0.482556 3.56711 214 171 15 
0.412778 0.500341 3.9276 92 88 85 
0.413884 0.546391 3.89692 17 5 0 
-0.186644 0.326436 4.55478 15 14 12 
0.674061 0.696121 3.73965 105 66 7 
-0.571924 0.25915 4.50225 53 52 47 
0.554411 0.747669 3.92724 18 13 10 
-0.638711 0.418147 4.48449 151 128 26 
-0.741326 0.398946 4.51356 171 120 0 
-0.103584 0.784267 4.84155 162 117 0 
-0.164869 0.773153 4.89859 203 154 36 
-0.0641669 0.81748 4.79704 224 185 28 
-0.0690351 0.890256 4.82805 78 33 0 
-0.904318 0.580696 4.42917 236 175 69 
-0.0930833 0.910826 4.83429 107 61 0 
-0.0320327 1.23939 4.95218 217 176 32 
0.855888 -0.155259 3.55836 123 86 8 
0.890016 -0.106027 3.51235 164 107 0 
0.669974 -0.0267549 3.45343 58 7 6 
0.679037 -0.0324371 3.57336 199 185 174 
0.797608 0.0767586 3.34009 255 241 196 
0.703429 0.0429668 3.46452 23 21 0 
0.738105 0.101196 3.34706 33 54 0 
0.759969 0.130365 3.29122 228 227 209 
0.703639 0.0943425 3.43136 20 0 0 
0.769709 0.135894 3.40411 130 136 74 
0.793745 0.228171 3.35478 158 125 46 
0.705873 0.183173 3.57171 32 2 0 
-0.0319153 0.00186813 3.59256 116 127 111 
-0.0456162 0.00202003 3.59717 16 33 15 
0.709628 0.263012 3.42783 120 66 6 
-0.283816 -0.0366458 3.79537 180 181 165 
0.551967 0.240117 3.56226 32 31 27 
0.686774 0.392325 3.3806 117 118 112 
-0.301815 0.172988 3.40144 87 64 22 
-0.533755 0.087296 3.62354 70 47 6 
-0.384446 0.180321 4.52902 57 56 52 
-0.396533 0.211289 4.58108 30 19 0 
-0.753184 0.346992 4.53501 177 129 0 
-0.632247 0.395264 4.48147 128 110 44 
-0.896407 0.477732 4.47967 197 152 27 
-0.123207 0.929838 4.84152 125 79 0 
-0.0869324 1.00764 4.88067 67 35 0 
-0.513495 1.11369 5.49805 180 170 161 
0.65739 1.67134 4.3661 145 135 125 
-0.679499 1.35485 4.98386 112 99 91 
0.95101 -0.139983 3.45378 238 227 209 
0.917642 -0.101472 3.48856 118 84 20 
0.888781 -0.0441098 3.38118 166 103 6 
-0.0864629 -0.23236 3.62012 101 0 7 
-0.158432 -0.250229 3.62438 95 0 7 
0.730209 0.0603799 3.34554 189 225 93 
0.744937 0.0827102 3.38473 63 52 24 
0.722915 0.0855065 3.42011 64 33 4 
0.729755 0.100858 3.37332 147 173 63 
0.713316 0.170537 3.49576 225 179 21 
0.877049 0.230106 3.51166 93 43 8 
0.493695 0.474165 3.53479 223 172 18 
0.421901 0.548367 3.86427 98 60 0 
0.689281 0.701157 3.76159 106 57 1 
-0.629278 0.433998 4.49796 182 153 23 
-0.71072 0.443257 4.5281 89 42 0 
-0.0645158 0.766484 4.86933 131 96 0 
-0.134728 0.780372 4.90421 111 68 0 
-0.171826 0.770856 4.88488 203 154 36 
-0.12793 0.899076 4.83422 233 191 17 
-0.448959 1.08347 5.52001 99 85 76 
-0.171305 1.22435 4.93753 152 101 0 
0.714566 1.58512 4.41648 185 138 30 
-0.304954 1.17705 5.07489 243 220 176 
0.0486858 1.36788 4.9772 102 87 68 
0.552971 1.61306 4.38586 108 90 78 
0.508701 1.63224 4.40095 224 209 188 
0.505189 1.69094 4.43305 186 175 173 
-0.868962 1.31583 5.04119 193 180 174 
0.401497 0.519592 3.86585 155 122 7 
-0.245235 1.10227 5.09125 240 196 11 
0.0872003 1.3518 5.05581 164 148 133 
-0.387693 1.24095 5.05088 221 206 187 
0.889874 -0.0910827 3.431 255 255 147 
0.692386 -0.0454572 3.55157 230 221 214 
0.698814 -0.0339732 3.52758 36 26 16 
0.691599 -0.0353366 3.54263 230 220 210 
0.686163 -0.0386588 3.56236 55 42 33 
0.693539 -0.0211401 3.51754 60 51 42 
0.718071 -0.00283999 3.4685 193 134 128 
0.702877 -0.0115741 3.50044 181 119 120 
0.708085 -0.00457375 3.47413 63 0 0 
0.699932 -0.00239633 3.48681 177 135 136 
0.701135 0.00885194 3.46937 179 119 111 
0.720101 0.0231466 3.42714 212 215 162 
0.711882 0.0129842 3.46563 174 176 136 
0.687056 -0.00481866 3.5344 53 42 24 
0.681509 -0.00673717 3.55314 28 16 4 
0.697354 0.0166144 3.47655 153 94 86 
0.712981 0.0323041 3.43058 172 179 125 
0.731148 0.0531214 3.38942 46 70 0 
0.730237 0.05708 3.37704 156 176 87 
0.718245 0.0471459 3.41896 60 67 16 
0.715449 0.0520395 3.40299 59 78 0 
0.720932 0.0582862 3.38833 177 191 114 
0.693661 0.0360654 3.47742 132 120 98 
0.694789 0.038374 3.46185 146 151 111 
0.709593 0.0530078 3.41272 67 78 12 
0.725731 0.0739859 3.36684 40 41 0 
0.708271 0.0551413 3.43884 44 36 17 
0.704805 0.0619769 3.41491 47 50 3 
0.746507 0.0898331 3.3221 40 57 0 
0.695647 0.0462037 3.48431 141 131 96 
0.714236 0.0727126 3.38667 163 172 107 
0.749858 0.104507 3.30217 216 229 160 
0.695377 0.0596393 3.45669 16 20 0 
0.701064 0.068798 3.44177 172 161 139 
0.732243 0.103424 3.32529 189 199 138 
0.755066 0.121369 3.2755 181 181 157 
0.713374 0.0903705 3.37709 21 23 0 
0.740296 0.120574 3.28905 37 44 11 
0.706405 0.0914074 3.39317 32 2 0 
0.727328 0.113809 3.32473 100 124 36 
0.745394 0.13122 3.27056 220 222 201 
0.761542 0.139635 3.24986 92 82 72 
0.711183 0.107306 3.38724 163 132 111 
0.726005 0.125462 3.31713 168 188 93 
0.741861 0.141717 3.2581 13 17 2 
0.721253 0.135966 3.3194 27 45 0 
0.724888 0.152027 3.31356 186 181 151 
0.718835 0.147489 3.35014 139 118 87 
0.729349 0.172036 3.27423 138 109 95 
0.760985 0.229846 3.41798 214 165 70 
-0.282449 -0.0744305 3.76845 124 105 99 
-0.103407 0.0473244 3.61601 173 182 163 
-0.473519 0.169025 3.5675 146 131 92 
-0.631296 0.262566 4.49641 82 81 76 
0.727551 -0.0250212 3.50715 58 7 6 
0.690484 -0.0198333 3.52723 233 224 215 
0.706655 0.00333578 3.45203 42 36 0 
0.735334 0.0914753 3.32272 240 251 195 
0.734093 0.123676 3.30186 60 76 5 
0.74964 0.151182 3.24928 38 34 22 
0.73595 0.156588 3.26248 106 110 95 
0.624108 0.290913 3.44631 159 138 47 
-0.358224 0.075011 3.40921 34 18 0 
-0.651272 0.219486 4.52391 105 98 88 
0.490595 0.686176 3.92007 85 72 40 
-0.0907202 0.763044 4.89137 194 160 36 
0.837855 -0.0893782 3.53149 77 21 0 
0.726999 -0.0123715 3.47639 144 103 97 
0.703815 0.0305967 3.43755 25 34 0 
0.718238 0.0801902 3.37174 163 164 122 
0.740482 0.104482 3.31184 59 86 9 
0.7065 0.0799033 3.41761 201 180 159 
0.741323 0.115793 3.30929 176 203 98 
0.747491 0.131405 3.28247 239 237 222 
0.731388 0.14756 3.27444 209 208 188 
0.512891 0.332369 3.59363 160 131 29 
-0.523445 0.0708638 3.59378 68 45 4 
-0.800108 0.483868 4.51378 212 164 28 
-0.636236 1.33213 5.07353 167 154 145 
0.846435 -0.118018 3.42879 221 202 185 
0.754738 0.221604 3.43929 230 179 26 
0.716749 0.262984 3.43441 120 66 6 
0.649139 0.264354 3.43097 107 56 0 
-0.321444 0.123264 3.42137 183 161 120 
-0.337823 0.13306 3.42296 166 144 95 
-0.749374 0.348144 4.54298 177 129 0 
-0.0755963 1.11763 4.94434 218 169 14 
-0.0962078 1.22858 4.98951 223 179 30 
-0.225358 1.24049 4.99536 240 213 166 
-0.5284 1.34871 5.05644 150 137 131 
0.75145 -0.0749071 3.5833 200 195 189 
-0.108547 -0.141358 3.62027 27 111 59 
0.719231 0.126103 3.3019 96 121 20 
0.510742 0.477578 3.55091 223 172 18 
0.397639 0.507915 3.92787 11 9 10 
0.591675 1.04975 4.38511 186 148 13 
-0.129611 0.781117 4.91334 111 68 0 
-0.186182 0.778546 4.94939 203 165 30 
-0.14079 0.841919 4.87097 181 132 13 
0.561483 1.61801 4.39695 108 90 78 
0.401411 1.60024 4.42302 185 172 155 
-0.747962 0.453508 4.51981 108 63 0 
-0.831599 0.451303 4.50203 229 188 10 
-0.144542 0.839536 4.85743 157 106 0 
-0.241939 1.10453 5.09561 240 196 11 
-0.495034 1.11995 5.53417 199 186 180 
-0.266615 1.21728 5.04386 198 151 9 
-0.669854 1.35815 5.00969 113 100 92 
-0.810373 1.37671 4.97676 121 111 102 
0.826825 -0.150121 3.53882 144 100 3 
0.698808 0.0703888 3.41316 179 170 139 
0.722242 0.130903 3.2994 177 190 120 
0.745882 0.147651 3.24342 13 9 0 
0.754994 0.239359 3.38932 171 125 13 
-0.365526 0.0815301 3.41042 138 118 81 
-0.235067 0.20945 3.41514 255 251 207 
0.507955 0.480142 3.56916 105 65 0 
-0.291187 -0.0381636 3.80875 112 124 104 
0.638385 0.2812 3.43423 90 43 0 
0.52774 0.369172 3.51786 186 160 63 
-0.210237 1.37018 5.00646 193 176 160 
-0.529649 1.34775 5.05393 150 137 131 
0.419762 1.60964 4.44627 185 172 155 
-0.855528 1.32553 5.07013 193 180 174 
-0.710165 0.422202 4.53605 240 199 13 
0.650786 1.46205 4.43525 235 194 16 
-0.290637 1.19339 5.10324 239 223 187 
0.71927 0.0466554 3.41056 211 225 148 
0.744174 0.105473 3.30448 39 60 0 
-0.0927083 0.0477916 3.6289 173 182 163 
-0.610461 1.329 5.08478 189 176 167 
0.535925 1.6237 4.38968 224 211 194 
0.687714 0.0167958 3.46855 163 95 82 
0.6771 0.107293 3.33347 146 158 82 
0.678907 0.155506 3.26547 163 150 134 
0.39969 1.1505 4.46179 46 18 0 
0.686152 -0.000992364 3.49915 180 110 102 
0.689122 0.144482 3.23775 196 198 176 
0.682863 0.133861 3.28533 50 73 0 
0.680193 0.0546032 3.44099 129 138 71 
0.679201 0.190519 3.22501 113 97 84 
0.510471 0.482001 3.72861 118 79 20 
0.683808 0.138628 3.27383 51 65 4 
0.680888 0.124071 3.32797 145 152 82 
0.509637 0.300312 3.57468 7 6 4 
0.457556 0.57908 3.74923 120 69 0 
0.681245 0.0299733 3.48331 61 4 0 
0.636033 0.28348 3.43577 111 68 0 
0.629619 0.298076 3.43134 191 158 27 
-0.110559 1.17065 4.99313 140 90 1 
-0.354914 1.2854 5.12421 162 150 138 
0.513968 0.332528 3.59617 174 145 27 
-0.119465 1.12763 4.98362 219 180 17 
-0.862956 1.32364 5.05722 189 176 168 
0.520674 1.53238 4.43136 174 156 118 
-0.712129 1.34076 5.02663 198 186 174 
-0.880144 1.29788 5.10097 129 117 105 
0.688291 0.143431 3.32027 129 108 81 
0.690897 0.140696 3.25803 175 171 159 
0.684228 0.271213 3.39349 234 192 32 
-0.0810634 0.961897 4.86099 14 4 3 
0.553475 1.67097 4.38689 172 161 157 
0.511334 0.492893 3.74693 120 79 0 
-0.626729 0.264354 4.51427 83 81 68 
0.615025 0.289368 3.43818 186 154 41 
0.540843 0.254279 3.54844 103 103 103 
-0.669246 0.414146 4.47995 101 58 0 
-0.816352 0.485801 4.51141 242 188 40 
-0.707409 0.442874 4.52623 134 78 3 
-0.0438718 1.11807 4.97669 210 163 13 
-0.312864 1.22124 5.13923 162 146 121 
-0.869381 1.29987 5.13391 129 117 105 
-0.606921 0.490142 4.55199 12 11 6 
-0.0609137 0.895023 4.84781 119 70 4 
-0.116274 0.935698 4.85375 135 85 0 
0.652415 1.4641 4.43702 233 192 12 
0.51755 1.53285 4.4246 174 156 118 
0.520173 1.67559 4.38668 120 107 98 
0.487378 1.67846 4.39887 192 181 175 
-0.0826991 0.959071 4.85102 16 2 0 
0.528283 1.53511 4.43657 174 156 118 
