ply                 
format ascii 1.0    
element vertex 123
property float x    
property float y    
property float z    
property uchar red  
property uchar green
property uchar blue 
end_header          
0.11576 -0.112323 3.69209 44 120 81 
0.802222 -0.0337681 3.54558 83 68 49 
0.744368 -0.0157353 3.53261 190 109 105 
-0.00356225 -0.00775519 3.63946 111 136 115 
0.746648 0.0477879 3.46098 193 204 136 
0.746223 0.0520725 3.45809 40 55 0 
0.792974 0.0515744 3.42038 68 77 24 
0.743482 0.0530972 3.46453 183 195 123 
0.794264 0.0549484 3.41437 195 216 125 
0.817359 0.0545953 3.41309 208 196 170 
0.755706 0.0588694 3.43837 157 170 116 
0.765279 0.0663813 3.41945 185 216 113 
0.805507 0.0720307 3.39617 226 238 172 
0.755963 0.074827 3.42234 31 28 0 
0.764666 0.0745673 3.41096 186 199 127 
0.803644 0.0764028 3.38187 229 236 194 
0.780057 0.0770662 3.39238 46 67 0 
0.778544 0.0802843 3.39254 199 217 133 
0.80151 0.0801524 3.38043 247 255 201 
0.785522 0.0819915 3.38759 18 37 0 
0.0630161 0.105782 3.62464 52 41 9 
0.0761881 0.108119 3.61656 199 182 136 
0.772337 0.101826 3.37494 176 194 118 
0.03744 0.117848 3.61195 183 173 138 
0.777438 0.109338 3.35904 194 213 149 
0.0857659 0.119539 3.60795 102 76 25 
0.783926 0.116824 3.34833 185 189 152 
0.781891 0.122945 3.34066 228 233 193 
0.794858 0.124245 3.33012 238 236 223 
-0.168631 0.133983 3.49916 43 38 0 
-0.331183 0.158572 3.4667 159 140 100 
0.779933 0.152048 3.31536 125 119 107 
0.784309 0.152306 3.31079 59 53 41 
0.180997 0.566391 3.95274 4 0 0 
0.162741 0.566575 3.93881 3 0 0 
-0.0188978 -0.00743548 3.63061 100 121 106 
-0.00377474 -0.0076696 3.64028 109 132 112 
0.738805 -0.000238215 3.52515 186 115 113 
-0.0669782 0.0256025 3.63604 123 111 99 
0.540012 0.0436802 3.50894 219 196 154 
-0.0919256 0.056378 3.65095 171 186 167 
0.6117 0.0672364 3.51984 73 21 0 
0.0488982 0.0946589 3.63835 98 112 77 
0.784156 0.106711 3.35414 35 45 0 
0.0154187 0.117427 3.61059 172 178 134 
0.0714941 0.115493 3.60982 192 173 131 
0.785869 0.10939 3.34509 239 237 214 
0.0592669 0.120139 3.59906 202 183 141 
0.0434352 0.126139 3.59267 96 74 37 
-0.312672 0.128811 3.45343 168 151 108 
0.0167659 0.197729 3.55497 77 54 10 
-0.890254 0.583579 4.37137 214 152 29 
0.18118 0.565946 3.9515 7 2 0 
0.162639 0.566789 3.93944 3 0 0 
0.726156 -0.037364 3.57905 49 40 35 
0.539338 0.043788 3.5146 217 197 160 
0.768788 0.0817318 3.39927 41 53 0 
0.0457682 0.101601 3.62859 11 21 0 
0.0642001 0.109273 3.62077 62 49 17 
0.0255215 0.117429 3.61141 22 28 0 
0.0343754 0.118683 3.61067 183 175 136 
0.0428952 0.124964 3.58747 74 54 21 
0.780024 0.11866 3.35792 152 158 112 
0.0560706 0.132203 3.58974 112 86 35 
0.788825 0.145965 3.31951 81 78 63 
-0.0280683 0.165839 3.57789 94 92 54 
0.303449 0.385822 3.97139 3 3 1 
0.671432 0.416648 3.44942 125 124 122 
0.399441 0.508487 3.99885 79 78 74 
-0.892856 0.586166 4.37801 228 162 39 
0.163658 0.567136 3.94493 3 0 0 
0.715318 1.13943 4.31797 157 122 20 
0.738508 1.1715 4.32229 112 73 0 
0.519062 1.60212 4.37161 217 203 177 
0.554674 1.64117 4.37958 231 215 199 
0.20525 -0.0609392 3.68042 164 126 89 
-0.281476 0.0977999 3.48475 82 60 13 
0.0985165 0.112634 3.61348 213 188 131 
0.0770528 0.122442 3.62248 90 68 21 
-1.05706 0.375233 4.32376 145 106 41 
-0.925828 0.457668 4.39043 231 156 11 
-0.330245 1.24612 4.94 216 201 182 
0.747491 1.18017 4.32101 169 136 21 
-0.198096 1.35321 4.92248 81 62 32 
0.628973 1.57178 4.40588 226 183 44 
0.508249 1.65648 4.37796 225 213 199 
0.529162 1.70724 4.39398 137 125 127 
-0.0111574 -0.00335207 3.63065 121 123 109 
-0.165776 0.125199 3.50976 175 173 122 
0.789904 0.118998 3.32952 57 59 37 
-0.321266 0.13527 3.46803 168 148 98 
0.0142343 0.218839 3.55992 65 42 10 
-1.02952 0.432721 4.33527 116 59 6 
-0.929391 0.459364 4.39849 230 154 6 
-1.07085 0.46965 4.27547 241 225 209 
0.675457 0.416486 3.44317 124 124 122 
-0.203954 1.21718 4.93446 143 87 4 
-0.84854 1.26333 5.04592 184 171 165 
-0.653276 1.35018 4.90071 111 101 92 
0.631468 1.5684 4.38908 235 192 64 
0.647941 1.57873 4.4112 244 214 160 
0.467361 1.6226 4.4442 50 37 28 
0.391936 1.62335 4.39588 161 147 134 
0.510401 1.70909 4.40721 192 182 181 
0.207671 -0.0591173 3.66529 184 153 99 
0.749966 0.041311 3.48051 211 217 155 
0.0152541 0.124269 3.61573 187 169 119 
0.834208 0.177016 3.33058 41 40 36 
-1.102 0.35666 4.31699 243 228 205 
-1.02724 0.447612 4.303 246 207 16 
-1.02022 0.44864 4.35393 225 175 18 
-1.07114 0.468269 4.28379 240 227 210 
-0.280891 1.18576 5.01517 230 208 169 
-0.17764 1.17377 4.91404 145 92 0 
-0.254344 1.21064 4.95973 170 120 9 
-0.360839 1.24205 4.9857 213 196 176 
0.617439 1.10372 4.31611 225 181 12 
-0.832535 1.34384 4.91002 126 113 105 
-0.207575 1.34656 4.92474 70 56 29 
0.67788 1.54642 4.40315 136 86 1 
0.504571 1.63691 4.36183 211 198 179 
0.586797 1.6462 4.40428 63 50 34 
0.509522 1.71282 4.41561 192 182 181 
