ply                 
format ascii 1.0    
element vertex 916
property float x    
property float y    
property float z    
property uchar red  
property uchar green
property uchar blue 
end_header          
0.219361 -0.791118 3.75244 93 76 46 
0.51688 -0.730158 3.95657 61 53 42 
-0.526448 -0.704055 3.8988 33 11 0 
0.542959 -0.704513 3.94316 149 97 84 
0.561828 -0.683509 3.92521 161 105 90 
0.578358 -0.679337 3.9123 22 37 0 
0.576384 -0.673104 3.91404 142 146 96 
0.616917 -0.666233 3.88518 83 95 29 
0.603372 -0.66753 3.8974 171 176 136 
0.446787 -0.654217 3.88056 226 188 55 
0.617315 -0.653956 3.88503 157 175 101 
0.610593 -0.652192 3.88953 66 69 40 
0.58425 -0.654857 3.91287 28 35 0 
0.598478 -0.648612 3.90199 192 184 165 
0.626025 -0.642003 3.87436 38 40 0 
0.673294 -0.636824 3.84823 59 74 9 
0.621783 -0.641042 3.88157 183 176 147 
0.615496 -0.639353 3.89197 146 123 105 
0.646828 -0.636256 3.86681 33 41 0 
0.61162 -0.636303 3.89426 29 8 0 
0.647278 -0.626108 3.85924 144 156 92 
0.642761 -0.620131 3.86975 146 109 101 
0.653404 -0.616581 3.8624 139 127 105 
0.687351 -0.609712 3.83159 150 178 78 
0.656752 -0.612377 3.86023 166 147 133 
0.472636 -0.610967 3.88209 74 29 0 
0.685233 -0.595338 3.83893 38 49 0 
0.706481 -0.591149 3.82108 139 139 113 
0.723538 -0.5818 3.80643 133 125 89 
0.593739 -0.439035 3.91513 78 40 0 
0.0501917 -0.420475 3.78665 196 176 125 
0.0659496 -0.417132 3.79232 214 191 139 
0.0217557 -0.414464 3.79064 47 37 10 
0.42608 -0.426974 3.96543 114 113 109 
-0.139999 -0.400462 3.76116 75 86 72 
0.00780702 -0.387503 3.77227 118 118 94 
-0.202553 -0.335429 3.55719 192 169 119 
0.516632 -0.331379 3.94892 189 161 36 
0.382947 -0.117599 4.10063 96 59 0 
-1.25496 0.106927 3.9459 255 240 199 
-0.812542 0.145979 4.22309 65 58 50 
-1.11148 0.137476 3.89173 95 38 0 
-1.01543 0.196223 3.86638 105 49 0 
-1.00664 0.219634 3.8681 225 182 87 
-0.538363 0.328709 4.50926 165 229 195 
0.508971 -0.735168 3.96378 71 63 50 
-0.54413 -0.701677 3.88951 30 11 0 
-0.540587 -0.695295 3.89261 32 11 0 
0.577557 -0.664782 3.91473 155 155 121 
0.622001 -0.640868 3.87939 183 176 147 
0.611595 -0.636407 3.8943 29 8 0 
0.64288 -0.619781 3.86919 153 120 111 
0.664527 -0.604661 3.85292 145 151 89 
0.685125 -0.595305 3.84054 41 50 0 
0.597767 -0.565614 4.0123 218 179 74 
0.661255 -0.531285 3.93876 230 185 70 
0.179112 -0.504859 4.27679 105 96 79 
0.593728 -0.439125 3.91506 78 40 0 
0.0440453 -0.412665 3.78431 56 38 2 
-0.140203 -0.400416 3.76191 75 86 72 
-0.298576 -0.33948 3.61893 115 85 31 
0.260791 -0.206728 4.22951 103 100 93 
0.248369 -0.151387 4.22106 26 25 20 
0.394524 -0.0794215 4.11965 67 48 0 
-0.96802 -0.031831 4.0715 131 80 0 
0.152917 -0.0111307 4.43254 46 16 0 
-1.06574 0.000759157 4.04689 56 0 0 
-1.19355 0.0731112 3.92088 90 33 0 
-0.792335 0.123736 4.23371 61 61 51 
-0.794048 0.133142 4.23323 6 2 0 
-0.807865 0.145424 4.23603 9 0 0 
-0.815411 0.147587 4.22599 64 57 47 
-1.01555 0.196501 3.86672 80 21 0 
0.593133 -0.817168 4.04471 81 31 0 
0.608433 -0.684276 3.89959 38 45 3 
0.472963 -0.610161 3.88079 76 28 0 
0.664087 -0.604998 3.85783 138 143 87 
0.738594 -0.586263 3.79732 120 120 108 
0.557325 -0.553222 4.05985 34 7 0 
0.677061 -0.525381 3.93547 217 173 48 
0.179447 -0.504549 4.27527 105 96 79 
-0.0891814 -0.430392 3.73322 124 114 104 
0.05201 -0.422805 3.80212 201 179 129 
-0.138129 -0.394943 3.75931 0 6 0 
0.0558715 -0.394316 3.79937 37 19 0 
0.0624222 -0.392574 3.77291 35 15 0 
-0.194909 -0.344746 3.58321 85 65 12 
0.677078 -0.373674 3.89097 128 129 124 
-0.216801 -0.333506 3.55998 102 77 23 
-0.198827 -0.33053 3.55691 70 42 0 
0.181313 -0.380078 4.37105 161 137 37 
0.517959 -0.32797 3.94584 201 165 19 
-0.284416 -0.288559 3.5554 250 246 217 
0.536531 -0.320087 3.94702 208 170 11 
-0.0795112 -0.267075 3.56196 72 48 10 
-0.197299 -0.256358 3.48791 64 47 17 
-0.885879 -0.096414 4.20276 123 120 111 
-0.759709 0.0376153 4.29532 24 8 0 
-0.843832 0.192549 4.26118 20 8 0 
-0.406033 0.469598 4.7248 21 4 0 
-0.559801 0.547622 4.49978 235 255 248 
-0.34124 0.707329 4.84968 200 161 32 
-0.167026 0.788869 4.9204 170 150 143 
0.510135 0.829538 4.60752 195 183 161 
-4.13862 1.88886 6.90311 49 40 35 
-4.17717 1.95901 6.61186 54 49 45 
-0.280232 -0.487408 3.70307 48 127 80 
-0.363271 -0.411738 3.80101 97 99 88 
0.655656 -0.392849 3.84695 126 123 108 
-0.220783 -0.334387 3.57181 119 97 40 
-1.08269 0.615351 5.41805 157 146 140 
0.200114 0.755393 4.66885 123 81 5 
0.257987 0.757934 4.66006 103 58 0 
-0.273706 0.832523 4.83693 106 90 67 
-0.477327 0.941226 4.62114 210 196 183 
-4.18283 2.13036 6.81411 60 53 47 
-4.18766 2.06658 6.50527 32 28 19 
0.615395 -0.835775 3.98261 179 122 7 
0.654118 -0.532497 3.9554 229 190 51 
0.216234 -0.566521 4.3425 3 19 8 
0.57552 -0.441606 3.91518 180 144 4 
0.609045 -0.430394 3.90112 186 150 12 
0.433495 -0.376728 3.98011 10 8 9 
0.232962 -0.130035 4.24732 81 76 70 
0.379929 -0.125699 4.10263 193 154 17 
0.385368 -0.104515 4.11358 15 5 6 
-0.963849 -0.0341722 4.09067 141 94 14 
-0.897347 -0.0155964 4.13463 120 83 5 
-0.864451 0.199715 4.27094 19 8 0 
1.04688 0.520305 5.46616 206 195 189 
1.12067 0.707817 5.02044 129 119 110 
0.414094 0.781178 4.68442 206 186 149 
-0.314155 0.818836 4.85622 184 167 151 
-0.494953 0.957716 4.58221 194 182 168 
-1.98646 0.995501 4.62346 225 215 213 
-0.895547 1.04993 4.40384 153 143 141 
-4.11244 1.62727 6.80323 50 40 38 
-4.13847 1.8188 6.92576 54 51 44 
-0.194151 -0.970169 3.77903 190 40 51 
-0.0592636 -0.288539 3.62909 26 61 21 
-0.817849 -0.0616588 4.23104 73 70 63 
-0.793231 -0.0582434 4.26797 10 5 2 
-1.19053 0.0751454 3.93604 107 45 4 
-0.30398 0.820531 4.8824 189 173 160 
-0.0726264 0.875954 4.72295 121 107 94 
0.297913 0.846546 4.57865 195 183 157 
-0.45321 0.93223 4.57138 215 201 188 
-0.498375 0.965668 4.54925 214 204 194 
0.564252 -0.705577 3.92746 148 95 87 
0.532012 -0.708382 3.94984 185 177 156 
0.608671 -0.662564 3.89168 177 183 137 
0.55154 -0.657982 3.9534 57 0 0 
0.633784 -0.633984 3.87521 50 29 0 
0.60251 -0.63615 3.90321 63 53 41 
0.663064 -0.617971 3.85498 126 139 67 
0.67306 -0.607846 3.84822 142 158 85 
0.7154 -0.594852 3.81591 150 156 142 
0.67268 -0.598007 3.8528 47 60 0 
0.66239 -0.596739 3.86585 119 111 75 
0.734924 -0.571473 3.80267 14 7 1 
0.714075 -0.563034 3.82748 33 16 9 
0.0335292 -0.415521 3.79899 65 52 17 
-0.241218 -0.242345 3.49865 182 159 127 
0.438934 0.0202209 4.29407 67 64 57 
-0.82176 -0.0554652 4.19791 72 71 67 
-0.364883 0.10043 4.33607 166 144 105 
-0.559802 0.56274 4.50183 222 247 226 
0.686452 -0.785725 3.96795 92 34 0 
0.565639 -0.693476 3.92609 189 113 100 
0.593482 -0.663594 3.90463 154 165 96 
0.601835 -0.657788 3.90362 198 194 169 
0.566325 -0.66244 3.92897 131 134 77 
0.590193 -0.65418 3.90625 150 157 105 
0.584026 -0.644941 3.92419 18 20 0 
0.692018 -0.578492 3.84684 122 114 77 
0.753426 -0.525052 3.81803 75 67 56 
-0.107404 -0.394756 3.7563 109 112 103 
0.367194 -0.0174211 4.2453 75 62 28 
0.358184 0.0217685 4.25965 3 1 2 
-0.761519 0.0986064 4.29441 66 45 0 
-0.81497 0.146821 4.22332 65 58 52 
0.426058 0.82729 4.60802 187 175 159 
0.727696 -0.594796 3.80546 190 188 173 
0.455309 -0.438117 3.95743 105 105 105 
-0.292213 -0.335277 3.5772 100 73 20 
0.375573 -0.0912568 4.09937 21 3 0 
0.307499 -0.0670025 4.22054 106 88 38 
-1.12698 -0.0835192 4.07509 243 222 105 
-0.979445 0.068351 4.01729 54 9 6 
-0.561758 0.547054 4.51454 179 205 196 
-1.07103 0.604591 5.36266 156 145 141 
-0.138096 0.815168 4.81218 134 120 107 
0.705238 -0.575837 3.82665 172 155 148 
0.44131 0.306581 4.6469 112 73 0 
0.167232 0.483311 4.61331 22 5 0 
-0.548633 0.457148 4.44971 135 117 7 
-0.160946 0.793351 4.86232 111 95 80 
-0.271759 0.824867 4.80283 105 88 68 
-0.288657 0.844544 4.75225 201 183 173 
0.611607 -0.64853 3.90709 194 181 164 
-0.326937 -0.404069 3.79206 86 92 78 
0.439905 -0.195244 4.0503 175 136 19 
1.45029 0.844797 4.68139 196 187 182 
-0.0776866 0.847642 4.72993 200 185 178 
-0.394097 0.956817 4.51915 157 147 135 
0.667884 -0.886705 3.96351 233 221 197 
0.593843 -0.881984 4.02798 134 97 16 
0.586725 -0.703078 3.92325 197 209 135 
0.578566 -0.514424 3.99028 139 95 0 
0.494989 -0.242963 3.95384 207 161 13 
-0.71557 -0.157474 4.38839 21 15 1 
1.44158 0.840015 4.65185 200 191 186 
1.34701 0.882905 4.5671 149 140 133 
-0.0828293 0.844967 4.72071 199 184 177 
0.819291 0.944405 4.47321 155 147 136 
0.211362 1.07263 4.23017 207 196 192 
0.239278 1.08754 4.20878 147 136 132 
0.56059 -0.729347 3.94028 201 137 128 
0.586967 -0.714304 3.92042 200 183 157 
0.550137 -0.717869 3.94046 176 123 115 
0.623121 -0.673779 3.88512 209 223 144 
0.651045 -0.669239 3.87083 184 217 104 
0.656737 -0.653867 3.86121 74 75 18 
0.647438 -0.654943 3.86653 176 179 124 
0.679979 -0.648408 3.84687 207 230 140 
0.69024 -0.630767 3.83502 171 195 121 
0.738928 -0.619497 3.81004 170 171 139 
0.698918 -0.619302 3.82579 32 59 0 
0.705039 -0.606691 3.822 150 165 100 
0.449252 -0.462785 3.96392 25 26 20 
0.574194 -0.704852 3.92238 67 18 3 
0.712057 -0.616111 3.81905 29 39 4 
0.739955 -0.609003 3.80705 40 39 21 
0.455514 -0.60462 3.89033 82 45 0 
0.490472 -0.234032 3.9689 197 155 17 
0.388207 -0.073247 4.10712 192 157 55 
-1.01624 0.19831 3.86756 93 35 0 
-0.84889 -0.0957531 4.19901 57 53 54 
-0.284822 0.86388 4.73823 143 129 116 
-1.18785 0.0732086 3.92432 110 43 16 
0.449897 0.91402 4.88091 72 63 58 
0.702051 -0.846723 3.98005 255 237 104 
0.230711 -0.771801 3.75827 106 88 50 
-0.610802 -0.826629 3.90317 54 39 0 
-0.626816 -0.820624 3.90777 95 79 45 
-0.627346 -0.80841 3.91662 104 86 50 
0.554723 -0.7275 3.94313 186 118 107 
0.562281 -0.725644 3.93487 92 15 9 
0.54922 -0.721643 3.9369 114 48 34 
0.535975 -0.719398 3.94712 128 119 110 
0.571869 -0.715135 3.93211 105 22 16 
0.552741 -0.714298 3.92735 86 27 21 
0.544713 -0.710195 3.93792 162 95 87 
0.563169 -0.70541 3.92497 150 96 84 
0.58793 -0.700735 3.90773 53 68 0 
0.610839 -0.693719 3.90289 202 213 147 
0.684936 -0.676262 3.86741 126 145 20 
0.684703 -0.666422 3.85261 112 130 18 
0.689854 -0.668375 3.8631 108 127 12 
0.597942 -0.677328 3.89685 158 177 95 
0.623822 -0.674424 3.88662 185 203 121 
0.621257 -0.665991 3.86273 167 192 91 
0.683215 -0.658102 3.84259 74 101 6 
0.697399 -0.656823 3.84282 117 138 43 
0.636525 -0.665454 3.87056 149 174 83 
0.6587 -0.662175 3.8681 164 176 104 
0.654294 -0.6604 3.85897 173 187 112 
0.56271 -0.681245 3.93229 145 94 77 
0.601541 -0.671201 3.90486 96 110 33 
0.674872 -0.653435 3.84643 67 91 0 
0.575682 -0.673317 3.91431 119 126 72 
0.606724 -0.665499 3.88604 81 88 44 
0.565933 -0.674426 3.92401 115 108 82 
0.678051 -0.647275 3.83425 93 110 42 
0.697255 -0.647753 3.83563 76 104 19 
0.646854 -0.654913 3.8653 151 154 101 
0.144687 -0.673822 3.79252 37 21 0 
0.658181 -0.645226 3.83263 88 77 11 
0.62518 -0.652778 3.87194 77 108 4 
0.703642 -0.639935 3.83702 149 174 90 
0.580713 -0.662806 3.90668 54 61 7 
0.598539 -0.657585 3.89587 201 197 168 
0.610517 -0.652056 3.87182 160 178 96 
0.724313 -0.636236 3.82503 218 226 187 
0.556342 -0.666911 3.92985 125 80 59 
0.684275 -0.637816 3.82706 218 233 176 
0.608063 -0.651547 3.88664 75 73 52 
0.745612 -0.624859 3.8101 193 193 165 
0.735679 -0.623699 3.80944 141 145 108 
0.584313 -0.655448 3.91498 44 51 0 
0.707393 -0.626462 3.82115 172 198 99 
0.718789 -0.626204 3.81687 161 175 114 
0.595225 -0.648056 3.89847 159 152 123 
0.675117 -0.631196 3.84045 101 132 28 
0.61808 -0.640313 3.87714 167 161 137 
0.649685 -0.637076 3.8725 58 63 7 
0.552489 -0.658444 3.95549 66 8 0 
0.700519 -0.62021 3.82902 39 72 0 
0.737762 -0.613325 3.80966 223 224 190 
0.756172 -0.599361 3.79497 60 58 43 
0.638584 -0.619504 3.86319 129 100 92 
0.704533 -0.607222 3.82105 142 159 91 
0.633445 -0.619429 3.87286 133 68 64 
-0.528527 -0.711594 3.91928 41 10 0 
0.596586 -0.630677 3.92201 102 96 60 
0.666972 -0.615015 3.87765 139 126 110 
0.594026 -0.629761 3.9359 108 106 45 
0.690274 -0.599225 3.82586 78 93 12 
0.711513 -0.593614 3.80819 134 140 114 
-0.542588 -0.702051 3.90808 37 11 0 
0.662549 -0.602519 3.86556 28 19 0 
0.675855 -0.587212 3.85072 108 97 65 
0.695573 -0.581922 3.83258 56 62 14 
0.713079 -0.563031 3.82547 36 22 21 
0.720607 -0.54202 3.83465 26 8 0 
-0.172368 -0.551128 3.71078 62 120 80 
0.667022 -0.470502 3.92552 176 128 0 
0.487016 -0.462299 3.96303 60 56 31 
-0.438684 -0.583724 4.43106 237 231 219 
0.641345 -0.392706 3.89093 45 45 35 
-0.350486 -0.439405 3.78808 113 93 86 
-0.113601 -0.402641 3.75595 27 35 24 
0.629812 -0.34912 3.87601 120 119 117 
-0.483162 -0.436847 3.88966 199 172 127 
-0.471657 -0.432222 3.87853 69 47 8 
-0.432885 -0.427016 3.89797 64 68 51 
-0.202577 -0.328407 3.56864 108 85 35 
-0.646869 -0.431899 4.50013 191 140 0 
-0.416358 -0.314342 3.68835 174 182 141 
-0.190163 -0.252677 3.5071 124 102 65 
-0.441153 -0.291643 3.70722 179 187 136 
-0.243038 -0.241182 3.49198 180 164 130 
-0.296692 -0.240724 3.50675 185 165 130 
-0.846911 -0.286994 4.58292 25 21 18 
0.325154 -0.0595952 4.2483 38 15 0 
-0.333447 -0.0921576 3.75296 149 133 110 
-0.814348 -0.129957 4.24176 100 68 11 
-0.357678 0.102111 4.37446 165 146 106 
-1.24183 0.031337 3.97647 155 111 4 
-1.24885 0.107055 3.92553 253 232 165 
-1.24923 0.10793 3.94375 255 247 205 
-1.09146 0.147389 3.93521 239 180 78 
-1.06946 0.165034 3.93738 185 131 0 
-1.05561 0.254933 3.90654 109 78 14 
-0.504328 0.553106 4.49816 176 193 175 
0.633345 -0.850702 3.96197 231 207 179 
-0.601275 -0.817738 3.90321 142 115 68 
0.607823 -0.684697 3.89244 71 77 29 
0.563307 -0.69285 3.92087 163 101 86 
0.58554 -0.691578 3.93551 182 186 125 
0.641754 -0.648842 3.85717 74 77 30 
0.607129 -0.658911 3.90871 201 197 168 
0.56654 -0.662764 3.92937 124 123 69 
0.448414 -0.654426 3.89386 182 149 44 
0.709927 -0.609887 3.81214 161 172 132 
0.572881 -0.642169 3.94075 47 46 0 
0.613778 -0.629637 3.89024 57 5 0 
0.72426 -0.588039 3.80674 34 37 8 
0.658834 -0.601882 3.87669 119 80 63 
0.696459 -0.574523 3.84445 62 42 15 
0.737004 -0.535573 3.79866 124 116 105 
0.713797 -0.540318 3.82105 18 3 0 
0.592706 -0.512499 3.98583 242 200 64 
-0.27988 -0.48849 3.71847 29 128 71 
-0.0891512 -0.430359 3.74652 126 109 102 
0.626252 -0.382835 3.88775 21 20 18 
0.0355875 -0.414692 3.80018 58 45 11 
-0.447277 -0.43201 3.88125 42 32 0 
-0.370942 -0.416017 3.83753 43 53 44 
0.607651 -0.331685 3.90827 77 76 72 
0.512005 -0.329445 3.93711 191 162 34 
-0.444081 -0.40335 3.84778 157 151 125 
0.622032 -0.306611 3.92004 77 79 66 
-0.0445581 -0.281249 3.64109 56 67 25 
-0.340888 -0.266311 3.50867 180 164 130 
-0.337878 -0.256273 3.5168 111 95 69 
-0.255067 -0.240306 3.48471 171 155 121 
0.418058 -0.216308 4.10853 107 79 31 
0.402608 -0.11035 4.10465 181 147 39 
0.297669 -0.119277 4.23836 27 12 0 
-0.886421 -0.114306 4.25048 29 25 22 
-0.883442 -0.104723 4.23283 31 28 21 
-0.845333 -0.0635503 4.22174 91 86 80 
-0.822029 -0.0611633 4.23456 4 1 0 
-0.931671 -0.0441874 4.16778 138 99 8 
-0.404281 0.0507117 4.4211 184 157 104 
-1.07683 0.171466 3.92467 87 23 0 
0.639709 -0.882566 3.99478 215 200 177 
-0.106046 -0.773842 3.74439 175 59 72 
0.773437 -0.736327 3.89314 111 64 0 
0.560274 -0.734496 3.95327 126 87 82 
0.596921 -0.712957 3.91686 149 146 115 
0.578219 -0.71019 3.91234 51 29 6 
0.583595 -0.696613 3.89169 54 74 3 
0.610756 -0.680617 3.90613 51 64 10 
0.71493 -0.659925 3.85247 76 87 8 
0.411365 -0.684447 3.90872 224 197 94 
0.656561 -0.649464 3.85307 69 49 0 
0.587159 -0.66018 3.92771 22 26 0 
0.636862 -0.634213 3.83097 25 30 0 
0.725882 -0.62005 3.82996 19 28 1 
0.58519 -0.646046 3.92868 24 27 0 
0.724567 -0.610963 3.79909 219 223 196 
0.594619 -0.635492 3.90786 137 130 114 
0.660735 -0.610851 3.84343 47 54 3 
0.740799 -0.592208 3.79508 31 30 25 
-0.0149062 -0.613381 3.62792 122 40 28 
0.61297 -0.620196 3.91603 29 7 0 
0.731329 -0.568187 3.79226 24 14 12 
-0.597447 -0.677483 3.92891 40 24 0 
0.707997 -0.548313 3.86406 60 29 0 
0.707328 -0.559763 3.95344 112 70 28 
-0.528364 -0.612824 3.74096 105 15 7 
0.600528 -0.564372 4.01692 227 190 76 
-0.215204 -0.55789 3.72456 40 127 74 
0.560694 -0.553409 4.07055 30 8 0 
-0.274487 -0.560515 3.73132 44 116 70 
0.582223 -0.506374 3.98112 142 93 0 
0.693415 -0.464872 3.93867 121 93 0 
0.415033 -0.48638 3.98004 96 76 23 
0.414666 -0.467002 3.99165 132 131 126 
-0.296807 -0.479146 3.70553 116 57 49 
0.452821 -0.437247 3.95157 83 84 79 
-0.451371 -0.585239 4.43186 220 213 203 
-0.352115 -0.447026 3.78045 24 15 0 
0.0406412 -0.410651 3.78553 61 43 7 
0.410294 -0.416547 4.17122 18 17 12 
-0.435475 -0.440989 3.89338 172 168 131 
-0.109967 -0.389394 3.76921 0 17 0 
-0.379551 -0.404261 3.82294 0 21 4 
-0.44894 -0.41096 3.86655 7 1 0 
-0.0292682 -0.251043 3.60543 203 181 132 
-0.430676 -0.279165 3.62646 65 36 4 
-0.311277 -0.24038 3.49584 201 179 140 
-0.742693 -0.320175 4.43012 45 27 0 
-0.83508 -0.299711 4.5735 92 89 84 
0.384108 -0.0903759 4.12046 48 14 0 
0.430634 -0.0673617 4.12487 99 58 0 
0.312239 -0.067175 4.23403 109 91 53 
-0.139199 -0.0877373 3.72284 60 42 18 
0.489463 -0.00447544 4.32528 138 116 69 
0.443877 0.0204896 4.32292 34 30 19 
0.382815 0.0227928 4.27693 13 12 8 
0.355164 0.0507764 4.35495 147 137 125 
0.389033 0.0807884 4.32961 79 70 55 
-0.42935 0.00922145 4.53093 200 160 46 
-0.915281 0.00213475 4.11009 133 91 7 
0.406139 0.310768 4.69004 119 83 0 
0.479867 0.323985 4.70483 121 87 0 
-1.16338 0.104614 3.95009 106 41 0 
-1.20003 0.166319 3.95032 246 234 218 
-0.693054 0.337766 4.90946 50 6 0 
-0.907449 0.682348 5.28952 168 155 149 
-0.114759 0.834138 4.91927 137 123 114 
-0.668971 0.799227 4.84216 127 114 97 
0.562351 -0.884341 4.02547 224 208 183 
0.571658 -0.872329 4.04283 132 94 9 
0.682325 -0.847711 3.9698 141 102 1 
0.54323 -0.708935 3.9241 82 31 30 
0.645775 -0.637133 3.84956 20 26 0 
0.569658 -0.630793 3.92904 38 28 3 
-0.173883 -0.562589 3.71258 30 68 47 
0.649756 -0.485967 3.94641 97 51 1 
-0.457293 -0.583917 4.44292 239 229 220 
-0.0746771 -0.440691 3.76168 60 29 27 
-0.36051 -0.440208 3.78662 31 13 3 
0.653051 -0.35079 3.90183 135 136 131 
-0.444879 -0.335688 3.8145 178 175 124 
0.408855 -0.265369 4.00452 203 167 21 
-0.79676 -0.347375 4.57164 37 33 30 
-0.718501 -0.228662 4.33134 133 134 126 
0.431597 -0.0750911 4.10414 147 111 33 
0.453772 0.0207366 4.29577 50 43 35 
0.450892 0.0285503 4.32033 140 132 119 
-0.848473 -0.0949675 4.22855 38 34 33 
-0.90884 -0.0185403 4.12606 170 124 2 
-0.431391 0.0766837 4.49943 229 197 52 
-1.24353 0.038201 3.95644 114 53 0 
0.45946 0.309663 4.69863 114 76 1 
0.519713 0.380749 4.71104 101 59 1 
-0.694329 0.337578 4.89734 50 6 0 
-1.06317 0.595034 5.51174 161 150 144 
-1.06987 0.616656 5.4473 148 137 135 
0.319884 0.861869 4.64598 170 156 143 
-0.276438 0.856143 4.81722 195 177 163 
0.654868 1.01622 4.35151 138 127 123 
-0.486664 0.962166 4.60199 174 161 152 
-0.813473 1.06557 4.39231 140 129 127 
0.673643 -0.84565 3.95766 136 103 22 
0.645707 -0.839323 3.97345 137 93 22 
0.546458 -0.787606 4.03592 68 58 56 
0.705304 -0.612171 3.79268 35 39 24 
0.472128 -0.607435 3.88903 102 62 0 
0.590997 -0.558694 3.99736 239 200 81 
0.593037 -0.539419 4.00572 232 198 65 
0.62523 -0.487052 3.93598 246 209 94 
-0.455073 -0.585139 4.45678 240 232 221 
0.622641 -0.378218 3.90227 106 106 106 
0.460425 -0.400163 4.00568 73 73 71 
-0.317463 -0.34871 3.6298 193 170 116 
-0.443479 -0.349372 3.82473 18 32 7 
0.465863 -0.242705 3.97251 206 165 11 
-0.345713 -0.246424 3.53532 192 170 123 
-0.323872 -0.239192 3.4717 169 150 107 
0.42613 -0.225958 4.13134 47 15 2 
0.440615 -0.194026 4.05228 172 136 14 
0.451721 -0.0739369 4.13578 146 111 30 
-0.735496 -0.131486 4.42183 189 155 19 
-0.677452 -0.052679 4.4155 78 37 0 
-0.4318 0.0780254 4.48734 216 185 45 
-1.25645 0.043954 3.97721 242 206 48 
-1.10186 0.229592 3.93028 130 88 4 
-1.08963 0.251011 3.91557 160 144 131 
0.440307 0.775044 4.68421 118 89 9 
0.428307 0.840149 4.64171 186 173 154 
-0.164518 0.793366 4.95946 161 147 134 
-0.82603 0.907014 4.71313 203 190 182 
-0.384146 0.96857 4.57582 151 138 130 
0.783778 -0.849419 3.90666 223 212 192 
0.536316 -0.832432 4.08996 171 161 149 
0.676543 -0.674139 3.92809 121 143 60 
0.679534 -0.611735 3.80689 152 186 65 
0.591915 -0.621763 3.88041 29 18 12 
0.717805 -0.603229 3.81194 25 29 15 
0.744395 -0.595185 3.78542 41 39 26 
0.836425 -0.591322 3.80383 53 52 50 
0.483873 -0.600989 4.09992 251 233 171 
0.728409 -0.539068 3.89028 161 136 70 
0.735288 -0.531464 3.81699 11 11 3 
0.687107 -0.547317 3.94558 52 13 0 
0.548631 -0.524111 3.99662 57 26 5 
0.507021 -0.513688 4.02002 136 97 2 
0.515148 -0.516068 4.03917 133 95 0 
0.629404 -0.39738 3.89738 12 12 14 
-0.0915448 -0.420462 3.75255 17 0 0 
0.392625 -0.394301 4.04872 12 8 0 
0.409786 -0.369707 3.93569 5 6 0 
-0.67982 -0.229562 4.4055 80 79 74 
-0.968218 -0.033989 4.09501 139 94 1 
-0.473804 0.0294906 4.82328 205 159 12 
-1.26232 0.105371 3.87452 244 232 218 
1.07972 0.524806 5.51425 197 188 183 
-1.27384 0.129186 3.96026 213 200 183 
-1.09047 0.191396 3.92732 241 192 12 
1.21763 0.701887 5.06098 200 191 184 
1.05982 0.695176 5.10263 183 176 170 
1.11756 0.723122 5.04982 178 169 162 
-0.540673 0.457018 4.49084 122 103 8 
0.500376 0.655937 4.79405 121 83 0 
0.388073 0.766867 4.64686 180 156 118 
0.340959 0.795367 4.69598 96 62 0 
0.52831 0.82123 4.64473 177 164 145 
0.78739 0.875965 4.67695 204 193 189 
0.501436 0.870254 4.75703 61 52 45 
-0.170954 0.788449 4.92835 160 147 131 
0.748853 0.930049 4.5289 202 193 188 
-0.0645074 0.881094 4.74677 123 111 95 
-0.839446 0.939652 4.63986 203 193 184 
-0.833183 1.04449 4.347 213 202 196 
0.52283 -0.733411 3.95674 231 221 211 
0.557757 -0.709986 3.93232 133 95 92 
0.562999 -0.702364 3.92858 78 11 2 
0.56192 -0.683686 3.92594 150 98 85 
0.576616 -0.673618 3.91585 119 126 72 
0.602805 -0.66753 3.89378 171 177 129 
0.56643 -0.674806 3.92481 115 108 82 
0.584047 -0.659047 3.91162 115 122 71 
0.61078 -0.652382 3.89108 75 73 52 
0.591834 -0.655237 3.90591 142 147 93 
0.658402 -0.640889 3.85989 29 25 0 
0.677933 -0.631897 3.84485 101 132 28 
0.633809 -0.634092 3.87539 43 27 0 
0.608533 -0.633182 3.90074 84 69 62 
0.615778 -0.630025 3.89446 57 5 0 
0.650757 -0.62176 3.86699 34 23 1 
0.65759 -0.618039 3.85803 56 62 14 
0.635426 -0.619973 3.87603 133 68 64 
0.712297 -0.592365 3.81545 150 154 131 
0.66178 -0.602032 3.86436 28 19 0 
0.699397 -0.590262 3.83046 56 66 13 
0.697988 -0.51121 3.90835 226 189 83 
-0.222526 -0.333879 3.57489 100 70 18 
0.383426 -0.110185 4.09916 57 32 0 
-0.130417 0.023146 3.77687 35 18 0 
-1.19999 0.160932 3.9355 252 241 219 
0.565417 -0.693333 3.92442 163 101 86 
0.575766 -0.689142 3.91917 182 186 125 
0.589978 -0.672191 3.90575 70 89 0 
0.60117 -0.657083 3.89894 201 197 168 
0.566318 -0.662919 3.92895 124 123 69 
0.601553 -0.650207 3.90642 177 167 140 
0.692391 -0.598529 3.83043 84 101 21 
0.649175 -0.637545 3.86375 26 34 0 
0.727592 -0.594634 3.80487 173 176 159 
0.677187 -0.525155 3.93632 217 176 60 
-0.239243 -0.243663 3.51714 169 153 119 
0.40018 -0.110312 4.09847 188 152 29 
-0.851623 -0.0957987 4.21623 38 34 33 
0.226022 -0.565366 6.63593 213 186 37 
0.625477 -0.665403 3.88204 177 199 90 
0.653398 -0.531527 3.95134 226 189 75 
0.439954 -0.194388 4.05112 172 136 14 
-0.248069 1.02212 4.39773 147 137 135 
0.749277 -0.797148 3.89262 143 110 33 
0.522437 -0.733696 3.95609 231 221 211 
0.545833 -0.710285 3.93987 162 95 87 
0.579568 -0.699512 3.91816 134 122 82 
0.610353 -0.68694 3.89701 70 77 25 
0.631722 -0.668985 3.87957 167 192 91 
0.683968 -0.648745 3.84352 93 110 42 
0.610517 -0.652081 3.89067 75 73 52 
0.641141 -0.643395 3.86824 144 140 95 
0.589757 -0.672067 3.90537 70 89 0 
0.677035 -0.525058 3.93613 217 176 60 
0.654474 -0.53129 3.95321 226 189 75 
1.20019 0.696482 5.0177 195 186 177 
-0.148909 -0.916395 3.73954 196 120 120 
0.510628 -0.744543 3.98492 86 76 66 
0.559 -0.732938 3.95687 137 102 100 
0.573985 -0.716014 3.93561 99 21 17 
0.57841 -0.703602 3.93574 164 100 91 
0.614561 -0.698279 3.92178 73 89 1 
0.615308 -0.695054 3.9102 190 202 128 
0.692181 -0.678287 3.87879 120 148 25 
0.630338 -0.676368 3.89714 184 201 130 
0.648603 -0.67272 3.88408 58 86 0 
0.680221 -0.664345 3.87899 67 91 0 
0.626305 -0.669214 3.90248 92 104 40 
0.658076 -0.661817 3.87684 81 86 28 
0.128151 -0.681365 3.81112 137 111 88 
0.606921 -0.668553 3.91801 143 152 85 
0.632374 -0.657879 3.90733 146 159 87 
0.71569 -0.636601 3.84977 56 85 0 
0.755256 -0.626801 3.82469 215 215 189 
0.737587 -0.623108 3.83219 210 218 177 
0.668936 -0.62119 3.87595 50 59 16 
0.675905 -0.608287 3.87729 111 109 68 
-0.541696 -0.702113 3.9095 33 12 0 
0.710047 -0.588974 3.83993 156 157 125 
0.690449 -0.593727 3.86211 38 47 0 
-0.425913 -0.746101 4.7427 137 123 94 
-0.464491 -0.596891 4.48052 6 29 13 
-0.129331 -0.403445 3.76647 92 102 94 
-0.373991 -0.430064 3.83432 31 42 26 
-0.437182 -0.438437 3.88171 167 178 138 
-0.117726 -0.387774 3.7667 64 102 77 
-0.480681 -0.434294 3.88851 52 31 0 
-0.308741 -0.332181 3.59485 130 105 51 
-0.360894 -0.27591 3.53964 74 53 10 
-0.335791 -0.248926 3.52583 152 131 100 
-0.806025 -0.345198 4.54903 18 17 13 
-0.839352 -0.297891 4.55058 90 89 87 
-0.431416 -0.071529 4.17252 100 101 96 
-1.17988 0.0884066 3.96103 255 201 74 
-0.628386 -0.808365 3.91283 115 90 59 
0.57295 -0.735819 3.95216 135 108 97 
0.574773 -0.731604 3.94331 216 179 171 
0.604236 -0.686042 3.91793 26 39 0 
0.587839 -0.681558 3.9297 41 52 0 
0.601162 -0.657402 3.92427 146 150 91 
0.67876 -0.640442 3.86953 170 185 102 
0.75797 -0.615802 3.80949 206 204 189 
0.708753 -0.574691 3.84985 155 142 126 
0.718297 -0.571762 3.85307 95 83 71 
0.765696 -0.528437 3.83799 92 82 73 
0.711466 -0.547576 3.97424 107 69 32 
0.453497 -0.469218 3.98089 113 110 101 
-0.346517 -0.437631 3.78621 103 89 80 
-0.348711 -0.337076 3.65672 187 190 133 
-0.421935 -0.403512 4.52373 173 143 45 
-0.172013 -0.267081 3.50066 78 54 10 
-0.508456 -0.338899 3.84036 37 10 0 
0.496323 -0.232301 3.98336 201 164 24 
-0.344853 -0.25879 3.55522 96 83 64 
-0.350501 -0.240471 3.51975 202 180 131 
0.383229 -0.0896115 4.11894 55 20 0 
-0.320996 -0.0797061 3.7592 156 138 124 
-0.879136 -0.136415 4.27549 224 190 80 
-0.884627 -0.104693 4.2262 12 8 7 
-0.851005 -0.095014 4.22089 26 25 21 
-0.393958 -0.00410417 4.1739 84 83 81 
-0.387268 0.0225768 4.21588 28 15 0 
-0.888219 -0.0110917 4.15311 115 77 4 
-0.365392 0.101411 4.35567 163 141 100 
0.538618 -0.731008 3.96362 243 233 221 
0.603581 -0.715444 3.92775 211 203 180 
0.597711 -0.703156 3.90385 192 204 140 
0.583774 -0.696235 3.89213 61 79 0 
0.135814 -0.684883 3.80617 49 28 7 
0.664138 -0.660401 3.8687 184 199 118 
0.722012 -0.618964 3.82408 33 39 1 
0.602895 -0.637637 3.9217 138 131 113 
0.707047 -0.610579 3.84845 69 97 0 
0.603541 -0.627384 3.92477 25 13 0 
0.737968 -0.596633 3.82066 255 255 238 
0.691201 -0.526725 3.95908 211 174 33 
-0.439276 -0.749455 4.73606 30 20 0 
0.564163 -0.553699 4.07678 30 7 0 
0.565511 -0.541736 4.08552 30 7 0 
0.457076 -0.478673 3.99638 60 44 0 
-0.170848 -0.488013 3.7065 6 6 0 
0.432416 -0.421212 3.97692 57 56 54 
-0.057057 -0.390438 3.76668 0 32 11 
-0.366253 -0.420695 3.81633 35 35 27 
-0.348514 -0.412625 3.79941 17 0 0 
-0.331352 -0.411285 3.80223 22 3 0 
-0.361351 -0.409429 3.81258 87 89 78 
-0.320191 -0.403046 3.79588 81 88 81 
-0.331137 -0.396467 3.80209 0 6 0 
-0.43889 -0.291167 3.69952 36 48 0 
-0.228216 -0.241993 3.50324 196 173 139 
-0.386931 -0.270807 3.64658 255 251 213 
-0.449359 -0.261415 3.6439 60 40 5 
-0.11514 -0.201116 3.55233 56 35 4 
0.394102 -0.0777452 4.12176 185 150 56 
0.398882 0.0183969 4.2874 78 78 70 
-0.847948 -0.0638598 4.20828 81 79 67 
-0.458488 0.0376966 4.49666 208 171 31 
-0.917431 0.00269469 4.09889 120 78 4 
0.367416 0.332976 4.67347 126 85 5 
0.312044 0.338155 4.65903 116 78 0 
-1.11084 0.138568 3.91704 84 25 0 
-1.09922 0.147817 3.9289 90 28 0 
-0.503862 0.553584 4.49982 149 176 161 
-0.149686 0.802965 4.92466 105 89 73 
-0.145036 0.810685 4.85302 178 162 149 
-0.131951 0.823066 4.86564 118 106 94 
-0.281299 0.853592 4.80736 195 181 168 
-0.845403 0.869952 4.81108 134 121 113 
0.571709 -0.917137 4.07582 221 208 189 
0.629081 -0.892116 4.07397 159 122 18 
0.676404 -0.672237 3.91196 116 133 63 
0.578342 -0.660479 3.91603 32 36 1 
0.632787 -0.644821 3.91044 197 185 163 
-0.17647 -0.549597 3.70862 47 123 77 
0.613307 -0.338893 3.91666 77 77 69 
-0.629609 -0.525566 4.49448 178 164 137 
-0.46163 -0.412105 3.88242 82 64 28 
-0.311302 -0.332255 3.57688 102 74 26 
-0.469004 -0.348482 3.83259 93 72 27 
-0.366613 -0.278037 3.55213 222 196 145 
-0.28607 -0.240645 3.51305 181 161 126 
-0.673387 -0.0757531 4.38526 176 143 36 
0.351505 0.329889 4.6572 115 72 3 
-1.23013 0.054952 3.98125 255 255 141 
0.208219 0.75837 4.68254 107 68 1 
-0.7538 0.663544 4.94981 145 105 9 
-0.0761446 0.851705 4.74315 180 166 155 
0.598844 -0.905498 4.03079 219 203 188 
0.68328 -0.849388 3.97318 157 126 44 
0.649942 -0.839962 3.98109 147 103 16 
0.773894 -0.797847 3.87794 140 108 21 
-0.604976 -0.81086 3.88386 219 192 145 
0.616812 -0.678367 3.89431 219 227 178 
-0.280862 -0.555638 3.70929 38 129 72 
0.4202 -0.489686 4.03625 11 7 4 
0.627901 -0.375628 3.91303 102 103 98 
0.447459 -0.398644 3.98214 79 80 75 
-0.0675976 -0.400517 3.78053 117 119 106 
-0.225064 -0.242967 3.51388 173 150 118 
0.373017 0.0197359 4.27953 23 22 20 
-0.672707 -0.0720677 4.40161 178 142 19 
1.14733 0.713751 5.05931 128 119 114 
0.261934 0.756605 4.66922 106 64 4 
-0.751945 0.664779 4.95941 144 106 9 
-0.0105222 0.897133 4.67251 178 164 155 
0.244295 1.09606 4.23299 158 149 142 
-0.838332 0.940094 4.64549 202 189 180 
0.49057 -0.776085 3.96889 33 33 23 
0.610377 -0.656696 3.82223 77 85 25 
0.691888 -0.632361 3.88929 147 177 53 
0.632173 -0.631848 3.94646 33 26 18 
0.779489 -0.549484 3.96941 169 160 145 
0.59421 -0.553285 3.99904 227 187 38 
0.715218 -0.529757 3.93752 118 67 2 
0.556406 -0.553095 4.09603 32 23 8 
-0.267564 -0.555032 3.73203 30 128 69 
0.620168 -0.508221 4.00889 244 202 54 
-0.301626 -0.401039 3.77693 2 7 1 
0.61862 -0.314574 3.93679 12 10 11 
-0.439402 -0.416743 3.86764 8 26 2 
0.476617 -0.249899 4.00516 207 167 10 
-0.353686 -0.265485 3.58699 72 58 31 
-0.719858 -0.279083 4.35998 23 24 18 
-0.250513 -0.140831 3.65098 50 12 9 
-0.520235 -0.229557 4.40777 8 7 3 
-0.647395 -0.220101 4.34233 23 20 13 
-0.583162 -0.201201 4.36691 198 163 9 
-0.67559 -0.192261 4.31635 101 100 96 
-0.955834 -0.119198 4.38848 73 56 26 
-0.565029 -0.0547194 4.45964 17 12 8 
-0.965696 -0.0655128 4.11484 236 200 28 
1.22215 0.702993 5.06846 201 192 185 
1.06605 0.697196 5.11388 191 181 172 
1.12005 0.723618 5.05405 186 177 168 
1.44622 0.84353 4.67555 209 199 197 
-0.583771 0.459103 4.5224 208 196 62 
-0.0627694 0.882569 4.75185 115 103 91 
-0.507206 0.95996 4.53805 211 199 187 
-0.808547 1.07562 4.36219 134 123 121 
0.592975 -0.674778 3.91528 79 93 0 
0.691072 -0.625572 3.84597 158 182 94 
0.638036 -0.635007 3.88423 58 32 0 
0.654007 -0.623178 3.87285 32 30 5 
0.74779 -0.605695 3.81125 27 29 16 
0.689522 -0.596852 3.84687 47 68 0 
0.66656 -0.597519 3.87314 109 105 68 
0.418991 -0.216615 4.11091 102 71 27 
0.596326 -0.647936 3.92637 127 133 69 
0.587124 -0.646013 3.93099 24 27 0 
0.614094 -0.635802 3.91306 85 75 63 
0.738369 -0.607691 3.80429 35 37 24 
0.694026 -0.578781 3.8509 119 120 63 
0.388343 -0.073483 4.13113 128 90 0 
0.614564 -0.621568 3.92124 33 9 0 
-0.0800884 -0.407264 3.77279 37 10 3 
-0.885017 -0.0951969 4.22382 114 111 104 
-0.845922 -0.063561 4.21397 81 79 67 
-0.426769 0.0153886 4.51057 76 43 0 
0.47724 0.323005 4.69728 134 95 2 
0.304832 0.856037 4.60117 173 161 149 
0.64086 -0.881419 3.99245 224 209 188 
0.681537 -0.784299 3.98979 91 32 0 
0.493887 -0.3377 3.94976 193 168 42 
-0.276466 -0.556369 3.71669 38 129 72 
0.45464 -0.399087 3.9916 79 80 75 
-1.15562 0.0863403 3.9529 246 202 9 
-0.00821414 0.896903 4.67643 178 164 155 
-0.385854 0.966795 4.56626 157 144 136 
-0.6312 -0.219447 4.38336 23 20 13 
0.353734 0.326082 4.67982 117 77 8 
1.21956 0.701786 5.06484 201 192 185 
1.06257 0.695645 5.10878 191 181 172 
1.47088 0.849977 4.70364 209 199 197 
-0.291305 0.879892 4.72425 126 112 99 
0.754923 -0.526279 3.82606 92 82 73 
-0.854718 -0.0957475 4.21034 26 25 21 
0.627587 -0.640935 3.88536 73 67 31 
-0.139069 0.819991 4.85034 118 106 94 
-0.492502 0.951814 4.57612 180 167 158 
-1.07809 0.610775 5.39591 147 140 132 
1.35404 0.886973 4.59191 160 151 144 
0.457612 -0.249492 3.98035 207 167 10 
0.276359 0.780398 4.64509 165 147 107 
0.598851 -0.678442 3.903 176 187 121 
-0.185842 -0.456456 4.0728 103 89 80 
0.586076 -0.636756 3.93787 57 60 0 
0.653541 -0.617229 3.8667 122 115 97 
0.686217 -0.603439 3.84727 43 68 0 
0.666403 -0.606826 3.86616 111 109 68 
0.707052 -0.58858 3.83727 156 157 125 
0.730473 -0.621245 3.82304 225 233 192 
0.611184 -0.636204 3.90909 85 75 63 
0.704802 -0.574118 3.8459 155 142 126 
0.0083705 0.879129 5.26701 105 89 73 
0.565273 -0.870341 4.03679 145 102 8 
-0.141304 0.812726 4.87646 170 154 138 
-0.080602 0.852994 4.73841 180 166 155 
-0.893494 -0.105528 4.21455 19 18 16 
0.66997 -0.639231 3.85553 170 171 91 
0.703826 -0.596607 3.8292 57 71 10 
0.604635 -0.617885 3.93161 39 19 0 
0.4898 -0.337175 3.93968 198 173 44 
0.669004 -0.612645 3.85781 47 54 3 
0.614348 -0.614524 3.92309 135 109 76 
0.646531 -0.35173 3.89292 131 132 127 
-0.135631 0.820945 4.85346 137 123 114 
-0.172697 -0.562698 3.71607 30 68 47 
-0.00537226 0.901966 4.69112 182 169 161 
0.596667 -0.87881 4.01841 202 164 17 
0.262367 0.757542 4.67157 99 61 0 
0.334435 0.793953 4.67755 105 73 12 
0.570975 -0.918157 4.02123 222 207 188 
0.450947 -0.426283 3.95636 78 79 74 
0.445031 -0.349002 3.98071 183 152 9 
1.22513 0.70133 5.06663 200 191 184 
1.04989 0.691304 5.08099 183 176 170 
1.11112 0.718813 5.03262 178 169 162 
0.779474 0.875351 4.66637 204 193 189 
0.680012 -0.588528 3.86084 117 107 72 
-0.386823 -0.252747 3.59972 255 255 205 
0.601911 -0.639917 3.90424 160 151 134 
0.631915 -0.61049 3.90218 150 98 84 
0.725319 -0.561601 3.83147 42 16 19 
-0.351893 -0.438848 3.77338 119 91 87 
0.424404 -0.0676045 4.11251 127 86 7 
-1.24947 0.107631 3.93652 233 196 107 
0.744383 -0.788697 3.88869 181 137 12 
0.789418 -0.741403 3.89424 102 48 1 
-0.335892 -0.257021 3.52277 121 105 80 
0.570294 -0.647977 3.94489 114 117 28 
-0.0925766 -0.249633 3.56759 255 250 198 
-1.11637 0.137704 3.90823 118 57 0 
0.538395 -0.684213 3.95187 164 92 68 
0.29155 -0.229426 4.23385 105 94 38 
0.791216 -0.743921 3.8993 102 48 1 
0.441574 -0.391239 3.97194 81 81 81 
0.387892 -0.115577 4.09909 121 70 4 
-0.709412 -0.00871813 4.39386 212 171 43 
-1.01359 0.216823 3.88652 86 32 0 
-0.816617 0.147262 4.23099 68 62 50 
-0.805453 0.145851 4.22704 27 23 11 
-0.504347 0.552289 4.44951 148 172 150 
0.144007 -0.674989 3.79373 47 28 13 
0.55556 -0.679436 3.93737 55 16 1 
0.426956 -0.419561 3.9675 62 59 54 
0.258188 -0.159242 4.21937 81 79 67 
-1.10044 0.143474 3.92143 111 39 0 
-0.399835 0.37085 4.68049 88 48 0 
-1.19493 0.0705271 3.9433 121 52 11 
-1.26488 0.106904 3.95037 250 234 219 
-1.07594 0.610811 5.38045 164 151 143 
0.728889 -0.555627 3.84538 135 98 90 
0.574754 -0.440786 3.91188 190 151 14 
-0.680309 -0.0713468 4.36835 199 158 16 
-0.836626 0.908469 4.71603 215 203 191 
