ply                 
format ascii 1.0    
element vertex 1020
property float x    
property float y    
property float z    
property uchar red  
property uchar green
property uchar blue 
end_header          
0.222683 -0.789776 3.75518 93 76 46 
0.519544 -0.728965 3.95933 61 53 42 
-0.521834 -0.702753 3.9014 33 11 0 
0.545587 -0.703376 3.94596 149 97 84 
0.564436 -0.682417 3.92803 161 105 90 
0.580944 -0.678259 3.91515 22 37 0 
0.578974 -0.672036 3.91689 142 146 96 
0.619453 -0.665191 3.88807 83 95 29 
0.605924 -0.666481 3.90028 171 176 136 
0.449639 -0.65316 3.88335 226 188 55 
0.619852 -0.652937 3.88793 157 175 101 
0.613139 -0.651174 3.89243 66 69 40 
0.58683 -0.653825 3.91573 28 35 0 
0.601039 -0.647596 3.90486 192 184 165 
0.628555 -0.641009 3.87727 38 40 0 
0.675755 -0.635854 3.8512 59 74 9 
0.624316 -0.640048 3.88448 183 176 147 
0.618034 -0.63836 3.89487 146 123 105 
0.649325 -0.635278 3.86974 33 41 0 
0.614164 -0.635314 3.89715 29 8 0 
0.649781 -0.62515 3.86218 144 156 92 
0.645267 -0.619182 3.87268 146 109 101 
0.655895 -0.615641 3.86535 139 127 105 
0.689803 -0.608796 3.83459 150 178 78 
0.65924 -0.611447 3.86318 166 147 133 
0.475446 -0.609996 3.8849 74 29 0 
0.687686 -0.594447 3.84192 38 49 0 
0.708908 -0.590273 3.8241 139 139 113 
0.725947 -0.580946 3.80947 133 125 89 
0.596336 -0.438405 3.91804 78 40 0 
0.053859 -0.419789 3.78943 196 176 125 
0.0695859 -0.416454 3.7951 214 191 139 
0.0254734 -0.413784 3.79341 47 37 10 
0.428957 -0.42633 3.96821 114 113 109 
-0.135976 -0.399785 3.76394 75 86 72 
0.0115624 -0.386872 3.77506 118 118 94 
-0.198326 -0.334872 3.56015 192 169 119 
0.519366 -0.330931 3.95178 189 161 36 
0.385876 -0.117523 4.10336 96 59 0 
-1.2493 0.106904 3.94932 255 240 199 
-0.807495 0.145773 4.22586 65 58 50 
-1.10597 0.137376 3.89507 95 38 0 
-1.01003 0.196009 3.86969 105 49 0 
-1.00126 0.21938 3.87141 225 182 87 
-0.533842 0.328079 4.51167 165 229 195 
0.511645 -0.733962 3.96653 71 63 50 
-0.539483 -0.700379 3.89212 30 11 0 
-0.535947 -0.694008 3.89522 32 11 0 
0.580146 -0.66373 3.91758 155 155 121 
0.624535 -0.639875 3.8823 183 176 147 
0.614139 -0.635418 3.89719 29 8 0 
0.645386 -0.618833 3.87212 153 120 111 
0.667007 -0.603747 3.85588 145 151 89 
0.687578 -0.594414 3.84353 41 50 0 
0.600275 -0.564742 4.01511 218 179 74 
0.663699 -0.530498 3.94168 230 185 70 
0.182275 -0.503998 4.27916 105 96 79 
0.596325 -0.438495 3.91797 78 40 0 
0.047726 -0.411992 3.78709 56 38 2 
-0.13618 -0.399739 3.7647 75 86 72 
-0.294213 -0.338899 3.62185 115 85 31 
0.263866 -0.206462 4.23205 103 100 93 
0.251481 -0.151225 4.22362 26 25 20 
0.397426 -0.0794189 4.12238 67 48 0 
-0.962721 -0.0316856 4.07446 131 80 0 
0.156123 -0.0112261 4.43491 46 16 0 
-1.06031 0.00086691 4.04997 56 0 0 
-1.18795 0.0731309 3.92425 90 33 0 
-0.787322 0.123565 4.23645 61 61 51 
-0.789032 0.132954 4.23598 6 2 0 
-0.802828 0.145217 4.23879 9 0 0 
-0.810359 0.147378 4.22876 64 57 47 
-1.01016 0.196286 3.87003 80 21 0 
0.595588 -0.815816 4.04744 81 31 0 
0.610972 -0.683197 3.90246 38 45 3 
0.475773 -0.609192 3.88361 76 28 0 
0.666565 -0.604083 3.86079 138 143 87 
0.74098 -0.585405 3.80038 120 120 108 
0.559881 -0.55236 4.0626 34 7 0 
0.679479 -0.524608 3.9384 217 173 48 
0.18261 -0.503688 4.27765 105 96 79 
-0.0852394 -0.429669 3.73602 124 114 104 
0.0556663 -0.422114 3.80488 201 179 129 
-0.134108 -0.394277 3.7621 0 6 0 
0.0595259 -0.393678 3.80215 37 19 0 
0.066078 -0.391942 3.7757 35 15 0 
-0.190707 -0.344172 3.58614 85 65 12 
0.67955 -0.373181 3.89397 128 129 124 
-0.212551 -0.332951 3.56294 102 77 23 
-0.194605 -0.329982 3.55986 70 42 0 
0.184441 -0.379456 4.37337 161 137 37 
0.520694 -0.327529 3.94871 201 165 19 
-0.280046 -0.288073 3.55838 250 246 217 
0.539232 -0.319664 3.9499 208 170 11 
-0.0754875 -0.266656 3.56493 72 48 10 
-0.193042 -0.255943 3.49094 64 47 17 
-0.880725 -0.0961701 4.20549 123 120 111 
-0.754768 0.0375904 4.29794 24 8 0 
-0.838741 0.192264 4.26396 20 8 0 
-0.401815 0.468641 4.72699 21 4 0 
-0.555219 0.546591 4.5023 235 255 248 
-0.337168 0.705873 4.8518 200 161 32 
-0.163315 0.787202 4.92246 170 150 143 
0.512678 0.827755 4.61013 195 183 161 
-4.13088 1.88686 6.90888 49 40 35 
-4.17004 1.95729 6.61867 54 49 45 
-0.275949 -0.486558 3.70587 48 127 80 
-0.358876 -0.411006 3.80378 97 99 88 
0.658191 -0.39232 3.84996 126 123 108 
-0.216531 -0.333829 3.57475 119 97 40 
-1.07739 0.614146 5.41962 157 146 140 
0.203215 0.75378 4.67124 123 81 5 
0.26098 0.756309 4.66248 103 58 0 
-0.269746 0.830813 4.83911 106 90 67 
-0.472896 0.939421 4.62366 210 196 183 
-4.1754 2.12825 6.82053 60 53 47 
-4.18078 2.0649 6.51251 32 28 19 
0.617844 -0.834403 3.98539 179 122 7 
0.656564 -0.531704 3.9583 229 190 51 
0.219281 -0.565538 4.34481 3 19 8 
0.578149 -0.440967 3.91808 180 144 4 
0.611624 -0.429784 3.90405 186 150 12 
0.436357 -0.376179 3.98289 10 8 9 
0.236093 -0.12991 4.24985 81 76 70 
0.382861 -0.125607 4.10535 193 154 17 
0.388287 -0.104464 4.1163 15 5 6 
-0.958559 -0.034024 4.09361 141 94 14 
-0.89216 -0.0154939 4.13748 120 83 5 
-0.859331 0.19942 4.27372 19 8 0 
1.04775 0.518934 5.46817 206 195 189 
1.12176 0.706144 5.02311 129 119 110 
0.416771 0.779482 4.68689 206 186 149 
-0.310126 0.817157 4.85837 184 167 151 
-0.490475 0.955896 4.58478 194 182 168 
-1.98016 0.994279 4.62759 225 215 213 
-0.890365 1.04814 4.40688 153 143 141 
-4.10473 1.62563 6.80894 50 40 38 
-4.13067 1.81686 6.9314 54 51 44 
-0.190105 -0.968416 3.78161 190 40 51 
-0.0553084 -0.288083 3.632 26 61 21 
-0.812805 -0.0614897 4.23372 73 70 63 
-0.788235 -0.0580854 4.2706 10 5 2 
-1.18493 0.0751603 3.93939 107 45 4 
-0.299981 0.81884 4.88452 189 173 160 
-0.0690015 0.874146 4.72527 121 107 94 
0.300886 0.844765 4.5812 195 183 157 
-0.448806 0.930448 4.57394 215 201 188 
-0.493879 0.963844 4.55186 214 204 194 
0.568388 -0.706357 3.94182 148 95 87 
0.536099 -0.709151 3.9642 185 177 156 
0.612888 -0.663324 3.90607 177 183 137 
0.555648 -0.658703 3.96776 57 0 0 
0.638044 -0.634726 3.8896 50 29 0 
0.606714 -0.636879 3.9176 63 53 41 
0.667373 -0.618708 3.86939 126 139 67 
0.677387 -0.608576 3.86262 142 158 85 
0.719801 -0.595587 3.83033 150 156 142 
0.677004 -0.598725 3.8672 47 60 0 
0.666691 -0.59745 3.88025 119 111 75 
0.739361 -0.57219 3.81709 14 7 1 
0.718467 -0.563731 3.84189 33 16 9 
0.0372741 -0.416048 3.81361 65 52 17 
-0.237705 -0.242707 3.5134 182 159 127 
0.442755 0.0201237 4.30825 67 64 57 
-0.818926 -0.055489 4.2123 72 71 67 
-0.361626 0.100474 4.35034 166 144 105 
-0.556637 0.563062 4.51596 222 247 226 
0.690631 -0.786548 3.98223 92 34 0 
0.569781 -0.694246 3.94046 189 113 100 
0.597673 -0.664348 3.91901 154 165 96 
0.606035 -0.658537 3.918 198 194 169 
0.570469 -0.663179 3.94334 131 134 77 
0.594381 -0.654924 3.92063 150 157 105 
0.588192 -0.645666 3.93857 18 20 0 
0.696367 -0.579194 3.86125 122 114 77 
0.75787 -0.525715 3.83244 75 67 56 
-0.103806 -0.395266 3.77096 109 112 103 
0.371005 -0.0175343 4.25956 75 62 28 
0.361984 0.0216835 4.2739 3 1 2 
-0.758589 0.0986981 4.30872 66 45 0 
-0.812104 0.14697 4.23774 65 58 52 
0.429724 0.827507 4.62188 187 175 159 
0.73212 -0.595536 3.81987 190 188 173 
0.459367 -0.438632 3.97187 105 105 105 
-0.288805 -0.335751 3.59193 100 73 20 
0.379498 -0.091429 4.11377 21 3 0 
0.311282 -0.0671458 4.23484 106 88 38 
-1.12452 -0.0835417 4.08956 243 222 105 
-0.976838 0.0684736 4.03188 54 9 6 
-0.558595 0.547359 4.52864 179 205 196 
-1.06773 0.604458 5.37448 156 145 141 
-0.134739 0.815323 4.82572 134 120 107 
0.709622 -0.576547 3.84107 172 155 148 
0.444867 0.30656 4.66055 112 73 0 
0.170748 0.483418 4.62714 22 5 0 
-0.545475 0.457428 4.46389 135 117 7 
-0.157615 0.793463 4.87573 111 95 80 
-0.268442 0.825057 4.81641 105 88 68 
-0.285333 0.844788 4.76595 201 183 173 
0.615814 -0.649268 3.92147 194 181 164 
-0.323622 -0.404564 3.80672 86 92 78 
0.443906 -0.195516 4.06471 175 136 19 
1.45397 0.844708 4.69467 196 187 182 
-0.074275 0.847869 4.74366 200 185 178 
-0.39078 0.957352 4.53336 157 147 135 
0.672038 -0.887618 3.97778 233 221 197 
0.597875 -0.882846 4.04222 134 97 16 
0.590885 -0.703858 3.93762 197 209 135 
0.582683 -0.514999 4.00464 139 95 0 
0.499115 -0.243298 3.96831 207 161 13 
-0.712605 -0.157576 4.40249 21 15 1 
1.44531 0.839951 4.6652 200 191 186 
1.35091 0.882949 4.58068 149 140 133 
-0.0794163 0.845201 4.73446 199 184 177 
0.823245 0.944703 4.48721 155 147 136 
0.215234 1.07341 4.24475 207 196 192 
0.243188 1.08835 4.22338 147 136 132 
0.562405 -0.729104 3.94947 201 137 128 
0.588785 -0.714077 3.92963 200 183 157 
0.551957 -0.717629 3.94964 176 123 115 
0.624952 -0.673585 3.89437 209 223 144 
0.652876 -0.669055 3.8801 184 217 104 
0.658574 -0.653692 3.8705 74 75 18 
0.649275 -0.654765 3.87581 176 179 124 
0.681818 -0.648243 3.85617 207 230 140 
0.692086 -0.630613 3.84433 171 195 121 
0.740779 -0.61936 3.81938 170 171 139 
0.700769 -0.619155 3.83511 32 59 0 
0.706893 -0.606551 3.83133 150 165 100 
0.451137 -0.462624 3.97313 25 26 20 
0.576017 -0.704626 3.93159 67 18 3 
0.71391 -0.615969 3.82838 29 39 4 
0.741809 -0.608871 3.81639 40 39 21 
0.4574 -0.604426 3.89957 82 45 0 
0.492382 -0.23396 3.97818 197 155 17 
0.390131 -0.0732225 4.1163 192 157 55 
-1.01394 0.198448 3.87713 93 35 0 
-0.846492 -0.0955747 4.2081 57 53 54 
-0.282466 0.86327 4.7468 143 129 116 
-1.18552 0.0733839 3.93383 110 43 16 
0.451693 0.913184 4.88926 72 63 58 
0.70615 -0.847529 3.99417 255 237 104 
0.234212 -0.772518 3.77164 106 88 50 
-0.608055 -0.827293 3.91648 54 39 0 
-0.62408 -0.821283 3.92109 95 79 45 
-0.624605 -0.809057 3.92995 104 86 50 
0.558634 -0.728187 3.95704 186 118 107 
0.566202 -0.726334 3.94877 92 15 9 
0.553125 -0.722327 3.9508 114 48 34 
0.539865 -0.720075 3.96102 128 119 110 
0.5758 -0.715818 3.94602 105 22 16 
0.556648 -0.714978 3.94123 86 27 21 
0.54861 -0.710867 3.95181 162 95 87 
0.567091 -0.706085 3.93886 150 96 84 
0.59188 -0.701414 3.92162 53 68 0 
0.614818 -0.694397 3.91678 202 213 147 
0.689012 -0.676946 3.88131 126 145 20 
0.688777 -0.667099 3.86649 112 130 18 
0.693936 -0.669054 3.87701 108 127 12 
0.601902 -0.67799 3.91072 158 177 95 
0.627816 -0.675091 3.9005 185 203 121 
0.625247 -0.666655 3.87657 167 192 91 
0.687287 -0.658774 3.85645 74 101 6 
0.701491 -0.657496 3.8567 117 138 43 
0.640536 -0.666118 3.88443 149 174 83 
0.66274 -0.662841 3.88198 164 176 104 
0.658326 -0.661066 3.87283 173 187 112 
0.56663 -0.681898 3.94619 145 94 77 
0.605508 -0.671858 3.91874 96 110 33 
0.678934 -0.654101 3.86029 67 91 0 
0.579617 -0.673969 3.92819 119 126 72 
0.610696 -0.666155 3.89989 81 88 44 
0.569857 -0.675075 3.93789 115 108 82 
0.682115 -0.647938 3.8481 93 110 42 
0.701343 -0.648419 3.84949 76 104 19 
0.650878 -0.655571 3.87916 151 154 101 
0.148103 -0.674437 3.80588 37 21 0 
0.662216 -0.645883 3.84645 88 77 11 
0.629176 -0.65343 3.88579 77 108 4 
0.707743 -0.640596 3.8509 149 174 90 
0.584654 -0.663451 3.92055 54 61 7 
0.602502 -0.658231 3.90974 201 197 168 
0.614494 -0.652705 3.88567 160 178 96 
0.728439 -0.636899 3.8389 218 226 187 
0.560256 -0.667552 3.94373 125 80 59 
0.688348 -0.638474 3.8409 218 233 176 
0.612037 -0.652191 3.9005 75 73 52 
0.749769 -0.625518 3.82397 193 193 165 
0.739823 -0.624356 3.8233 141 145 108 
0.588259 -0.656086 3.92886 44 51 0 
0.711498 -0.627114 3.835 172 198 99 
0.72291 -0.626859 3.83072 161 175 114 
0.599184 -0.648694 3.91234 159 152 123 
0.679178 -0.631844 3.8543 101 132 28 
0.622067 -0.640951 3.89099 167 161 137 
0.653712 -0.637717 3.88637 58 63 7 
0.5564 -0.659072 3.96941 66 8 0 
0.704614 -0.620854 3.84288 39 72 0 
0.741909 -0.613973 3.82352 223 224 190 
0.760343 -0.600002 3.80882 60 58 43 
0.642596 -0.62013 3.87704 129 100 92 
0.708633 -0.607857 3.83489 142 159 91 
0.637451 -0.620053 3.88671 133 68 64 
-0.525695 -0.712165 3.93261 41 10 0 
0.600548 -0.631295 3.93591 102 96 60 
0.671021 -0.615639 3.89154 139 126 110 
0.597986 -0.630375 3.94983 108 106 45 
0.694355 -0.59985 3.8397 78 93 12 
0.715622 -0.594241 3.82202 134 140 114 
-0.539775 -0.702615 3.92139 37 11 0 
0.666593 -0.603134 3.87943 28 19 0 
0.679917 -0.587818 3.86458 108 97 65 
0.699661 -0.582531 3.84643 56 62 14 
0.717191 -0.563627 3.83932 36 22 21 
0.724726 -0.542596 3.84852 26 8 0 
-0.1693 -0.551622 3.72381 62 120 80 
0.671073 -0.470995 3.93946 176 128 0 
0.490848 -0.462756 3.97688 60 56 31 
-0.435524 -0.584129 4.44522 237 231 219 
0.64536 -0.393135 3.90479 45 45 35 
-0.347551 -0.439785 3.80117 113 93 86 
-0.110456 -0.403013 3.76905 27 35 24 
0.633812 -0.349513 3.88983 120 119 117 
-0.480294 -0.437208 3.9029 199 172 127 
-0.468785 -0.432581 3.89175 69 47 8 
-0.429971 -0.427371 3.91123 64 68 51 
-0.199588 -0.328727 3.58137 108 85 35 
-0.643811 -0.432192 4.5144 191 140 0 
-0.413522 -0.314626 3.70122 174 182 141 
-0.187183 -0.252937 3.51971 124 102 65 
-0.438331 -0.291906 3.72011 179 187 136 
-0.240118 -0.241429 3.50454 180 164 130 
-0.29382 -0.240966 3.51931 185 165 130 
-0.843936 -0.287181 4.59735 25 21 18 
0.328867 -0.0597229 4.26239 38 15 0 
-0.330499 -0.0922663 3.76594 149 133 110 
-0.81154 -0.130053 4.2556 100 68 11 
-0.354462 0.102133 4.38844 165 146 106 
-1.23954 0.0313959 3.98998 155 111 4 
-1.24659 0.107179 3.93893 253 232 165 
-1.24696 0.108055 3.95719 255 247 205 
-1.08905 0.147529 3.94855 239 180 78 
-1.06703 0.165186 3.95071 185 131 0 
-1.05319 0.255156 3.91979 109 78 14 
-0.501134 0.553397 4.51225 176 193 175 
0.637357 -0.851504 3.976 231 207 179 
-0.598519 -0.818395 3.91651 142 115 68 
0.611799 -0.685369 3.90631 71 77 29 
0.567228 -0.693515 3.93475 163 101 86 
0.589487 -0.692242 3.94943 182 186 125 
0.645771 -0.649495 3.87102 74 77 30 
0.611103 -0.659557 3.92261 201 197 168 
0.570466 -0.663403 3.94327 124 123 69 
0.452191 -0.655046 3.90759 182 149 44 
0.714036 -0.610527 3.82598 161 172 132 
0.576815 -0.642789 3.95466 47 46 0 
0.61776 -0.630263 3.90411 57 5 0 
0.728388 -0.588662 3.82058 34 37 8 
0.662873 -0.602494 3.89057 119 80 63 
0.700547 -0.575123 3.85831 62 42 15 
0.741148 -0.536153 3.81249 124 116 105 
0.717908 -0.540894 3.83489 18 3 0 
0.59667 -0.513008 3.99981 242 200 64 
-0.27691 -0.488923 3.73147 29 128 71 
-0.0859847 -0.430757 3.75963 126 109 102 
0.630249 -0.383254 3.90159 21 20 18 
0.0388962 -0.415082 3.81344 58 45 11 
-0.444383 -0.43237 3.89448 42 32 0 
-0.368001 -0.416373 3.8507 43 53 44 
0.611624 -0.332057 3.92212 77 76 72 
0.515863 -0.329802 3.95091 191 162 34 
-0.4412 -0.40369 3.86095 157 151 125 
0.626024 -0.306963 3.93391 77 79 66 
-0.0413776 -0.281537 3.65402 56 67 25 
-0.338061 -0.266572 3.52122 180 164 130 
-0.335043 -0.256524 3.52936 111 95 69 
-0.252162 -0.240552 3.49725 171 155 121 
0.421835 -0.216557 4.1225 107 79 31 
0.406369 -0.110521 4.11858 181 147 39 
0.301356 -0.119443 4.25242 27 12 0 
-0.883662 -0.114386 4.26435 29 25 22 
-0.880692 -0.104796 4.24666 31 28 21 
-0.842558 -0.063597 4.23554 91 86 80 
-0.819228 -0.0612099 4.24838 4 1 0 
-0.928994 -0.0442142 4.18151 138 99 8 
-0.401078 0.0507053 4.43516 184 157 104 
-1.07441 0.171624 3.93798 87 23 0 
0.643731 -0.883387 4.00887 215 200 177 
-0.102906 -0.774522 3.75754 175 59 72 
0.777631 -0.737074 3.90718 111 64 0 
0.564192 -0.735188 3.96719 126 87 82 
0.600884 -0.713645 3.93076 149 146 115 
0.582155 -0.710873 3.92621 51 29 6 
0.587538 -0.69729 3.90554 54 74 3 
0.614734 -0.681282 3.92002 51 64 10 
0.719045 -0.660602 3.86638 76 87 8 
0.415103 -0.685084 3.92245 224 197 94 
0.660597 -0.650121 3.86692 69 49 0 
0.591108 -0.66082 3.94162 22 26 0 
0.640871 -0.634859 3.84477 25 30 0 
0.730011 -0.620698 3.84383 19 28 1 
0.589139 -0.646674 3.94258 24 27 0 
0.728697 -0.611609 3.81292 219 223 196 
0.598576 -0.636116 3.92173 137 130 114 
0.664775 -0.611477 3.85726 47 54 3 
0.744948 -0.59284 3.80891 31 30 25 
-0.0117081 -0.613955 3.64088 122 40 28 
0.616952 -0.620809 3.92993 29 7 0 
0.735468 -0.568797 3.80608 24 14 12 
-0.594668 -0.678023 3.94224 40 24 0 
0.712102 -0.548889 3.87797 60 29 0 
0.711433 -0.560333 3.96748 112 70 28 
-0.525619 -0.613342 3.75394 105 15 7 
0.604499 -0.564918 4.03096 227 190 76 
-0.212173 -0.558384 3.73759 40 127 74 
0.564624 -0.553932 4.08463 30 8 0 
-0.27151 -0.561005 3.74434 44 116 70 
0.586174 -0.506877 3.99508 142 93 0 
0.697503 -0.465363 3.95266 121 93 0 
0.418787 -0.486845 3.99386 96 76 23 
0.418422 -0.467451 4.00548 132 131 126 
-0.293859 -0.479571 3.71849 116 57 49 
0.456611 -0.437681 3.96536 83 84 79 
-0.44822 -0.585644 4.44603 220 213 203 
-0.349184 -0.447413 3.79352 24 15 0 
0.0439507 -0.41104 3.79877 61 43 7 
0.414074 -0.416935 4.18531 18 17 12 
-0.432566 -0.441355 3.90663 172 168 131 
-0.106812 -0.389754 3.78234 0 17 0 
-0.376625 -0.404608 3.83607 0 21 4 
-0.446054 -0.411304 3.87975 7 1 0 
-0.0260847 -0.251309 3.6183 203 181 132 
-0.427882 -0.279423 3.63921 65 36 4 
-0.308423 -0.240622 3.50838 201 179 140 
-0.739735 -0.320396 4.44428 45 27 0 
-0.832104 -0.299907 4.58791 92 89 84 
0.387853 -0.0905307 4.1344 48 14 0 
0.434428 -0.0675035 4.13885 99 58 0 
0.315936 -0.0673069 4.24808 109 91 53 
-0.136079 -0.0878571 3.73584 60 42 18 
0.493348 -0.00457856 4.33957 138 116 69 
0.44772 0.0204059 4.33717 34 30 19 
0.386588 0.0227153 4.29107 13 12 8 
0.35893 0.0507171 4.36918 147 137 125 
0.392823 0.0807467 4.34382 79 70 55 
-0.426113 0.0091905 4.54515 200 160 46 
-0.912625 0.00214107 4.12369 133 91 7 
0.410019 0.310834 4.70469 119 83 0 
0.483807 0.324053 4.71954 121 87 0 
-1.16103 0.104726 3.9635 106 41 0 
-1.19771 0.166486 3.96373 246 234 218 
-0.689765 0.337921 4.92421 50 6 0 
-0.904035 0.682651 5.3048 168 155 149 
-0.111138 0.834444 4.93389 137 123 114 
-0.665684 0.799613 4.85673 127 114 97 
0.566278 -0.885139 4.03953 224 208 183 
0.5756 -0.873116 4.05693 132 94 9 
0.6864 -0.848518 3.98388 141 102 1 
0.547126 -0.70961 3.93797 82 31 30 
0.649796 -0.637779 3.86339 20 26 0 
0.573586 -0.631405 3.94293 38 28 3 
-0.170817 -0.563092 3.72561 30 68 47 
0.653787 -0.486468 3.96038 97 51 1 
-0.454142 -0.58432 4.4571 239 229 220 
-0.0714919 -0.441096 3.77483 60 29 27 
-0.357584 -0.440589 3.7997 31 13 3 
0.657082 -0.351184 3.91571 135 136 131 
-0.442012 -0.335978 3.82759 178 175 124 
0.412607 -0.26566 4.01834 203 167 21 
-0.793761 -0.347603 4.58604 37 33 30 
-0.715576 -0.228829 4.34532 133 134 126 
0.435388 -0.0752387 4.11809 147 111 33 
0.457619 0.0206528 4.31 50 43 35 
0.454741 0.0284714 4.33459 140 132 119 
-0.845698 -0.0950363 4.24237 38 34 33 
-0.906169 -0.0185498 4.1397 170 124 2 
-0.428168 0.0766932 4.5136 229 197 52 
-1.24125 0.0382662 3.96991 114 53 0 
0.463381 0.309724 4.71332 114 76 1 
0.523685 0.380843 4.72577 101 59 1 
-0.691048 0.337734 4.91207 50 6 0 
-1.05971 0.5953 5.52742 161 150 144 
-1.06645 0.616942 5.4629 148 137 135 
0.323698 0.862224 4.66045 170 156 143 
-0.272947 0.856499 4.8317 195 177 163 
0.658927 1.01675 4.36582 138 127 123 
-0.483389 0.962654 4.61617 174 161 152 
-0.810515 1.06623 4.40621 140 129 127 
0.677708 -0.846458 3.97172 136 103 22 
0.649737 -0.840115 3.9875 137 93 22 
0.550369 -0.788321 4.04997 68 58 56 
0.709402 -0.612815 3.80647 35 39 24 
0.475934 -0.608021 3.90277 102 62 0 
0.59496 -0.559239 4.01136 239 200 81 
0.597 -0.539946 4.01973 232 198 65 
0.629229 -0.487552 3.94991 246 209 94 
-0.451914 -0.58554 4.47097 240 232 221 
0.626632 -0.378631 3.91613 106 106 106 
0.464234 -0.400563 4.01956 73 73 71 
-0.314564 -0.349032 3.64259 193 170 116 
-0.440604 -0.349672 3.83786 18 32 7 
0.469674 -0.242986 3.98632 206 165 11 
-0.342877 -0.246666 3.54792 192 170 123 
-0.321044 -0.239433 3.48418 169 150 107 
0.429919 -0.226212 4.14535 47 15 2 
0.444407 -0.194263 4.06618 172 136 14 
0.455539 -0.0740849 4.14979 146 111 30 
-0.73253 -0.131583 4.43594 189 155 19 
-0.674444 -0.0527291 4.42958 78 37 0 
-0.428583 0.078036 4.50149 216 185 45 
-1.25417 0.0440247 3.99073 242 206 48 
-1.09946 0.2298 3.94361 130 88 4 
-1.08722 0.251235 3.92886 160 144 131 
0.44422 0.775345 4.69881 118 89 9 
0.432201 0.840492 4.65624 186 173 154 
-0.160909 0.793651 4.97413 161 147 134 
-0.822901 0.907514 4.72755 203 190 182 
-0.380822 0.96905 4.58996 151 138 130 
0.787994 -0.850266 3.92075 223 212 192 
0.540223 -0.833169 4.10409 171 161 149 
0.680609 -0.674806 3.94208 121 143 60 
0.683602 -0.612373 3.82069 152 186 65 
0.595868 -0.62238 3.89424 29 18 12 
0.721923 -0.603864 3.82579 25 29 15 
0.748548 -0.595822 3.79924 41 39 26 
0.840717 -0.591969 3.81778 53 52 50 
0.487717 -0.601533 4.11398 251 233 171 
0.732541 -0.539634 3.90425 161 136 70 
0.739431 -0.532037 3.83085 11 11 3 
0.691185 -0.547875 3.95958 52 13 0 
0.552542 -0.524622 4.01058 57 26 5 
0.510887 -0.514181 4.03398 136 97 2 
0.519025 -0.516562 4.05317 133 95 0 
0.633403 -0.39781 3.91124 12 12 14 
-0.088379 -0.420851 3.76567 17 0 0 
0.396366 -0.394684 4.06261 12 8 0 
0.413529 -0.370086 3.94942 5 6 0 
-0.676827 -0.229728 4.4196 80 79 74 
-0.965616 -0.0340056 4.10862 139 94 1 
-0.470448 0.0294708 4.83792 205 159 12 
-1.26012 0.105496 3.88783 244 232 218 
1.08418 0.524828 5.53012 197 188 183 
-1.27159 0.129331 3.97375 213 200 183 
-1.08806 0.191571 3.94063 241 192 12 
1.22224 0.70207 5.07661 200 191 184 
1.06427 0.695342 5.11814 183 176 170 
1.12207 0.723314 5.06534 178 169 162 
-0.537509 0.45726 4.50495 122 103 8 
0.504347 0.656153 4.80881 121 83 0 
0.391937 0.767173 4.66138 180 156 118 
0.344794 0.795675 4.71051 96 62 0 
0.532283 0.821561 4.65932 177 164 145 
0.791594 0.876318 4.69177 204 193 189 
0.505406 0.87058 4.77172 61 52 45 
-0.167362 0.788739 4.94298 160 147 131 
0.753016 0.930474 4.54352 202 193 188 
-0.0609241 0.881454 4.76118 123 111 95 
-0.836366 0.940188 4.65417 203 193 184 
-0.830266 1.04516 4.36084 213 202 196 
0.526882 -0.734167 3.97095 231 221 211 
0.561864 -0.710735 3.94654 133 95 92 
0.567114 -0.703109 3.9428 78 11 2 
0.566039 -0.684416 3.94016 150 98 85 
0.580758 -0.674344 3.93007 119 126 72 
0.60699 -0.668262 3.90801 171 177 129 
0.570555 -0.675529 3.93903 115 108 82 
0.588202 -0.659763 3.92585 115 122 71 
0.614977 -0.653102 3.9053 75 73 52 
0.596001 -0.655953 3.92013 142 147 93 
0.662671 -0.641615 3.87412 29 25 0 
0.682236 -0.632622 3.85908 101 132 28 
0.638043 -0.634804 3.88962 43 27 0 
0.612722 -0.633881 3.91497 84 69 62 
0.619979 -0.630724 3.90869 57 5 0 
0.655016 -0.622465 3.88122 34 23 1 
0.661864 -0.618745 3.87226 56 62 14 
0.639663 -0.620672 3.89026 133 68 64 
0.716665 -0.593067 3.82968 150 154 131 
0.666053 -0.602721 3.87859 28 19 0 
0.703738 -0.590956 3.84469 56 66 13 
0.702263 -0.511803 3.9226 226 189 83 
-0.218977 -0.334318 3.58898 100 70 18 
0.387341 -0.11038 4.11341 57 32 0 
-0.12678 0.0231292 3.79111 35 18 0 
-1.19758 0.161173 3.94976 252 241 219 
0.569539 -0.694072 3.93864 163 101 86 
0.579902 -0.68988 3.93339 182 186 125 
0.594141 -0.672922 3.91997 70 89 0 
0.60535 -0.657803 3.91316 201 197 168 
0.570442 -0.663629 3.94317 124 123 69 
0.605728 -0.650918 3.92065 177 167 140 
0.696725 -0.59923 3.84466 84 101 21 
0.653433 -0.638266 3.87798 26 34 0 
0.731983 -0.595344 3.8191 173 176 159 
0.681416 -0.525749 3.95056 217 176 60 
-0.235686 -0.243998 3.53121 169 153 119 
0.404108 -0.110509 4.11272 188 152 29 
-0.848782 -0.0958575 4.23041 38 34 33 
0.228125 -0.564915 6.64464 213 186 37 
0.629693 -0.66614 3.89627 177 199 90 
0.657591 -0.532119 3.96558 226 189 75 
0.443938 -0.19466 4.06537 172 136 14 
-0.244614 1.02274 4.41199 147 137 135 
0.75357 -0.798002 3.90684 143 110 33 
0.524133 -0.733591 3.96622 231 221 211 
0.547538 -0.710193 3.95002 162 95 87 
0.581282 -0.699435 3.92833 134 122 82 
0.612076 -0.686876 3.90719 70 77 25 
0.633456 -0.668933 3.88977 167 192 91 
0.685722 -0.648715 3.85376 93 110 42 
0.61225 -0.652025 3.90087 75 73 52 
0.642884 -0.643352 3.87846 144 140 95 
0.59148 -0.672 3.91555 70 89 0 
0.678765 -0.525021 3.94635 217 176 60 
0.656196 -0.531244 3.96342 226 189 75 
1.2013 0.695844 5.02736 195 186 177 
-0.145761 -0.917238 3.7528 196 120 120 
0.51464 -0.745258 3.99912 86 76 66 
0.563103 -0.73367 3.97113 137 102 100 
0.578125 -0.716748 3.94987 99 21 17 
0.58255 -0.704324 3.94999 164 100 91 
0.61877 -0.699013 3.93608 73 89 1 
0.619524 -0.695791 3.92449 190 202 128 
0.69655 -0.679044 3.89317 120 148 25 
0.634583 -0.677099 3.91143 184 201 130 
0.652889 -0.673459 3.89839 58 86 0 
0.684561 -0.665085 3.89334 67 91 0 
0.630536 -0.669934 3.91677 92 104 40 
0.662377 -0.662551 3.89115 81 86 28 
0.131613 -0.682027 3.8246 137 111 88 
0.611099 -0.669258 3.93226 143 152 85 
0.636604 -0.658588 3.92161 146 159 87 
0.720103 -0.637337 3.86413 56 85 0 
0.759764 -0.627551 3.8391 215 215 189 
0.742056 -0.623847 3.84657 210 218 177 
0.673241 -0.62189 3.89024 50 59 16 
0.680214 -0.608975 3.89158 111 109 68 
-0.539024 -0.702625 3.92231 33 12 0 
0.714444 -0.589671 3.85424 156 157 125 
0.694787 -0.594412 3.8764 38 47 0 
-0.42296 -0.746274 4.75607 137 123 94 
-0.461649 -0.597114 4.49363 6 29 13 
-0.126279 -0.40387 3.77936 92 102 94 
-0.371206 -0.430453 3.84702 31 42 26 
-0.434455 -0.438806 3.89438 167 178 138 
-0.114665 -0.38819 3.77959 64 102 77 
-0.477993 -0.434654 3.90114 52 31 0 
-0.305923 -0.332588 3.60734 130 105 51 
-0.358153 -0.276287 3.55197 74 53 10 
-0.333021 -0.24929 3.53817 152 131 100 
-0.803367 -0.345287 4.56176 18 17 13 
-0.836715 -0.297964 4.56324 90 89 87 
-0.42869 -0.0716569 4.18508 100 101 96 
-1.17772 0.0883692 3.9729 255 201 74 
-0.625782 -0.808938 3.92565 115 90 59 
0.577084 -0.736561 3.96644 135 108 97 
0.578912 -0.732347 3.95758 216 179 171 
0.608429 -0.686765 3.93221 26 39 0 
0.591992 -0.682267 3.94395 41 52 0 
0.605325 -0.658093 3.9385 146 150 91 
0.683093 -0.641164 3.88384 170 185 102 
0.762483 -0.616548 3.82387 206 204 189 
0.713132 -0.575369 3.86415 155 142 126 
0.72269 -0.572437 3.86738 95 83 71 
0.770162 -0.529088 3.85232 92 82 73 
0.715744 -0.548174 3.98858 107 69 32 
0.457316 -0.469703 3.99477 113 110 101 
-0.343705 -0.438044 3.79891 103 89 80 
-0.345936 -0.337463 3.66922 187 190 133 
-0.419081 -0.403659 4.53672 173 143 45 
-0.16903 -0.267483 3.51319 78 54 10 
-0.505816 -0.339217 3.85286 37 10 0 
0.500109 -0.232628 3.99709 201 164 24 
-0.342089 -0.259153 3.56759 96 83 64 
-0.347755 -0.240829 3.53206 202 180 131 
0.38674 -0.0898199 4.13241 55 20 0 
-0.318224 -0.0799173 3.77163 156 138 124 
-0.87665 -0.136505 4.28783 224 190 80 
-0.882157 -0.104783 4.23853 12 8 7 
-0.848522 -0.0951045 4.23321 26 25 21 
-0.39122 -0.00421407 4.18642 84 83 81 
-0.384531 0.0224788 4.22838 28 15 0 
-0.885792 -0.011165 4.1653 115 77 4 
-0.362625 0.101346 4.36819 163 141 100 
0.54269 -0.731731 3.97786 243 233 221 
0.607779 -0.716189 3.94206 211 203 180 
0.6019 -0.703899 3.9181 192 204 140 
0.58794 -0.696974 3.90635 61 79 0 
0.139294 -0.685553 3.81968 49 28 7 
0.668452 -0.661138 3.88301 184 199 118 
0.726452 -0.619699 3.83842 33 39 1 
0.607062 -0.638314 3.93593 138 131 113 
0.711433 -0.61129 3.86277 69 97 0 
0.607694 -0.628049 3.93899 25 13 0 
0.742429 -0.597351 3.83501 255 255 238 
0.695434 -0.527306 3.97335 211 174 33 
-0.436331 -0.749631 4.74942 30 20 0 
0.568128 -0.554227 4.09093 30 7 0 
0.569486 -0.542254 4.09969 30 7 0 
0.460899 -0.47916 4.01028 60 44 0 
-0.167826 -0.488514 3.71936 6 6 0 
0.43619 -0.421661 3.99073 57 56 54 
-0.0539178 -0.390864 3.77966 0 32 11 
-0.363467 -0.421084 3.82901 35 35 27 
-0.345713 -0.413017 3.81208 17 0 0 
-0.328534 -0.411677 3.81492 22 3 0 
-0.358567 -0.409812 3.82525 87 89 78 
-0.317363 -0.403436 3.80857 81 88 81 
-0.328323 -0.396849 3.81476 0 6 0 
-0.436215 -0.291503 3.71194 36 48 0 
-0.225312 -0.24237 3.51568 196 173 139 
-0.384215 -0.271149 3.65898 255 251 213 
-0.446709 -0.261745 3.65623 60 40 5 
-0.112098 -0.201462 3.56492 56 35 4 
0.397615 -0.0779485 4.13523 185 150 56 
0.402307 0.0182558 4.30082 78 78 70 
-0.84547 -0.0639434 4.22057 81 79 67 
-0.455738 0.0376436 4.50919 208 171 31 
-0.915043 0.00262036 4.11102 120 78 4 
0.370566 0.332905 4.68652 126 85 5 
0.315152 0.338085 4.672 116 78 0 
-1.10866 0.138537 3.92887 84 25 0 
-1.09703 0.147788 3.94072 90 28 0 
-0.501207 0.553551 4.51185 149 176 161 
-0.146928 0.802788 4.93663 105 89 73 
-0.142287 0.810519 4.86499 178 162 149 
-0.129199 0.822893 4.87762 118 106 94 
-0.278587 0.853431 4.81922 195 181 168 
-0.842757 0.869851 4.82266 134 121 113 
0.57586 -0.917973 4.09034 221 208 189 
0.633312 -0.892945 4.08855 159 122 18 
0.68072 -0.672968 3.92632 116 133 63 
0.582481 -0.661174 3.93024 32 36 1 
0.637012 -0.645517 3.92471 197 185 163 
-0.173443 -0.550142 3.72153 47 123 77 
0.617367 -0.339329 3.93064 77 77 69 
-0.626868 -0.525742 4.50742 178 164 137 
-0.458929 -0.412456 3.89504 82 64 28 
-0.308489 -0.332667 3.58935 102 74 26 
-0.466324 -0.348812 3.84514 93 72 27 
-0.363874 -0.278412 3.56448 222 196 145 
-0.283242 -0.241012 3.52543 181 161 126 
-0.67075 -0.0758243 4.39774 176 143 36 
0.35465 0.329818 4.67024 115 72 3 
-1.22798 0.0549105 3.99316 255 255 141 
0.211119 0.758252 4.69496 107 68 1 
-0.751084 0.663464 4.96157 145 105 9 
-0.0733918 0.851549 4.75517 180 166 155 
0.603051 -0.906357 4.04531 219 203 188 
0.687652 -0.850255 3.98776 157 126 44 
0.654236 -0.840804 3.9956 147 103 16 
0.778482 -0.798747 3.89257 140 108 21 
-0.602358 -0.811451 3.89667 219 192 145 
0.621045 -0.6791 3.90859 219 227 178 
-0.277961 -0.556172 3.72209 38 129 72 
0.423935 -0.490156 4.05009 11 7 4 
0.631993 -0.376094 3.92705 102 103 98 
0.451239 -0.399077 3.99594 79 80 75 
-0.0644691 -0.400944 3.79352 117 119 106 
-0.222161 -0.243341 3.52632 173 150 118 
0.376422 0.0195962 4.29293 23 22 20 
-0.670072 -0.0721357 4.41407 178 142 19 
1.1507 0.713603 5.07283 128 119 114 
0.264868 0.756492 4.6817 106 64 4 
-0.749224 0.664698 4.97118 144 106 9 
-0.00775075 0.896984 4.68458 178 164 155 
0.24721 1.09603 4.24518 158 149 142 
-0.835759 0.940004 4.657 202 189 180 
0.494572 -0.776831 3.98309 33 33 23 
0.614614 -0.657439 3.83641 77 85 25 
0.696242 -0.633071 3.90365 147 177 53 
0.63637 -0.632515 3.96074 33 26 18 
0.7839 -0.550101 3.98387 169 160 145 
0.598279 -0.553854 4.01322 227 187 38 
0.719518 -0.530356 3.95183 118 67 2 
0.560347 -0.553612 4.11017 32 23 8 
-0.264648 -0.555558 3.74485 30 128 69 
0.624247 -0.508753 4.02306 244 202 54 
-0.29877 -0.401438 3.78965 2 7 1 
0.62265 -0.314985 3.95074 12 10 11 
-0.436681 -0.417104 3.88029 8 26 2 
0.480361 -0.250229 4.01887 207 167 10 
-0.350934 -0.265843 3.59937 72 58 31 
-0.717242 -0.27921 4.37257 23 24 18 
-0.247664 -0.141104 3.66344 50 12 9 
-0.5175 -0.229675 4.42046 8 7 3 
-0.644742 -0.220221 4.35494 23 20 13 
-0.580467 -0.201316 4.37955 198 163 9 
-0.672963 -0.192377 4.3289 101 100 96 
-0.953328 -0.119253 4.40088 73 56 26 
-0.562326 -0.0547834 4.47218 17 12 8 
-0.963331 -0.065603 4.12699 236 200 28 
1.22559 0.702855 5.08212 201 192 185 
1.06932 0.697033 5.12726 191 181 172 
1.1234 0.723468 5.06753 186 177 168 
1.45023 0.843531 4.68968 209 199 197 
-0.581124 0.459082 4.53447 208 196 62 
-0.0600205 0.8824 4.76385 115 103 91 
-0.504612 0.959848 4.54968 211 199 187 
-0.806096 1.07556 4.37353 134 123 121 
0.597025 -0.675472 3.92938 79 93 0 
0.695285 -0.626273 3.86011 158 182 94 
0.642155 -0.635689 3.89833 58 32 0 
0.658151 -0.623857 3.88696 32 30 5 
0.752104 -0.606404 3.82542 27 29 16 
0.693726 -0.597526 3.86099 47 68 0 
0.67072 -0.59818 3.88725 109 105 68 
0.422693 -0.216886 4.12468 102 71 27 
0.600373 -0.648603 3.94047 127 133 69 
0.591156 -0.646674 3.94508 24 27 0 
0.618172 -0.636469 3.92716 85 75 63 
0.742664 -0.608401 3.81843 35 37 24 
0.698232 -0.579439 3.86501 119 120 63 
0.391982 -0.0736658 4.14478 128 90 0 
0.618634 -0.622219 3.93534 33 9 0 
-0.0769353 -0.407687 3.78581 37 10 3 
-0.882332 -0.095266 4.23676 114 111 104 
-0.843217 -0.0636205 4.22688 81 79 67 
-0.423697 0.0153637 4.52384 76 43 0 
0.480863 0.323008 4.7111 134 95 2 
0.308246 0.856131 4.61439 173 161 149 
0.645011 -0.88227 4.00682 224 209 188 
0.68573 -0.785075 4.00415 91 32 0 
0.497724 -0.338099 3.96355 193 168 42 
-0.273518 -0.556895 3.72957 38 129 72 
0.458433 -0.399513 4.00542 79 80 75 
-1.15326 0.0863523 3.9654 246 202 9 
-0.00495947 0.896993 4.68941 178 164 155 
-0.382782 0.966943 4.57895 157 144 136 
-0.628285 -0.219564 4.3966 23 20 13 
0.357268 0.326091 4.6935 117 77 8 
1.22361 0.701812 5.07931 201 192 185 
1.06646 0.695654 5.12304 191 181 172 
1.47538 0.850141 4.71835 209 199 197 
-0.288144 0.879996 4.73712 126 112 99 
0.75933 -0.526948 3.84031 92 82 73 
-0.85177 -0.0958028 4.22396 26 25 21 
0.631805 -0.641657 3.89958 73 67 31 
-0.135721 0.820108 4.86359 118 106 94 
-0.489171 0.95217 4.58949 180 167 158 
-1.07498 0.610907 5.40855 147 140 132 
1.35804 0.88697 4.60591 160 151 144 
0.461639 -0.24985 3.9944 207 167 10 
0.279925 0.780512 4.65861 165 147 107 
0.60047 -0.678544 3.91413 176 187 121 
-0.184198 -0.45642 4.08346 103 89 80 
0.59029 -0.637426 3.95222 57 60 0 
0.657945 -0.617934 3.88116 122 115 97 
0.690696 -0.604148 3.86177 43 68 0 
0.670826 -0.607523 3.88064 111 109 68 
0.711579 -0.589285 3.85181 156 157 125 
0.735045 -0.621998 3.83758 225 233 192 
0.615469 -0.636895 3.92348 85 75 63 
0.709316 -0.574802 3.86043 155 142 126 
0.0110916 0.878372 5.27813 105 89 73 
0.569262 -0.871136 4.05089 145 102 8 
-0.138274 0.81252 4.88881 170 154 138 
-0.0775284 0.852932 4.75103 180 166 155 
-0.890628 -0.105454 4.22839 19 18 16 
0.674412 -0.639973 3.87003 170 171 91 
0.708368 -0.597326 3.84378 57 71 10 
0.608898 -0.618558 3.94604 39 19 0 
0.494019 -0.337558 3.95433 198 173 44 
0.673454 -0.613361 3.87234 47 54 3 
0.618637 -0.615201 3.93754 135 109 76 
0.650985 -0.352156 3.90764 131 132 127 
-0.132608 0.820753 4.86589 137 123 114 
-0.169149 -0.563344 3.73059 30 68 47 
-0.00230942 0.901955 4.7039 182 169 161 
0.600694 -0.879626 4.03245 202 164 17 
0.265394 0.757501 4.68429 99 61 0 
0.337405 0.793883 4.69014 105 73 12 
0.574963 -0.918997 4.03523 222 207 188 
0.455078 -0.426748 3.97091 78 79 74 
0.449143 -0.349382 3.99529 183 152 9 
1.22643 0.700593 5.07659 200 191 184 
1.05146 0.690599 5.09112 183 176 170 
1.11267 0.718128 5.04287 178 169 162 
0.782159 0.875165 4.67855 204 193 189 
0.684483 -0.589251 3.87548 117 107 72 
-0.383536 -0.253094 3.61504 255 255 205 
0.606207 -0.640654 3.91875 160 151 134 
0.636258 -0.611204 3.91674 150 98 84 
0.729903 -0.562319 3.84619 42 16 19 
-0.348611 -0.439401 3.78831 119 91 87 
0.428413 -0.0677307 4.12726 127 86 7 
-1.24739 0.107923 3.95178 233 196 107 
0.74876 -0.78956 3.90299 181 137 12 
0.793856 -0.742227 3.9086 102 48 1 
-0.3325 -0.257398 3.53813 121 105 80 
0.574494 -0.648691 3.95933 114 117 28 
-0.0888288 -0.250013 3.58296 255 250 198 
-1.11426 0.138001 3.9239 118 57 0 
0.542518 -0.684944 3.96619 164 92 68 
0.295297 -0.229721 4.24834 105 94 38 
0.795596 -0.744715 3.91354 102 48 1 
0.445678 -0.391723 3.98667 81 81 81 
0.391881 -0.115793 4.114 121 70 4 
-0.706413 -0.0087013 4.40795 212 171 43 
-1.01134 0.217235 3.90232 86 32 0 
-0.813798 0.147452 4.24573 68 62 50 
-0.802625 0.146039 4.2418 27 23 11 
-0.501177 0.552611 4.46368 148 172 150 
0.147872 -0.675804 3.80827 47 28 13 
0.559717 -0.680171 3.95171 55 16 1 
0.431042 -0.42007 3.9822 62 59 54 
0.261937 -0.159482 4.23397 81 79 67 
-1.09828 0.143775 3.93707 111 39 0 
-0.396617 0.370883 4.69366 88 48 0 
-1.19289 0.0707302 3.95881 121 52 11 
-1.26294 0.107168 3.96591 250 234 219 
-1.07187 0.610255 5.38815 164 151 143 
0.733366 -0.556299 3.85995 135 98 90 
0.57904 -0.441334 3.92659 190 151 14 
-0.677304 -0.0713784 4.38249 199 158 16 
-0.833362 0.908596 4.7284 215 203 191 
0.491669 -0.878904 3.99583 161 122 17 
0.0752071 -0.674146 3.73047 46 25 0 
0.345397 -0.671211 3.82533 147 107 0 
-0.163674 -0.316983 3.55529 21 78 23 
-0.489442 -0.281736 3.65075 132 112 61 
-0.789829 -0.329754 4.39192 80 66 1 
-0.728891 -0.271376 4.28994 43 21 0 
-0.845777 -0.229354 4.38267 218 182 36 
-0.48035 -0.0744976 4.10974 46 42 39 
-0.480329 -0.0429895 4.10161 103 102 97 
-0.459396 0.0145754 4.41902 222 184 75 
-0.141406 -0.95772 4.46772 249 223 172 
0.572401 -0.652619 3.78685 78 94 19 
0.68374 -0.598728 3.72803 111 109 94 
-0.505576 -0.717241 4.65692 113 96 70 
-0.221949 -0.478583 3.63171 13 5 0 
-0.507917 -0.58498 4.38679 2 31 13 
-0.531745 -0.425503 3.81518 94 66 26 
-0.400161 -0.329426 3.59499 58 105 53 
-0.680331 -0.462562 4.70228 75 60 39 
-0.675551 -0.451083 4.71416 205 189 166 
-0.67538 -0.443118 4.69211 205 189 166 
-0.489727 -0.239106 4.20097 4 3 0 
-0.870358 -0.295493 4.46101 89 88 86 
0.113254 0.453694 4.54074 55 31 0 
0.505516 -0.688132 3.83394 169 184 103 
0.529324 -0.675168 3.82234 178 200 115 
0.623304 -0.597975 3.7615 86 114 14 
0.648906 -0.541663 3.7582 111 86 81 
0.667751 -0.529082 3.73648 124 118 106 
0.591222 -0.521981 3.8805 212 170 24 
-0.499475 -0.726849 4.65964 42 30 4 
-0.510365 -0.70716 4.73726 55 22 0 
-0.114906 -0.385294 3.68629 11 45 18 
-0.488317 -0.42556 3.80496 45 46 12 
-0.491935 -0.403608 3.78648 4 15 0 
-0.521338 -0.403846 3.80273 97 75 36 
-0.350885 -0.336578 3.52742 206 181 127 
-0.340296 -0.239863 3.43507 183 164 132 
-0.753397 -0.225328 4.23202 134 134 126 
-0.856765 -0.235556 4.37734 210 186 80 
-0.865755 -0.238388 4.44859 212 180 35 
-0.843936 -0.229275 4.35812 188 169 77 
-0.451034 -0.0373714 4.07977 73 74 69 
0.277174 0.313362 4.54338 122 81 2 
0.114041 0.471829 4.55077 31 3 0 
-0.374632 0.881398 4.57742 181 167 154 
-0.397145 -0.406904 3.71971 26 2 0 
-0.657701 -0.519755 4.37664 185 170 149 
-0.443464 -0.0231004 4.08956 8 9 4 
-0.433881 0.012885 4.26211 165 143 96 
0.379132 0.302245 4.56407 123 82 0 
0.182141 0.328039 4.53906 120 83 2 
0.584441 -0.65929 3.78236 193 230 90 
0.573451 -0.596932 3.80252 143 111 100 
0.605962 -0.59142 3.79257 105 121 50 
0.594476 -0.513985 3.85303 212 168 17 
0.542023 -0.370535 3.81843 103 103 101 
-0.125996 -0.387764 3.68085 14 39 17 
-0.400364 -0.422922 3.72916 44 16 15 
-0.648042 -0.524559 4.39344 199 186 167 
-0.40992 -0.274008 3.51366 60 40 16 
-0.285792 -0.241225 3.41523 210 189 146 
-0.391807 -0.251965 3.47501 132 118 73 
-0.482715 0.0126973 4.41255 219 184 38 
-1.0883 0.160942 3.86201 97 27 0 
0.117477 0.508652 4.57102 39 19 0 
0.202323 0.732694 4.57559 109 68 2 
-0.135156 0.823082 4.65184 195 182 173 
0.592603 -0.617159 3.78228 148 180 55 
0.728205 -0.590959 3.71432 232 230 217 
0.665014 -0.523557 3.7539 35 32 27 
-0.405089 -0.470443 3.77255 101 110 91 
0.542265 -0.360868 3.82161 107 108 103 
-0.38652 -0.333337 3.57615 210 184 127 
-0.397213 -0.322611 3.63375 201 178 124 
-0.419304 -0.32123 3.59508 203 177 120 
-0.458167 -0.315184 3.61001 187 181 133 
-0.70337 -0.193037 4.25129 105 101 98 
-0.44263 -0.0404977 4.28529 193 162 12 
1.21341 0.640978 4.96779 202 193 186 
1.09726 0.667905 4.91036 191 182 175 
0.925681 0.656652 4.92377 185 176 167 
-0.862741 0.877289 4.60965 202 189 181 
-0.9661 0.963505 4.45464 128 118 109 
0.587689 -0.650864 3.85381 79 88 31 
-0.745894 -0.186511 4.29804 52 48 45 
-0.48099 -0.577227 3.91156 72 47 17 
0.568542 -0.692073 3.8741 69 92 4 
0.5946 -0.634985 3.85569 187 176 158 
0.651855 -0.518987 3.90328 205 161 30 
-0.288082 -0.238628 3.51451 201 180 137 
0.703315 -0.595957 3.74558 96 94 79 
0.679304 -0.569261 3.79793 163 151 137 
0.421751 -0.346114 3.94882 171 137 11 
1.0838 0.69329 4.95591 131 122 115 
-0.040247 0.880229 4.59729 187 173 162 
0.596265 -0.652885 3.80693 89 102 32 
0.64776 -0.62072 3.82744 148 180 55 
1.39974 0.827995 4.61649 205 194 190 
-0.432346 -0.243757 3.62019 255 253 202 
-0.702703 -0.26971 4.33194 43 21 0 
-0.449063 -0.288181 3.66671 56 61 20 
-0.154831 -0.442219 3.98046 99 86 78 
