ply                 
format ascii 1.0    
element vertex 1081
property float x    
property float y    
property float z    
property uchar red  
property uchar green
property uchar blue 
end_header          
0.221666 -0.793814 3.75076 93 76 46 
0.521028 -0.732995 3.95584 61 53 42 
-0.527518 -0.706502 3.90007 33 11 0 
0.547201 -0.70721 3.94226 149 97 84 
0.566114 -0.68608 3.92411 161 105 90 
0.582684 -0.681872 3.91106 22 37 0 
0.580708 -0.675612 3.91282 142 146 96 
0.621341 -0.668673 3.88364 83 95 29 
0.607772 -0.669992 3.89599 171 176 136 
0.450435 -0.656561 3.87936 226 188 55 
0.621745 -0.65634 3.88349 157 175 101 
0.615007 -0.654573 3.88804 66 69 40 
0.588614 -0.657279 3.91162 28 35 0 
0.602877 -0.650992 3.90062 192 184 165 
0.630466 -0.644319 3.87272 38 40 0 
0.677862 -0.639089 3.84628 59 74 9 
0.626227 -0.643362 3.87999 183 176 147 
0.619945 -0.641679 3.89049 146 123 105 
0.651339 -0.638539 3.86506 33 41 0 
0.616059 -0.638617 3.8928 29 8 0 
0.651771 -0.628334 3.85743 144 156 92 
0.64727 -0.622344 3.86803 146 109 101 
0.657937 -0.61877 3.8606 139 127 105 
0.691936 -0.611835 3.82949 150 178 78 
0.661296 -0.614545 3.85841 166 147 133 
0.476421 -0.613118 3.88083 74 29 0 
0.689839 -0.597407 3.83688 38 49 0 
0.71112 -0.593182 3.81885 139 139 113 
0.728205 -0.583777 3.80405 133 125 89 
0.598235 -0.440446 3.91386 78 40 0 
0.0519416 -0.421555 3.78558 196 176 125 
0.0677798 -0.418205 3.79126 214 191 139 
0.0233847 -0.415512 3.78966 47 37 10 
0.42993 -0.428326 3.96496 114 113 109 
-0.139129 -0.401384 3.76032 75 86 72 
0.00935861 -0.388413 3.77118 118 118 94 
-0.202073 -0.335921 3.55499 192 169 119 
0.520907 -0.332277 3.9481 189 161 36 
0.387026 -0.117402 4.10147 96 59 0 
-1.25999 0.10888 3.94962 255 240 199 
-0.815339 0.148201 4.22847 65 58 50 
-1.11551 0.139488 3.8945 95 38 0 
-1.01885 0.198477 3.86865 105 49 0 
-1.01001 0.222007 3.87036 225 182 87 
-0.539466 0.332336 4.51726 165 229 195 
0.513099 -0.73804 3.96312 71 63 50 
-0.545287 -0.704093 3.89074 30 11 0 
-0.541726 -0.697685 3.89386 32 11 0 
0.581892 -0.667252 3.91351 155 155 121 
0.626439 -0.643184 3.87779 183 176 147 
0.616034 -0.638722 3.89284 29 8 0 
0.647388 -0.621991 3.86747 153 120 111 
0.669084 -0.606786 3.85102 145 151 89 
0.689736 -0.597376 3.8385 41 50 0 
0.602526 -0.567742 4.01185 218 179 74 
0.6661 -0.533174 3.93755 230 185 70 
0.182284 -0.506873 4.27991 105 96 79 
0.598224 -0.440536 3.91379 78 40 0 
0.0457669 -0.413706 3.78323 56 38 2 
-0.139333 -0.401337 3.76108 75 86 72 
-0.298458 -0.339999 3.61737 115 85 31 
0.264452 -0.206997 4.23193 103 100 93 
0.251962 -0.151332 4.22342 26 25 20 
0.398724 -0.0790194 4.12064 67 48 0 
-0.971614 -0.030702 4.07568 131 80 0 
0.156373 -0.0101524 4.43748 46 16 0 
-1.06989 0.0021015 4.05109 56 0 0 
-1.19815 0.0748363 3.92417 90 33 0 
-0.795017 0.12582 4.23915 61 61 51 
-0.796739 0.135284 4.23867 6 2 0 
-0.810649 0.147651 4.24154 9 0 0 
-0.818229 0.149822 4.23141 64 57 47 
-1.01898 0.198757 3.86899 80 21 0 
0.597871 -0.820607 4.04457 81 31 0 
0.612856 -0.686821 3.89818 38 45 3 
0.476746 -0.612307 3.87953 76 28 0 
0.668658 -0.607131 3.85597 138 143 87 
0.743291 -0.588251 3.79485 120 120 108 
0.562029 -0.555335 4.05991 34 7 0 
0.681971 -0.527241 3.93419 217 173 48 
0.182619 -0.50656 4.27838 105 96 79 
-0.0881192 -0.431435 3.73205 124 114 104 
0.0537897 -0.423908 3.80116 201 179 129 
-0.13725 -0.395839 3.75845 0 6 0 
0.0576744 -0.395289 3.79838 37 19 0 
0.0642171 -0.393521 3.77169 35 15 0 
-0.194385 -0.345292 3.58117 85 65 12 
0.681902 -0.374781 3.88932 128 129 124 
-0.216375 -0.333989 3.55783 102 77 23 
-0.19833 -0.331004 3.55469 70 42 0 
0.184712 -0.381424 4.37519 161 137 37 
0.522233 -0.32885 3.94499 201 165 19 
-0.284245 -0.288844 3.55335 250 246 217 
0.540899 -0.320935 3.94614 208 170 11 
-0.0785231 -0.267339 3.55952 72 48 10 
-0.196815 -0.256519 3.48523 64 47 17 
-0.889186 -0.0956669 4.20812 123 120 111 
-0.76227 0.039185 4.30137 24 8 0 
-0.846876 0.195113 4.2671 20 8 0 
-0.406144 0.474533 4.73526 21 4 0 
-0.560994 0.552778 4.50775 235 255 248 
-0.340752 0.714356 4.86173 200 161 32 
-0.165051 0.796622 4.9329 170 150 143 
0.516636 0.836248 4.61358 195 183 161 
-4.20371 1.92482 6.98253 49 40 35 
-4.23959 1.99433 6.68289 54 49 45 
-0.280053 -0.488625 3.7021 48 127 80 
-0.363426 -0.412688 3.80102 97 99 88 
0.660237 -0.394008 3.84501 126 123 108 
-0.220366 -0.334879 3.56974 119 97 40 
-1.08977 0.623455 5.44243 157 146 140 
0.204575 0.761951 4.67662 123 81 5 
0.262845 0.764448 4.66754 103 58 0 
-0.272636 0.840468 4.84858 106 90 67 
-0.477842 0.949494 4.63046 210 196 183 
-4.24784 2.16996 6.89129 60 53 47 
-4.24903 2.10295 6.57338 32 28 19 
0.620046 -0.839188 3.98188 179 122 7 
0.658983 -0.534408 3.95433 229 190 51 
0.219728 -0.568985 4.34622 3 19 8 
0.579932 -0.443024 3.91396 180 144 4 
0.613572 -0.431756 3.89971 186 150 12 
0.437437 -0.377846 3.97975 10 8 9 
0.236526 -0.129851 4.24999 81 76 70 
0.383994 -0.125544 4.10349 193 154 17 
0.389496 -0.104246 4.11453 15 5 6 
-0.967453 -0.033052 4.09504 141 94 14 
-0.900602 -0.0143759 4.13928 120 83 5 
-0.867649 0.202344 4.27704 19 8 0 
1.06047 0.52621 5.48307 206 195 189 
1.13298 0.714315 5.03017 129 119 110 
0.420117 0.787822 4.69174 206 186 149 
-0.313411 0.826758 4.86829 184 167 151 
-0.495586 0.96599 4.59107 194 182 168 
-1.99969 1.0055 4.6383 225 215 213 
-0.898961 1.05856 4.41172 153 143 141 
-4.17572 1.6581 6.87925 50 40 38 
-4.2038 1.85368 7.00583 54 51 44 
-0.1937 -0.973652 3.7785 190 40 51 
-0.0581322 -0.288922 3.62706 26 61 21 
-0.820743 -0.0607161 4.23652 73 70 63 
-0.796008 -0.0572791 4.2738 10 5 2 
-1.19515 0.0768903 3.93947 107 45 4 
-0.303144 0.828534 4.89482 189 173 160 
-0.0700521 0.883748 4.73232 121 107 94 
0.302911 0.853435 4.58498 195 183 157 
-0.453536 0.94025 4.57996 215 201 188 
-0.499021 0.973893 4.55769 214 204 194 
0.569649 -0.709644 3.93446 148 95 87 
0.537249 -0.71249 3.95708 185 177 156 
0.614286 -0.666304 3.89834 177 183 137 
0.556938 -0.661753 3.96064 57 0 0 
0.63953 -0.637517 3.88169 50 29 0 
0.608125 -0.639724 3.90998 63 53 41 
0.668948 -0.62138 3.86126 126 139 67 
0.678994 -0.611182 3.85442 142 158 85 
0.721513 -0.598075 3.82179 150 156 142 
0.678628 -0.601282 3.85904 47 60 0 
0.668309 -0.600018 3.87221 119 111 75 
0.741129 -0.574532 3.80841 14 7 1 
0.720227 -0.56606 3.83345 33 16 9 
0.0352754 -0.417387 3.80625 65 52 17 
-0.241457 -0.242903 3.50451 182 159 127 
0.444609 0.0213093 4.30453 67 64 57 
-0.825651 -0.0546261 4.20834 72 71 67 
-0.365367 0.102371 4.34785 166 144 105 
-0.561645 0.568554 4.51521 222 247 226 
0.692719 -0.790405 3.9749 92 34 0 
0.571047 -0.697459 3.93309 189 113 100 
0.599031 -0.667353 3.91141 154 165 96 
0.607438 -0.661508 3.91038 198 194 169 
0.571759 -0.666216 3.936 131 134 77 
0.595729 -0.657877 3.91306 150 157 105 
0.589571 -0.648595 3.93115 18 20 0 
0.698081 -0.581635 3.853 122 114 77 
0.759812 -0.527825 3.82383 75 67 56 
-0.106628 -0.396413 3.76347 109 112 103 
0.372206 -0.0166189 4.25547 75 62 28 
0.363173 0.0228797 4.26998 3 1 2 
-0.764988 0.100595 4.3057 66 45 0 
-0.818777 0.149137 4.234 65 58 52 
0.432645 0.835431 4.62179 187 175 159 
0.733854 -0.598009 3.81123 190 188 173 
0.460164 -0.440356 3.96501 105 105 105 
-0.292735 -0.336402 3.58349 100 73 20 
0.380318 -0.0910372 4.1083 21 3 0 
0.311992 -0.0665684 4.2306 106 88 38 
-1.13278 -0.0827974 4.08418 243 222 105 
-0.984229 0.0700384 4.0262 54 9 6 
-0.56362 0.552758 4.52804 179 205 196 
-1.0777 0.612074 5.38515 156 145 141 
-0.136128 0.823711 4.82878 134 120 107 
0.711329 -0.578946 3.83264 172 155 148 
0.447901 0.310254 4.66084 112 73 0 
0.1715 0.488541 4.62741 22 5 0 
-0.55042 0.462035 4.46258 135 117 7 
-0.159144 0.801797 4.87947 111 95 80 
-0.270987 0.833479 4.81937 105 88 68 
-0.288061 0.853226 4.76827 201 183 173 
0.617286 -0.652193 3.91385 194 181 164 
-0.327572 -0.405722 3.79961 86 92 78 
0.444961 -0.195798 4.05869 175 136 19 
1.46541 0.852759 4.69296 196 187 182 
-0.0752562 0.856303 4.74562 200 185 178 
-0.394484 0.965936 4.53284 157 147 135 
0.673969 -0.892061 3.97043 233 221 197 
0.599612 -0.887409 4.03558 134 97 16 
0.59226 -0.707125 3.93018 197 209 135 
0.584299 -0.517244 3.99778 139 95 0 
0.500187 -0.243852 3.96137 207 161 13 
-0.718795 -0.157419 4.40049 21 15 1 
1.4565 0.847876 4.66314 200 191 186 
1.36088 0.891004 4.57789 149 140 133 
-0.080455 0.853584 4.7363 199 184 177 
0.828796 0.953106 4.48479 155 147 136 
0.215566 1.08198 4.24084 207 196 192 
0.243666 1.09694 4.21923 147 136 132 
0.564367 -0.732854 3.94377 201 137 128 
0.590837 -0.717698 3.9237 200 183 157 
0.553859 -0.721306 3.94397 176 123 115 
0.627096 -0.676895 3.88806 209 223 144 
0.655129 -0.672315 3.87359 184 217 104 
0.660826 -0.656843 3.8639 74 75 18 
0.651494 -0.657931 3.86928 176 179 124 
0.684149 -0.651339 3.8494 207 230 140 
0.694432 -0.633585 3.83744 171 195 121 
0.743301 -0.62223 3.81217 170 171 139 
0.70313 -0.622045 3.82813 32 59 0 
0.709276 -0.609361 3.8243 150 165 100 
0.452552 -0.464701 3.9679 25 26 20 
0.578002 -0.708191 3.9257 67 18 3 
0.716319 -0.618831 3.82131 29 39 4 
0.744326 -0.611675 3.80916 40 39 21 
0.45859 -0.607304 3.89371 82 45 0 
0.494108 -0.234573 3.97288 197 155 17 
0.391669 -0.0727605 4.11249 192 157 55 
-1.02117 0.200684 3.87288 93 35 0 
-0.853154 -0.0950725 4.20707 57 53 54 
-0.284671 0.872253 4.75155 143 129 116 
-1.19376 0.0749351 3.93015 110 43 16 
0.456292 0.922977 4.89456 72 63 58 
0.707016 -0.851216 3.9841 255 237 104 
0.23058 -0.774393 3.75707 106 88 50 
-0.615049 -0.828534 3.90003 54 39 0 
-0.631119 -0.822501 3.90463 95 79 45 
-0.631642 -0.810268 3.91356 104 86 50 
0.558031 -0.730886 3.94568 186 118 107 
0.565619 -0.729015 3.93736 92 15 9 
0.552447 -0.724973 3.93934 114 48 34 
0.539135 -0.722716 3.9496 128 119 110 
0.575274 -0.718452 3.93461 105 22 16 
0.555943 -0.717566 3.92968 86 27 21 
0.547895 -0.71345 3.94032 162 95 87 
0.566459 -0.70864 3.92733 150 96 84 
0.591351 -0.703938 3.91002 53 68 0 
0.614443 -0.696908 3.90524 202 213 147 
0.68904 -0.679393 3.86977 126 145 20 
0.688717 -0.669462 3.85478 112 130 18 
0.693979 -0.671459 3.86543 108 127 12 
0.601383 -0.680385 3.89903 158 177 95 
0.627451 -0.677485 3.88883 185 203 121 
0.624733 -0.668948 3.86465 167 192 91 
0.687159 -0.661071 3.84463 74 101 6 
0.701477 -0.659808 3.84495 117 138 43 
0.640184 -0.668449 3.87265 149 174 83 
0.662551 -0.665181 3.87028 164 176 104 
0.658049 -0.663369 3.86102 173 187 112 
0.566019 -0.684348 3.93469 145 94 77 
0.60506 -0.674248 3.90715 96 110 33 
0.678758 -0.656373 3.84846 67 91 0 
0.579014 -0.676356 3.91656 119 126 72 
0.610187 -0.66848 3.88813 81 88 44 
0.569228 -0.677476 3.92632 115 108 82 
0.68189 -0.650154 3.83615 93 110 42 
0.701279 -0.650667 3.83765 76 104 19 
0.650576 -0.657852 3.86737 151 154 101 
0.144088 -0.675919 3.79111 37 21 0 
0.661819 -0.648057 3.83438 88 77 11 
0.628736 -0.655685 3.87396 77 108 4 
0.707743 -0.642821 3.8391 149 174 90 
0.584047 -0.665774 3.90886 54 61 7 
0.601979 -0.660529 3.89802 201 197 168 
0.613939 -0.654937 3.87376 160 178 96 
0.728535 -0.639107 3.82708 218 226 187 
0.55958 -0.669917 3.93217 125 80 59 
0.688133 -0.640638 3.8289 218 233 176 
0.611535 -0.65445 3.88873 75 73 52 
0.749954 -0.627668 3.8121 193 193 165 
0.739922 -0.626486 3.81137 141 145 108 
0.587723 -0.658398 3.91727 44 51 0 
0.711435 -0.629244 3.82305 172 198 99 
0.722913 -0.628993 3.81879 161 175 114 
0.598646 -0.650946 3.90062 159 152 123 
0.67896 -0.633993 3.84238 101 132 28 
0.621592 -0.643147 3.87916 167 161 137 
0.653465 -0.639932 3.87465 58 63 7 
0.555821 -0.66145 3.95809 66 8 0 
0.704534 -0.622961 3.83096 39 72 0 
0.742023 -0.616056 3.8116 223 224 190 
0.760515 -0.602011 3.79682 60 58 43 
0.642202 -0.622222 3.86514 129 100 92 
0.708537 -0.609889 3.8229 142 159 91 
0.637068 -0.622159 3.87489 133 68 64 
-0.532407 -0.713225 3.91647 41 10 0 
0.600135 -0.633516 3.92442 102 96 60 
0.67093 -0.617778 3.87992 139 126 110 
0.597627 -0.632619 3.93846 108 106 45 
0.694167 -0.601835 3.82768 78 93 12 
0.715504 -0.59619 3.80992 134 140 114 
-0.546544 -0.703598 3.90508 37 11 0 
0.666398 -0.605181 3.86766 28 19 0 
0.679743 -0.589778 3.8527 108 97 65 
0.699546 -0.584454 3.83448 56 62 14 
0.717171 -0.565467 3.82736 36 22 21 
0.724805 -0.54436 3.83664 26 8 0 
-0.17506 -0.552147 3.70695 62 120 80 
0.671191 -0.4725 3.92815 176 128 0 
0.489731 -0.464094 3.96506 60 56 31 
-0.441258 -0.586048 4.43545 237 231 219 
0.645051 -0.394181 3.89289 45 45 35 
-0.353823 -0.439982 3.78415 113 93 86 
-0.11589 -0.403263 3.75261 27 35 24 
0.633318 -0.350323 3.87768 120 119 117 
-0.48688 -0.437447 3.88634 199 172 127 
-0.475346 -0.432798 3.87511 69 47 8 
-0.436375 -0.427633 3.89489 64 68 51 
-0.205794 -0.32851 3.56314 108 85 35 
-0.650668 -0.433249 4.50474 191 140 0 
-0.420146 -0.31436 3.68306 174 182 141 
-0.193492 -0.252546 3.50106 124 102 65 
-0.445002 -0.291596 3.70198 179 187 136 
-0.246602 -0.240981 3.48561 180 164 130 
-0.300416 -0.240497 3.50028 185 165 130 
-0.851865 -0.287438 4.58814 25 21 18 
0.327711 -0.0590724 4.25265 38 15 0 
-0.336791 -0.0915954 3.74831 149 133 110 
-0.819166 -0.129405 4.2415 100 68 11 
-0.359841 0.103763 4.3773 165 146 106 
-1.2479 0.0325603 3.9717 155 111 4 
-1.25483 0.108447 3.92008 253 232 165 
-1.25525 0.109341 3.9385 255 247 205 
-1.09709 0.148879 3.93008 239 180 78 
-1.07504 0.166574 3.9323 185 131 0 
-1.06111 0.256673 3.90104 109 78 14 
-0.507193 0.55747 4.5018 176 193 175 
0.637541 -0.855034 3.9654 231 207 179 
-0.605484 -0.819623 3.90009 142 115 68 
0.611346 -0.687807 3.89465 71 77 29 
0.566568 -0.695996 3.92316 163 101 86 
0.589076 -0.694785 3.93809 182 186 125 
0.645382 -0.651721 3.85912 74 77 30 
0.610715 -0.661903 3.91106 201 197 168 
0.569867 -0.665761 3.93174 124 123 69 
0.450518 -0.657112 3.89511 182 149 44 
0.713937 -0.612561 3.81394 161 172 132 
0.576316 -0.645078 3.94326 47 46 0 
0.617319 -0.632432 3.89238 57 5 0 
0.728364 -0.5906 3.80853 34 37 8 
0.662707 -0.604556 3.87889 119 80 63 
0.700496 -0.577033 3.84645 62 42 15 
0.741158 -0.537841 3.80036 124 116 105 
0.717856 -0.542617 3.82285 18 3 0 
0.596526 -0.514751 3.98884 242 200 64 
-0.283053 -0.489193 3.7142 29 128 71 
-0.0913313 -0.431096 3.74324 126 109 102 
0.629801 -0.384236 3.88958 21 20 18 
0.0342805 -0.41556 3.79798 58 45 11 
-0.450859 -0.43261 3.87795 42 32 0 
-0.374265 -0.416566 3.83402 43 53 44 
0.611116 -0.3328 3.91015 77 76 72 
0.514764 -0.33049 3.93877 191 162 34 
-0.447706 -0.403804 3.84409 157 151 125 
0.625686 -0.307607 3.92211 77 79 66 
-0.0468399 -0.281396 3.63684 56 67 25 
-0.344759 -0.266113 3.50207 180 164 130 
-0.34172 -0.25606 3.51027 111 95 69 
-0.258691 -0.240092 3.47824 171 155 121 
0.420809 -0.216756 4.11166 107 79 31 
0.405175 -0.110165 4.10749 181 147 39 
0.299967 -0.119115 4.24252 27 12 0 
-0.891558 -0.113658 4.25014 29 25 22 
-0.888568 -0.104031 4.2322 31 28 21 
-0.850287 -0.0626913 4.22102 91 86 80 
-0.826878 -0.0602995 4.23407 4 1 0 
-0.936973 -0.04323 4.16609 138 99 8 
-0.406649 0.052113 4.42456 184 157 104 
-1.08241 0.173009 3.91942 87 23 0 
0.644158 -0.887208 3.99869 215 200 177 
-0.108287 -0.775842 3.74145 175 59 72 
0.778577 -0.740031 3.89641 111 64 0 
0.563686 -0.737958 3.95597 126 87 82 
0.600478 -0.716268 3.91932 149 146 115 
0.58157 -0.713439 3.91462 51 29 6 
0.586889 -0.699747 3.89375 54 74 3 
0.614367 -0.683735 3.90849 51 64 10 
0.719229 -0.662976 3.85481 76 87 8 
0.413246 -0.687275 3.91 224 197 94 
0.660304 -0.652361 3.85505 69 49 0 
0.590659 -0.663188 3.93017 22 26 0 
0.640299 -0.636949 3.83258 25 30 0 
0.730143 -0.62284 3.83205 19 28 1 
0.588677 -0.648972 3.93112 24 27 0 
0.728645 -0.613641 3.80083 219 223 196 
0.598073 -0.638325 3.91008 137 130 114 
0.664448 -0.613515 3.84527 47 54 3 
0.744991 -0.594794 3.79683 31 30 25 
-0.0170406 -0.61465 3.62408 122 40 28 
0.616633 -0.622986 3.91844 29 7 0 
0.735415 -0.570622 3.79391 24 14 12 
-0.601603 -0.678924 3.92592 40 24 0 
0.712251 -0.550725 3.86634 60 29 0 
0.712082 -0.562397 3.95678 112 70 28 
-0.532487 -0.613684 3.73611 105 15 7 
0.604592 -0.567 4.02041 227 190 76 
-0.218067 -0.558907 3.72068 40 127 74 
0.564666 -0.556013 4.07449 30 8 0 
-0.277607 -0.561484 3.72727 44 116 70 
0.585917 -0.508569 3.984 142 93 0 
0.69792 -0.466889 3.94163 121 93 0 
0.417225 -0.488254 3.98192 96 76 23 
0.416908 -0.468785 3.99364 132 131 126 
-0.300085 -0.47978 3.70105 116 57 49 
0.455174 -0.438847 3.95323 83 84 79 
-0.454026 -0.587561 4.43622 220 213 203 
-0.35547 -0.447617 3.77646 24 15 0 
0.0393138 -0.411488 3.7832 61 43 7 
0.413343 -0.418271 4.17547 18 17 12 
-0.438983 -0.44165 3.89027 172 168 131 
-0.112197 -0.389988 3.76601 0 17 0 
-0.382947 -0.404739 3.81921 0 21 4 
-0.452555 -0.411462 3.86305 7 1 0 
-0.0315954 -0.251078 3.60088 203 181 132 
-0.434625 -0.279026 3.62052 65 36 4 
-0.31507 -0.240138 3.48925 201 179 140 
-0.747101 -0.320725 4.43313 45 27 0 
-0.839967 -0.300229 4.57861 92 89 84 
0.386586 -0.0900672 4.12339 48 14 0 
0.433533 -0.0669332 4.12808 99 58 0 
0.314618 -0.0666966 4.2381 109 91 53 
-0.141729 -0.087231 3.7187 60 42 18 
0.493899 -0.00361752 4.33159 138 116 69 
0.447864 0.0215237 4.32892 34 30 19 
0.385994 0.0238305 4.28187 13 12 8 
0.358464 0.0520406 4.36089 147 137 125 
0.392512 0.0822322 4.3353 79 70 55 
-0.43168 0.0104368 4.53614 200 160 46 
-0.920504 0.00325078 4.10758 133 91 7 
0.411513 0.314303 4.70152 119 83 0 
0.486097 0.327675 4.71698 121 87 0 
-1.16921 0.106009 3.94506 106 41 0 
-1.20594 0.167885 3.94516 246 234 218 
-0.696763 0.341637 4.9203 50 6 0 
-0.912732 0.689917 5.30752 168 155 149 
-0.113645 0.842066 4.93167 137 123 114 
-0.672523 0.806167 4.85103 127 114 97 
0.566213 -0.888927 4.0293 224 208 183 
0.575701 -0.876912 4.04694 132 94 9 
0.687039 -0.852143 3.9736 141 102 1 
0.546331 -0.712149 3.92633 82 31 30 
0.649394 -0.639936 3.85142 20 26 0 
0.572995 -0.633605 3.93137 38 28 3 
-0.17658 -0.563648 3.70876 30 68 47 
0.653887 -0.488068 3.94922 97 51 1 
-0.459972 -0.586247 4.44743 239 229 220 
-0.0767353 -0.441501 3.75863 60 29 27 
-0.363891 -0.440778 3.78264 31 13 3 
0.656911 -0.352049 3.90393 135 136 131 
-0.448563 -0.335873 3.81036 178 175 124 
0.411047 -0.266032 4.00635 203 167 21 
-0.801424 -0.348203 4.57688 37 33 30 
-0.722822 -0.228663 4.33279 133 134 126 
0.434401 -0.0747101 4.10708 147 111 33 
0.457713 0.0217586 4.30142 50 43 35 
0.45493 0.0296361 4.32632 140 132 119 
-0.853445 -0.0942449 4.22795 38 34 33 
-0.914042 -0.0174986 4.12382 170 124 2 
-0.433788 0.0782925 4.50404 229 197 52 
-1.24957 0.0394331 3.95144 114 53 0 
0.465432 0.313218 4.71055 114 76 1 
0.526389 0.384927 4.72343 101 59 1 
-0.698061 0.341422 4.90791 50 6 0 
-1.06998 0.602493 5.53499 161 150 144 
-1.07668 0.624115 5.46886 148 137 135 
0.324045 0.869415 4.65538 170 156 143 
-0.277022 0.863676 4.82688 195 177 163 
0.660766 1.02411 4.35767 138 127 123 
-0.489235 0.969282 4.60688 174 161 152 
-0.818107 1.07191 4.39269 140 129 127 
0.678209 -0.85002 3.96127 136 103 22 
0.650085 -0.843642 3.97708 137 93 22 
0.550197 -0.791583 4.03966 68 58 56 
0.70915 -0.61481 3.79422 35 39 24 
0.474397 -0.609891 3.8903 102 62 0 
0.594878 -0.561243 4.00056 239 200 81 
0.596967 -0.541865 4.009 232 198 65 
0.62907 -0.489114 3.93852 246 209 94 
-0.457716 -0.587506 4.4615 240 232 221 
0.626229 -0.379604 3.90423 106 106 106 
0.463106 -0.401632 4.008 73 73 71 
-0.321 -0.348837 3.62437 193 170 116 
-0.447135 -0.349616 3.82075 18 32 7 
0.468378 -0.243262 3.97423 206 165 11 
-0.349543 -0.246197 3.52889 192 170 123 
-0.327766 -0.238923 3.46485 169 150 107 
0.429064 -0.226479 4.13483 47 15 2 
0.443279 -0.194331 4.05476 172 136 14 
0.454862 -0.0735538 4.13926 146 111 30 
-0.739853 -0.131004 4.42445 189 155 19 
-0.681481 -0.0517917 4.4181 78 37 0 
-0.434225 0.0796332 4.49173 216 185 45 
-1.26255 0.045216 3.97241 242 206 48 
-1.1075 0.2313 3.92501 130 88 4 
-1.09521 0.252752 3.91011 160 144 131 
0.445899 0.782224 4.69509 118 89 9 
0.433527 0.847647 4.65163 186 173 154 
-0.163739 0.801082 4.9725 161 147 134 
-0.830689 0.914013 4.71901 203 190 182 
-0.386078 0.9757 4.58058 151 138 130 
0.789167 -0.853893 3.91034 223 212 192 
0.540262 -0.836831 4.09444 171 161 149 
0.680904 -0.677377 3.93111 121 143 60 
0.683235 -0.614365 3.80846 152 186 65 
0.595198 -0.624458 3.88229 29 18 12 
0.72188 -0.605876 3.81377 25 29 15 
0.748566 -0.597775 3.78709 41 39 26 
0.841628 -0.594067 3.80628 53 52 50 
0.487287 -0.603842 4.10386 251 233 171 
0.733003 -0.541497 3.89297 161 136 70 
0.739532 -0.533737 3.81888 11 11 3 
0.691611 -0.549833 3.94868 52 13 0 
0.5521 -0.526394 3.99951 57 26 5 
0.510231 -0.515896 4.02296 136 97 2 
0.51853 -0.518332 4.04241 133 95 0 
0.633031 -0.398875 3.89934 12 12 14 
-0.0937233 -0.421167 3.74931 17 0 0 
0.394928 -0.395722 4.05121 12 8 0 
0.411696 -0.37088 3.93685 5 6 0 
-0.683879 -0.229632 4.40821 80 79 74 
-0.97363 -0.032998 4.09226 139 94 1 
-0.475935 0.0309895 4.83365 205 159 12 
-1.26825 0.106716 3.86848 244 232 218 
1.09928 0.53257 5.54801 197 188 183 
-1.27994 0.130672 3.95516 213 200 183 
-1.09609 0.192994 3.92203 241 192 12 
1.2357 0.710535 5.08455 200 191 184 
1.07584 0.703702 5.12597 183 176 170 
1.13403 0.731841 5.07238 178 169 162 
-0.543774 0.460811 4.4944 122 103 8 
0.507198 0.662573 4.80743 121 83 0 
0.392935 0.773793 4.65677 180 156 118 
0.345555 0.802618 4.70641 96 62 0 
0.534583 0.828715 4.65526 177 164 145 
0.796763 0.884353 4.68955 204 193 189 
0.508017 0.878517 4.7694 61 52 45 
-0.170327 0.796002 4.94073 160 147 131 
0.756843 0.938226 4.5386 202 193 188 
-0.0635134 0.888723 4.75596 123 111 95 
-0.844192 0.946508 4.64437 203 193 184 
-0.837923 1.05049 4.34667 213 202 196 
0.527829 -0.737392 3.96257 231 221 211 
0.562929 -0.713799 3.93794 133 95 92 
0.568198 -0.706126 3.93416 78 11 2 
0.567111 -0.687325 3.93149 150 98 85 
0.581878 -0.677187 3.92132 119 126 72 
0.608178 -0.671043 3.89906 171 177 129 
0.57165 -0.678389 3.93035 115 108 82 
0.589352 -0.662521 3.91705 115 122 71 
0.616203 -0.655801 3.89632 75 73 52 
0.597174 -0.658684 3.91128 142 147 93 
0.664045 -0.64422 3.86487 29 25 0 
0.683659 -0.635163 3.8497 101 132 28 
0.639341 -0.637388 3.88051 43 27 0 
0.613976 -0.636493 3.90606 84 69 62 
0.621251 -0.633311 3.89973 57 5 0 
0.656379 -0.624978 3.87203 34 23 1 
0.66323 -0.621225 3.86299 56 62 14 
0.640976 -0.623183 3.88114 133 68 64 
0.718165 -0.595369 3.82005 150 154 131 
0.667471 -0.60513 3.86937 28 19 0 
0.70523 -0.593265 3.83518 56 66 13 
0.704082 -0.513806 3.91371 226 189 83 
-0.222396 -0.33472 3.57744 100 70 18 
0.388047 -0.110093 4.10613 57 32 0 
-0.129516 0.0241629 3.78081 35 18 0 
-1.20481 0.163084 3.93949 252 241 219 
0.570623 -0.697032 3.92996 163 101 86 
0.581027 -0.692813 3.92467 182 186 125 
0.5953 -0.675744 3.91112 70 89 0 
0.606551 -0.660537 3.90425 201 197 168 
0.571554 -0.666433 3.93452 124 123 69 
0.60696 -0.653629 3.9118 177 167 140 
0.698176 -0.601579 3.83516 84 101 21 
0.654771 -0.640856 3.86876 26 34 0 
0.733522 -0.597647 3.80939 173 176 159 
0.683226 -0.527858 3.94193 217 176 60 
-0.239202 -0.244026 3.51929 169 153 119 
0.404916 -0.110227 4.10543 188 152 29 
-0.855073 -0.0951281 4.22337 38 34 33 
0.23416 -0.571323 6.68562 213 186 37 
0.630964 -0.668899 3.88722 177 199 90 
0.659321 -0.534274 3.95708 226 189 75 
0.444823 -0.194882 4.05766 172 136 14 
-0.247137 1.03077 4.40716 147 137 135 
0.755556 -0.801564 3.89791 143 110 33 
0.526075 -0.737175 3.95957 231 221 211 
0.549561 -0.713613 3.94319 162 95 87 
0.583419 -0.702761 3.92127 134 122 82 
0.61431 -0.690099 3.89992 70 77 25 
0.635746 -0.672028 3.88231 167 192 91 
0.68816 -0.651647 3.84594 93 110 42 
0.614469 -0.655035 3.89352 75 73 52 
0.645189 -0.646283 3.87089 144 140 95 
0.593635 -0.675145 3.90836 70 89 0 
0.681547 -0.527372 3.93929 217 176 60 
0.658914 -0.533648 3.95653 226 189 75 
1.21324 0.703681 5.03273 195 186 177 
-0.155095 -0.916644 3.72776 196 120 120 
0.510949 -0.74709 3.98286 86 76 66 
0.559651 -0.735479 3.95494 137 102 100 
0.574652 -0.718464 3.93353 99 21 17 
0.57912 -0.70601 3.93369 164 100 91 
0.615578 -0.700718 3.91994 73 89 1 
0.61625 -0.697451 3.9082 190 202 128 
0.693786 -0.680723 3.87721 120 148 25 
0.631352 -0.67869 3.89511 184 201 130 
0.649734 -0.675039 3.88207 58 86 0 
0.681678 -0.666692 3.87726 67 91 0 
0.627308 -0.671509 3.90047 92 104 40 
0.659256 -0.664094 3.87482 81 86 28 
0.12393 -0.682255 3.80255 137 111 88 
0.607803 -0.670836 3.91597 143 152 85 
0.633472 -0.660153 3.90542 146 159 87 
0.717341 -0.638844 3.84801 56 85 0 
0.757204 -0.62904 3.82306 215 215 189 
0.739376 -0.625308 3.83045 210 218 177 
0.670222 -0.623322 3.87399 50 59 16 
0.677275 -0.610383 3.8754 111 109 68 
-0.548807 -0.701822 3.89581 33 12 0 
0.711548 -0.590987 3.83792 156 157 125 
0.69187 -0.595761 3.86016 38 47 0 
-0.429826 -0.749009 4.74541 137 123 94 
-0.469597 -0.598167 4.47676 6 29 13 
-0.135374 -0.403363 3.75441 92 102 94 
-0.380805 -0.42975 3.82078 31 42 26 
-0.444063 -0.438112 3.86817 167 178 138 
-0.123714 -0.387695 3.75473 64 102 77 
-0.487678 -0.433916 3.87467 52 31 0 
-0.316148 -0.331661 3.57932 130 105 51 
-0.368617 -0.275339 3.5231 74 53 10 
-0.343491 -0.248403 3.50939 152 131 100 
-0.812752 -0.345199 4.54339 18 17 13 
-0.846225 -0.297695 4.5446 90 89 87 
-0.437386 -0.070918 4.16255 100 101 96 
-1.18745 0.0890796 3.9419 255 201 74 
-0.635709 -0.80795 3.89861 115 90 59 
0.573728 -0.738397 3.95033 135 108 97 
0.575505 -0.734142 3.94136 216 179 171 
0.605109 -0.688395 3.91591 26 39 0 
0.588606 -0.683882 3.92764 41 52 0 
0.602023 -0.659641 3.92223 146 150 91 
0.680119 -0.642661 3.86762 170 185 102 
0.759825 -0.617966 3.80767 206 204 189 
0.710303 -0.576662 3.84792 155 142 126 
0.719983 -0.573747 3.85129 95 83 71 
0.767821 -0.530307 3.83648 92 82 73 
0.71396 -0.549679 3.974 107 69 32 
0.453088 -0.470517 3.97769 113 110 101 
-0.353392 -0.437284 3.77239 103 89 80 
-0.356032 -0.336566 3.64139 187 190 133 
-0.426643 -0.404135 4.52089 173 143 45 
-0.179313 -0.266686 3.48556 78 54 10 
-0.515663 -0.338396 3.82555 37 10 0 
0.496289 -0.232744 3.98029 201 164 24 
-0.352481 -0.258265 3.53895 96 83 64 
-0.358261 -0.239942 3.50311 202 180 131 
0.382882 -0.0894218 4.11638 55 20 0 
-0.327891 -0.0793143 3.7448 156 138 124 
-0.886458 -0.135666 4.26358 224 190 80 
-0.89199 -0.103903 4.21342 12 8 7 
-0.858301 -0.0942305 4.20824 26 25 21 
-0.39976 -0.00336887 4.16416 84 83 81 
-0.392911 0.0234044 4.2068 28 15 0 
-0.895657 -0.0102471 4.13893 115 77 4 
-0.370421 0.102617 4.3491 163 141 100 
0.539099 -0.73351 3.96156 243 233 221 
0.604529 -0.717946 3.9259 211 203 180 
0.598407 -0.705524 3.90157 192 204 140 
0.584224 -0.698506 3.88952 61 79 0 
0.131628 -0.685787 3.79764 49 28 7 
0.665327 -0.662666 3.86664 184 199 118 
0.723548 -0.621092 3.82205 33 39 1 
0.603758 -0.639793 3.91963 138 131 113 
0.708573 -0.612691 3.84653 69 97 0 
0.604419 -0.629504 3.92272 25 13 0 
0.739658 -0.598697 3.81873 255 255 238 
0.69331 -0.52866 3.95834 211 174 33 
-0.443315 -0.752332 4.73849 30 20 0 
0.565653 -0.55574 4.07638 30 7 0 
0.567098 -0.543744 4.08528 30 7 0 
0.456815 -0.480041 3.99346 60 44 0 
-0.177326 -0.487824 3.69352 6 6 0 
0.431753 -0.42229 3.97336 57 56 54 
-0.062723 -0.390446 3.75531 0 32 11 
-0.373104 -0.420359 3.80262 35 35 27 
-0.355361 -0.412286 3.78566 17 0 0 
-0.33813 -0.410974 3.78867 22 3 0 
-0.368205 -0.40909 3.79885 87 89 78 
-0.326952 -0.402737 3.78233 81 88 81 
-0.337918 -0.396149 3.78849 0 6 0 
-0.446317 -0.29062 3.68374 36 48 0 
-0.235693 -0.241567 3.48761 196 173 139 
-0.394394 -0.270286 3.63071 255 251 213 
-0.456969 -0.260839 3.62745 60 40 5 
-0.122021 -0.200833 3.53808 56 35 4 
0.393871 -0.0775106 4.11933 185 150 56 
0.399796 0.0191668 4.28763 78 78 70 
-0.855249 -0.0630443 4.19539 81 79 67 
-0.46358 0.0388693 4.49203 208 171 31 
-0.924952 0.00350921 4.08365 120 78 4 
0.370544 0.336226 4.68048 126 85 5 
0.314404 0.341357 4.66506 116 78 0 
-1.11843 0.139108 3.89774 84 25 0 
-1.10682 0.148366 3.9098 90 28 0 
-0.509262 0.556536 4.49384 149 176 161 
-0.150802 0.809616 4.93102 105 89 73 
-0.146468 0.816992 4.85761 178 162 149 
-0.133196 0.829542 4.87066 118 106 94 
-0.284139 0.859646 4.80943 195 181 168 
-0.852031 0.875213 4.80822 134 121 113 
0.573462 -0.920983 4.07614 221 208 189 
0.631487 -0.896006 4.07487 159 122 18 
0.678063 -0.674693 3.91064 116 133 63 
0.578901 -0.662658 3.91364 32 36 1 
0.63391 -0.647049 3.90856 197 185 163 
-0.18296 -0.549428 3.6957 47 123 77 
0.614134 -0.339839 3.91417 77 77 69 
-0.6356 -0.526342 4.48946 178 164 137 
-0.468587 -0.411734 3.86863 82 64 28 
-0.318779 -0.331713 3.56117 102 74 26 
-0.476121 -0.348018 3.81807 93 72 27 
-0.374304 -0.277467 3.53565 222 196 145 
-0.293685 -0.240172 3.49695 181 161 126 
-0.679839 -0.0749555 4.37689 176 143 36 
0.354331 0.333064 4.66368 115 72 3 
-1.23767 0.0556973 3.96213 255 255 141 
0.209405 0.76412 4.68707 107 68 1 
-0.759687 0.668716 4.95152 145 105 9 
-0.0774981 0.857758 4.74577 180 166 155 
0.600568 -0.909197 4.03069 219 203 188 
0.685567 -0.852869 3.97311 157 126 44 
0.651872 -0.843322 3.98072 147 103 16 
0.776564 -0.801043 3.8775 140 108 21 
-0.612311 -0.81039 3.86947 219 192 145 
0.617663 -0.680659 3.8921 219 227 178 
-0.287768 -0.555279 3.69541 38 129 72 
0.419806 -0.491098 4.03349 11 7 4 
0.628868 -0.376736 3.9107 102 103 98 
0.446968 -0.399665 3.97878 79 80 75 
-0.0732552 -0.400539 3.76923 117 119 106 
-0.232502 -0.242547 3.49834 173 150 118 
0.373611 0.020509 4.27936 23 22 20 
-0.679135 -0.071254 4.3935 178 142 19 
1.16586 0.722772 5.08495 128 119 114 
0.263631 0.762383 4.67406 106 64 4 
-0.7578 0.670008 4.96139 144 106 9 
-0.0116347 0.903163 4.6742 178 164 155 
0.242954 1.1009 4.22869 158 149 142 
-0.845124 0.944555 4.6388 202 189 180 
0.490579 -0.778661 3.96643 33 33 23 
0.610611 -0.658699 3.81895 77 85 25 
0.693562 -0.634627 3.8878 147 177 53 
0.633547 -0.634106 3.94505 33 26 18 
0.782816 -0.551727 3.96991 169 160 145 
0.595496 -0.555229 3.99783 227 187 38 
0.71747 -0.531714 3.93677 118 67 2 
0.557944 -0.555157 4.09584 32 23 8 
-0.274339 -0.554746 3.7185 30 128 69 
0.621799 -0.510027 4.00803 244 202 54 
-0.30837 -0.400731 3.76337 2 7 1 
0.61962 -0.315444 3.93456 12 10 11 
-0.446331 -0.416382 3.85389 8 26 2 
0.476517 -0.250401 4.00219 207 167 10 
-0.361243 -0.264963 3.57089 72 58 31 
-0.726557 -0.278774 4.35109 23 24 18 
-0.25755 -0.140487 3.63623 50 12 9 
-0.525919 -0.229308 4.40136 8 7 3 
-0.653827 -0.219694 4.33365 23 20 13 
-0.589253 -0.200802 4.35919 198 163 9 
-0.68219 -0.191756 4.30692 101 100 96 
-0.963253 -0.118359 4.37807 73 56 26 
-0.570812 -0.0538701 4.45353 17 12 8 
-0.973283 -0.0646949 4.09956 236 200 28 
1.24226 0.712096 5.09544 201 192 185 
1.08363 0.706122 5.13999 191 181 172 
1.138 0.732667 5.07916 186 177 168 
1.46638 0.85281 4.6953 209 199 197 
-0.589528 0.461764 4.51635 208 196 62 
-0.0639634 0.888866 4.75475 115 103 91 
-0.512583 0.964382 4.53191 211 199 187 
-0.815585 1.07847 4.34992 134 123 121 
0.595207 -0.677353 3.91491 79 93 0 
0.693854 -0.627951 3.84556 158 182 94 
0.640514 -0.637408 3.88381 58 32 0 
0.656573 -0.625529 3.87242 32 30 5 
0.750941 -0.608018 3.8109 27 29 16 
0.692281 -0.599092 3.84641 47 68 0 
0.669248 -0.599773 3.87279 109 105 68 
0.420543 -0.216972 4.11098 102 71 27 
0.598648 -0.650413 3.92614 127 133 69 
0.589383 -0.648472 3.93074 24 27 0 
0.616514 -0.638226 3.9128 85 75 63 
0.741367 -0.609988 3.80377 35 37 24 
0.696851 -0.580951 3.8505 119 120 63 
0.389678 -0.0731164 4.13099 128 90 0 
0.617029 -0.62394 3.92107 33 9 0 
-0.083629 -0.407494 3.76473 37 10 3 
-0.89063 -0.0943102 4.21609 114 111 104 
-0.851422 -0.0626115 4.20624 81 79 67 
-0.429987 0.0166392 4.51032 76 43 0 
0.482752 0.326519 4.70744 134 95 2 
0.3077 0.862708 4.60679 173 161 149 
0.64416 -0.885408 3.9939 224 209 188 
0.685216 -0.787849 3.99143 91 32 0 
0.495247 -0.338591 3.94843 193 168 42 
-0.281009 -0.556505 3.70685 38 129 72 
0.455903 -0.400259 3.99058 79 80 75 
-1.16147 0.0874463 3.93979 246 202 9 
-0.00791741 0.903674 4.68085 178 164 155 
-0.388747 0.972754 4.5656 157 144 136 
-0.635751 -0.219153 4.37993 23 20 13 
0.357744 0.329517 4.68848 117 77 8 
1.23862 0.710685 5.0904 201 192 185 
1.07933 0.704398 5.13372 191 181 172 
1.49084 0.859428 4.72325 209 199 197 
-0.293111 0.886392 4.72755 126 112 99 
0.760732 -0.528615 3.82866 92 82 73 
-0.857054 -0.0947674 4.21163 26 25 21 
0.632744 -0.643847 3.88819 73 67 31 
-0.136953 0.828064 4.86245 118 106 94 
-0.492896 0.959728 4.58259 180 167 158 
-1.08434 0.618808 5.4157 147 140 132 
1.3688 0.895176 4.60533 160 151 144 
0.462084 -0.250168 3.98327 207 167 10 
0.281494 0.787538 4.65532 165 147 107 
0.602903 -0.681321 3.90478 176 187 121 
-0.184979 -0.457779 4.07481 103 89 80 
0.59085 -0.639339 3.9413 57 60 0 
0.658701 -0.6197 3.86986 122 115 97 
0.691617 -0.605866 3.85042 43 68 0 
0.671684 -0.609265 3.86938 111 109 68 
0.712632 -0.590957 3.84048 156 157 125 
0.736169 -0.623839 3.82616 225 233 192 
0.616085 -0.638777 3.91238 85 75 63 
0.710407 -0.576421 3.84919 155 142 126 
0.0118423 0.888827 5.28593 105 89 73 
0.569803 -0.874493 4.04042 145 102 8 
-0.139885 0.820946 4.88795 170 154 138 
-0.0788711 0.861197 4.74802 180 166 155 
-0.897031 -0.102991 4.21642 19 18 16 
0.675818 -0.642591 3.86051 170 171 91 
0.709973 -0.599723 3.83421 57 71 10 
0.610176 -0.621143 3.93711 39 19 0 
0.49491 -0.338521 3.94612 198 173 44 
0.674911 -0.615854 3.86293 47 54 3 
0.619962 -0.617767 3.92857 135 109 76 
0.652782 -0.353293 3.89908 131 132 127 
-0.133802 0.829265 4.86811 137 123 114 
-0.172791 -0.564471 3.7206 30 68 47 
-0.00259004 0.910628 4.70399 182 169 161 
0.601773 -0.883713 4.02335 202 164 17 
0.267493 0.765025 4.68477 99 61 0 
0.340227 0.801741 4.69085 105 73 12 
0.575809 -0.923258 4.02602 222 207 188 
0.455639 -0.428181 3.9626 78 79 74 
0.449835 -0.350408 3.98734 183 152 9 
1.24175 0.708872 5.08613 200 191 184 
1.06452 0.698778 5.10047 183 176 170 
1.12625 0.726485 5.0515 178 169 162 
0.789641 0.883834 4.68031 204 193 189 
0.685914 -0.591631 3.86613 117 107 72 
-0.388059 -0.253231 3.60731 255 255 205 
0.607244 -0.643345 3.90968 160 151 134 
0.637508 -0.613744 3.90766 150 98 84 
0.731528 -0.564525 3.83663 42 16 19 
-0.353036 -0.440563 3.78091 119 91 87 
0.429656 -0.0671973 4.12151 127 86 7 
-1.25625 0.109896 3.94746 233 196 107 
0.750333 -0.792978 3.89299 181 137 12 
0.795803 -0.745442 3.89869 102 48 1 
-0.336816 -0.257538 3.53003 121 105 80 
0.575453 -0.651476 3.95054 114 117 28 
-0.0918965 -0.250469 3.5753 255 250 198 
-1.12263 0.140073 3.91953 118 57 0 
0.543424 -0.687866 3.95729 164 92 68 
0.295822 -0.230224 4.24334 105 94 38 
0.797579 -0.747711 3.90309 102 48 1 
0.446344 -0.393093 3.97899 81 81 81 
0.392759 -0.115523 4.10783 121 70 4 
-0.712926 -0.00755962 4.40734 212 171 43 
-1.01903 0.219732 3.89751 86 32 0 
-0.820844 0.149696 4.24361 68 62 50 
-0.809595 0.148266 4.23964 27 23 11 
-0.505838 0.558032 4.4627 148 172 150 
0.146208 -0.678609 3.80012 47 28 13 
0.560676 -0.68304 3.94267 55 16 1 
0.431588 -0.421603 3.97448 62 59 54 
0.262241 -0.159512 4.2291 81 79 67 
-1.10658 0.145883 3.93277 111 39 0 
-0.400477 0.375263 4.69546 88 48 0 
-1.20184 0.0724317 3.95493 121 52 11 
-1.27222 0.109123 3.96206 250 234 219 
-1.08242 0.618255 5.40078 164 151 143 
0.735046 -0.558342 3.85003 135 98 90 
0.580241 -0.442898 3.91793 190 151 14 
-0.683623 -0.0707226 4.38158 199 158 16 
-0.840381 0.917341 4.72942 215 203 191 
0.564939 -0.901296 4.07978 161 122 17 
0.125838 -0.686972 3.79115 46 25 0 
0.409432 -0.685547 3.89718 147 107 0 
-0.123876 -0.319618 3.60322 21 78 23 
-0.460213 -0.283203 3.69529 132 112 61 
-0.765348 -0.332956 4.46708 80 66 1 
-0.703084 -0.272916 4.3603 43 21 0 
-0.823177 -0.229671 4.45607 218 182 36 
-0.447432 -0.0709305 4.17538 46 42 39 
-0.447467 -0.0385947 4.16681 103 102 97 
-0.423204 0.0211135 4.50196 222 184 75 
-0.0919674 -0.982414 4.56181 249 223 172 
0.647619 -0.667244 3.86307 78 94 19 
0.764463 -0.61193 3.80473 111 109 94 
-0.468927 -0.733884 4.75468 113 96 70 
-0.183829 -0.485074 3.6813 13 5 0 
-0.473744 -0.596143 4.46754 2 31 13 
-0.5028 -0.430467 3.86587 94 66 26 
-0.368437 -0.332016 3.63921 58 105 53 
-0.649948 -0.470687 4.79908 75 60 39 
-0.644911 -0.458883 4.81181 205 189 166 
-0.644901 -0.450599 4.78829 205 189 166 
-0.456443 -0.239974 4.27131 4 3 0 
-0.848089 -0.297706 4.53874 89 88 86 
0.175611 0.475873 4.64518 55 31 0 
0.577709 -0.703746 3.91049 169 184 103 
0.602644 -0.690442 3.89901 178 200 115 
0.701075 -0.61102 3.83803 86 114 14 
0.728154 -0.553023 3.83537 111 86 81 
0.747816 -0.540048 3.8132 124 118 106 
0.668843 -0.532878 3.96184 212 170 24 
-0.462563 -0.743842 4.75772 42 30 4 
-0.473191 -0.723914 4.84023 55 22 0 
-0.072198 -0.389893 3.74063 11 45 18 
-0.45804 -0.430594 3.8561 45 46 12 
-0.461902 -0.408074 3.83672 4 15 0 
-0.492139 -0.408293 3.85307 97 75 36 
-0.317991 -0.339308 3.57009 206 181 127 
-0.307606 -0.240416 3.4746 183 164 132 
-0.72874 -0.22556 4.29867 134 134 126 
-0.834536 -0.236029 4.45025 210 186 80 
-0.843432 -0.238972 4.52553 212 180 35 
-0.821412 -0.229579 4.43014 188 169 77 
-0.41731 -0.0328544 4.1445 73 74 69 
0.347751 0.331162 4.65266 122 81 2 
0.176573 0.494699 4.65586 31 3 0 
-0.333675 0.915708 4.67097 181 167 154 
-0.364454 -0.411498 3.76909 26 2 0 
-0.628893 -0.528582 4.4537 185 170 149 
-0.409385 -0.0181887 4.15496 8 9 4 
-0.398052 0.0190795 4.33675 165 143 96 
0.455389 0.320024 4.67764 123 82 0 
0.247823 0.346068 4.64535 120 83 2 
0.660251 -0.674162 3.85871 193 230 90 
0.649013 -0.609885 3.87956 143 111 100 
0.683161 -0.604293 3.87005 105 121 50 
0.671927 -0.524555 3.93313 212 168 17 
0.616483 -0.376351 3.8956 103 103 101 
-0.0837765 -0.392391 3.7347 14 39 17 
-0.367724 -0.427907 3.77887 44 16 15 
-0.618775 -0.53361 4.47168 199 186 167 
-0.379035 -0.275273 3.55456 60 40 16 
-0.251375 -0.24185 3.45525 210 189 146 
-0.360572 -0.252748 3.51486 132 118 73 
-0.447447 0.0191617 4.4946 219 184 38 
-1.07464 0.169295 3.90385 97 27 0 
0.180447 0.532939 4.67745 39 19 0 
0.269765 0.765311 4.68476 109 68 2 
-0.0831182 0.857578 4.75624 195 182 173 
0.66891 -0.630749 3.85889 148 180 55 
0.811302 -0.604052 3.79167 232 230 217 
0.74514 -0.534388 3.83134 35 32 27 
-0.372291 -0.476657 3.82405 101 110 91 
0.616782 -0.366387 3.89894 107 108 103 
-0.354471 -0.336008 3.61993 210 184 127 
-0.365113 -0.325107 3.67957 201 178 124 
-0.388206 -0.323607 3.63889 203 177 120 
-0.428221 -0.317386 3.6536 187 181 133 
-0.676989 -0.19246 4.31991 105 101 98 
-0.406927 -0.0357854 4.36108 193 162 12 
1.35011 0.678908 5.13702 202 193 186 
1.2245 0.705951 5.07118 191 182 175 
1.04123 0.693226 5.07942 185 176 167 
-0.839823 0.909478 4.69407 202 189 181 
-0.947249 0.995839 4.52762 128 118 109 
0.62024 -0.661616 3.89591 79 88 31 
-0.743137 -0.187417 4.33161 52 48 45 
-0.474876 -0.58365 3.93581 72 47 17 
0.600638 -0.703604 3.91645 69 92 4 
0.627406 -0.64547 3.898 187 176 158 
0.687129 -0.527583 3.9484 205 161 30 
-0.280183 -0.240283 3.53068 201 180 137 
0.738702 -0.605725 3.78673 96 94 79 
0.714416 -0.578607 3.84021 163 151 137 
0.450175 -0.350975 3.99071 171 137 11 
1.15008 0.716452 5.05683 131 122 115 
-0.0193645 0.900997 4.65463 187 173 162 
0.628635 -0.663535 3.84772 89 102 32 
0.682058 -0.631028 3.86996 148 180 55 
1.47622 0.854532 4.70902 205 194 190 
-0.436885 -0.247412 3.62356 255 253 202 
-0.71053 -0.274418 4.34655 43 21 0 
-0.450049 -0.290298 3.67655 56 61 20 
-0.161016 -0.446079 3.99022 99 86 78 
0.605627 -0.652222 3.91008 167 163 136 
-0.862231 -0.0992768 4.20427 120 119 117 
0.607665 -0.629207 3.92412 25 16 1 
0.615372 -0.623 3.91764 43 17 0 
0.654865 -0.640573 3.86917 40 49 4 
0.654268 -0.615726 3.88107 149 119 108 
0.722966 -0.596485 3.82506 119 120 106 
0.675498 -0.605855 3.8636 120 130 67 
0.658887 -0.351982 3.89435 127 126 122 
0.740812 -0.587384 3.81487 119 125 91 
0.647969 -0.647589 3.87641 153 149 101 
0.703002 -0.603918 3.84154 61 85 0 
0.751736 -0.592144 3.81281 128 130 116 
0.584093 -0.669003 3.92508 144 142 117 
0.626469 -0.645567 3.89663 195 183 161 
0.660191 -0.621661 3.89095 120 89 84 
-0.57861 0.549118 4.51222 207 237 227 
0.664947 -0.846653 3.96257 139 102 11 
0.656299 -0.654794 3.87432 101 97 60 
0.709574 -0.624245 3.83845 84 112 9 
0.564774 -0.670801 3.94487 131 80 59 
0.724489 -0.597509 3.83022 156 156 132 
0.723652 -0.608234 3.83237 38 41 24 
-0.461661 -0.386185 3.85753 81 59 12 
0.724322 -0.553596 3.88566 51 38 19 
-0.64564 -0.0856486 4.41301 114 90 20 
0.195248 0.548781 4.73366 61 37 3 
0.619468 -0.660011 3.89424 109 113 54 
0.621825 -0.632669 3.90044 51 7 0 
-1.1042 0.163172 3.90071 251 188 57 
-1.07154 0.173459 3.89003 173 121 0 
-0.841137 0.159152 4.24751 49 31 0 
0.714011 -0.562213 3.83683 44 31 23 
0.753759 -0.538547 3.82489 104 101 96 
-0.0399067 -0.592523 3.61534 129 0 18 
0.71554 -0.58411 3.82445 62 40 29 
0.646168 -0.594149 3.9118 79 18 0 
0.644562 -0.596905 3.93462 49 13 1 
0.599437 -0.458145 3.90323 144 95 0 
0.434304 -0.385101 3.96784 30 29 24 
0.537187 -0.318418 3.91513 217 186 70 
0.614298 -0.321338 3.9052 16 15 13 
-1.11627 0.146052 3.8929 103 36 0 
-1.1736 0.177274 3.904 255 233 164 
0.521801 0.352379 4.7169 130 88 2 
0.711774 -0.553625 3.96703 66 23 4 
0.476743 -0.193896 3.98055 222 181 39 
-1.01425 0.225307 3.86374 97 39 2 
0.481407 0.318162 4.7053 144 101 7 
0.178399 0.388694 4.66008 94 52 2 
0.740055 -0.835295 3.89603 230 216 190 
0.532088 -0.311853 3.90547 212 184 74 
-0.375514 0.0986975 4.36757 192 167 113 
0.269428 0.763753 4.69687 125 79 1 
0.769255 -0.541971 3.86832 21 20 18 
0.479635 -0.328168 3.9275 209 175 49 
0.429038 0.0517561 4.30996 94 87 77 
0.180369 0.549824 4.68702 33 18 0 
0.792771 0.885474 4.68969 205 193 181 
0.589262 -0.716471 3.92962 83 54 24 
0.297259 -0.148545 4.20067 160 132 33 
