ply                 
format ascii 1.0    
element vertex 148
property float x    
property float y    
property float z    
property uchar red  
property uchar green
property uchar blue 
end_header          
0.22721 -0.799993 3.74225 93 76 46 
0.530712 -0.739974 3.94619 61 53 42 
-0.527678 -0.712804 3.90297 33 11 0 
0.556977 -0.713918 3.93217 149 97 84 
0.575869 -0.692534 3.91362 161 105 90 
0.592427 -0.688226 3.9002 22 37 0 
0.590464 -0.68193 3.90203 142 146 96 
0.63108 -0.674792 3.87199 83 95 29 
0.617548 -0.676183 3.88465 171 176 136 
0.458937 -0.662539 3.86989 226 188 55 
0.631501 -0.662371 3.87186 157 175 101 
0.624768 -0.660614 3.87657 66 69 40 
0.598438 -0.663458 3.90077 28 35 0 
0.612692 -0.65707 3.88946 192 184 165 
0.640181 -0.650212 3.86089 38 40 0 
0.687605 -0.644819 3.83355 59 74 9 
0.635994 -0.649284 3.86831 183 176 147 
0.629783 -0.647643 3.87902 146 123 105 
0.661118 -0.644356 3.85289 33 41 0 
0.6259 -0.64457 3.88142 29 8 0 
0.661483 -0.634042 3.8452 144 156 92 
0.657076 -0.628063 3.856 146 109 101 
0.667737 -0.624429 3.84835 139 127 105 
0.701618 -0.617302 3.81647 150 178 78 
0.671099 -0.620166 3.8461 166 147 133 
0.485183 -0.618791 3.87118 74 29 0 
0.69961 -0.602813 3.82401 38 49 0 
0.720827 -0.598479 3.80553 139 139 113 
0.737859 -0.588947 3.79038 133 125 89 
0.608436 -0.445032 3.90356 78 40 0 
0.0568553 -0.425193 3.78067 196 176 125 
0.0728653 -0.421849 3.78623 214 191 139 
0.0280987 -0.419103 3.78517 47 37 10 
0.439374 -0.432917 3.95755 114 113 109 
-0.135945 -0.404653 3.7575 75 86 72 
0.0138618 -0.391721 3.76672 118 118 94 
-0.200443 -0.337982 3.55086 192 169 119 
0.531025 -0.336094 3.93956 189 161 36 
0.397752 -0.119595 4.09755 96 59 0 
-1.26833 0.111266 3.9646 255 240 199 
-0.817765 0.150396 4.24336 65 58 50 
-1.12189 0.142004 3.9069 95 38 0 
-1.02399 0.20146 3.87964 105 49 0 
-1.01503 0.225221 3.88133 225 182 87 
-0.537138 0.336735 4.53541 165 229 195 
0.52279 -0.745099 3.95366 71 63 50 
-0.545655 -0.710314 3.89371 30 11 0 
-0.542045 -0.703869 3.89686 32 11 0 
0.591674 -0.673512 3.90274 155 155 121 
0.636184 -0.649094 3.86608 183 176 147 
0.625874 -0.644675 3.88145 29 8 0 
0.657189 -0.627705 3.85543 153 120 111 
0.678867 -0.612318 3.83855 145 151 89 
0.699524 -0.60279 3.82566 41 50 0 
0.613629 -0.573737 4.0024 218 179 74 
0.676917 -0.538588 3.9264 230 185 70 
0.192009 -0.513347 4.28059 105 96 79 
0.608424 -0.445123 3.90349 78 40 0 
0.050622 -0.417273 3.77839 56 38 2 
-0.136147 -0.404609 3.75828 75 86 72 
-0.297268 -0.342212 3.61498 115 85 31 
0.27501 -0.210218 4.23157 103 100 93 
0.262381 -0.153942 4.22326 26 25 20 
0.409783 -0.0808918 4.11699 67 48 0 
-0.976353 -0.0303627 4.08903 131 80 0 
0.167574 -0.0113698 4.44318 46 16 0 
-1.07591 0.00296619 4.0653 56 0 0 
-1.20565 0.0767677 3.93787 90 33 0 
-0.797161 0.127705 4.25393 61 61 51 
-0.798903 0.137291 4.2535 6 2 0 
-0.812998 0.149834 4.25665 9 0 0 
-0.820692 0.152042 4.24641 64 57 47 
-1.02412 0.201743 3.87999 80 21 0 
0.60895 -0.828804 4.03484 81 31 0 
0.622668 -0.693146 3.88676 38 45 3 
0.485498 -0.617969 3.86986 76 28 0 
0.678492 -0.61269 3.84356 138 143 87 
0.752923 -0.593412 3.78088 120 120 108 
0.57333 -0.561437 4.05171 34 7 0 
0.692869 -0.5326 3.9228 217 173 48 
0.192335 -0.513024 4.27903 105 96 79 
-0.0847029 -0.43486 3.72819 124 114 104 
0.0588255 -0.427623 3.7964 201 179 129 
-0.134055 -0.399059 3.7556 0 6 0 
0.0627524 -0.398776 3.79362 37 19 0 
0.0691625 -0.396905 3.76654 35 15 0 
-0.19257 -0.347505 3.57719 85 65 12 
0.692508 -0.378843 3.87783 128 129 124 
-0.214834 -0.336034 3.5539 102 77 23 
-0.196669 -0.333033 3.55053 70 42 0 
0.195354 -0.386895 4.37806 161 137 37 
0.532335 -0.332632 3.93641 201 165 19 
-0.283192 -0.290521 3.55028 250 246 217 
0.551166 -0.324671 3.93736 208 170 11 
-0.0759103 -0.269068 3.55417 72 48 10 
-0.195436 -0.257876 3.4806 64 47 17 
-0.892813 -0.0963748 4.22279 123 120 111 
-0.763932 0.0399052 4.31676 24 8 0 
-0.849683 0.197961 4.28333 20 8 0 
-0.400834 0.481183 4.75746 21 4 0 
-0.558843 0.560345 4.52662 235 255 248 
-0.333605 0.725096 4.88717 200 161 32 
-0.154455 0.808571 4.95802 170 150 143 
0.534916 0.845457 4.62047 195 183 161 
-4.33722 2.00049 7.17616 49 40 35 
-4.36737 2.06871 6.85762 54 49 45 
-0.278452 -0.492248 3.70004 48 127 80 
-0.362069 -0.416049 3.8014 97 99 88 
0.670183 -0.39804 3.83321 126 123 108 
-0.218795 -0.336965 3.56597 119 97 40 
-1.09697 0.636412 5.4981 157 146 140 
0.219166 0.771261 4.68935 123 81 5 
0.278179 0.773602 4.6792 103 58 0 
-0.264268 0.853046 4.87303 106 90 67 
-0.473666 0.963254 4.65235 210 196 183 
-4.38126 2.25404 7.0805 60 53 47 
-4.37455 2.17977 6.74171 32 28 19 
0.630601 -0.847128 3.97096 179 122 7 
0.669931 -0.5399 3.94347 229 190 51 
0.230329 -0.576438 4.34742 3 19 8 
0.589998 -0.447622 3.9039 180 144 4 
0.623743 -0.436233 3.88906 186 150 12 
0.447145 -0.382079 3.9726 10 8 9 
0.247025 -0.132267 4.25057 81 76 70 
0.394701 -0.127814 4.09962 193 154 17 
0.400382 -0.106339 4.11082 15 5 6 
-0.972144 -0.0327673 4.10871 141 94 14 
-0.904373 -0.0140019 4.15301 120 83 5 
-0.870749 0.205323 4.29379 19 8 0 
1.09663 0.532282 5.50484 206 195 189 
1.16411 0.721859 5.03771 129 119 110 
0.437846 0.796985 4.70175 206 186 149 
-0.30566 0.839314 4.89384 184 167 151 
-0.491809 0.97983 4.61225 194 182 168 
-2.02359 1.02451 4.68126 225 215 213 
-0.901874 1.07388 4.43429 153 143 141 
-4.30526 1.72211 7.06432 50 40 38 
-4.33784 1.92689 7.20077 54 51 44 
-0.191412 -0.981324 3.77484 190 40 51 
-0.0549786 -0.290999 3.62207 26 61 21 
-0.823377 -0.0611152 4.25102 73 70 63 
-0.798248 -0.0577136 4.28875 10 5 2 
-1.20263 0.0788344 3.9534 107 45 4 
-0.295093 0.841218 4.92099 189 173 160 
-0.0589972 0.895874 4.7508 121 107 94 
0.318182 0.863343 4.59436 195 183 157 
-0.449157 0.953522 4.60022 215 201 188 
-0.4954 0.987671 4.57811 214 204 194 
