ply                 
format ascii 1.0    
element vertex 1121
property float x    
property float y    
property float z    
property uchar red  
property uchar green
property uchar blue 
end_header          
0.222393 -0.797408 3.74436 93 76 46 
0.524288 -0.736664 3.95044 61 53 42 
-0.531376 -0.710299 3.89726 33 11 0 
0.55057 -0.710659 3.93665 149 97 84 
0.569525 -0.689336 3.91828 161 105 90 
0.586143 -0.685059 3.90505 22 37 0 
0.584162 -0.678764 3.90684 142 146 96 
0.62492 -0.67169 3.87725 83 95 29 
0.611321 -0.673054 3.88975 171 176 136 
0.452939 -0.659566 3.87347 226 188 55 
0.625324 -0.659278 3.8771 157 175 101 
0.618563 -0.657514 3.88172 66 69 40 
0.592109 -0.660307 3.9056 28 35 0 
0.606412 -0.653946 3.89445 192 184 165 
0.634048 -0.647152 3.86621 38 40 0 
0.68161 -0.641804 3.83938 59 74 9 
0.629816 -0.646208 3.87356 183 176 147 
0.62354 -0.644543 3.88417 146 123 105 
0.655013 -0.641307 3.85841 33 41 0 
0.61964 -0.641468 3.88652 29 8 0 
0.655411 -0.631021 3.85071 144 156 92 
0.65093 -0.62502 3.86143 146 109 101 
0.661627 -0.621402 3.8539 139 127 105 
0.695685 -0.614339 3.8224 150 178 78 
0.664995 -0.617144 3.85167 166 147 133 
0.479084 -0.615839 3.87488 74 29 0 
0.693607 -0.59984 3.82987 38 49 0 
0.714929 -0.59554 3.81162 139 139 113 
0.732041 -0.586039 3.79664 133 125 89 
0.601758 -0.442079 3.90788 78 40 0 
0.0516637 -0.423049 3.78002 196 176 125 
0.0676104 -0.419682 3.78571 214 191 139 
0.0229391 -0.416986 3.78423 47 37 10 
0.432573 -0.430025 3.96002 114 113 109 
-0.140621 -0.402776 3.75506 75 86 72 
0.00878467 -0.389696 3.76562 118 118 94 
-0.204193 -0.336662 3.54814 192 169 119 
0.524059 -0.33328 3.94271 189 161 36 
0.389797 -0.117084 4.0982 96 59 0 
-1.26932 0.110467 3.94942 255 240 199 
-0.821874 0.150331 4.2307 65 58 50 
-1.12363 0.141288 3.89327 95 38 0 
-1.02624 0.200679 3.86688 105 49 0 
-1.01735 0.224371 3.86859 225 182 87 
-0.543825 0.336402 4.52292 165 229 195 
0.516338 -0.741766 3.95783 71 63 50 
-0.549262 -0.707853 3.88786 30 11 0 
-0.54568 -0.70141 3.89101 32 11 0 
0.585354 -0.670351 3.90753 155 155 121 
0.630019 -0.646023 3.87134 183 176 147 
0.619615 -0.641573 3.88656 29 8 0 
0.651045 -0.624664 3.86086 153 120 111 
0.672796 -0.609317 3.8442 145 151 89 
0.693511 -0.599813 3.83151 41 50 0 
0.60652 -0.570403 4.00679 218 179 74 
0.670171 -0.535426 3.93156 230 185 70 
0.184136 -0.509809 4.2794 105 96 79 
0.601747 -0.44217 3.90781 78 40 0 
0.0454445 -0.41515 3.77768 56 38 2 
-0.140826 -0.402731 3.75583 75 86 72 
-0.301041 -0.340873 3.61125 115 85 31 
0.266752 -0.207469 4.23061 103 100 93 
0.254128 -0.151368 4.22205 26 25 20 
0.401638 -0.0784256 4.11756 67 48 0 
-0.97909 -0.0300577 4.07628 131 80 0 
0.158318 -0.00911573 4.43934 46 16 0 
-1.07807 0.00297259 4.05166 56 0 0 
-1.20693 0.0761843 3.92349 90 33 0 
-0.80139 0.127775 4.24146 61 61 51 
-0.803128 0.137317 4.24099 6 2 0 
-0.817164 0.149786 4.24395 9 0 0 
-0.824793 0.151966 4.2337 64 57 47 
-1.02637 0.20096 3.86723 80 21 0 
0.602021 -0.825089 4.03981 81 31 0 
0.616449 -0.689994 3.89195 38 45 3 
0.479406 -0.61502 3.87357 76 28 0 
0.672389 -0.609675 3.84919 138 143 87 
0.747171 -0.590514 3.78732 120 120 108 
0.565951 -0.55803 4.05549 34 7 0 
0.686125 -0.529441 3.92811 217 173 48 
0.184469 -0.50949 4.27785 105 96 79 
-0.08934 -0.432946 3.7264 124 114 104 
0.0535578 -0.425441 3.79574 201 179 129 
-0.138734 -0.397194 3.75317 0 6 0 
0.0574543 -0.396639 3.79293 37 19 0 
0.0639779 -0.394818 3.76598 35 15 0 
-0.196433 -0.346116 3.57451 85 65 12 
0.685823 -0.375927 3.88286 128 129 124 
-0.218567 -0.334727 3.55103 102 77 23 
-0.200431 -0.331716 3.54783 70 42 0 
0.186813 -0.383495 4.37597 161 137 37 
0.525381 -0.329827 3.93958 201 165 19 
-0.286808 -0.289356 3.54668 250 246 217 
0.54417 -0.321855 3.94068 208 170 11 
-0.0800004 -0.267687 3.5524 72 48 10 
-0.199001 -0.256766 3.47783 64 47 17 
-0.896244 -0.0955454 4.21024 123 120 111 
-0.768423 0.0404453 4.30444 24 8 0 
-0.853751 0.197654 4.26998 20 8 0 
-0.409215 0.480345 4.74409 21 4 0 
-0.565611 0.558878 4.5134 235 255 248 
-0.343138 0.72296 4.87263 200 161 32 
-0.165479 0.806298 4.94443 170 150 143 
0.522174 0.845178 4.61692 195 183 161 
-4.29019 1.96682 7.07521 49 40 35 
-4.32186 2.03521 6.76399 54 49 45 
-0.282436 -0.490484 3.69668 48 127 80 
-0.366273 -0.414287 3.79675 97 99 88 
0.663829 -0.395218 3.8382 126 123 108 
-0.222567 -0.335639 3.56305 119 97 40 
-1.10196 0.632636 5.46875 157 146 140 
0.207432 0.770423 4.68217 123 81 5 
0.266231 0.772909 4.67271 103 58 0 
-0.274329 0.85036 4.85902 106 90 67 
-0.481772 0.95975 4.63793 210 196 183 
-4.33396 2.21647 6.98068 60 53 47 
-4.32971 2.14505 6.65045 32 28 19 
0.624076 -0.84359 3.97641 179 122 7 
0.663084 -0.536703 3.94852 229 190 51 
0.222079 -0.572545 4.34643 3 19 8 
0.583341 -0.444681 3.90804 180 144 4 
0.617128 -0.433304 3.89354 186 150 12 
0.440173 -0.379225 3.97494 10 8 9 
0.238645 -0.129737 4.24901 81 76 70 
0.386753 -0.125287 4.10025 193 154 17 
0.392328 -0.103838 4.1114 15 5 6 
-0.974941 -0.0324268 4.09589 141 94 14 
-0.90765 -0.0135939 4.14052 120 83 5 
-0.874723 0.204951 4.28014 19 8 0 
1.07607 0.533953 5.49962 206 195 189 
1.14654 0.723132 5.03764 129 119 110 
0.425067 0.796556 4.69668 206 186 149 
-0.315525 0.836577 4.87925 184 167 151 
-0.499695 0.976258 4.59796 194 182 168 
-2.01962 1.01656 4.65115 225 215 213 
-0.906779 1.06901 4.41713 153 143 141 
-4.25966 1.69351 6.96747 50 40 38 
-4.29063 1.89432 7.09941 54 51 44 
-0.195384 -0.978618 3.7735 190 40 51 
-0.0593826 -0.289455 3.62043 26 61 21 
-0.827285 -0.060301 4.23884 73 70 63 
-0.802391 -0.056838 4.27656 10 5 2 
-1.20396 0.0782587 3.93897 107 45 4 
-0.305128 0.838458 4.90622 189 173 160 
-0.069797 0.893649 4.73992 121 107 94 
0.306398 0.862471 4.58873 195 183 157 
-0.457226 0.95022 4.5865 215 201 188 
-0.503162 0.984106 4.56405 214 204 194 
0.573366 -0.713358 3.93041 148 95 87 
0.540829 -0.716288 3.95329 185 177 156 
0.618152 -0.669621 3.89387 177 183 137 
0.560663 -0.665204 3.95688 57 0 0 
0.643491 -0.640595 3.87703 50 29 0 
0.611993 -0.64289 3.90563 63 53 41 
0.673015 -0.624297 3.85637 126 139 67 
0.683096 -0.614014 3.84945 142 158 85 
0.725744 -0.60074 3.81645 150 156 142 
0.682747 -0.604059 3.85411 47 60 0 
0.672418 -0.602819 3.86743 119 111 75 
0.745421 -0.577011 3.80293 14 7 1 
0.724499 -0.568541 3.82823 33 16 9 
0.0349433 -0.418894 3.80131 65 52 17 
-0.243834 -0.243065 3.49721 182 159 127 
0.448661 0.0226879 4.30509 67 64 57 
-0.831626 -0.054131 4.20731 72 71 67 
-0.368006 0.104215 4.34908 166 144 105 
-0.566004 0.574485 4.51875 222 247 226 
0.69751 -0.794805 3.97111 92 34 0 
0.574765 -0.701085 3.92902 189 113 100 
0.602848 -0.670712 3.90709 154 165 96 
0.611307 -0.664824 3.90604 198 194 169 
0.575488 -0.669633 3.93196 131 134 77 
0.599528 -0.661175 3.90876 150 157 105 
0.593402 -0.651876 3.92704 18 20 0 
0.702299 -0.584266 3.848 122 114 77 
0.764294 -0.530031 3.81848 75 67 56 
-0.107916 -0.397725 3.75816 109 112 103 
0.375482 -0.0155739 4.25542 75 62 28 
0.366415 0.0242475 4.27013 3 1 2 
-0.770694 0.102279 4.30601 66 45 0 
-0.824787 0.151128 4.23332 65 58 52 
0.437587 0.844737 4.62712 187 175 159 
0.738117 -0.600648 3.80577 190 188 173 
0.463168 -0.442263 3.96141 105 105 105 
-0.295277 -0.337121 3.57671 100 73 20 
0.38317 -0.0905495 4.10642 21 3 0 
0.314702 -0.0659389 4.23026 106 88 38 
-1.14041 -0.0825194 4.08118 243 222 105 
-0.990914 0.0713292 4.02283 54 9 6 
-0.567996 0.558579 4.53176 179 205 196 
-1.0884 0.620248 5.40399 156 145 141 
-0.136376 0.833259 4.8377 134 120 107 
0.71554 -0.581511 3.82742 172 155 148 
0.453249 0.314519 4.66672 112 73 0 
0.17399 0.49438 4.63291 22 5 0 
-0.554644 0.46694 4.46533 135 117 7 
-0.159556 0.811272 4.88929 111 95 80 
-0.272619 0.843002 4.82809 105 88 68 
-0.28991 0.862758 4.77609 201 183 173 
0.621238 -0.655454 3.90953 194 181 164 
-0.330138 -0.407143 3.79459 86 92 78 
0.448152 -0.196058 4.05616 175 136 19 
1.48104 0.862878 4.698 196 187 182 
-0.0750203 0.865937 4.75313 200 185 178 
-0.397483 0.975568 4.53684 157 147 135 
0.678623 -0.897168 3.9666 233 221 197 
0.60401 -0.892712 4.03256 134 97 16 
0.596117 -0.710809 3.92605 197 209 135 
0.588349 -0.519751 3.99441 139 95 0 
0.503424 -0.244367 3.95773 207 161 13 
-0.724193 -0.157776 4.4021 21 15 1 
1.47181 0.857839 4.6677 200 191 186 
1.3746 0.901068 4.58128 149 140 133 
-0.0802851 0.863156 4.74365 199 184 177 
0.83689 0.963224 4.48763 155 147 136 
0.217278 1.09187 4.24084 207 196 192 
0.245543 1.10688 4.21896 147 136 132 
0.567753 -0.736593 3.93906 201 137 128 
0.594306 -0.721275 3.91874 200 183 157 
0.557175 -0.72497 3.93929 176 123 115 
0.630633 -0.680098 3.88268 209 223 144 
0.658777 -0.675445 3.86802 184 217 104 
0.664463 -0.659848 3.85823 74 75 18 
0.655097 -0.660958 3.86367 176 179 124 
0.687862 -0.654267 3.84354 207 230 140 
0.69815 -0.636368 3.83145 171 195 121 
0.74719 -0.62487 3.80585 170 171 139 
0.706854 -0.624731 3.82204 32 59 0 
0.713017 -0.611955 3.81816 150 165 100 
0.455253 -0.466689 3.96371 25 26 20 
0.581396 -0.711711 3.92079 67 18 3 
0.72009 -0.621478 3.81513 29 39 4 
0.748206 -0.614241 3.80281 40 39 21 
0.46108 -0.610101 3.88874 82 45 0 
0.497059 -0.234969 3.9687 197 155 17 
0.394398 -0.0720938 4.11008 192 157 55 
-1.0277 0.202707 3.86937 93 35 0 
-0.859199 -0.0949113 4.20739 57 53 54 
-0.2864 0.882009 4.75963 143 129 116 
-1.20134 0.0761591 3.92726 110 43 16 
0.462198 0.934009 4.90376 72 63 58 
0.711643 -0.855939 3.97972 255 237 104 
0.231024 -0.77774 3.75051 106 88 50 
-0.619422 -0.832314 3.89428 54 39 0 
-0.635585 -0.826255 3.89891 95 79 45 
-0.636118 -0.813982 3.90792 104 86 50 
0.561367 -0.734622 3.94097 186 118 107 
0.568975 -0.732715 3.93257 92 15 9 
0.555715 -0.728648 3.93457 114 48 34 
0.542343 -0.726402 3.94493 128 119 110 
0.578694 -0.722077 3.92981 105 22 16 
0.559201 -0.721167 3.92482 86 27 21 
0.551137 -0.717051 3.93557 162 95 87 
0.569782 -0.712176 3.92245 150 96 84 
0.59479 -0.707402 3.90499 53 68 0 
0.618034 -0.700319 3.90017 202 213 147 
0.693029 -0.682611 3.86439 126 145 20 
0.692638 -0.672576 3.84927 112 130 18 
0.697985 -0.674614 3.86002 108 127 12 
0.604856 -0.683667 3.89391 158 177 95 
0.631072 -0.680727 3.88362 185 203 121 
0.62823 -0.672069 3.85922 167 192 91 
0.691022 -0.664104 3.83903 74 101 6 
0.705448 -0.662836 3.83935 117 138 43 
0.643829 -0.671592 3.8673 149 174 83 
0.66635 -0.668302 3.86492 164 176 104 
0.661777 -0.666453 3.85557 173 187 112 
0.569375 -0.687744 3.92991 145 94 77 
0.608593 -0.677512 3.90212 96 110 33 
0.682577 -0.659383 3.8429 67 91 0 
0.582393 -0.679652 3.91162 119 126 72 
0.613679 -0.671657 3.88292 81 88 44 
0.572574 -0.680804 3.92146 115 108 82 
0.685682 -0.653095 3.83048 93 110 42 
0.705221 -0.65362 3.83201 76 104 19 
0.654276 -0.660915 3.86198 151 154 101 
0.14408 -0.678774 3.7849 37 21 0 
0.665461 -0.650976 3.8287 88 77 11 
0.632304 -0.658746 3.86863 77 108 4 
0.711734 -0.645726 3.83347 149 174 90 
0.587433 -0.668982 3.90384 54 61 7 
0.605452 -0.663677 3.89291 201 197 168 
0.617397 -0.657988 3.86843 160 178 96 
0.732627 -0.641963 3.82135 218 226 187 
0.562877 -0.673207 3.92737 125 80 59 
0.691937 -0.6435 3.82318 218 233 176 
0.615043 -0.657537 3.88354 75 73 52 
0.754131 -0.630418 3.80625 193 193 165 
0.744022 -0.629224 3.80551 141 145 108 
0.591171 -0.661579 3.91234 44 51 0 
0.715381 -0.632023 3.81728 172 198 99 
0.726924 -0.631763 3.81299 161 175 114 
0.602106 -0.654037 3.89554 159 152 123 
0.682759 -0.636844 3.83679 101 132 28 
0.625133 -0.646139 3.87389 167 161 137 
0.65722 -0.642897 3.86935 58 63 7 
0.559196 -0.66475 3.95356 66 8 0 
0.708469 -0.625718 3.82527 39 72 0 
0.74614 -0.618729 3.80575 223 224 190 
0.764701 -0.604564 3.79086 60 58 43 
0.645836 -0.625047 3.85976 129 100 92 
0.712466 -0.612544 3.81715 142 159 91 
0.640707 -0.625006 3.8696 133 68 64 
-0.53634 -0.71644 3.911 41 10 0 
0.603709 -0.636552 3.91959 102 96 60 
0.674843 -0.620615 3.87469 139 126 110 
0.60124 -0.635683 3.93377 108 106 45 
0.698014 -0.604447 3.82197 78 93 12 
0.719426 -0.598729 3.80407 134 140 114 
-0.550554 -0.706722 3.89951 37 11 0 
0.670223 -0.607905 3.86232 28 19 0 
0.683601 -0.592369 3.84724 108 97 65 
0.703466 -0.586971 3.82885 56 62 14 
0.72119 -0.56785 3.82169 36 22 21 
0.72893 -0.546629 3.83108 26 8 0 
-0.177091 -0.55405 3.70006 62 120 80 
0.67534 -0.474466 3.92352 176 128 0 
0.492658 -0.466056 3.96075 60 56 31 
-0.444647 -0.589749 4.43589 237 231 219 
0.648858 -0.395556 3.88797 45 45 35 
-0.356784 -0.441415 3.77789 113 93 86 
-0.117534 -0.404458 3.74622 27 35 24 
0.636976 -0.351384 3.87265 120 119 117 
-0.490578 -0.439028 3.88086 199 172 127 
-0.478976 -0.434335 3.86954 69 47 8 
-0.43978 -0.429177 3.88953 64 68 51 
-0.208141 -0.329053 3.55542 108 85 35 
-0.655758 -0.43584 4.50601 191 140 0 
-0.423497 -0.314986 3.67609 174 182 141 
-0.195846 -0.252668 3.49302 124 102 65 
-0.448478 -0.292131 3.69516 179 187 136 
-0.249218 -0.241041 3.47748 180 164 130 
-0.303265 -0.240573 3.49222 185 165 130 
-0.858664 -0.288954 4.59046 25 21 18 
0.330357 -0.0583313 4.25186 38 15 0 
-0.3397 -0.091097 3.74205 149 133 110 
-0.825233 -0.129438 4.23957 100 68 11 
-0.362656 0.105605 4.37769 165 146 106 
-1.25583 0.0334707 3.96674 155 111 4 
-1.26265 0.109752 3.91473 253 232 165 
-1.26312 0.110659 3.93331 255 247 205 
-1.1042 0.150478 3.92499 239 180 78 
-1.08204 0.168282 3.92727 185 131 0 
-1.06799 0.258862 3.89582 109 78 14 
-0.511244 0.563145 4.50411 176 193 175 
0.641542 -0.859693 3.9608 231 207 179 
-0.609805 -0.823358 3.89435 142 115 68 
0.614867 -0.691127 3.88948 71 77 29 
0.569879 -0.699438 3.91826 163 101 86 
0.592619 -0.698266 3.93334 182 186 125 
0.649009 -0.654722 3.85366 74 77 30 
0.614308 -0.665096 3.90608 201 197 168 
0.573239 -0.669024 3.92695 124 123 69 
0.452883 -0.660198 3.88994 182 149 44 
0.717861 -0.615212 3.8081 161 172 132 
0.579788 -0.648234 3.9386 47 46 0 
0.620884 -0.635384 3.88724 57 5 0 
0.732372 -0.593102 3.80267 34 37 8 
0.666555 -0.607302 3.87366 119 80 63 
0.704483 -0.579531 3.84095 62 42 15 
0.74523 -0.539993 3.79447 124 116 105 
0.721865 -0.544844 3.81716 18 3 0 
0.600351 -0.517117 3.98476 242 200 64 
-0.285666 -0.490768 3.70738 29 128 71 
-0.0928483 -0.432429 3.73676 126 109 102 
0.63348 -0.38554 3.88463 21 20 18 
0.033609 -0.416903 3.79201 58 45 11 
-0.454348 -0.434153 3.87242 42 32 0 
-0.377327 -0.41795 3.82817 43 53 44 
0.614751 -0.333787 3.90545 77 76 72 
0.517793 -0.331502 3.93432 191 162 34 
-0.451181 -0.405129 3.8383 157 151 125 
0.629484 -0.308437 3.91754 77 79 66 
-0.0482729 -0.281785 3.62969 56 67 25 
-0.347804 -0.266308 3.494 180 164 130 
-0.34475 -0.256218 3.50224 111 95 69 
-0.261368 -0.240142 3.47006 171 155 121 
0.423751 -0.217145 4.10912 107 79 31 
0.407986 -0.109758 4.10499 181 147 39 
0.30234 -0.118856 4.24153 27 12 0 
-0.898116 -0.113599 4.24825 29 25 22 
-0.895076 -0.103899 4.23013 31 28 21 
-0.856537 -0.0622629 4.21889 91 86 80 
-0.832995 -0.0598514 4.23212 4 1 0 
-0.943677 -0.042683 4.16329 138 99 8 
-0.409822 0.0535376 4.42548 184 157 104 
-1.08942 0.174741 3.91428 87 23 0 
0.648352 -0.892205 3.99441 215 200 177 
-0.109897 -0.779034 3.73467 175 59 72 
0.783357 -0.743747 3.89126 111 64 0 
0.567106 -0.741773 3.95137 126 87 82 
0.604022 -0.719842 3.91437 149 146 115 
0.584959 -0.716978 3.90963 51 29 6 
0.590229 -0.703138 3.88857 54 74 3 
0.617976 -0.687068 3.90347 51 64 10 
0.723376 -0.666054 3.84931 76 87 8 
0.415391 -0.690584 3.90493 224 197 94 
0.664022 -0.655359 3.84956 69 49 0 
0.594184 -0.666436 3.92537 22 26 0 
0.643775 -0.639787 3.82688 25 30 0 
0.734271 -0.625605 3.82638 19 28 1 
0.59219 -0.652126 3.92634 24 27 0 
0.732614 -0.61627 3.79488 219 223 196 
0.601573 -0.641358 3.90511 137 130 114 
0.668159 -0.616239 3.83972 47 54 3 
0.749067 -0.597299 3.79087 31 30 25 
-0.0183283 -0.616715 3.61658 122 40 28 
0.620308 -0.62594 3.91357 29 7 0 
0.739406 -0.572965 3.78793 24 14 12 
-0.605935 -0.681948 3.92052 40 24 0 
0.716415 -0.553095 3.86104 60 29 0 
0.716662 -0.565043 3.95237 112 70 28 
-0.536375 -0.615897 3.72926 105 15 7 
0.608614 -0.569804 4.01663 227 190 76 
-0.220318 -0.560869 3.71388 40 127 74 
0.568592 -0.55885 4.07129 30 8 0 
-0.280175 -0.563463 3.7205 44 116 70 
0.589641 -0.510881 3.97986 142 93 0 
0.70233 -0.468842 3.93713 121 93 0 
0.419665 -0.490407 3.97773 96 76 23 
0.419385 -0.470826 3.98959 132 131 126 
-0.302796 -0.48128 3.69413 116 57 49 
0.457803 -0.440616 3.94881 83 84 79 
-0.457517 -0.591273 4.43666 220 213 203 
-0.358445 -0.449077 3.77012 24 15 0 
0.0386446 -0.412784 3.7771 61 43 7 
0.416428 -0.42026 4.17348 18 17 12 
-0.442404 -0.443267 3.88485 172 168 131 
-0.113803 -0.39113 3.75974 0 17 0 
-0.386061 -0.406034 3.81325 0 21 4 
-0.456056 -0.41286 3.85742 7 1 0 
-0.0330019 -0.251274 3.59351 203 181 132 
-0.438055 -0.279409 3.61315 65 36 4 
-0.317993 -0.240203 3.48112 201 179 140 
-0.752877 -0.322321 4.43345 45 27 0 
-0.846655 -0.30184 4.5808 92 89 84 
0.389302 -0.0895194 4.12107 48 14 0 
0.436648 -0.0662008 4.12586 99 58 0 
0.317108 -0.0660165 4.23712 109 91 53 
-0.143579 -0.0866557 3.71228 60 42 18 
0.498285 -0.00238076 4.33197 138 116 69 
0.451822 0.022959 4.32925 34 30 19 
0.389244 0.0252596 4.28156 13 12 8 
0.361729 0.0537113 4.36162 147 137 125 
0.396001 0.0841632 4.33574 79 70 55 
-0.435039 0.0115239 4.53852 200 160 46 
-0.927007 0.0041064 4.10423 133 91 7 
0.416455 0.318689 4.70756 119 83 0 
0.491888 0.332259 4.72336 121 87 0 
-1.1767 0.107347 3.94001 106 41 0 
-1.21361 0.16955 3.94012 246 234 218 
-0.702728 0.345952 4.92863 50 6 0 
-0.921509 0.698617 5.32302 168 155 149 
-0.11372 0.852057 4.94152 137 123 114 
-0.678263 0.81495 4.85868 127 114 97 
0.569933 -0.894014 4.02533 224 208 183 
0.579565 -0.881978 4.04316 132 94 9 
0.691461 -0.856829 3.96911 141 102 1 
0.549503 -0.715702 3.92144 82 31 30 
0.653018 -0.642842 3.8459 20 26 0 
0.576396 -0.636654 3.9266 38 28 3 
-0.178615 -0.565616 3.70189 30 68 47 
0.657992 -0.490178 3.94478 97 51 1 
-0.463508 -0.589974 4.44801 239 229 220 
-0.0781436 -0.442919 3.75227 60 29 27 
-0.36691 -0.442211 3.77636 31 13 3 
0.66086 -0.353157 3.89915 135 136 131 
-0.45205 -0.336773 3.80435 178 175 124 
0.413543 -0.266682 4.00261 203 167 21 
-0.807797 -0.350206 4.57906 37 33 30 
-0.728326 -0.229455 4.33195 133 134 126 
0.43745 -0.0740311 4.10462 147 111 33 
0.46166 0.0231955 4.3014 50 43 35 
0.458943 0.0311418 4.32663 140 132 119 
-0.859721 -0.0940362 4.22587 38 34 33 
-0.920533 -0.016774 4.12062 170 124 2 
-0.437176 0.0799475 4.50602 229 197 52 
-1.25744 0.040377 3.94631 114 53 0 
0.47098 0.317636 4.7168 114 76 1 
0.532644 0.390128 4.73001 101 59 1 
-0.704025 0.345718 4.91603 50 6 0 
-1.08098 0.610622 5.55485 161 150 144 
-1.0876 0.632332 5.48731 148 137 135 
0.32795 0.879169 4.66111 170 156 143 
-0.278903 0.873362 4.83473 195 177 163 
0.666921 1.03456 4.35942 138 127 123 
-0.493198 0.978934 4.61107 174 161 152 
-0.824593 1.08116 4.39363 140 129 127 
0.682503 -0.854645 3.95664 136 103 22 
0.654233 -0.848266 3.97261 137 93 22 
0.55384 -0.796014 4.03587 68 58 56 
0.712956 -0.617429 3.78821 35 39 24 
0.476918 -0.612665 3.88513 102 62 0 
0.598734 -0.56396 3.99656 239 200 81 
0.600881 -0.544465 4.00512 232 198 65 
0.632939 -0.491209 3.93396 246 209 94 
-0.461233 -0.591277 4.46228 240 232 221 
0.629946 -0.380899 3.89943 106 106 106 
0.465993 -0.403233 4.00418 73 73 71 
-0.323868 -0.349559 3.61701 193 170 116 
-0.450615 -0.350605 3.8148 18 32 7 
0.471197 -0.243716 3.97019 206 165 11 
-0.352602 -0.24633 3.52099 192 170 123 
-0.330755 -0.238963 3.45659 169 150 107 
0.432154 -0.22696 4.13255 47 15 2 
0.446203 -0.194508 4.05162 172 136 14 
0.458192 -0.0728694 4.13717 146 111 30 
-0.745594 -0.131123 4.42485 189 155 19 
-0.686789 -0.0512788 4.41854 78 37 0 
-0.437617 0.0812951 4.49355 216 185 45 
-1.27055 0.0461916 3.96746 242 206 48 
-1.11465 0.233347 3.91993 130 88 4 
-1.10228 0.25491 3.90494 160 144 131 
0.451208 0.791349 4.7015 118 89 9 
0.438557 0.857281 4.65739 186 173 154 
-0.164298 0.810718 4.98298 161 147 134 
-0.837727 0.923195 4.72441 203 190 182 
-0.389127 0.985427 4.58453 151 138 130 
0.794069 -0.858413 3.90522 223 212 192 
0.544036 -0.841756 4.09119 171 161 149 
0.685108 -0.680742 3.92632 121 143 60 
0.68691 -0.617008 3.80256 152 186 65 
0.598561 -0.62733 3.87706 29 18 12 
0.725865 -0.608487 3.80794 25 29 15 
0.752622 -0.600277 3.78104 41 39 26 
0.846447 -0.596604 3.80041 53 52 50 
0.490704 -0.607085 4.10092 251 233 171 
0.73745 -0.543866 3.88794 161 136 70 
0.743678 -0.5359 3.81316 11 11 3 
0.695999 -0.552372 3.94419 52 13 0 
0.555625 -0.528859 3.99552 57 26 5 
0.513523 -0.51833 4.01921 136 97 2 
0.521961 -0.520824 4.03886 133 95 0 
0.636778 -0.400293 3.89448 12 12 14 
-0.0952445 -0.422456 3.74288 17 0 0 
0.397442 -0.397346 4.04782 12 8 0 
0.413946 -0.372163 3.93231 5 6 0 
-0.689173 -0.230494 4.40835 80 79 74 
-0.980406 -0.0323866 4.08867 139 94 1 
-0.479696 0.0322851 4.84053 205 159 12 
-1.27596 0.107983 3.8627 244 232 218 
1.11715 0.541496 5.57199 197 188 183 
-1.28799 0.132105 3.9501 213 200 183 
-1.10317 0.194833 3.91692 241 192 12 
1.2525 0.720735 5.09876 200 191 184 
1.09078 0.713803 5.14084 183 176 170 
1.14941 0.742181 5.08627 178 169 162 
-0.548115 0.465621 4.49647 122 103 8 
0.513594 0.670838 4.81568 121 83 0 
0.397554 0.782664 4.66251 180 156 118 
0.349849 0.811897 4.71294 96 62 0 
0.540693 0.83827 4.66117 177 164 145 
0.805886 0.894856 4.6963 204 193 189 
0.514288 0.888955 4.7772 61 52 45 
-0.170993 0.805475 4.95062 160 147 131 
0.764796 0.94868 4.54297 202 193 188 
-0.0633242 0.898633 4.76293 123 111 95 
-0.851238 0.955689 4.64864 203 193 184 
-0.844481 1.05935 4.347 213 202 196 
0.531335 -0.741338 3.95858 231 221 211 
0.56658 -0.717511 3.93368 133 95 92 
0.571869 -0.709775 3.92987 78 11 2 
0.570761 -0.690836 3.92718 150 98 85 
0.585587 -0.680601 3.91689 119 126 72 
0.611975 -0.674356 3.8944 171 177 129 
0.575326 -0.681836 3.92602 115 108 82 
0.593093 -0.665824 3.91258 115 122 71 
0.620041 -0.659004 3.89164 75 73 52 
0.600945 -0.661945 3.90676 142 147 93 
0.668072 -0.647263 3.85985 29 25 0 
0.687748 -0.638107 3.84452 101 132 28 
0.643268 -0.640425 3.87565 43 27 0 
0.617838 -0.639589 3.90148 84 69 62 
0.625135 -0.63637 3.89508 57 5 0 
0.660383 -0.62791 3.86708 34 23 1 
0.667238 -0.62411 3.85795 56 62 14 
0.644913 -0.626126 3.8763 133 68 64 
0.722341 -0.597978 3.81457 150 154 131 
0.671535 -0.607923 3.8644 28 19 0 
0.709391 -0.595897 3.82986 56 66 13 
0.708591 -0.516076 3.90919 226 189 83 
-0.224568 -0.33538 3.57038 100 70 18 
0.390938 -0.10972 4.10402 57 32 0 
-0.131002 0.0253866 3.7755 35 18 0 
-1.21243 0.164793 3.93471 252 241 219 
0.574293 -0.700606 3.92563 163 101 86 
0.584748 -0.696344 3.92028 182 186 125 
0.59906 -0.679121 3.90659 70 89 0 
0.610357 -0.663792 3.89965 201 197 168 
0.575244 -0.669808 3.93024 124 123 69 
0.610801 -0.656857 3.90727 177 167 140 
0.702291 -0.604265 3.82984 84 101 21 
0.658751 -0.643886 3.86378 26 34 0 
0.73775 -0.600245 3.8038 173 176 159 
0.68772 -0.530286 3.9377 217 176 60 
-0.241539 -0.244166 3.51187 169 153 119 
0.407934 -0.109851 4.10331 188 152 29 
-0.861185 -0.0949486 4.22209 38 34 33 
0.243439 -0.580464 6.74047 213 186 37 
0.634867 -0.672166 3.88242 177 199 90 
0.663714 -0.536781 3.95303 226 189 75 
0.447989 -0.195104 4.05495 172 136 14 
-0.248955 1.0406 4.40927 147 137 135 
0.760394 -0.805764 3.89308 143 110 33 
0.529279 -0.740998 3.95508 231 221 211 
0.552846 -0.717225 3.93851 162 95 87 
0.586827 -0.706234 3.91632 134 122 82 
0.617819 -0.693425 3.89471 70 77 25 
0.639308 -0.675184 3.87691 167 192 91 
0.691877 -0.654569 3.84011 93 110 42 
0.617945 -0.658111 3.88826 75 73 52 
0.648754 -0.649239 3.86537 144 140 95 
0.597047 -0.678397 3.90327 70 89 0 
0.685627 -0.529678 3.93442 217 176 60 
0.662927 -0.536037 3.95187 226 189 75 
1.22772 0.713054 5.04312 195 186 177 
-0.158237 -0.91977 3.71778 196 120 120 
0.516234 -0.751745 3.98225 86 76 66 
0.565353 -0.740005 3.95423 137 102 100 
0.580369 -0.722789 3.93255 99 21 17 
0.584895 -0.710246 3.93276 164 100 91 
0.621729 -0.704916 3.91907 73 89 1 
0.62231 -0.701576 3.90713 190 202 128 
0.700638 -0.68472 3.87626 120 148 25 
0.6375 -0.682641 3.89394 184 201 130 
0.656018 -0.67894 3.88083 58 86 0 
0.688359 -0.67056 3.87621 67 91 0 
0.633444 -0.675419 3.89935 92 104 40 
0.665608 -0.667897 3.87354 81 86 28 
0.123514 -0.685068 3.79579 137 111 88 
0.613812 -0.674772 3.91498 143 152 85 
0.639733 -0.664004 3.90445 146 159 87 
0.724255 -0.64244 3.84676 56 85 0 
0.764449 -0.632528 3.82172 215 215 189 
0.746433 -0.628767 3.82908 210 218 177 
0.676703 -0.626822 3.87278 50 59 16 
0.683862 -0.613798 3.87428 111 109 68 
-0.554188 -0.704121 3.88552 33 12 0 
0.718273 -0.594169 3.83645 156 157 125 
0.698524 -0.59903 3.85891 38 47 0 
-0.431809 -0.75577 4.7549 137 123 94 
-0.4729 -0.602283 4.47881 6 29 13 
-0.138412 -0.404279 3.745 92 102 94 
-0.385387 -0.430767 3.81054 31 42 26 
-0.448929 -0.439242 3.8582 167 178 138 
-0.126662 -0.388546 3.74542 64 102 77 
-0.492814 -0.435012 3.86449 52 31 0 
-0.321113 -0.331811 3.56635 130 105 51 
-0.374059 -0.275209 3.50914 74 53 10 
-0.34885 -0.248193 3.49547 152 131 100 
-0.819271 -0.347154 4.54449 18 17 13 
-0.853053 -0.299256 4.54548 90 89 87 
-0.441505 -0.0704668 4.15784 100 101 96 
-1.19602 0.089941 3.92804 255 201 74 
-0.641565 -0.810589 3.88776 115 90 59 
0.57958 -0.74295 3.94965 135 108 97 
0.581306 -0.738626 3.94054 216 179 171 
0.611077 -0.692462 3.91488 26 39 0 
0.59445 -0.687934 3.92668 41 52 0 
0.607999 -0.663504 3.9213 146 150 91 
0.686689 -0.646303 3.86639 170 185 102 
0.766971 -0.621319 3.80611 206 204 189 
0.717095 -0.579766 3.84662 155 142 126 
0.726939 -0.576852 3.85012 95 83 71 
0.77531 -0.533086 3.83548 92 82 73 
0.721911 -0.552977 3.97495 107 69 32 
0.457489 -0.472906 3.97653 113 110 101 
-0.35794 -0.438229 3.76163 103 89 80 
-0.361034 -0.336832 3.62888 187 190 133 
-0.429453 -0.406737 4.52431 173 143 45 
-0.1838 -0.266543 3.47254 78 54 10 
-0.521123 -0.338952 3.81443 37 10 0 
0.501201 -0.233307 3.97958 201 164 24 
-0.357797 -0.258119 3.52527 96 83 64 
-0.363717 -0.239697 3.48902 202 180 131 
0.387302 -0.0889334 4.11733 55 20 0 
-0.332466 -0.0787509 3.73389 156 138 124 
-0.893755 -0.135722 4.25767 224 190 80 
-0.899344 -0.103745 4.20644 12 8 7 
-0.865446 -0.09401 4.20139 26 25 21 
-0.403578 -0.00246778 4.15977 84 83 81 
-0.396547 0.0244976 4.20331 28 15 0 
-0.903076 -0.00956918 4.13045 115 77 4 
-0.373415 0.104386 4.34882 163 141 100 
0.544575 -0.738012 3.96079 243 233 221 
0.610582 -0.722285 3.92504 211 203 180 
0.604178 -0.709656 3.90024 192 204 140 
0.589708 -0.702513 3.88786 61 79 0 
0.131257 -0.688611 3.79086 49 28 7 
0.671693 -0.666437 3.86527 184 199 118 
0.730311 -0.624466 3.82042 33 39 1 
0.609725 -0.643492 3.91866 138 131 113 
0.715344 -0.616067 3.84519 69 97 0 
0.610423 -0.633136 3.92182 25 13 0 
0.746611 -0.601912 3.81718 255 255 238 
0.700825 -0.531709 3.95884 211 174 33 
-0.445478 -0.759076 4.74769 30 20 0 
0.572381 -0.559244 4.07803 30 7 0 
0.573907 -0.547172 4.08711 30 7 0 
0.461386 -0.482552 3.99262 60 44 0 
-0.180914 -0.488918 3.68296 6 6 0 
0.435835 -0.424278 3.97195 57 56 54 
-0.0651695 -0.391353 3.74647 0 32 11 
-0.377693 -0.421295 3.79218 35 35 27 
-0.359885 -0.413158 3.77509 17 0 0 
-0.342527 -0.41186 3.77827 22 3 0 
-0.372774 -0.409971 3.78839 87 89 78 
-0.331296 -0.403581 3.77192 81 88 81 
-0.342319 -0.396971 3.7781 0 6 0 
-0.451736 -0.290767 3.67113 36 48 0 
-0.240522 -0.241339 3.47421 196 173 139 
-0.399668 -0.2703 3.61781 255 251 213 
-0.462597 -0.260799 3.61407 60 40 5 
-0.125939 -0.200566 3.52605 56 35 4 
0.398454 -0.076921 4.12044 185 150 56 
0.40569 0.0206156 4.29236 78 78 70 
-0.862391 -0.0626421 4.1883 81 79 67 
-0.467043 0.0401582 4.49438 208 171 31 
-0.932538 0.0042346 4.07394 120 78 4 
0.378898 0.341525 4.6948 126 85 5 
0.321748 0.346608 4.67843 116 78 0 
-1.12673 0.140122 3.88363 84 25 0 
-1.11511 0.14943 3.89594 90 28 0 
-0.513395 0.56215 4.49578 149 176 161 
-0.149045 0.820591 4.94788 105 89 73 
-0.145009 0.827657 4.87228 178 162 149 
-0.131489 0.840458 4.88584 118 106 94 
-0.284786 0.870184 4.8215 195 181 168 
-0.859299 0.884558 4.81564 134 121 113 
0.580409 -0.92767 4.07781 221 208 189 
0.639247 -0.902596 4.07702 159 122 18 
0.684985 -0.678748 3.91013 116 133 63 
0.584491 -0.666475 3.91236 32 36 1 
0.640197 -0.650809 3.90765 197 185 163 
-0.186561 -0.55078 3.68511 47 123 77 
0.620108 -0.341185 3.91324 77 77 69 
-0.640514 -0.529743 4.49055 178 164 137 
-0.473622 -0.412728 3.8585 82 64 28 
-0.323816 -0.331828 3.54797 102 74 26 
-0.481356 -0.348618 3.80711 93 72 27 
-0.379741 -0.27736 3.52179 222 196 145 
-0.298814 -0.239937 3.48324 181 161 126 
-0.685517 -0.0746435 4.37491 176 143 36 
0.362298 0.338267 4.67739 115 72 3 
-1.24642 0.0564425 3.94828 255 255 141 
0.215112 0.774124 4.70006 107 68 1 
-0.765752 0.676932 4.96397 145 105 9 
-0.0756477 0.86842 4.75782 180 166 155 
0.607517 -0.915597 4.03172 219 203 188 
0.693197 -0.858676 3.97378 157 126 44 
0.659093 -0.849019 3.98125 147 103 16 
0.784624 -0.806149 3.87722 140 108 21 
-0.618084 -0.81293 3.85832 219 192 145 
0.623594 -0.68459 3.89076 219 227 178 
-0.292099 -0.556533 3.68406 38 129 72 
0.424218 -0.493776 4.0331 11 7 4 
0.635028 -0.378374 3.90982 102 103 98 
0.451279 -0.401504 3.9776 79 80 75 
-0.0757221 -0.40152 3.76051 117 119 106 
-0.237271 -0.242337 3.48508 173 150 118 
0.379076 0.0219557 4.28367 23 22 20 
-0.684784 -0.0709198 4.3919 178 142 19 
1.19371 0.736422 5.11973 128 119 114 
0.27008 0.772433 4.6872 106 64 4 
-0.763833 0.67829 4.97417 144 106 9 
-0.00926766 0.914074 4.68485 178 164 155 
0.245967 1.11164 4.23089 158 149 142 
-0.852427 0.953458 4.64164 202 189 180 
0.495477 -0.783453 3.96535 33 33 23 
0.615853 -0.662175 3.81634 77 85 25 
0.70048 -0.638298 3.88702 147 177 53 
0.640133 -0.637898 3.94479 33 26 18 
0.791737 -0.555112 3.97137 169 160 145 
0.601976 -0.558508 3.99822 227 187 38 
0.725136 -0.53475 3.93708 118 67 2 
0.564727 -0.558711 4.09782 32 23 8 
-0.278497 -0.556091 3.70756 30 128 69 
0.628722 -0.512991 4.00885 244 202 54 
-0.312655 -0.401533 3.75282 2 7 1 
0.625839 -0.316638 3.93405 12 10 11 
-0.451259 -0.417376 3.84368 8 26 2 
0.481349 -0.251129 4.00172 207 167 10 
-0.366508 -0.264882 3.55752 72 58 31 
-0.73257 -0.27989 4.34823 23 24 18 
-0.262011 -0.140091 3.62439 50 12 9 
-0.530123 -0.23018 4.40112 8 7 3 
-0.659301 -0.220384 4.33092 23 20 13 
-0.594138 -0.201395 4.3575 198 163 9 
-0.687945 -0.192217 4.30339 101 100 96 
-0.971082 -0.118386 4.37412 73 56 26 
-0.575387 -0.0533922 4.45414 17 12 8 
-0.9811 -0.0643043 4.08983 236 200 28 
1.27204 0.725801 5.13141 201 192 185 
1.11026 0.719557 5.17581 191 181 172 
1.16513 0.746387 5.11345 186 177 168 
1.49608 0.867392 4.72085 209 199 197 
-0.594363 0.466539 4.51823 208 196 62 
-0.0618915 0.89996 4.76716 115 103 91 
-0.51683 0.973624 4.53465 211 199 187 
-0.822837 1.08643 4.34608 134 123 121 
0.599754 -0.681073 3.91222 79 93 0 
0.698983 -0.631191 3.84241 158 182 94 
0.645335 -0.640785 3.88092 58 32 0 
0.661487 -0.628801 3.86946 32 30 5 
0.756439 -0.611067 3.80759 27 29 16 
0.697398 -0.60213 3.84328 47 68 0 
0.674293 -0.602874 3.8699 109 105 68 
0.424346 -0.217542 4.11057 102 71 27 
0.603296 -0.653979 3.92364 127 133 69 
0.593962 -0.652031 3.92825 24 27 0 
0.621261 -0.641678 3.91019 85 75 63 
0.746724 -0.61302 3.80031 35 37 24 
0.70204 -0.583877 3.84745 119 120 63 
0.393248 -0.0725505 4.13081 128 90 0 
0.621834 -0.627316 3.9186 33 9 0 
-0.0855181 -0.408582 3.75693 37 10 3 
-0.897304 -0.0940428 4.21118 114 111 104 
-0.857855 -0.0621401 4.20134 81 79 67 
-0.433231 0.0177534 4.51294 76 43 0 
0.490545 0.331399 4.71938 134 95 2 
0.312583 0.872878 4.61563 173 161 149 
0.649723 -0.891056 3.99254 224 209 188 
0.691202 -0.79279 3.99028 91 32 0 
0.498946 -0.339876 3.94585 193 168 42 
-0.284222 -0.55803 3.69745 38 129 72 
0.459441 -0.402055 3.98839 79 80 75 
-1.1689 0.0885936 3.92976 246 202 9 
-0.00656342 0.91405 4.68956 178 164 155 
-0.391742 0.982498 4.5698 157 144 136 
-0.640759 -0.219884 4.37897 23 20 13 
0.363759 0.334292 4.69925 117 77 8 
1.26156 0.722562 5.11717 201 192 185 
1.09973 0.716096 5.16065 191 181 172 
1.51469 0.872338 4.74209 209 199 197 
-0.294849 0.896316 4.73575 126 112 99 
0.765478 -0.531034 3.82457 92 82 73 
-0.862864 -0.0944959 4.20868 26 25 21 
0.636831 -0.647162 3.88451 73 67 31 
-0.137197 0.837959 4.87333 118 106 94 
-0.496727 0.969401 4.58696 180 167 158 
-1.09546 0.627348 5.43655 147 140 132 
1.38454 0.906258 4.61509 160 151 144 
0.465201 -0.250847 3.9805 207 167 10 
0.285196 0.796627 4.66319 165 147 107 
0.606266 -0.684775 3.90051 176 187 121 
-0.186092 -0.459981 4.07202 103 89 80 
0.59508 -0.642887 3.93829 57 60 0 
0.663107 -0.622933 3.86609 122 115 97 
0.696188 -0.608974 3.84649 43 68 0 
0.676199 -0.61244 3.86564 111 109 68 
0.717325 -0.593956 3.83648 156 157 125 
0.740991 -0.62704 3.82204 225 233 192 
0.620374 -0.642246 3.90905 85 75 63 
0.71513 -0.579348 3.84529 155 142 126 
0.0145786 0.901798 5.30865 105 89 73 
0.574446 -0.880165 4.03863 145 102 8 
-0.140151 0.830969 4.89947 170 154 138 
-0.0787342 0.871056 4.75667 180 166 155 
-0.903325 -0.102424 4.21353 19 18 16 
0.680042 -0.645616 3.85579 170 171 91 
0.714283 -0.602389 3.82919 57 71 10 
0.614272 -0.624211 3.93319 39 19 0 
0.497933 -0.339566 3.9421 198 173 44 
0.679124 -0.618701 3.85822 47 54 3 
0.624093 -0.620793 3.92456 135 109 76 
0.656796 -0.354375 3.89456 131 132 127 
-0.134172 0.839238 4.87754 137 123 114 
-0.174595 -0.566489 3.71487 30 68 47 
-0.00196163 0.920778 4.71029 182 169 161 
0.606367 -0.889 4.02044 202 164 17 
0.271107 0.774016 4.69152 99 61 0 
0.344692 0.811207 4.69792 105 73 12 
0.580214 -0.928841 4.02315 222 207 188 
0.458501 -0.429886 3.95883 78 79 74 
0.452708 -0.3516 3.98379 183 152 9 
1.26239 0.719979 5.1063 200 191 184 
1.08227 0.709605 5.12024 183 176 170 
1.14458 0.737559 5.07025 178 169 162 
0.799555 0.894661 4.68845 204 193 189 
0.690282 -0.594408 3.86166 117 107 72 
-0.391125 -0.253529 3.60088 255 255 205 
0.611244 -0.646573 3.90568 160 151 134 
0.641714 -0.61676 3.90361 150 98 84 
0.73607 -0.567053 3.83184 42 16 19 
-0.355816 -0.442109 3.77601 119 91 87 
0.432883 -0.0664933 4.11973 127 86 7 
-1.26394 0.111125 3.94387 233 196 107 
0.755417 -0.797228 3.88875 181 137 12 
0.801269 -0.749393 3.8945 102 48 1 
-0.339675 -0.257779 3.52311 121 105 80 
0.579391 -0.654855 3.94695 114 117 28 
-0.0935468 -0.25084 3.56896 255 250 198 
-1.12927 0.141806 3.91372 118 57 0 
0.547118 -0.691529 3.95378 164 92 68 
0.29851 -0.230973 4.24353 105 94 38 
0.802873 -0.751544 3.89858 102 48 1 
0.449319 -0.394749 3.97587 81 81 81 
0.395717 -0.115262 4.10616 121 70 4 
-0.718598 -0.00679175 4.40995 212 171 43 
-1.02513 0.221886 3.89122 86 32 0 
-0.826972 0.151661 4.24297 68 62 50 
-0.81564 0.150219 4.23897 27 23 11 
-0.509907 0.563672 4.46551 148 172 150 
0.146616 -0.681925 3.79581 47 28 13 
0.564433 -0.686627 3.939 55 16 1 
0.434447 -0.423461 3.97135 62 59 54 
0.264574 -0.15969 4.22912 81 79 67 
-1.11322 0.147653 3.92713 111 39 0 
-0.403585 0.379884 4.70342 88 48 0 
-1.20902 0.0737896 3.94976 121 52 11 
-1.27965 0.110686 3.95664 250 234 219 
-1.0948 0.627103 5.42654 164 151 143 
0.73959 -0.560822 3.84526 135 98 90 
0.583965 -0.444773 3.91403 190 151 14 
-0.689022 -0.070474 4.38389 199 158 16 
-0.847726 0.926815 4.73621 215 203 191 
0.566502 -0.90643 4.07456 161 122 17 
0.131235 -0.691134 3.79259 46 25 0 
0.41306 -0.689358 3.89458 147 107 0 
-0.117097 -0.320707 3.60761 21 78 23 
-0.455323 -0.284033 3.70216 132 112 61 
-0.77143 -0.334485 4.46705 80 66 1 
-0.707498 -0.273965 4.36166 43 21 0 
-0.82947 -0.230456 4.45628 218 182 36 
-0.448425 -0.0702556 4.17769 46 42 39 
-0.448383 -0.0376501 4.16918 103 102 97 
-0.428233 0.0221086 4.50022 222 184 75 
-0.0960488 -0.988422 4.55826 249 223 172 
0.650291 -0.670599 3.85739 78 94 19 
0.766583 -0.614737 3.79745 111 109 94 
-0.477155 -0.738003 4.74966 113 96 70 
-0.177704 -0.487702 3.68621 13 5 0 
-0.478257 -0.599573 4.4668 2 31 13 
-0.499992 -0.432703 3.87187 94 66 26 
-0.36251 -0.333273 3.64578 58 105 53 
-0.659643 -0.47313 4.79361 75 60 39 
-0.654748 -0.461253 4.80612 205 189 166 
-0.654433 -0.452924 4.78301 205 189 166 
-0.458544 -0.240718 4.27277 4 3 0 
-0.855549 -0.299008 4.53767 89 88 86 
0.168865 0.479176 4.63594 55 31 0 
0.580458 -0.707464 3.90563 169 184 103 
0.605323 -0.694028 3.89383 178 200 115 
0.703414 -0.613914 3.83153 86 114 14 
0.730103 -0.555502 3.82828 111 86 81 
0.749752 -0.542415 3.80589 124 118 106 
0.67002 -0.535328 3.95487 212 170 24 
-0.470799 -0.748021 4.75265 42 30 4 
-0.482599 -0.727873 4.83377 55 22 0 
-0.0667766 -0.391638 3.74384 11 45 18 
-0.45491 -0.432823 3.86189 45 46 12 
-0.458578 -0.410098 3.84267 4 15 0 
-0.489143 -0.410326 3.8591 97 75 36 
-0.311119 -0.340602 3.57664 206 181 127 
-0.299817 -0.240724 3.48135 183 164 132 
-0.732538 -0.226215 4.30091 134 134 126 
-0.84082 -0.236857 4.45056 210 186 80 
-0.850706 -0.239864 4.52468 212 180 35 
-0.827373 -0.230348 4.43073 188 169 77 
-0.417855 -0.0318447 4.14687 73 74 69 
0.340751 0.333425 4.64168 122 81 2 
0.169674 0.498088 4.64645 31 3 0 
-0.341249 0.922281 4.66552 181 167 154 
-0.35993 -0.413525 3.77486 26 2 0 
-0.634045 -0.531519 4.45356 185 170 149 
-0.410033 -0.0170728 4.15717 8 9 4 
-0.400929 0.020267 4.33687 165 143 96 
0.447715 0.322047 4.66506 123 82 0 
0.241168 0.348552 4.63562 120 83 2 
0.662916 -0.677548 3.85291 193 230 90 
0.651343 -0.612848 3.87359 143 111 100 
0.685299 -0.607172 3.86359 105 121 50 
0.6733 -0.526937 3.92622 212 168 17 
0.618158 -0.377791 3.88926 103 103 101 
-0.0783013 -0.394159 3.73806 14 39 17 
-0.363318 -0.430085 3.78461 44 16 15 
-0.624093 -0.536579 4.47128 199 186 167 
-0.37225 -0.275958 3.56164 60 40 16 
-0.243276 -0.242162 3.46153 210 189 146 
-0.353328 -0.253197 3.52195 132 118 73 
-0.452457 0.0201559 4.49311 219 184 38 
-1.076 0.17241 3.91167 97 27 0 
0.173211 0.536489 4.66766 39 19 0 
0.261761 0.769887 4.67322 109 68 2 
-0.0915216 0.863155 4.74758 195 182 173 
0.671347 -0.633823 3.85279 148 180 55 
0.813086 -0.606741 3.78372 232 230 217 
0.746914 -0.536728 3.82395 35 32 27 
-0.368372 -0.479283 3.82956 101 110 91 
0.618376 -0.367763 3.89252 107 108 103 
-0.348265 -0.337295 3.62652 210 184 127 
-0.359654 -0.326314 3.68583 201 178 124 
-0.382352 -0.324787 3.64562 203 177 120 
-0.422675 -0.318519 3.66057 187 181 133 
-0.68077 -0.19287 4.32173 105 101 98 
-0.41008 -0.0350377 4.36105 193 162 12 
1.32847 0.679404 5.10419 202 193 186 
1.20504 0.706967 5.04121 191 182 175 
1.02379 0.694761 5.05254 185 176 167 
-0.849215 0.916149 4.69108 202 189 181 
-0.955166 1.00384 4.52746 128 118 109 
0.624608 -0.665134 3.89198 79 88 31 
-0.748655 -0.187879 4.33146 52 48 45 
-0.476922 -0.586771 3.93579 72 47 17 
0.604984 -0.707466 3.91277 69 92 4 
0.631777 -0.648867 3.894 187 176 158 
0.691536 -0.530116 3.94397 205 161 30 
-0.280042 -0.240891 3.52976 201 180 137 
0.743382 -0.608674 3.78164 96 94 79 
0.718993 -0.58142 3.83538 163 151 137 
0.453292 -0.352297 3.98742 171 137 11 
1.1548 0.724133 5.05205 131 122 115 
-0.0213881 0.909426 4.65337 187 173 162 
0.633044 -0.667018 3.8436 89 102 32 
0.686616 -0.634266 3.86553 148 180 55 
1.48097 0.862414 4.69907 205 194 190 
-0.440091 -0.248698 3.62028 255 253 202 
-0.716049 -0.275231 4.34635 43 21 0 
-0.45247 -0.291315 3.67483 56 61 20 
-0.162531 -0.44816 3.98806 99 86 78 
0.609777 -0.655789 3.90623 167 163 136 
-0.868572 -0.0993031 4.20312 120 119 117 
0.611869 -0.632611 3.92035 25 16 1 
0.619618 -0.626352 3.91381 43 17 0 
0.659314 -0.644037 3.865 40 49 4 
0.658735 -0.619008 3.87696 149 119 108 
0.727835 -0.599603 3.82051 119 120 106 
0.680107 -0.609064 3.85936 120 130 67 
0.663394 -0.353314 3.89012 127 126 122 
0.745769 -0.59042 3.81021 119 125 91 
0.652094 -0.650919 3.87227 153 149 101 
0.707416 -0.606887 3.83711 61 85 0 
0.75639 -0.59498 3.80814 128 130 116 
0.587915 -0.672593 3.92139 144 142 117 
0.630514 -0.648933 3.89268 195 183 161 
0.664499 -0.624873 3.88701 120 89 84 
-0.582899 0.554739 4.51495 207 237 227 
0.669481 -0.851666 3.95932 139 102 11 
0.660444 -0.657982 3.86976 101 97 60 
0.713961 -0.627139 3.83354 84 112 9 
0.568505 -0.674273 3.941 131 80 59 
0.728943 -0.600199 3.82523 156 156 132 
0.728115 -0.611005 3.82741 38 41 24 
-0.465058 -0.387484 3.85234 81 59 12 
0.72903 -0.556107 3.8812 51 38 19 
-0.650706 -0.0853942 4.41432 114 90 20 
0.198515 0.555565 4.74083 61 37 3 
0.623395 -0.66327 3.88993 109 113 54 
0.625772 -0.63573 3.89615 51 7 0 
-1.11063 0.164987 3.89487 251 188 57 
-1.07778 0.175366 3.88395 173 121 0 
-0.847359 0.161504 4.24524 49 31 0 
0.718228 -0.564543 3.8317 44 31 23 
0.7582 -0.540694 3.81963 104 101 96 
-0.0418235 -0.593268 3.60678 129 0 18 
0.719712 -0.586561 3.81921 62 40 29 
0.650349 -0.596968 3.9076 79 18 0 
0.64889 -0.59985 3.93075 49 13 1 
0.602912 -0.45973 3.89841 144 95 0 
0.436661 -0.386152 3.96336 30 29 24 
0.539994 -0.318884 3.90993 217 186 70 
0.617703 -0.321877 3.90005 16 15 13 
-1.12273 0.147759 3.88705 103 36 0 
-1.18033 0.17906 3.89838 255 233 164 
0.527928 0.357771 4.72264 130 88 2 
0.7169 -0.556432 3.96366 66 23 4 
0.479241 -0.193508 3.97573 222 181 39 
-1.02013 0.227527 3.85708 97 39 2 
0.487055 0.323163 4.71085 144 101 7 
0.180426 0.394228 4.66375 94 52 2 
0.745434 -0.840345 3.89253 230 216 190 
0.534778 -0.312233 3.90011 212 184 74 
-0.378702 0.101022 4.36685 192 167 113 
0.271966 0.772961 4.69947 125 79 1 
0.77418 -0.544355 3.86369 21 20 18 
0.482055 -0.328691 3.92238 209 175 49 
0.432529 0.0538599 4.30921 94 87 77 
0.182287 0.556976 4.69039 33 18 0 
0.800739 0.896215 4.69288 205 193 181 
0.593118 -0.720263 3.92569 83 54 24 
0.2997 -0.148487 4.19952 160 132 33 
-0.468567 -0.58839 3.94768 72 49 17 
-0.448941 -0.850205 4.80895 236 212 166 
-0.399102 -0.392219 4.46375 162 138 38 
-0.445096 -0.257985 4.28533 30 31 23 
-1.05424 0.265575 3.8954 115 90 49 
-0.295703 -0.602267 4.37156 111 106 86 
-0.486905 -0.410412 3.86203 110 88 39 
-0.630364 -0.453844 4.82555 186 166 139 
-0.415562 -0.308406 3.68473 44 47 16 
-0.750524 -0.319585 4.42034 71 51 0 
-1.10176 -0.0613648 4.3691 131 128 119 
-0.40748 0.0420639 4.36695 84 57 2 
-0.384116 -0.265034 3.64176 255 252 226 
-0.83436 -0.240516 4.55157 219 182 49 
-0.408391 0.0536911 4.3891 97 67 5 
0.864799 -0.610296 3.82323 237 237 227 
-0.604062 -0.538507 4.50456 195 174 155 
-0.620185 -0.528455 4.50233 64 38 23 
-0.409375 -0.241163 4.11159 29 36 3 
-0.743395 -0.321911 4.4682 224 190 56 
-0.411607 -0.0299466 4.34511 178 150 17 
0.810103 -0.56623 3.81828 190 180 168 
-0.424966 -0.593584 4.42804 50 60 49 
-0.409758 -0.0938343 4.41193 182 156 35 
-0.41256 -0.0356083 4.35668 189 158 15 
0.206423 0.548275 4.70751 41 20 0 
-0.671276 0.825239 4.88113 43 30 13 
-0.47679 -0.736388 4.89093 151 137 124 
-0.462704 -0.736344 4.8888 59 32 15 
0.185083 0.566193 4.69455 69 38 0 
0.175911 0.485443 4.65189 70 46 0 
1.22622 0.709836 5.07017 190 180 168 
-0.930774 1.04155 4.44978 209 197 185 
0.827588 -0.575427 3.83275 193 186 168 
0.783358 -0.542342 3.86535 39 40 34 
-0.0751661 0.868184 4.78111 183 166 148 
0.783627 -0.609776 3.82518 45 43 30 
0.845814 -0.594723 3.79887 126 122 110 
-0.70436 0.3184 4.88596 89 48 0 
0.788818 -0.854195 3.89874 223 205 183 
