# .PCD v0.7 - Point Cloud Data file format
VERSION 0.7
FIELDS x y z rgb
SIZE 4 4 4 4
TYPE F F F U
COUNT 1 1 1 1
WIDTH 407
HEIGHT 1
VIEWPOINT 0 0 0 1 0 0 0
POINTS 407
DATA ascii
0.181958 -0.29742399 1.82315 13484744
0.183377 -0.296352 1.82354 13155522
0.195195 -0.29955199 1.8272901 10851225
0.184881 -0.29521799 1.82407 12826557
0.188219 -0.26938599 1.8022799 11839403
0.188215 -0.269393 1.80226 11839403
0.191402 -0.27094701 1.80749 11575205
0.180355 -0.267364 1.81014 14143188
0.18296 -0.267295 1.80977 13353158
0.194498 -0.26679599 1.81815 11180446
0.19599099 -0.26614299 1.81504 10259343
0.19523001 -0.26997501 1.82068 11048346
0.19681901 -0.26930901 1.81775 10192522
0.179565 -0.261112 1.81405 14143189
0.184025 -0.26166901 1.81236 13682124
0.186628 -0.26183799 1.81209 12628922
0.18843099 -0.262894 1.81296 12431286
0.191855 -0.26196501 1.81296 11379109
0.18971901 -0.260631 1.8135999 12168370
0.19435699 -0.26255801 1.81303 10917787
0.193793 -0.26358899 1.8157001 11246753
0.195447 -0.26070601 1.81143 10128784
0.18083701 -0.259215 1.81329 14011602
0.18118399 -0.25681999 1.81209 14011602
0.18098 -0.25174901 1.80436 13945552
0.189816 -0.255431 1.80792 11708331
0.192523 -0.258205 1.8139499 11181730
0.178901 -0.252601 1.8088599 14142675
0.17918301 -0.25391799 1.8104399 14142675
0.191209 -0.25118601 1.80893 11444644
0.195271 -0.25681999 1.81573 10392727
0.176884 -0.25297299 1.8148299 14208468
0.19325399 -0.25509799 1.81634 10919326
0.19574299 -0.25332701 1.81566 9932432
0.198232 -0.255409 1.81806 8616314
0.175062 -0.253892 1.82066 14274775
0.176347 -0.248567 1.8116601 14142931
0.177876 -0.25097001 1.81414 14142931
0.189871 -0.249504 1.81248 12694712
0.196052 -0.249598 1.81405 9208450
0.175696 -0.25153199 1.81891 14208981
0.188879 -0.24809401 1.81555 13418436
0.191294 -0.247355 1.81305 11838632
0.193856 -0.247501 1.81253 10458005
0.180087 -0.24168999 1.81141 14010831
0.182322 -0.24232499 1.81256 13878988
0.183589 -0.24431799 1.81311 13813196
0.18749499 -0.245745 1.81583 13549766
0.19031499 -0.24594299 1.8176 13286593
0.172769 -0.244781 1.8197401 14275031
0.175422 -0.244028 1.81814 14208724
0.178624 -0.234807 1.80644 13944782
0.180547 -0.237587 1.80812 13878989
0.18887 -0.24336199 1.81723 13351873
0.191633 -0.243347 1.81839 12694198
0.173917 -0.241816 1.81964 14274773
0.17628001 -0.236086 1.80876 14011345
0.1761 -0.24049801 1.81513 14142931
0.17873 -0.23988301 1.8153 14076624
0.186277 -0.232455 1.80655 13152954
0.188758 -0.23548201 1.8109601 13086647
0.17260399 -0.23961601 1.82162 14275286
0.17430601 -0.237745 1.81598 14208724
0.17973 -0.231794 1.8093801 13878732
0.193159 -0.24146201 1.8212399 12429998
0.17549101 -0.234561 1.81608 14077394
0.17521399 -0.234346 1.81819 14142931
0.178004 -0.23325001 1.81504 13945039
0.180508 -0.22859 1.80946 13812682
0.176107 -0.23110101 1.81617 14077138
0.178515 -0.23015 1.8149199 14010575
0.176441 -0.227742 1.8128901 13945552
0.19060799 -0.22834601 1.8115 12493739
0.190871 -0.225279 1.80937 11835295
0.181729 -0.222183 1.80878 13548996
0.179786 -0.224181 1.81397 13747403
0.194176 -0.222627 1.81374 9729146
0.175804 -0.22825199 1.82798 13946065
0.176212 -0.22311001 1.82242 13880015
0.178398 -0.222307 1.81918 13747916
0.18108299 -0.22154599 1.82019 13615560
0.17442501 -0.22100601 1.82532 14012114
0.176552 -0.21977 1.81967 13813966
0.176948 -0.22033501 1.82198 13813966
0.181301 -0.214687 1.81501 13483973
0.186818 -0.20872501 1.80674 11508126
0.17841201 -0.21101999 1.81418 13616330
0.179965 -0.21260101 1.81508 13550280
0.181751 -0.210673 1.81426 13352644
0.190429 -0.21456 1.82013 12032930
0.190937 -0.215137 1.81998 11835295
0.193527 -0.216629 1.82152 10452871
0.196282 -0.217522 1.8231601 8873065
0.197449 -0.220321 1.82556 8608866
0.17716201 -0.20897099 1.81445 13682379
0.180133 -0.208795 1.81253 13484486
0.182925 -0.20857701 1.8138 13220801
0.18481199 -0.209905 1.8166 12957115
0.189046 -0.211771 1.8193099 12231593
0.193932 -0.21413501 1.8227299 10123905
0.173265 -0.207046 1.8153 13814992
0.17590401 -0.206944 1.8152601 13682893
0.18620799 -0.207173 1.81759 12562100
0.187705 -0.209415 1.81924 12495792
0.19064 -0.209242 1.8203599 11112853
0.172152 -0.20554499 1.81794 13880785
0.172812 -0.20035499 1.80966 13748943
0.175467 -0.200592 1.81016 13485771
0.177949 -0.20401999 1.81428 13485257
0.178293 -0.201455 1.81256 13287878
0.18086299 -0.203641 1.81627 13286850
0.18370999 -0.203054 1.81604 12891835
0.18488701 -0.20504101 1.81732 12628151
0.189211 -0.20672999 1.8200099 11508126
0.174211 -0.19842701 1.81076 13551564
0.17695799 -0.19899499 1.81227 13353671
0.18248799 -0.200784 1.81603 13023677
0.18372101 -0.202498 1.81724 12957371
0.18633001 -0.202574 1.8173701 12167084
0.187564 -0.200532 1.81609 11113880
0.18905 -0.20270699 1.8178101 10850451
0.182146 -0.196558 1.81568 12891835
0.185001 -0.20024499 1.81691 12430513
0.186488 -0.198136 1.81688 11377566
0.18603501 -0.197955 1.8169301 11574945
0.189017 -0.19870301 1.8171099 10850194
0.19356 -0.20635501 1.82717 10059137
0.171933 -0.194374 1.81449 13617614
0.177331 -0.19573601 1.8163 13288136
0.180952 -0.194194 1.81629 12958398
0.185072 -0.195696 1.81663 11707045
0.18350101 -0.194245 1.8156199 12233647
0.18773501 -0.195719 1.81701 10916503
0.19013999 -0.196761 1.81777 10520716
0.19374301 -0.202204 1.82717 9599355
0.179765 -0.191791 1.8170201 12958401
0.18218599 -0.192136 1.81563 12497333
0.184863 -0.191917 1.8158 11312287
0.186372 -0.19346499 1.81732 11048602
0.186506 -0.192922 1.81749 10982554
0.188848 -0.19390699 1.8168499 10653328
0.172111 -0.18999 1.8151 13551564
0.172639 -0.18683399 1.8141 13354186
0.180888 -0.18973701 1.81593 12695226
0.183734 -0.190042 1.81748 11773098
0.183672 -0.18946201 1.81704 11707303
0.186424 -0.19042701 1.81822 11048347
0.186333 -0.18937799 1.81724 10982554
0.17885 -0.188292 1.8185 13551050
0.182337 -0.187259 1.81705 12037038
0.18508101 -0.187714 1.81724 11114654
0.172933 -0.18232 1.8161 13156807
0.18107501 -0.185234 1.81795 12497847
0.183768 -0.185358 1.81867 11313058
0.18379501 -0.185479 1.81894 11247267
0.18644001 -0.18513601 1.81817 10785430
0.177053 -0.18287399 1.81749 13024963
0.17973 -0.18294799 1.81805 12629691
0.182411 -0.178859 1.81511 11049887
0.182411 -0.178859 1.81511 11247006
0.176787 -0.177733 1.81621 12695996
0.179662 -0.17845599 1.819 12234933
0.181067 -0.18075299 1.8187701 11971503
0.18381 -0.18099301 1.8200099 11049887
0.186528 -0.180981 1.8208801 10522770
0.189853 -0.185554 1.82577 10061449
0.178285 -0.176266 1.8195699 12367032
0.18234 -0.178468 1.81952 11247523
0.18092 -0.17612401 1.81963 11445415
0.189871 -0.18142299 1.82605 9601152
0.191567 -0.18475901 1.8295701 9337724
0.191567 -0.18475901 1.8295701 9337724
0.173372 -0.177213 1.82365 13025478
0.175916 -0.177215 1.82197 12696512
0.68327302 -0.226799 1.90917 10654849
0.68289202 -0.22574501 1.90535 10391420
0.17474 -0.17481101 1.8234 12696511
0.177324 -0.174877 1.8229899 12367545
0.68133801 -0.225438 1.91098 12825765
0.68200803 -0.22346801 1.90907 12102298
0.68253201 -0.222156 1.9042799 10522752
0.68396503 -0.220652 1.9043 10193786
0.687087 -0.225683 1.91047 11114370
0.67990297 -0.223042 1.91085 13747380
0.67995602 -0.22297101 1.9109499 13747380
0.68128198 -0.220217 1.90729 12891814
0.68060201 -0.221046 1.90899 13681331
0.68200302 -0.219973 1.90633 11970968
0.67903602 -0.219695 1.90876 13878966
0.68064201 -0.217492 1.90608 13549745
0.68391901 -0.216956 1.90658 11246988
0.68468398 -0.215001 1.9046 10851716
0.68643802 -0.217125 1.90561 10391164
0.68476897 -0.213708 1.90128 10456957
0.680255 -0.212862 1.90429 13878710
0.68273902 -0.214302 1.90668 12957863
-1.01854 0.23955201 2.58937 10583901
-1.01828 0.23629899 2.59127 11439209
0.19300801 -0.306198 1.81873 10588052
0.194362 -0.305401 1.82403 10522259
0.193829 -0.30178899 1.8269 11048605
0.19595499 -0.30221301 1.82523 9864069
0.19272099 -0.29929399 1.82767 11509157
0.17889 -0.29645801 1.82673 14275288
0.187023 -0.296507 1.8236901 12496565
0.185568 -0.294716 1.82248 12562871
0.188021 -0.29453999 1.8221101 12298930
0.189557 -0.296204 1.82381 12101294
0.19144 -0.29731101 1.8276401 11837866
0.193611 -0.297418 1.82653 11179677
0.19608299 -0.29720399 1.82608 10126728
0.180215 -0.29538 1.82515 14077395
0.190402 -0.29435799 1.82219 11969195
0.197064 -0.29480699 1.82472 9336696
0.17911001 -0.29034501 1.8250999 14209237
0.181043 -0.292115 1.82444 13747915
0.18371999 -0.29113701 1.82569 12760507
0.187298 -0.29152101 1.8256201 12496564
0.17667 -0.28832799 1.82557 14275287
0.177679 -0.28809401 1.8252 14275286
0.18003 -0.28498799 1.8171999 13353158
0.182448 -0.289233 1.82522 12958399
0.18172599 -0.284998 1.81541 12760251
0.183596 -0.28294799 1.81172 12693944
0.18470401 -0.28931001 1.82463 12694201
0.18727399 -0.28918299 1.82347 12496564
0.17549799 -0.28700301 1.82556 14275544
0.17584901 -0.281735 1.8156101 14143958
0.17850401 -0.28163901 1.81584 14077650
0.17721599 -0.283593 1.81604 14209493
0.180856 -0.28217101 1.81423 12892094
0.180048 -0.28312099 1.81659 13352901
0.182721 -0.279349 1.8065701 12562872
0.172022 -0.278914 1.81086 14275288
0.172738 -0.27776301 1.80825 14209239
0.172214 -0.27695099 1.80431 14209238
0.17219999 -0.27496701 1.80268 14208982
0.178573 -0.27787399 1.81138 14011088
0.180483 -0.27748099 1.80987 13023680
0.18149 -0.27724999 1.80639 12563129
0.183837 -0.27705199 1.80516 12496565
0.170287 -0.27741301 1.81476 14341594
0.17273401 -0.271795 1.80353 14077652
0.175358 -0.27565399 1.80979 14011860
0.18005399 -0.27468801 1.80969 13484745
0.178552 -0.27590999 1.80964 14011089
0.182789 -0.27526301 1.80681 12497078
0.18989301 -0.27686399 1.81401 11706278
0.179956 -0.27262399 1.8071899 13682124
0.181363 -0.27050301 1.80784 13286852
0.183346 -0.27128699 1.8074501 12365236
0.17625301 -0.270556 1.80964 14011603
0.1789 -0.27112699 1.80987 14011090
0.181438 -0.268794 1.80738 13484487
0.184021 -0.268648 1.8068 12299443
0.18253 -0.262624 1.80785 13681867
0.181473 -0.2617 1.81317 13813966
0.175446 -0.25553599 1.8241 13946067
0.17317501 -0.25026199 1.81791 13945810
0.193739 -0.25161901 1.81637 9800073
0.172433 -0.257303 1.84308 14275800
0.17172 -0.250626 1.82232 14012116
0.16968399 -0.252662 1.8393101 14275801
0.16968399 -0.25459701 1.84076 14276057
0.17227501 -0.254574 1.83991 14210008
0.17169499 -0.24779999 1.82004 13946322
0.174115 -0.24696 1.8178 13945296
0.18265399 -0.245637 1.81437 13681354
0.169525 -0.248372 1.83284 14143959
0.168015 -0.249107 1.8367701 14275802
0.169982 -0.24945 1.83843 14275545
0.169315 -0.246209 1.8292201 14078166
0.183633 -0.24064 1.80869 13351617
0.18597201 -0.242981 1.81479 13351873
0.16878 -0.24478801 1.82921 14143702
0.17158701 -0.24631 1.83126 14012116
0.171794 -0.24447601 1.82725 13946322
0.166822 -0.24439999 1.83359 14210009
0.170151 -0.24258099 1.8267 14012115
0.16852599 -0.23954 1.8311 14078166
0.167943 -0.24135099 1.83362 14209751
0.17097101 -0.238566 1.82915 14012115
0.17129301 -0.235375 1.82781 13946579
0.167163 -0.238225 1.84363 14275801
0.173994 -0.229986 1.83199 13880273
0.170022 -0.22700401 1.83331 13946579
0.173126 -0.22324701 1.8232 13748687
0.174042 -0.22670101 1.82963 13814479
0.168669 -0.22477201 1.83516 13946836
0.171166 -0.224015 1.83328 13880786
0.171783 -0.221122 1.82525 13748944
0.173035 -0.218815 1.82715 13748943
0.18177401 -0.21796601 1.8189501 13286081
0.17569301 -0.21874 1.82744 13682637
0.17639001 -0.216057 1.8299299 13616844
0.17789499 -0.21174499 1.81815 13418951
0.170251 -0.20927601 1.81868 13683406
0.17193601 -0.209244 1.8149 13617613
0.17456 -0.204533 1.81505 13419978
0.16836999 -0.20310199 1.81294 13683406
0.166784 -0.200922 1.81532 13683921
0.169347 -0.19989599 1.8153 13552077
0.167757 -0.197715 1.81768 13552334
0.17009901 -0.19637901 1.81528 13420748
0.183396 -0.198752 1.8152601 12299439
0.68178302 -0.22201601 1.89706 9272944
0.16951001 -0.190758 1.81415 13354442
0.167697 -0.18892699 1.82225 13486285
0.17002299 -0.18758599 1.8129801 13222856
0.175072 -0.186713 1.81206 12827328
0.16752601 -0.186906 1.8213 13354955
0.168704 -0.18197399 1.82625 13223112
0.169857 -0.17866901 1.82495 13025734
0.16891199 -0.178708 1.82621 13091784
0.171822 -0.179245 1.8211499 12959427
0.17079 -0.177137 1.8241301 12959685
0.172176 -0.175133 1.8249201 12762561
-1.0842299 -0.28475499 2.7804999 13017727
-1.08078 -0.28537601 2.78145 9530957
-1.08588 -0.28147 2.7779701 12753526
-1.08174 -0.280247 2.7783799 11832936
-1.09123 -0.278272 2.7845099 12359281
-1.08586 -0.27884299 2.7792201 13148539
-1.08147 -0.27566299 2.7722001 14003845
-1.09226 -0.271671 2.77706 10979429
-1.09404 -0.273509 2.78297 11044708
-1.09231 -0.27413899 2.78057 11899759
-1.09672 -0.27633601 2.78315 9794898
-1.09202 -0.27581301 2.7829101 12557174
-1.08279 -0.271817 2.7724199 14925204
-1.0904 -0.26789999 2.7734001 10715744
-1.0858999 -0.26785001 2.7716401 14267790
-1.08894 -0.27110401 2.77828 14531219
-1.08024 -0.26976499 2.77773 11175005
-1.09085 -0.26530901 2.7690201 9531729
-1.0841399 -0.26617199 2.7718799 14070154
-1.08117 -0.26692101 2.7746501 12162155
-1.09128 -0.258322 2.76982 10189914
-1.08934 -0.26172 2.7701399 11637358
-1.0924 -0.25510499 2.7676001 9137484
-1.08893 -0.253768 2.76755 12426616
-1.08566 -0.25602901 2.7694099 14136461
-1.08176 -0.25786999 2.77385 12425585
-1.0786099 -0.25553501 2.77108 11175520
-1.07774 -0.25655401 2.76753 11570534
-1.07762 -0.25689501 2.77262 10912349
-1.09173 -0.25142699 2.76548 9136969
-1.08846 -0.24907 2.7642901 11044709
-1.08516 -0.25188199 2.7667601 13807495
-1.08153 -0.254069 2.77001 13412736
-1.07699 -0.24969099 2.7628801 11176034
-1.07731 -0.249228 2.76373 11176034
-1.0771101 -0.25016901 2.7686901 10188884
-1.07511 -0.253663 2.76897 9465164
-1.08613 -0.246323 2.7664599 12425334
-1.07423 -0.24767201 2.76632 10058070
-1.01544 0.235811 2.59378 10847331
-1.01504 0.238142 2.5902901 10255451
-1.01219 0.23952 2.5945201 9663569
-1.01389 0.244807 2.5894699 10058072
-1.01243 0.24189299 2.5912199 9465935
-1.00881 0.242149 2.5933599 10716259
-1.00946 0.24213199 2.59285 10189914
-1.01012 0.24138901 2.5996399 11045223
-1.0065 0.244187 2.59777 11768945
-1.00708 0.243587 2.5973799 11834739
-1.0104001 0.246025 2.58935 9268556
-1.00757 0.247237 2.5988801 11374188
-1.00679 0.245959 2.5934701 11045224
-1.01191 0.25156599 2.5809901 11176292
-1.01038 0.25062099 2.57054 12360306
-1.01825 0.24837101 2.5901699 10715742
-1.01433 0.24940801 2.5874801 10715742
-1.00747 0.25163299 2.57849 9926485
-1.0103199 0.250108 2.5861499 9531983
-1.00507 0.248914 2.58302 9203021
-1.01757 0.25328299 2.5867801 12097134
-1.0105799 0.25630501 2.5817399 11044962
-1.02101 0.261834 2.57322 12227691
-1.01043 0.26189899 2.57686 11965548
-1.00899 0.26227799 2.5818701 10058068
-1.0178601 0.263551 2.5725601 12030055
-1.00802 0.26595199 2.5757 10584156
-1.00853 0.26413 2.58231 9794897
-1.03398 0.26794001 2.5738001 11176548
-1.0315599 0.268976 2.5752599 13544323
-1.0185601 0.267335 2.57212 12161641
-1.01588 0.266893 2.575 11438688
-1.0125999 0.26750499 2.5772099 11373153
-1.03561 0.27291101 2.57143 8939846
-1.03211 0.27158701 2.57372 12820858
-1.0288 0.27063799 2.5757 14004615
-1.02531 0.272057 2.57464 13872515
-1.0167201 0.270399 2.57319 11701604
-1.01274 0.270331 2.5746601 10518101
-1.03426 0.27644801 2.5720601 8742725
-1.0327899 0.27406299 2.5718999 10255705
-1.0293601 0.27528799 2.57091 13150080
-1.0254 0.27514601 2.57095 13544064
-1.02097 0.27385199 2.5706501 12359534
-1.01739 0.27356699 2.5717399 12162156
-1.01423 0.27584299 2.57109 10913117
-1.0341901 0.27937299 2.5685 9269326
-1.02631 0.27732 2.5673599 12755324
-1.01851 0.277536 2.5708899 12031085
-1.01504 0.27853701 2.5697 11505256
-1.03023 0.28022099 2.5660601 8808775
