ply                 
format ascii 1.0    
element vertex 1235
property float x    
property float y    
property float z    
property uchar red  
property uchar green
property uchar blue 
end_header          
-0.604148 0.678135 2.17747 164 134 108 
-0.678988 -0.686604 2.42598 198 166 128 
-0.638086 0.00510501 2.28689 214 176 137 
-0.627601 0.175935 2.25156 182 154 117 
-0.625565 0.240631 2.24942 93 68 37 
-0.620067 0.305682 2.23024 187 157 119 
-0.607309 0.585102 2.19005 208 174 137 
-0.630488 0.154166 2.26543 185 154 123 
-0.632311 0.0858444 2.2721 199 161 124 
-0.610654 0.495442 2.20655 180 147 114 
-0.613965 0.416113 2.21651 202 165 123 
-0.634146 0.0241076 2.281 130 96 59 
-0.635334 -0.00966632 2.2844 135 101 66 
-0.671596 -0.601886 2.40783 148 114 79 
-0.640866 -0.11007 2.30327 193 159 131 
-0.603312 0.633017 2.18399 181 150 122 
-0.623813 0.199469 2.25011 107 77 49 
-0.621597 0.215576 2.24321 119 90 58 
-0.602599 0.609508 2.18267 128 96 71 
-0.62562 0.139587 2.25759 148 117 86 
-0.599637 0.668491 2.17183 115 88 61 
-0.6194 0.288396 2.23873 138 103 73 
-0.626999 0.120852 2.26303 175 144 113 
-0.615851 0.335789 2.22868 102 68 33 
-0.615219 0.376197 2.22743 102 72 48 
-0.610115 0.454327 2.21129 91 57 20 
-0.600828 0.662013 2.1804 105 74 43 
-0.63127 0.0133552 2.27865 142 108 73 
-0.626393 0.110213 2.26369 100 73 46 
-0.603918 0.593935 2.19278 132 99 66 
-0.600491 0.62355 2.18155 164 132 107 
-0.621021 0.188392 2.24804 97 70 40 
-0.607147 0.524389 2.20605 118 82 58 
-0.633009 -0.0238377 2.28832 122 86 52 
-0.604687 0.539352 2.19943 214 178 142 
-0.611129 0.395753 2.21987 191 157 122 
-0.598524 0.652332 2.17938 92 60 35 
-0.667084 -0.59418 2.41261 205 173 134 
-0.626311 0.0474181 2.27218 180 146 111 
-0.620014 0.166238 2.25286 118 89 57 
-0.606611 0.43646 2.21394 119 93 56 
-0.593747 0.658959 2.17278 198 166 127 
-0.593078 0.698969 2.17079 166 135 107 
-0.592714 0.677607 2.16912 184 149 121 
-0.599022 0.575766 2.19094 114 80 52 
-0.667093 -0.691193 2.42121 204 174 136 
-0.606014 0.410564 2.21776 134 96 57 
-0.613997 0.233035 2.24342 133 99 61 
-0.624002 0.0195262 2.27629 174 141 108 
-0.604424 0.424753 2.21584 117 83 55 
-0.663106 -0.62876 2.41428 140 110 72 
-0.608285 0.296678 2.22976 191 152 113 
-0.603695 0.445847 2.21685 121 88 55 
-0.595739 0.588094 2.19032 116 83 52 
-0.625118 -0.0150903 2.28552 191 153 114 
-0.607404 0.311557 2.22969 202 164 127 
-0.599613 0.50106 2.20565 202 163 122 
-0.591876 0.645305 2.17863 152 120 95 
-0.62056 0.0553557 2.27343 172 141 110 
-0.600234 0.461513 2.2083 113 80 49 
-0.613756 0.217322 2.25322 112 79 44 
-0.594233 0.600212 2.18897 100 68 43 
-0.604193 0.378648 2.2223 166 132 104 
-0.615065 0.152861 2.25836 163 133 107 
-0.597043 0.531477 2.20282 100 64 38 
-0.602976 0.401052 2.22248 177 142 102 
-0.603566 0.350604 2.22447 133 96 54 
-0.61558 0.102764 2.26365 88 60 36 
-0.618225 0.0354107 2.2736 167 141 106 
-0.657321 -0.620209 2.40912 217 185 146 
-0.608649 0.33572 2.24732 164 134 96 
-0.589742 0.629206 2.18254 178 147 118 
-0.594665 0.519435 2.19997 184 152 114 
-0.610565 0.144144 2.25199 171 140 111 
-0.657748 -0.671793 2.41442 195 165 131 
-0.584407 0.700616 2.16675 156 129 100 
-0.656701 -0.654101 2.41524 184 153 122 
-0.658596 -0.684179 2.42132 126 97 67 
-0.618313 0.00649851 2.28168 105 75 49 
-0.62492 -0.11291 2.30376 164 130 95 
-0.608501 0.16798 2.25139 111 79 41 
-0.606565 0.19873 2.24643 139 104 66 
-0.590094 0.567518 2.19355 127 94 61 
-0.622489 -0.123209 2.30122 100 71 37 
-0.616407 -0.004232 2.28098 177 150 123 
-0.607133 0.183634 2.25124 181 148 117 
-0.58684 0.61653 2.18403 160 126 91 
-0.620744 -0.0836629 2.29827 163 134 104 
-0.59725 0.389909 2.22191 144 108 76 
-0.653751 -0.637136 2.41581 128 102 67 
-0.617773 -0.0248131 2.28874 152 126 101 
-0.604153 0.215957 2.24482 107 74 43 
-0.657604 -0.710036 2.43203 112 79 48 
-0.581601 0.709494 2.1712 88 63 32 
-0.594677 0.420814 2.21693 218 180 144 
-0.583379 0.65406 2.1794 159 129 101 
-0.583714 0.638067 2.18076 182 149 116 
-0.598282 0.338588 2.23306 141 108 73 
-0.600703 0.241835 2.24103 189 148 104 
-0.643039 -0.518102 2.3883 196 167 137 
-0.611286 0.0577891 2.27947 182 153 121 
-0.610227 0.0461252 2.27525 158 128 102 
-0.583302 0.605356 2.18713 105 74 46 
-0.613163 -0.0147479 2.28831 78 50 26 
-0.585147 0.537035 2.19502 107 71 47 
-0.594534 0.347368 2.22799 115 79 43 
-0.648298 -0.628519 2.41212 179 150 116 
-0.586809 0.525426 2.20234 86 56 32 
-0.615509 -0.100995 2.29736 102 74 52 
-0.648562 -0.681469 2.41614 168 141 114 
-0.613576 -0.0357846 2.29302 117 88 56 
-0.592377 0.378205 2.22393 207 168 129 
-0.586766 0.50381 2.20605 82 55 28 
-0.612721 -0.0486395 2.291 80 53 24 
-0.589384 0.412511 2.21406 178 145 110 
-0.596312 0.285661 2.23755 121 85 53 
-0.607609 0.0277557 2.27504 182 151 120 
-0.608183 0.0151909 2.27702 186 153 122 
-0.597843 0.264672 2.24342 139 105 68 
-0.595742 0.272495 2.23641 187 151 117 
-0.649447 -0.697012 2.42736 126 99 70 
-0.605387 0.0670067 2.27225 112 83 49 
-0.607916 0.00394373 2.28323 166 135 107 
-0.579611 0.596138 2.18855 184 153 124 
-0.641225 -0.560375 2.4014 177 147 113 
-0.622591 -0.280105 2.33507 103 76 46 
-0.6044 0.0371173 2.2722 188 159 125 
-0.587243 0.400107 2.21664 140 104 72 
-0.64233 -0.62 2.40984 118 91 61 
-0.645781 -0.686976 2.4239 92 64 40 
-0.645093 -0.657558 2.42215 115 87 63 
-0.582121 0.466544 2.20368 162 133 101 
-0.610347 -0.123231 2.29836 96 64 39 
-0.607366 -0.0255073 2.2896 191 164 134 
-0.593316 0.224541 2.24457 144 110 75 
-0.590545 0.295333 2.23601 125 91 54 
-0.604894 -0.0354758 2.2867 196 166 132 
-0.571644 0.669623 2.1748 182 148 123 
-0.591094 0.214032 2.24456 130 93 66 
-0.58044 0.478255 2.20988 87 55 30 
-0.572848 0.653905 2.18432 203 168 128 
-0.605351 -0.0851814 2.29315 171 141 103 
-0.583906 0.373614 2.22283 124 88 52 
-0.597343 0.0764898 2.26681 74 45 11 
-0.601123 -0.00417441 2.28072 181 152 120 
-0.63859 -0.645997 2.41702 199 166 133 
-0.576878 0.521254 2.2059 154 114 78 
-0.581972 0.343797 2.22156 135 99 63 
-0.587175 0.277598 2.24131 213 174 135 
-0.597971 0.0100091 2.27636 133 106 79 
-0.590028 0.192722 2.25101 194 161 128 
-0.586392 0.263843 2.23927 197 162 122 
-0.573816 0.55043 2.19974 134 100 75 
-0.581968 0.334093 2.22727 123 89 54 
-0.569744 0.590343 2.1848 132 99 68 
-0.631385 -0.563208 2.40168 131 101 73 
-0.569158 0.629979 2.18409 200 164 128 
-0.636404 -0.692086 2.42339 204 170 133 
-0.602573 -0.107715 2.30005 147 118 88 
-0.580478 0.324493 2.22541 128 93 55 
-0.599557 -0.0556211 2.29128 157 126 95 
-0.587876 0.165072 2.25253 112 81 53 
-0.569717 0.582577 2.191 120 87 54 
-0.592784 0.0432255 2.26884 167 133 98 
-0.566044 0.619009 2.18018 173 140 107 
-0.576813 0.396149 2.22027 113 79 42 
-0.567781 0.60414 2.18973 209 175 138 
-0.569083 0.567178 2.19738 113 82 54 
-0.561769 0.707855 2.17064 97 66 38 
-0.595273 -0.0411757 2.28637 113 83 55 
-0.571199 0.489151 2.20686 186 150 118 
-0.586916 0.128071 2.26072 102 71 42 
-0.561618 0.677344 2.17379 112 82 58 
-0.587102 0.142921 2.26356 169 139 105 
-0.573715 0.374617 2.21859 103 67 33 
-0.571656 0.450006 2.21211 200 165 127 
-0.57189 0.461638 2.21384 198 163 125 
-0.597467 -0.116544 2.30172 159 126 91 
-0.629512 -0.671222 2.41997 169 140 106 
-0.591069 -0.000222504 2.2804 176 142 104 
-0.574696 0.362249 2.22701 133 98 66 
-0.580855 0.193753 2.2475 157 126 97 
-0.584246 0.104044 2.25925 166 136 98 
-0.595852 -0.0979808 2.30014 102 71 40 
-0.572328 0.409237 2.22164 208 173 131 
-0.584248 0.114925 2.26252 187 156 125 
-0.56372 0.592181 2.19292 209 167 129 
-0.627772 -0.649683 2.42232 187 153 115 
-0.569867 0.423031 2.21565 188 154 126 
-0.585123 0.058463 2.27018 102 69 34 
-0.574708 0.248607 2.23427 148 116 78 
-0.576247 0.218913 2.24201 120 86 49 
-0.595468 -0.147848 2.30987 163 130 97 
-0.58177 0.0860262 2.26048 158 128 94 
-0.629184 -0.734518 2.43519 191 153 116 
-0.587034 -0.0203 2.28053 145 115 81 
-0.580126 0.184838 2.25868 217 185 147 
-0.565991 0.523631 2.21293 124 87 60 
-0.558289 0.656638 2.18597 97 65 40 
-0.583333 0.0480945 2.27102 184 151 118 
-0.562007 0.546337 2.20061 225 185 149 
-0.588253 -0.0655079 2.29015 183 151 112 
-0.567144 0.364042 2.21831 204 166 129 
-0.591104 -0.131935 2.30172 94 63 34 
-0.577896 0.114912 2.25535 134 101 66 
-0.561558 0.536174 2.20256 220 183 141 
-0.556932 0.602937 2.18689 182 147 115 
-0.574383 0.176385 2.24654 149 111 74 
-0.560734 0.487735 2.20254 147 111 75 
-0.567426 0.26433 2.22616 127 94 59 
-0.586801 -0.10975 2.29511 172 137 97 
-0.579339 0.0312735 2.26983 155 121 94 
-0.568845 0.258612 2.23603 103 72 41 
-0.55147 0.677444 2.17563 149 115 87 
-0.550708 0.698842 2.17306 169 135 110 
-0.565128 0.34068 2.22531 185 152 117 
-0.554734 0.592265 2.18875 199 163 127 
-0.62128 -0.722069 2.43043 186 151 109 
-0.558209 0.525697 2.20296 205 161 122 
-0.558733 0.475786 2.20619 125 87 50 
-0.585721 -0.121084 2.29999 147 113 75 
-0.56242 0.354353 2.22082 146 111 73 
-0.554256 0.581316 2.19314 177 147 109 
-0.576929 0.0157193 2.27228 117 88 56 
-0.551012 0.62984 2.18412 122 85 56 
-0.577211 0.00300324 2.27397 116 86 52 
-0.564096 0.300959 2.22941 230 199 153 
-0.55927 0.42569 2.21627 136 104 79 
-0.559501 0.383505 2.2157 179 143 111 
-0.557655 0.493846 2.2137 226 187 148 
-0.615208 -0.671732 2.42444 138 104 58 
-0.578664 -0.0459889 2.29021 102 67 37 
-0.563917 0.242007 2.23824 214 181 138 
-0.57749 -0.0262506 2.28809 102 72 38 
-0.550644 0.552328 2.19281 139 104 74 
-0.559824 0.399942 2.22745 195 152 109 
-0.559245 0.332388 2.22413 198 163 131 
-0.563542 0.220639 2.2424 108 78 42 
-0.56837 0.0966478 2.25897 169 140 108 
-0.549915 0.532568 2.19631 185 151 116 
-0.565887 0.159793 2.25301 91 61 33 
-0.573052 -0.0577927 2.27924 166 136 102 
-0.573304 -0.0144138 2.28308 111 81 55 
-0.554789 0.414694 2.219 128 85 50 
-0.553496 0.447562 2.21669 219 180 147 
-0.556694 0.318787 2.2263 119 85 57 
-0.541457 0.676602 2.17194 198 154 117 
-0.57011 0.0252174 2.27478 199 165 128 
-0.549903 0.490412 2.20506 145 109 73 
-0.570494 0.0163953 2.28037 165 130 88 
-0.559233 0.232292 2.24133 98 62 38 
-0.565873 0.0830232 2.26252 87 57 31 
-0.560891 0.173915 2.24483 97 63 35 
-0.556747 0.246457 2.2304 155 115 79 
-0.550176 0.479023 2.21067 150 116 78 
-0.556998 0.264014 2.23364 119 85 50 
-0.545977 0.543539 2.19612 120 86 59 
-0.564796 0.0714093 2.26321 123 92 64 
-0.543317 0.613345 2.19009 133 90 55 
-0.541066 0.658865 2.18275 195 150 111 
-0.561132 0.150717 2.25386 135 103 78 
-0.560488 0.191388 2.25264 132 98 63 
-0.564414 0.0439429 2.26743 180 150 122 
-0.561576 0.104503 2.25739 127 96 65 
-0.542162 0.583802 2.19004 192 161 130 
-0.550063 0.370482 2.21898 120 85 45 
-0.554109 0.287029 2.23336 175 137 98 
-0.571036 -0.0332482 2.29534 187 152 112 
-0.572867 -0.119638 2.30138 109 73 47 
-0.545351 0.449397 2.20739 150 114 90 
-0.546765 0.433447 2.21224 151 113 77 
-0.567559 -0.0472831 2.29026 205 172 129 
-0.572713 -0.17062 2.31086 121 88 55 
-0.554923 0.20018 2.24637 126 92 57 
-0.571489 -0.138201 2.31028 188 151 109 
-0.565477 -0.0581554 2.28756 178 147 116 
-0.534266 0.640822 2.17806 131 98 67 
-0.550419 0.243424 2.23745 190 155 115 
-0.545445 0.351874 2.21983 118 85 50 
-0.546901 0.329614 2.22655 125 92 59 
-0.560934 0.00910246 2.27633 116 82 45 
-0.542524 0.40499 2.21228 143 108 76 
-0.565727 -0.0984628 2.29799 179 147 108 
-0.540297 0.486762 2.20732 115 80 48 
-0.55847 0.0281931 2.27143 115 84 56 
-0.556513 0.0645516 2.26471 84 54 26 
-0.552296 0.167871 2.25166 180 149 121 
-0.560749 -0.0177927 2.2823 126 94 56 
-0.54972 0.213654 2.24191 116 86 48 
-0.536839 0.552086 2.19884 121 88 55 
-0.541205 0.381427 2.21879 128 93 53 
-0.546368 0.231129 2.23938 108 75 42 
-0.55144 0.11821 2.25673 108 81 52 
-0.552415 0.0863522 2.25956 181 151 113 
-0.559091 -0.0725163 2.28917 138 105 74 
-0.529314 0.651234 2.18328 192 159 124 
-0.55012 0.0987138 2.25807 185 153 115 
-0.550604 0.0764873 2.26451 162 132 106 
-0.557182 -0.0287481 2.28873 164 130 92 
-0.539274 0.394267 2.22522 164 133 104 
-0.532242 0.519379 2.19946 139 99 63 
-0.536743 0.426887 2.21836 114 83 55 
-0.53983 0.33991 2.23056 126 96 62 
-0.529979 0.558108 2.19402 226 178 130 
-0.55326 -0.00856031 2.27866 118 88 54 
-0.54151 0.272369 2.23678 212 180 141 
-0.537459 0.328026 2.22148 145 113 75 
-0.545371 0.181265 2.25328 102 72 44 
-0.534275 0.440926 2.21373 88 58 34 
-0.549236 0.0445767 2.2659 167 138 108 
-0.526631 0.601612 2.18606 96 62 34 
-0.537222 0.317411 2.22848 116 82 54 
-0.552447 -0.0535385 2.28451 105 74 45 
-0.552033 -0.0661547 2.28546 116 85 54 
-0.52251 0.65717 2.17725 118 85 52 
-0.526242 0.579669 2.19457 139 99 63 
-0.530421 0.485669 2.20921 149 116 83 
-0.542884 0.108026 2.25918 154 119 87 
-0.546082 0.0169767 2.27119 161 130 101 
-0.532714 0.302939 2.22287 162 132 98 
-0.540257 0.165484 2.25185 115 85 51 
-0.518216 0.67979 2.17201 179 143 107 
-0.535012 0.241374 2.2346 119 89 61 
-0.542965 0.0679082 2.26424 171 140 111 
-0.541317 0.092101 2.257 163 129 92 
-0.55224 -0.110349 2.29938 103 77 44 
-0.526741 0.474648 2.20689 111 69 45 
-0.524948 0.546521 2.20204 120 89 58 
-0.552221 -0.122721 2.30244 107 76 45 
-0.53975 0.138174 2.25642 82 56 23 
-0.526577 0.456683 2.20842 112 72 37 
-0.550356 -0.0999114 2.29484 70 46 22 
-0.549046 -0.0779535 2.2921 142 111 82 
-0.53968 0.118177 2.2577 133 102 74 
-0.552154 -0.137858 2.30468 93 66 39 
-0.553361 -0.146284 2.31014 100 69 40 
-0.418366 -0.581829 1.69903 229 80 135 
-0.516404 0.666874 2.17563 126 93 60 
-0.418533 -0.609486 1.70479 183 63 90 
-0.539548 0.0514805 2.26584 162 132 98 
-0.530767 0.263243 2.23344 145 118 89 
-0.542916 -0.0155164 2.27872 118 86 47 
-0.519497 0.557859 2.19258 176 142 114 
-0.543778 -0.0310304 2.28206 160 129 100 
-0.526883 0.361899 2.21895 163 130 97 
-0.513363 0.709321 2.16971 123 89 61 
-0.537668 0.0352096 2.26187 177 143 106 
-0.551246 -0.184115 2.31491 101 73 49 
-0.519866 0.508283 2.19922 118 87 56 
-0.415142 -0.561865 1.69614 42 0 13 
-0.520941 0.524218 2.20485 87 57 31 
-0.51565 0.615465 2.18345 188 155 120 
-0.52495 0.390011 2.21911 90 59 31 
-0.531487 0.233499 2.24329 182 153 119 
-0.522401 0.445933 2.21306 171 136 98 
-0.540824 -0.0450404 2.28199 97 66 38 
-0.529957 0.19273 2.24363 167 138 106 
-0.522442 0.458939 2.21863 196 154 116 
-0.519332 0.496392 2.21306 86 56 32 
-0.51805 0.484799 2.20618 104 70 42 
-0.518268 0.415163 2.20672 191 147 112 
-0.527873 0.172119 2.2437 110 83 53 
-0.40659 -0.413196 1.67409 126 48 44 
-0.51023 0.658289 2.1788 173 140 105 
-0.508717 0.695028 2.17431 182 148 121 
-0.514503 0.540361 2.19721 143 108 70 
-0.410251 -0.535171 1.69378 127 60 78 
-0.53456 0.0234164 2.27404 88 58 24 
-0.531283 0.0626274 2.26121 198 166 127 
-0.517977 0.398307 2.21348 197 155 117 
-0.51876 0.350103 2.21766 132 97 55 
-0.515873 0.536415 2.21123 153 118 80 
-0.509783 0.632222 2.18747 122 89 56 
-0.536068 -0.0614614 2.28497 160 127 96 
-0.540247 -0.142368 2.30513 161 130 99 
-0.513348 0.466535 2.2039 109 75 47 
-0.505818 0.682837 2.17719 111 77 52 
-0.509499 0.566913 2.19117 178 145 110 
-0.527393 0.104215 2.2591 120 86 58 
-0.522567 0.214835 2.24114 91 64 37 
-0.505327 0.618623 2.1782 197 163 126 
-0.517579 0.299875 2.22439 124 84 49 
-0.517126 0.334016 2.22542 94 62 39 
-0.409909 -0.537424 1.70874 20 0 0 
-0.518499 0.270599 2.22992 160 131 101 
-0.524063 0.147027 2.25293 115 86 52 
-0.529069 -0.00638775 2.27244 94 64 38 
-0.516116 0.314553 2.22485 116 79 50 
-0.530633 -0.0352171 2.28264 111 80 51 
-0.506657 0.554455 2.19253 129 95 60 
-0.523085 0.0867424 2.25583 177 146 117 
-0.515754 0.288932 2.22908 86 50 14 
-0.512792 0.388224 2.21998 97 64 33 
-0.524906 0.0537891 2.26448 117 86 55 
-0.397831 -0.352059 1.66839 43 4 7 
-0.520289 0.166664 2.25155 85 61 27 
-0.50654 0.503509 2.19831 182 149 114 
-0.508435 0.43243 2.20831 166 131 103 
-0.527122 0.00196813 2.28276 154 123 92 
-0.529599 -0.0791988 2.29166 73 46 17 
-0.52361 0.0309171 2.26842 106 76 48 
-0.530891 -0.111179 2.29802 103 73 45 
-0.504832 0.525207 2.20035 182 146 110 
-0.531605 -0.132345 2.3017 90 59 30 
-0.521957 0.0431116 2.26378 163 132 104 
-0.520295 0.096965 2.25792 113 80 49 
-0.501513 0.61302 2.18715 210 176 139 
-0.515545 0.222214 2.24142 156 127 97 
-0.524513 0.0111476 2.27639 112 81 50 
-0.531445 -0.148521 2.30477 90 58 33 
-0.512378 0.250738 2.23098 124 89 49 
-0.407913 -0.604652 1.71987 129 36 65 
-0.526241 -0.0536258 2.28639 84 57 30 
-0.507595 0.357525 2.21514 109 73 41 
-0.4974 0.65096 2.1806 168 138 110 
-0.50461 0.447736 2.20825 139 104 72 
-0.508383 0.343292 2.22365 115 81 43 
-0.522113 -0.0254653 2.2792 109 78 49 
-0.524984 -0.092949 2.29361 174 145 113 
-0.513289 0.175001 2.24859 155 124 95 
-0.404531 -0.570041 1.71773 98 9 41 
-0.526103 -0.123402 2.2984 174 143 115 
-0.511988 0.194559 2.24433 103 71 33 
-0.515335 0.0789267 2.25854 79 47 22 
-0.511084 0.21148 2.24266 112 79 48 
-0.495071 0.635422 2.18174 182 149 116 
-0.493582 0.700345 2.17824 201 172 142 
-0.49948 0.566262 2.20274 169 134 96 
-0.514753 0.0648259 2.26026 92 66 39 
-0.513418 0.110441 2.25529 141 114 84 
-0.501341 0.400534 2.21055 176 145 116 
-0.52059 -0.077955 2.28654 116 85 56 
-0.511443 0.130916 2.25287 164 131 100 
-0.506497 0.234368 2.23516 150 117 86 
-0.513493 0.0516252 2.26262 72 45 16 
-0.500765 0.384867 2.21349 123 89 51 
-0.399609 -0.496203 1.71158 179 46 91 
-0.504611 0.277766 2.23228 111 77 42 
-0.503622 0.302628 2.22955 120 86 49 
-0.392745 -0.380112 1.68382 79 0 0 
-0.497417 0.458714 2.2056 138 107 79 
-0.513546 0.025236 2.26678 103 72 41 
-0.517218 -0.0425386 2.28535 155 128 99 
-0.493218 0.568357 2.19356 200 166 129 
-0.492323 0.582722 2.18919 196 166 130 
-0.498614 0.425385 2.216 179 143 111 
-0.513909 -0.018881 2.27676 87 57 29 
-0.492365 0.515328 2.19517 113 79 52 
-0.507228 0.0962624 2.25293 89 56 21 
-0.39787 -0.520988 1.71414 108 23 54 
-0.493264 0.47499 2.20164 103 69 41 
-0.4909 0.535598 2.19091 177 142 112 
-0.488556 0.642141 2.18575 221 179 141 
-0.500659 0.254752 2.2326 104 70 35 
-0.510502 -0.0326992 2.27257 69 41 19 
-0.387473 -0.331809 1.67624 180 57 59 
-0.497989 0.293768 2.22324 172 139 104 
-0.504345 0.181344 2.2512 141 107 79 
-0.505835 0.0751168 2.25962 87 55 30 
-0.485989 0.601624 2.18165 112 82 58 
-0.51178 -0.0533119 2.28381 81 51 25 
-0.507811 -0.00132993 2.2711 142 112 78 
-0.507013 0.0150996 2.26893 151 121 93 
-0.501293 0.138629 2.24604 112 74 37 
-0.396444 -0.57533 1.72272 178 64 97 
-0.511307 -0.0809608 2.28888 92 64 42 
-0.485284 0.565288 2.18682 126 95 66 
-0.501998 0.15848 2.25477 158 123 83 
-0.496243 0.240197 2.23288 158 132 99 
-0.492056 0.373786 2.21647 113 79 44 
-0.394019 -0.504235 1.71757 14 3 11 
-0.391426 -0.465139 1.70734 122 2 48 
-0.48773 0.497288 2.20232 184 149 121 
-0.49233 0.388791 2.22079 87 56 27 
-0.49389 0.320845 2.22584 193 160 127 
-0.494043 0.303643 2.22738 138 108 74 
-0.484883 0.596498 2.19439 212 179 144 
-0.489037 0.43471 2.21247 165 135 99 
-0.495225 0.227021 2.2356 163 136 107 
-0.48713 0.403366 2.20588 195 157 120 
-0.479445 0.652735 2.17851 188 158 124 
-0.487183 0.420369 2.21055 158 124 96 
-0.394079 -0.597094 1.73034 145 60 79 
-0.478419 0.677327 2.17671 119 88 59 
-0.477739 0.700183 2.17531 84 57 30 
-0.494717 0.180134 2.2433 135 108 79 
-0.489887 0.273167 2.22793 196 158 121 
-0.476661 0.66653 2.17641 131 97 70 
-0.502792 -0.037214 2.28001 110 83 56 
-0.481905 0.549511 2.1999 185 154 126 
-0.481535 0.51857 2.19762 125 92 61 
-0.38257 -0.362491 1.68839 166 75 72 
-0.378774 -0.274206 1.67368 48 0 0 
-0.494853 0.123325 2.25113 94 64 38 
-0.485935 0.452266 2.22061 175 138 96 
-0.484589 0.384699 2.21484 159 128 99 
-0.502503 -0.0721049 2.28693 89 58 30 
-0.47865 0.540839 2.19257 210 177 144 
-0.493322 0.136079 2.25126 85 51 23 
-0.483472 0.403072 2.21514 130 95 63 
-0.503708 -0.124886 2.29803 88 57 29 
-0.501306 -0.083709 2.28865 137 110 81 
-0.494377 0.0723179 2.26329 87 53 26 
-0.373495 -0.266974 1.66572 30 0 0 
-0.484891 0.262054 2.23048 110 78 39 
-0.470461 0.688677 2.17341 158 128 102 
-0.479469 0.368284 2.20856 117 84 51 
-0.499689 -0.0963398 2.29452 136 106 78 
-0.480522 0.359931 2.21592 111 78 45 
-0.388926 -0.603075 1.73864 195 72 116 
-0.473659 0.556669 2.19165 173 143 115 
-0.486751 0.148501 2.24909 166 136 108 
-0.489591 0.0599266 2.26214 148 116 91 
-0.475292 0.486408 2.20572 216 180 146 
-0.387398 -0.616992 1.7459 27 0 0 
-0.474986 0.438998 2.21252 97 65 42 
-0.36659 -0.240649 1.65214 201 24 16 
-0.487763 0.0304879 2.26355 94 67 40 
-0.47501 0.425578 2.21425 113 78 46 
-0.485167 0.104505 2.25573 150 119 90 
-0.487257 0.040533 2.26365 152 125 98 
-0.467358 0.655884 2.1849 170 138 100 
-0.470645 0.541716 2.20312 202 166 130 
-0.463966 0.661135 2.17609 128 96 71 
-0.46977 0.459995 2.20156 175 145 109 
-0.374644 -0.389319 1.69891 45 33 35 
-0.468862 0.48429 2.19874 160 126 89 
-0.470507 0.408232 2.20496 176 142 114 
-0.471496 0.400278 2.21631 110 76 49 
-0.471247 0.38805 2.21425 90 58 33 
-0.479024 0.154759 2.2501 96 65 37 
-0.37158 -0.36077 1.69445 84 0 0 
-0.463114 0.599159 2.18656 174 141 108 
-0.47224 0.329363 2.22431 112 79 46 
-0.459876 0.703842 2.17708 96 70 45 
-0.47747 0.164482 2.25015 75 44 16 
-0.460841 0.672988 2.18142 160 133 103 
-0.460715 0.643957 2.18313 175 146 116 
-0.464473 0.499164 2.19634 136 99 73 
-0.477678 0.0978932 2.25536 104 74 48 
-0.45979 0.619834 2.18142 124 95 63 
-0.470379 0.265053 2.22591 137 107 79 
-0.46623 0.430857 2.21163 152 118 81 
-0.379125 -0.608994 1.74066 25 4 0 
-0.379123 -0.567315 1.74428 10 5 9 
-0.470343 0.201254 2.2345 109 78 49 
-0.467383 0.359207 2.22265 108 77 49 
-0.465504 0.341459 2.21613 100 70 34 
-0.47334 0.13147 2.25067 149 123 96 
-0.465032 0.374455 2.21716 205 172 139 
-0.475204 0.0933965 2.26393 170 141 109 
-0.375951 -0.575031 1.73712 28 0 0 
-0.45957 0.549376 2.19744 187 153 116 
-0.46775 0.239442 2.22985 111 77 52 
-0.473624 0.122771 2.25849 79 55 31 
-0.472384 0.108465 2.25517 104 80 54 
-0.373775 -0.53379 1.73322 111 17 41 
-0.366324 -0.380759 1.70108 52 10 0 
-0.458127 0.524302 2.20078 202 171 143 
-0.452439 0.687539 2.17691 171 141 107 
-0.374426 -0.593346 1.74087 124 51 78 
-0.457127 0.476686 2.20058 194 163 134 
-0.454571 0.602991 2.19244 170 143 114 
-0.449941 0.678413 2.17426 151 124 97 
-0.459328 0.382086 2.21387 156 123 90 
-0.447483 0.70693 2.16724 102 70 45 
-0.45048 0.653708 2.18367 159 128 97 
-0.361214 -0.358184 1.69164 228 50 48 
-0.464265 0.15991 2.24253 96 76 51 
-0.450359 0.593586 2.19184 120 90 66 
-0.461297 0.22617 2.23701 88 62 39 
-0.449246 0.570019 2.18671 193 166 136 
-0.457739 0.291283 2.22183 154 127 98 
-0.455773 0.391651 2.2165 199 168 137 
-0.458147 0.263592 2.22661 180 151 121 
-0.450132 0.525151 2.19321 111 81 57 
-0.344081 -0.209676 1.62066 50 0 0 
-0.367518 -0.521811 1.73314 198 150 114 
-0.446884 0.599624 2.18305 74 41 22 
-0.451659 0.450804 2.20927 146 115 87 
-0.367301 -0.557014 1.73668 177 81 108 
-0.446254 0.633895 2.18686 199 161 124 
-0.452917 0.423171 2.21521 86 59 32 
-0.36111 -0.450401 1.71617 47 35 37 
-0.365902 -0.578728 1.73944 143 53 79 
-0.44638 0.512424 2.20085 184 154 128 
-0.439611 0.691708 2.1738 163 128 90 
-0.360709 -0.500357 1.72215 198 129 114 
-0.4436 0.551508 2.19618 77 49 28 
-0.4415 0.585558 2.1882 209 177 138 
-0.443746 0.497811 2.2038 163 136 109 
-0.354105 -0.389277 1.7 183 167 116 
-0.443461 0.471725 2.20295 105 74 46 
-0.437222 0.563304 2.18729 170 137 104 
-0.350922 -0.36493 1.69852 76 7 0 
-0.357955 -0.51453 1.73754 184 130 118 
-0.347911 -0.334258 1.68915 53 29 29 
-0.359196 -0.585689 1.74291 140 50 78 
-0.43758 0.453851 2.19792 188 161 132 
-0.346858 -0.347038 1.69084 233 50 42 
-0.356385 -0.543028 1.73812 144 33 65 
-0.429077 0.693969 2.17056 164 130 103 
-0.433219 0.577981 2.194 165 132 99 
-0.428673 0.667761 2.17296 195 156 117 
-0.434213 0.540034 2.19842 130 94 58 
-0.430286 0.609748 2.18075 113 78 56 
-0.433816 0.493998 2.1998 186 155 124 
-0.433009 0.511861 2.19729 166 135 104 
-0.341095 -0.274772 1.67638 81 77 76 
-0.428006 0.656717 2.18008 169 128 98 
-0.339435 -0.247944 1.67034 148 136 122 
-0.352293 -0.504178 1.73279 158 44 67 
-0.324763 -0.0756619 1.60076 19 19 19 
-0.340349 -0.330758 1.68148 108 97 91 
-0.424706 0.619243 2.18011 162 128 91 
-0.422489 0.638937 2.1748 166 131 103 
-0.427158 0.527116 2.19812 157 122 94 
-0.34818 -0.551516 1.73823 147 51 65 
-0.339624 -0.362158 1.69877 216 89 83 
-0.421162 0.565188 2.18679 185 146 117 
-0.419727 0.60075 2.18063 102 61 31 
-0.345043 -0.525042 1.73431 149 126 120 
-0.346755 -0.583234 1.74335 136 40 67 
-0.334592 -0.324536 1.68692 55 15 16 
-0.330126 -0.284839 1.66575 30 29 27 
-0.334989 -0.344041 1.69337 68 0 0 
-0.414318 0.655536 2.17796 91 57 29 
-0.414493 0.580203 2.18362 196 165 134 
-0.325194 -0.274965 1.66098 216 215 210 
-0.326492 -0.248617 1.66877 43 41 29 
-0.337123 -0.490126 1.7262 89 0 19 
-0.339699 -0.556875 1.74034 113 39 28 
-0.410248 0.608747 2.17852 107 72 42 
-0.408202 0.693778 2.1714 75 45 19 
-0.340959 -0.612734 1.74883 106 17 49 
-0.323256 -0.232353 1.66101 193 62 67 
-0.328693 -0.383244 1.69028 42 38 39 
-0.407063 0.667767 2.1729 170 139 110 
-0.40608 0.703857 2.17444 151 120 89 
-0.335802 -0.53076 1.73671 223 96 139 
-0.333953 -0.507011 1.73296 136 51 48 
-0.32354 -0.316478 1.68649 93 33 25 
-0.333483 -0.574137 1.74155 47 32 27 
-0.31834 -0.241949 1.66809 84 77 71 
-0.329493 -0.591307 1.73498 39 30 25 
-0.32477 -0.454462 1.71955 56 15 21 
-0.394427 0.659351 2.17409 123 92 64 
-0.314552 -0.274083 1.67515 206 68 65 
-0.324072 -0.56855 1.73163 78 43 41 
-0.39178 0.679367 2.17523 74 45 27 
-0.306846 -0.220698 1.6452 30 0 4 
-0.320478 -0.537382 1.72845 146 139 123 
-0.316646 -0.495348 1.72794 121 75 86 
-0.309575 -0.372972 1.68838 211 89 128 
-0.310284 -0.399208 1.7031 238 125 143 
-0.314379 -0.509894 1.72765 58 31 20 
-0.377815 0.701897 2.16298 145 119 96 
-0.285679 0.0160466 1.58069 210 197 180 
-0.309631 -0.481901 1.72203 218 97 138 
-0.300436 -0.271347 1.6752 170 91 86 
-0.303884 -0.428054 1.70981 43 19 17 
-0.305441 -0.494762 1.72376 58 23 27 
-0.30774 -0.567052 1.73523 209 192 185 
-0.304183 -0.55129 1.72519 216 187 181 
-0.302341 -0.567691 1.7255 75 63 63 
-0.289878 -0.2683 1.67412 134 87 77 
-0.292805 -0.349124 1.69171 227 160 193 
-0.295785 -0.498509 1.72007 224 82 108 
-0.294826 -0.451331 1.71774 162 79 49 
-0.296629 -0.559349 1.73224 226 216 204 
-0.282672 -0.167903 1.65615 105 96 81 
-0.289799 -0.43827 1.70943 194 106 118 
-0.28281 -0.375162 1.67473 246 227 221 
-0.289268 -0.476293 1.71815 90 21 0 
-0.282355 -0.325577 1.68465 145 75 101 
-0.284275 -0.447947 1.71116 242 235 225 
-0.287813 -0.542969 1.73498 221 48 41 
-0.287448 -0.566888 1.73573 15 2 0 
-0.27499 -0.257509 1.66918 74 16 12 
-0.283758 -0.511826 1.72207 38 49 35 
-0.281475 -0.486349 1.72944 219 125 61 
-0.269053 -0.227304 1.65218 148 65 61 
-0.273482 -0.368454 1.67786 176 66 105 
-0.281841 -0.552541 1.73622 22 16 4 
-0.282144 -0.581929 1.7433 166 89 33 
-0.26919 -0.284697 1.67568 223 73 72 
-0.26706 -0.237851 1.66122 215 52 57 
-0.278845 -0.535994 1.73461 46 40 4 
-0.258021 -0.136307 1.60668 233 235 234 
-0.271487 -0.438168 1.69464 238 183 176 
-0.268782 -0.381977 1.68932 167 47 95 
-0.275142 -0.521052 1.72837 74 128 96 
-0.268698 -0.453733 1.69111 25 12 6 
-0.271725 -0.489588 1.72066 52 20 0 
-0.264865 -0.405508 1.6857 110 75 69 
-0.273227 -0.589213 1.7442 36 0 0 
-0.27026 -0.575932 1.73861 113 140 97 
-0.250507 -0.197631 1.61142 191 123 124 
-0.268956 -0.557747 1.73204 248 246 223 
-0.260974 -0.414937 1.68458 173 131 132 
-0.26769 -0.537257 1.73385 202 149 115 
-0.258263 -0.426383 1.68516 78 28 27 
-0.259846 -0.396597 1.70158 104 110 84 
-0.261891 -0.521411 1.7303 77 124 92 
-0.263223 -0.549551 1.74181 175 137 114 
-0.260975 -0.569463 1.73751 24 59 27 
-0.251018 -0.284713 1.67768 217 78 75 
-0.258251 -0.50539 1.72506 17 42 23 
-0.257378 -0.5779 1.74232 114 141 100 
-0.254297 -0.492575 1.72265 183 136 118 
-0.25514 -0.535708 1.73208 168 127 97 
-0.254885 -0.556958 1.73141 241 234 226 
-0.24549 -0.294694 1.6759 225 119 141 
-0.243856 -0.266948 1.66681 211 106 77 
-0.245693 -0.357904 1.68837 235 181 197 
-0.247462 -0.400709 1.70134 37 39 25 
-0.253563 -0.60336 1.74721 160 34 45 
-0.226992 -0.147686 1.57233 250 250 248 
-0.249058 -0.570983 1.73784 79 113 88 
-0.239706 -0.260441 1.67447 216 56 34 
-0.243517 -0.413093 1.70325 73 119 82 
-0.241259 -0.370669 1.6906 79 30 0 
-0.245906 -0.506866 1.7266 21 37 26 
-0.222935 -0.081435 1.57085 27 26 32 
-0.245093 -0.533206 1.73202 52 52 16 
-0.23905 -0.381938 1.69638 61 36 29 
-0.237919 -0.451448 1.71416 102 83 77 
-0.236966 -0.472845 1.71796 83 101 87 
-0.237059 -0.516967 1.72766 77 89 77 
-0.238068 -0.571287 1.73991 93 123 85 
-0.233007 -0.409028 1.7024 118 108 98 
-0.226147 -0.311104 1.6544 241 235 223 
-0.228314 -0.275491 1.67206 194 67 35 
-0.214824 -0.143675 1.57478 114 110 111 
-0.22908 -0.398787 1.69933 132 114 104 
-0.228298 -0.383678 1.69608 31 21 9 
-0.228266 -0.417831 1.70455 114 126 104 
-0.209161 0.0875103 1.56983 191 179 163 
-0.227425 -0.440562 1.70915 93 105 93 
-0.208032 -0.104969 1.56932 30 30 32 
-0.218843 -0.318334 1.65431 105 94 90 
-0.22679 -0.481827 1.7186 160 112 89 
-0.226532 -0.529648 1.72254 137 112 82 
-0.228856 -0.58372 1.74217 155 106 73 
-0.225239 -0.512033 1.72491 31 18 1 
-0.221105 -0.37602 1.69444 57 21 0 
-0.215646 -0.306547 1.65126 246 239 233 
-0.224546 -0.560411 1.72848 30 42 32 
-0.226166 -0.597861 1.74443 227 108 42 
-0.223186 -0.575979 1.73507 149 105 76 
-0.216574 -0.351985 1.68502 230 181 200 
-0.213039 -0.257845 1.66639 184 64 29 
-0.215662 -0.386947 1.69491 160 128 107 
-0.215638 -0.44796 1.71469 171 109 94 
-0.21347 -0.443637 1.70101 176 108 97 
-0.216669 -0.546638 1.73058 71 13 11 
-0.198016 -0.145021 1.57443 230 231 233 
-0.21578 -0.508432 1.7238 103 37 15 
-0.217909 -0.590959 1.74154 172 125 99 
-0.213996 -0.464987 1.71352 156 110 77 
-0.210062 -0.3707 1.69242 190 136 102 
-0.21308 -0.536714 1.73099 180 85 79 
-0.190337 -0.0738308 1.55692 0 0 4 
-0.20044 -0.234555 1.65522 162 25 9 
-0.199152 -0.331761 1.65537 150 139 133 
-0.206636 -0.493936 1.72078 129 39 30 
-0.204589 -0.423643 1.70443 144 41 45 
-0.202791 -0.409924 1.70071 52 20 0 
-0.205325 -0.51733 1.72602 99 31 20 
-0.194417 -0.319634 1.65106 233 224 215 
-0.200707 -0.443525 1.70874 172 104 85 
-0.198653 -0.37523 1.69274 178 141 122 
-0.198864 -0.395426 1.69551 130 98 87 
-0.198197 -0.488416 1.71818 140 41 44 
-0.190854 -0.240022 1.6581 218 167 150 
-0.180041 -0.0674574 1.55505 0 0 2 
-0.1941 -0.415977 1.70174 129 110 93 
-0.195298 -0.45935 1.71205 168 92 76 
-0.187514 -0.23308 1.64934 220 204 214 
-0.194147 -0.479202 1.71543 142 37 44 
-0.193367 -0.499511 1.72054 112 39 20 
-0.189301 -0.384086 1.69291 152 115 86 
-0.192966 -0.52807 1.72661 170 112 100 
-0.189176 -0.369739 1.69024 207 170 141 
-0.180374 -0.200903 1.61111 183 85 82 
-0.189183 -0.401472 1.69746 180 153 136 
-0.188769 -0.425379 1.70358 46 23 9 
-0.190764 -0.54594 1.7319 57 25 12 
-0.181227 -0.33182 1.65393 252 243 234 
-0.180215 -0.345751 1.6582 189 180 171 
-0.182048 -0.597219 1.67457 100 99 95 
-0.182168 -0.392101 1.69329 87 55 30 
-0.18128 -0.416104 1.70014 149 121 109 
-0.180088 -0.376762 1.6916 181 136 113 
-0.180456 -0.482241 1.71476 209 153 120 
-0.181653 -0.524785 1.72555 77 32 13 
-0.178686 -0.439352 1.70596 36 32 23 
-0.177306 -0.42915 1.70406 95 120 98 
-0.1744 -0.404736 1.69522 103 71 56 
-0.167844 -0.354611 1.65818 161 152 143 
-0.17073 -0.413301 1.69956 69 37 24 
-0.168569 -0.587583 1.67592 228 225 218 
-0.16919 -0.381506 1.69111 42 11 0 
-0.169783 -0.46959 1.71286 67 34 19 
-0.15299 -0.0555619 1.55063 226 227 231 
-0.167469 -0.442003 1.70436 12 41 23 
-0.165334 -0.398929 1.68732 198 166 125 
-0.152273 -0.127559 1.59366 83 63 54 
-0.163615 -0.502476 1.71934 189 146 114 
-0.14393 -0.0252301 1.53919 227 226 231 
-0.155716 -0.421702 1.70054 87 131 104 
-0.149241 -0.139593 1.63933 198 168 144 
-0.155773 -0.553701 1.73114 81 46 50 
-0.138074 -0.00770653 1.53873 212 211 216 
-0.148043 -0.370937 1.65973 241 234 228 
-0.151236 -0.438985 1.70476 74 88 73 
-0.151174 -0.502 1.71621 29 19 9 
-0.149946 -0.450162 1.70753 37 38 24 
-0.13657 -0.0327682 1.54737 159 158 163 
-0.141345 -0.147525 1.62692 213 184 168 
-0.14264 -0.173811 1.64636 214 187 166 
-0.144021 -0.356956 1.6593 234 225 218 
-0.146854 -0.412716 1.69648 51 101 72 
-0.140527 -0.192868 1.65078 132 105 94 
-0.142837 -0.603324 1.67458 197 196 192 
-0.143309 -0.425249 1.70166 29 31 18 
-0.142677 -0.454698 1.70211 132 124 113 
-0.142217 -0.485294 1.71561 21 43 30 
-0.114605 0.297552 1.37874 199 153 155 
-0.136393 -0.36578 1.66052 249 240 231 
-0.137857 -0.398282 1.69178 163 149 120 
-0.138215 -0.508307 1.71975 73 120 88 
-0.131468 -0.179474 1.64649 56 33 25 
-0.137495 -0.560686 1.73236 16 0 10 
-0.132899 -0.382005 1.67977 54 38 22 
-0.127288 -0.147539 1.61782 78 52 39 
-0.127589 -0.189983 1.64867 127 101 88 
-0.130493 -0.385971 1.69192 157 110 66 
-0.125772 -0.111494 1.63257 231 182 167 
-0.130502 -0.44497 1.70397 145 142 127 
-0.122787 -0.135283 1.6342 239 180 172 
-0.115779 -0.047075 1.55332 195 194 199 
-0.124412 -0.37576 1.6867 117 60 31 
-0.125156 -0.454566 1.69916 66 66 56 
-0.126049 -0.566609 1.72918 137 42 48 
-0.118605 -0.193155 1.65353 35 11 1 
-0.115971 -0.127021 1.63525 229 185 172 
-0.115904 -0.181881 1.64725 81 16 20 
-0.118553 -0.386848 1.68939 168 112 85 
-0.1138 -0.116654 1.6337 226 199 180 
-0.115574 -0.418786 1.6562 230 201 183 
-0.112912 -0.295369 1.63829 198 154 115 
-0.105285 -0.109788 1.63149 196 65 79 
-0.107358 -0.411984 1.6564 232 204 183 
-0.109982 -0.50819 1.70818 80 79 58 
-0.111102 -0.559272 1.73114 21 0 10 
-0.107856 -0.375246 1.68638 181 160 167 
-0.104975 -0.353621 1.68108 171 157 170 
-0.107806 -0.541889 1.7254 235 128 22 
-0.101009 -0.294338 1.64278 189 142 96 
-0.0996751 -0.430211 1.65729 227 196 176 
-0.0990168 -0.419995 1.65608 245 214 193 
-0.0952652 -0.304056 1.63962 188 142 93 
-0.096572 -0.375202 1.68594 179 163 174 
-0.0971007 -0.610635 1.74278 53 6 0 
-0.0947465 -0.503324 1.70283 71 66 44 
-0.0938407 -0.453125 1.68431 32 28 19 
-0.0893277 -0.41081 1.6548 107 80 63 
-0.0927569 -0.590506 1.73425 124 116 103 
-0.0900076 -0.366086 1.68381 186 169 187 
-0.0872917 -0.383869 1.68848 8 0 0 
-0.0836617 -0.395065 1.65641 149 101 91 
-0.0808445 -0.187355 1.64482 129 107 94 
-0.0808806 -0.428201 1.65546 113 84 68 
-0.0788967 -0.464629 1.68538 85 84 54 
-0.0788113 -0.366984 1.68231 169 158 166 
-0.0766291 -0.41094 1.6523 235 203 188 
-0.0735903 -0.377438 1.6849 51 82 84 
-0.0687835 -0.178968 1.64245 30 26 17 
-0.0710851 -0.605313 1.73526 26 29 34 
-0.0638984 -0.552548 1.72464 196 138 118 
-0.0541347 -0.406422 1.6516 129 97 82 
-0.0544203 -0.577269 1.72952 39 12 1 
-0.0508509 -0.259389 1.65743 60 44 45 
-0.0456474 -0.24079 1.61437 2 0 1 
-0.0457612 -0.527453 1.69838 41 12 8 
-0.0437568 -0.41274 1.65033 166 132 122 
-0.0430957 -0.55047 1.72381 123 112 106 
-0.042532 -0.562376 1.72592 138 97 93 
-0.03994 -0.264972 1.65609 0 0 0 
-0.0392867 -0.577632 1.72599 46 27 21 
-0.0369142 -0.0687164 1.62302 201 188 171 
-0.0368349 -0.18553 1.64175 211 166 160 
-0.0364046 -0.253225 1.65103 4 0 2 
-0.0313995 -0.169034 1.60798 158 149 144 
-0.0288814 -0.263392 1.653 0 8 17 
-0.029223 -0.381404 1.68227 68 21 5 
-0.0281784 -0.535503 1.71541 137 92 87 
-0.0283913 -0.570242 1.71276 96 81 76 
-0.026478 -0.557084 1.7179 123 86 80 
-0.0243792 -0.326544 1.66408 117 91 42 
-0.0210399 -0.397643 1.68087 35 0 0 
-0.020533 -0.532279 1.70205 5 1 0 
-0.0200318 -0.360128 1.67338 190 130 119 
-0.0188796 -0.587916 1.71853 105 78 71 
-0.0173881 -0.374719 1.67553 120 72 68 
-0.0159726 -0.342159 1.66712 32 45 28 
-0.0132514 -0.227164 1.60389 188 118 142 
-0.00941789 0.881526 2.81192 249 214 210 
-0.00713747 -0.329437 1.65575 65 94 74 
-0.00418032 -0.517042 1.6883 24 0 0 
-0.0028945 -0.364466 1.65651 20 0 0 
-0.00264236 -0.564417 1.69876 8 0 0 
-0.000946569 -0.305312 1.64772 74 76 62 
-0.000797759 -0.29587 1.6313 186 165 136 
0.00158963 -0.345513 1.6503 59 3 0 
0.00169163 -0.329371 1.64804 20 5 2 
0.00332406 0.343056 1.53455 63 49 38 
0.00395508 -0.381523 1.65211 104 76 73 
0.0157462 -0.324692 1.62318 209 146 115 
0.0158318 -0.348157 1.62508 53 25 22 
0.0215668 -0.309433 1.61889 38 34 31 
0.0222803 -0.214996 1.57275 218 217 222 
0.0251305 -0.335652 1.62675 196 147 133 
0.0295087 -0.231951 1.57844 141 139 140 
0.0412079 -0.102015 1.62749 188 176 162 
0.0430633 -0.218047 1.57255 238 238 238 
0.0520349 -0.381633 1.67232 119 103 90 
0.0562131 -0.326597 1.66152 189 181 170 
0.0574024 -0.196333 1.55759 45 45 47 
0.064974 -0.319369 1.66259 208 201 193 
0.0626378 -0.160146 1.58228 15 15 17 
0.0868464 -0.152825 1.56051 72 72 74 
0.103933 0.158725 1.56658 192 175 159 
0.114495 -0.33559 1.66978 222 210 194 
0.113 0.180865 1.56602 188 172 156 
0.117398 0.108535 1.57858 192 176 160 
0.131555 -0.348935 1.49133 169 151 137 
0.14638 0.224891 1.55494 188 172 159 
0.152689 0.0892548 1.57728 195 178 162 
0.154742 0.165044 1.56178 140 96 61 
0.158349 0.232375 1.55054 190 174 159 
0.16612 0.0794325 1.57941 199 186 169 
0.168471 0.134127 1.56686 143 98 65 
0.167471 0.175516 1.55927 140 99 71 
0.17178 -0.213048 1.57469 140 138 139 
0.17293 -0.0504602 1.58379 16 14 17 
0.172016 -0.187422 1.56154 224 225 230 
0.171061 0.203908 1.55026 54 44 42 
0.174476 0.119437 1.57028 70 36 24 
0.177982 -0.0414911 1.57912 107 99 86 
0.18157 -0.0277577 1.60357 118 104 91 
0.179494 -0.20237 1.56839 208 206 209 
0.182078 -0.167683 1.55618 211 210 215 
0.18303 0.144655 1.56401 56 48 45 
0.183153 0.193253 1.55393 61 37 25 
0.184367 0.172739 1.55831 61 43 33 
0.187262 0.155554 1.56155 144 87 60 
0.187998 0.184175 1.55567 124 88 64 
0.191832 0.137151 1.56524 136 89 69 
0.197042 -0.0258064 1.60082 110 96 83 
0.193562 0.117889 1.56936 142 96 62 
0.196715 -0.0407107 1.583 166 146 135 
0.197825 0.159816 1.5595 141 98 66 
0.198891 0.150111 1.56224 135 83 61 
0.206321 0.00876121 1.59362 149 135 122 
0.203902 0.118759 1.56805 149 96 64 
0.205844 0.177927 1.55581 135 94 66 
0.215697 0.0118958 1.58242 222 208 195 
0.216349 -0.00936 1.58724 84 65 58 
0.22301 -0.0733306 1.60846 108 70 69 
0.222537 0.179572 1.55423 138 90 68 
0.226981 0.154723 1.5592 139 98 68 
0.22871 0.198357 1.55058 125 84 52 
0.248036 0.221086 1.54454 131 95 69 
0.253924 0.178969 1.55219 136 89 61 
0.254817 0.167383 1.55531 131 88 56 
0.25611 0.146902 1.5585 133 99 72 
0.255259 0.199785 1.54862 63 45 45 
0.258147 0.131377 1.56224 145 100 67 
0.261182 0.106591 1.56804 140 100 65 
0.269519 0.127852 1.56234 61 40 23 
0.270106 0.144719 1.55901 57 37 26 
0.271717 0.111565 1.56502 57 47 38 
0.265743 0.340833 1.50094 107 41 0 
0.279925 0.14193 1.55875 143 93 58 
0.280728 0.118354 1.56344 138 98 72 
0.285442 0.129694 1.56085 52 35 19 
0.284013 0.182737 1.55051 136 87 54 
0.285752 0.165824 1.55402 140 96 61 
0.26673 -0.117281 1.43533 241 234 226 
0.287514 0.149704 1.55648 139 98 80 
0.292617 0.108157 1.56467 141 107 79 
0.293733 0.136377 1.5566 52 47 41 
0.299475 0.153297 1.55735 36 21 14 
0.299767 0.182295 1.5518 192 179 170 
0.29038 0.359217 1.50223 130 88 14 
0.303269 0.0983652 1.56538 66 44 31 
0.306264 0.160776 1.55527 142 111 93 
0.299617 0.249251 1.51313 122 65 0 
0.31295 0.188603 1.55035 186 173 156 
0.306989 0.359272 1.50294 166 113 37 
0.338807 0.407537 1.46955 124 57 0 
0.353518 0.246599 1.51511 143 89 27 
0.37643 0.363038 1.49668 236 204 165 
0.368796 0.407324 1.4591 216 173 104 
0.381348 0.402003 1.46051 136 58 0 
0.403709 0.329813 1.50271 237 191 139 
0.62814 -0.68513 2.36155 136 102 65 
0.639839 -0.707886 2.35682 177 147 113 
0.40064 0.392513 1.44319 179 100 0 
0.64354 -0.659617 2.34562 177 148 118 
0.413999 0.374642 1.47841 230 186 125 
0.419798 0.285579 1.49893 206 137 7 
0.648952 -0.700752 2.35716 201 172 142 
0.404495 0.215272 1.43523 188 118 46 
0.644175 -0.642672 2.33717 110 80 56 
0.418151 0.363838 1.48458 201 116 0 
0.421965 0.307952 1.49622 229 144 17 
0.651975 -0.643449 2.34492 188 159 125 
0.407848 0.386973 1.43575 169 98 10 
0.423675 0.296712 1.49543 192 117 0 
0.422451 0.277529 1.49027 174 124 39 
0.424309 0.324886 1.49302 148 62 13 
0.661129 -0.673346 2.35894 200 167 132 
0.661754 -0.69072 2.3584 188 153 121 
0.429926 0.303611 1.48893 189 120 3 
0.416321 0.378057 1.43709 106 26 0 
0.66842 -0.668308 2.35115 198 165 130 
0.42371 0.36769 1.4555 155 90 0 
0.674857 -0.64641 2.3462 115 86 54 
0.433544 0.285409 1.47073 194 125 34 
0.680197 -0.6937 2.34644 114 83 54 
0.433447 0.345917 1.45755 158 95 15 
0.43735 0.297281 1.46058 118 52 0 
0.438137 0.325547 1.45309 87 26 0 
0.698013 -0.628004 2.34609 111 85 62 
0.703549 -0.694089 2.35193 67 50 34 
0.705318 -0.716052 2.356 127 97 69 
0.703818 -0.64044 2.34563 163 132 111 
0.707432 -0.667731 2.34038 112 82 54 
0.707789 -0.584577 2.33492 164 138 115 
0.714541 -0.705985 2.35364 197 158 125 
0.708663 -0.601001 2.3302 171 143 121 
0.717666 -0.599376 2.33791 118 90 66 
0.721704 -0.643216 2.34366 195 165 131 
0.727956 -0.720268 2.36149 118 86 61 
0.727816 -0.655214 2.34656 187 149 112 
0.732065 -0.682163 2.35879 123 93 69 
0.722812 -0.548006 2.32549 114 83 54 
0.72938 -0.605665 2.34059 188 150 113 
0.730488 -0.567444 2.33873 188 155 120 
0.736967 -0.64636 2.34378 133 100 67 
0.741167 -0.694391 2.35164 129 99 71 
0.741548 -0.633421 2.34186 194 163 132 
0.738039 -0.546543 2.32653 200 162 125 
0.738787 -0.555646 2.32082 198 164 129 
0.74408 -0.592606 2.33485 189 159 131 
0.746999 -0.578546 2.33997 201 175 148 
0.747998 -0.581722 2.33079 126 103 85 
0.753927 -0.680581 2.34404 117 93 67 
0.758379 -0.587183 2.33266 112 90 67 
0.751793 -0.516854 2.3131 112 90 67 
0.755495 -0.545177 2.32274 118 86 61 
0.762679 -0.629916 2.33911 146 128 108 
0.760396 -0.69071 2.33262 136 113 97 
0.759857 -0.611506 2.32899 129 101 77 
0.757122 -0.494561 2.31799 164 137 108 
0.763967 -0.591284 2.32538 127 95 56 
0.772451 -0.672219 2.35079 107 89 65 
0.765877 -0.556796 2.32346 181 148 107 
0.772348 -0.625676 2.33913 119 97 74 
0.768813 -0.505215 2.31329 182 152 114 
0.773838 -0.518921 2.31913 174 142 103 
0.772594 -0.488608 2.31063 107 77 43 
0.782882 -0.578846 2.33579 114 90 66 
0.774693 -0.472764 2.31108 118 84 57 
0.780422 -0.551436 2.32298 124 102 79 
0.780712 -0.526134 2.31797 114 90 66 
0.782225 -0.496753 2.31569 196 169 139 
0.793946 -0.482667 2.32318 111 93 69 
0.772414 0.582746 2.12664 171 138 103 
0.84826 -0.405658 2.30672 159 147 135 
0.778819 0.612737 2.117 96 64 43 
0.884282 -0.19906 2.27224 175 160 139 
0.914495 -0.336021 2.28622 137 124 115 
0.945922 -0.335963 2.29167 193 180 164 
0.966064 -0.357785 2.29214 138 120 106 
0.969727 -0.338734 2.29018 198 181 165 
1.10868 -0.52396 2.31106 155 139 126 
1.17234 -0.643793 2.33571 182 161 144 
1.2002 -0.59809 2.32131 191 172 155 
1.01914 0.417568 1.7723 182 162 138 
-1.16507 0.0292407 2.21065 88 70 58 
-1.13997 -0.121968 2.2406 81 63 49 
-1.12992 -0.156933 2.24986 98 80 60 
-1.11357 -0.0552353 2.22023 85 68 50 
-1.10492 -0.0912789 2.22782 99 81 61 
-1.11002 -0.29064 2.27901 103 82 61 
-1.10007 -0.13632 2.23812 98 77 58 
-1.0997 -0.285877 2.28004 57 40 22 
-1.09758 -0.354104 2.29738 110 86 60 
-1.09136 -0.31685 2.28631 113 93 69 
-1.08281 -0.122739 2.23589 129 109 84 
-1.08759 -0.387637 2.2977 114 91 73 
-1.08388 -0.169517 2.25219 139 115 89 
-1.07391 -0.198806 2.25031 110 89 68 
-1.07863 -0.427818 2.30764 108 90 68 
-1.0724 -0.114954 2.23545 55 38 18 
-1.07376 -0.212816 2.26314 49 30 16 
-1.07261 -0.460314 2.31363 160 135 115 
-1.06265 0.169865 2.1747 121 100 81 
-1.071 -0.470681 2.31326 158 133 111 
-1.05977 0.100835 2.18736 53 36 18 
-1.05542 -0.109229 2.22304 95 74 55 
-1.06284 -0.268334 2.27366 126 107 90 
-1.06078 -0.220251 2.26006 140 113 96 
-1.05905 -0.184269 2.2508 177 152 122 
-1.05245 -0.152933 2.23371 135 111 85 
-1.0576 -0.381876 2.29454 67 45 31 
-1.05736 -0.493577 2.31642 140 114 87 
-1.05001 -0.128636 2.23302 139 115 89 
-1.04067 0.401991 2.11735 88 56 31 
-1.04191 0.167601 2.16304 62 39 25 
-1.04544 -0.0943362 2.22305 69 47 24 
-1.04112 0.426774 2.11705 141 119 95 
-1.0385 0.434662 2.1126 127 100 79 
-1.0487 -0.291087 2.2754 147 125 101 
-1.03487 0.532981 2.09126 70 45 23 
-1.05255 -0.536957 2.33438 169 148 121 
-1.04105 -0.110042 2.22809 179 155 129 
-1.03736 0.0468764 2.19271 153 126 97 
-1.03318 0.453333 2.10852 80 52 31 
-1.03699 0.141916 2.17444 81 59 36 
-1.0457 -0.450361 2.30624 149 127 104 
-1.04345 -0.216733 2.25696 98 68 42 
-1.04511 -0.349821 2.28729 87 63 39 
-1.04722 -0.389944 2.29978 145 120 100 
-1.03607 0.0050253 2.20335 130 102 81 
-1.03384 -0.120839 2.2259 137 112 90 
-1.03748 0.0321412 2.20583 83 56 29 
-1.03456 -0.102196 2.2243 131 106 76 
-1.02686 0.580085 2.0819 102 78 50 
-1.02624 0.350209 2.12908 63 38 16 
-1.03815 -0.335428 2.28465 190 162 138 
-1.02642 0.429597 2.11551 163 133 97 
-1.02319 0.556042 2.08522 73 46 37 
-1.03862 -0.360618 2.29266 78 51 30 
-1.03001 -0.157201 2.23782 183 159 135 
-1.02606 0.0942959 2.18431 87 65 44 
-1.03241 -0.239685 2.2619 176 150 123 
-1.02126 0.41176 2.11627 161 128 97 
-1.01923 0.523199 2.09066 104 70 45 
-1.03043 -0.0103315 2.21555 70 46 20 
-1.03273 -0.497609 2.31347 57 33 21 
-1.03296 -0.382635 2.29613 74 48 35 
-1.01846 0.50525 2.09755 156 125 96 
-1.02415 -0.00208715 2.2113 81 57 33 
-1.02706 -0.469014 2.30854 175 143 105 
-1.02703 -0.458462 2.30693 166 134 96 
-1.01796 0.193464 2.16479 131 103 79 
-1.02804 -0.334987 2.28631 111 83 61 
-1.01852 0.063037 2.19138 111 80 51 
-1.02259 -0.242775 2.26116 106 78 54 
-1.01396 0.213659 2.15763 119 92 62 
-1.01352 0.0988456 2.17903 157 133 105 
-1.02275 -0.315302 2.27917 117 86 55 
-1.01118 0.435184 2.11373 168 137 109 
-1.0096 0.444767 2.10825 181 147 119 
-1.02242 -0.427628 2.30204 174 144 108 
-1.01466 -0.15506 2.23323 148 123 93 
-1.0211 -0.359211 2.29103 171 140 109 
-1.01856 -0.287996 2.27417 192 158 120 
-1.00512 0.561231 2.08601 138 105 72 
-1.01068 -0.181588 2.24096 164 134 100 
-1.01388 0.0184349 2.21137 180 142 105 
-1.01166 -0.0575672 2.22152 97 67 39 
-1.01705 -0.531714 2.32516 168 140 103 
-1.01427 -0.457422 2.30463 180 143 114 
-1.00238 0.374071 2.12147 84 56 35 
-1.00826 -0.113534 2.22653 142 112 84 
-1.00604 0.206962 2.16393 147 116 87 
-1.00077 0.437778 2.11036 145 110 72 
-1.01082 -0.332993 2.27928 120 90 56 
-0.999318 0.572631 2.08304 186 152 117 
-1.00877 -0.236054 2.25716 108 81 54 
-0.997844 0.539077 2.08839 122 92 64 
-1.01256 -0.41728 2.30181 97 62 34 
-1.01021 -0.303363 2.27746 206 174 136 
-0.991702 0.681542 2.05515 131 100 79 
-1.00783 -0.493152 2.31337 220 179 123 
-1.00071 -0.154082 2.24107 189 160 120 
-0.991037 0.507854 2.09578 124 91 56 
-0.991335 0.391656 2.11979 84 54 28 
-0.993425 0.324956 2.13966 86 59 32 
-0.998254 -0.225621 2.25586 165 136 104 
-0.98687 0.625567 2.07112 103 77 52 
-0.985801 0.459407 2.10026 175 140 102 
-0.996892 -0.062108 2.22373 159 129 101 
-0.990931 0.0872739 2.18357 187 148 109 
-0.98745 0.406562 2.11702 173 140 109 
-0.992426 -0.118219 2.22967 87 57 31 
-0.997355 -0.305665 2.27695 224 182 144 
-0.997059 -0.294625 2.27451 188 145 110 
-0.987601 0.370167 2.1295 180 148 109 
-0.983688 0.598711 2.07773 85 59 34 
-0.991306 0.0239483 2.20565 183 153 129 
-0.992812 -0.0870672 2.22864 82 58 34 
-0.990944 -0.153619 2.23701 203 164 121 
-0.983074 0.568197 2.08488 141 114 85 
-0.992005 -0.244797 2.26068 192 157 119 
-0.982805 0.431969 2.11236 116 81 43 
-0.989334 -0.103218 2.22802 200 167 126 
-0.99222 -0.269822 2.2662 129 90 59 
-0.988651 -0.0529685 2.22016 194 161 130 
-0.990494 -0.208097 2.25401 196 152 127 
-0.980374 0.371273 2.12419 110 79 48 
-0.983802 0.27894 2.15029 142 117 86 
-0.980403 0.414194 2.11794 165 131 96 
-0.986469 0.0327925 2.20487 95 65 39 
-0.980014 0.328696 2.13469 92 64 42 
-0.977174 0.456094 2.10735 102 72 38 
-0.982587 -0.111217 2.2292 90 63 34 
-0.975135 0.523904 2.09315 121 91 65 
-0.988911 -0.592685 2.33563 180 148 123 
-0.98597 -0.443269 2.30332 115 81 54 
-0.990362 -0.618421 2.34759 189 160 120 
-0.988991 -0.607528 2.34294 161 130 99 
-0.970882 0.566474 2.08038 174 143 115 
-0.981053 -0.0626046 2.22382 105 78 48 
-0.982614 -0.455153 2.30325 179 149 121 
-0.979182 -0.050086 2.22087 98 72 47 
-0.98622 -0.582455 2.34121 109 80 50 
-0.976743 -0.202754 2.24784 174 144 110 
-0.982389 -0.332242 2.28801 132 101 72 
