ply                 
format ascii 1.0    
element vertex 1217
property float x    
property float y    
property float z    
property uchar red  
property uchar green
property uchar blue 
end_header          
-0.960176 0.383395 2.19316 110 79 48 
-0.944491 0.599314 2.15886 192 152 116 
-0.995382 -0.088567 2.26999 87 57 31 
-1.01783 -0.34861 2.32048 138 104 58 
-0.948886 0.504693 2.16957 120 87 56 
-0.95087 0.47549 2.17492 130 99 68 
-1.01778 -0.364171 2.32184 116 83 48 
-1.00902 -0.240401 2.30256 209 167 125 
-0.94077 0.592541 2.15347 156 117 78 
-0.942342 0.56477 2.15626 190 160 124 
-0.98889 0.029987 2.25945 117 84 53 
-0.939228 0.576424 2.14976 153 114 73 
-0.97376 0.192425 2.22663 89 63 36 
-1.01496 -0.33133 2.31693 145 107 68 
-0.967051 0.286446 2.21207 187 157 123 
-0.978272 0.0785771 2.23713 174 143 115 
-1.01218 -0.302292 2.31351 219 177 135 
-0.94654 0.52257 2.1697 116 86 62 
-0.996457 -0.132183 2.2798 198 164 129 
-0.932908 0.664984 2.14135 197 159 122 
-0.966197 0.24835 2.21504 180 150 122 
-1.02414 -0.456732 2.34274 110 72 35 
-0.998549 -0.206065 2.28649 122 89 56 
-0.937334 0.625099 2.15235 172 142 108 
-0.968983 0.1606 2.22151 99 67 44 
-0.986551 -0.0432787 2.26439 173 142 113 
-0.931946 0.655357 2.14397 198 164 127 
-0.94991 0.444899 2.18435 124 93 62 
-0.977162 0.0599218 2.24352 130 97 66 
-1.0159 -0.406125 2.33031 183 142 90 
-0.987322 -0.02565 2.26762 201 171 135 
-1.00169 -0.21422 2.29997 209 180 146 
-0.990023 -0.0685479 2.27478 189 150 117 
-0.953946 0.35398 2.1958 124 94 58 
-1.01862 -0.469222 2.33866 184 154 118 
-0.964669 0.236221 2.22019 170 140 112 
-0.950375 0.480643 2.19058 212 186 149 
-0.981609 0.0171221 2.25863 173 143 109 
-0.992071 -0.0802658 2.28191 198 167 136 
-0.940595 0.538767 2.16846 203 170 129 
-0.974855 0.0502981 2.24345 118 88 52 
-0.944671 0.488389 2.17775 230 201 161 
-0.950186 0.427337 2.19081 145 104 72 
-0.965188 0.174409 2.22234 179 150 116 
-1.0303 -0.581827 2.36875 149 120 86 
-1.01963 -0.492017 2.34419 216 176 124 
-0.939382 0.556345 2.16734 132 97 65 
-0.967855 0.221259 2.23252 218 188 152 
-0.939472 0.510163 2.16984 195 164 133 
-0.999116 -0.256542 2.30209 119 83 51 
-1.00818 -0.365772 2.32345 131 98 63 
-0.966045 0.106806 2.22789 82 52 24 
-0.979871 0.00570092 2.2602 192 163 133 
-0.936489 0.529355 2.16381 198 163 125 
-1.01419 -0.414329 2.33748 120 82 45 
-0.948588 0.379513 2.19104 187 159 122 
-0.930891 0.562116 2.15193 202 170 132 
-1.00321 -0.270925 2.31312 224 187 143 
-0.971484 0.0851234 2.24262 102 75 45 
-0.996884 -0.236406 2.2997 181 148 113 
-0.932762 0.575669 2.15747 140 114 91 
-0.949483 0.40087 2.19543 183 146 102 
-0.965623 0.13099 2.23006 133 102 71 
-0.949745 0.363832 2.19618 185 148 103 
-0.965369 0.0946568 2.2303 154 128 95 
-0.978832 -0.022107 2.26176 115 90 59 
-0.952029 0.31837 2.20257 117 87 49 
-0.981885 -0.0851521 2.27068 164 137 108 
-0.955457 0.270351 2.21312 110 80 46 
-1.01342 -0.505016 2.34314 126 87 54 
-0.95833 0.125162 2.21951 182 151 123 
-1.00601 -0.400161 2.32715 127 93 56 
-1.00289 -0.315908 2.32149 210 178 139 
-0.950478 0.339113 2.20585 114 86 49 
-0.942491 0.408581 2.18705 120 87 52 
-0.985554 -0.128549 2.28214 207 175 136 
-0.98854 -0.205273 2.28987 197 171 138 
-0.924605 0.68771 2.14804 147 111 75 
-0.997274 -0.290568 2.30971 171 137 99 
-0.985183 -0.0387883 2.28447 183 150 117 
-0.921793 0.666529 2.14247 173 142 113 
-0.926578 0.59242 2.1532 116 85 54 
-1.00111 -0.325383 2.32127 216 186 148 
-0.924547 0.647759 2.1508 188 156 115 
-0.933699 0.521405 2.17122 187 153 118 
-0.951645 0.295309 2.21187 134 102 64 
-0.970969 0.0368797 2.2543 161 131 103 
-1.00922 -0.49141 2.33959 115 85 51 
-1.01401 -0.51532 2.35134 198 158 106 
-0.954036 0.241212 2.21748 175 142 109 
-0.923164 0.619198 2.14902 105 75 39 
-0.95689 0.215947 2.22491 102 75 46 
-0.937401 0.45234 2.18326 154 120 83 
-1.01211 -0.53702 2.35083 115 80 40 
-0.999341 -0.335532 2.32313 174 144 108 
-0.932707 0.478444 2.17399 197 159 122 
-0.940424 0.421883 2.19157 223 194 154 
-1.00768 -0.421551 2.34217 201 163 116 
-0.916197 0.686119 2.1371 204 170 133 
-0.922972 0.606229 2.15275 106 77 45 
-1.01963 -0.632567 2.37035 153 120 87 
-0.985737 -0.18898 2.29396 179 146 115 
-0.964985 0.0503688 2.24818 123 92 63 
-0.974196 -0.0930718 2.268 178 149 115 
-0.95548 0.189843 2.22745 176 145 114 
-1.02281 -0.602022 2.38054 145 115 91 
-0.975678 -0.0412512 2.27271 147 114 79 
-1.00131 -0.374159 2.33172 215 181 143 
-0.937918 0.366393 2.19018 118 87 59 
-0.969212 -0.00242252 2.26111 199 170 128 
-0.999043 -0.32924 2.32991 144 113 84 
-0.967116 0.0264139 2.25675 130 99 71 
-0.977828 -0.143768 2.28106 186 158 121 
-0.917305 0.68008 2.14663 215 181 144 
-0.952042 0.161812 2.22349 171 140 111 
-0.94958 0.14483 2.21808 148 117 86 
-0.91533 0.654245 2.14347 133 100 65 
-0.941984 0.327387 2.20287 146 115 86 
-0.947003 0.258411 2.21381 197 159 122 
-0.948517 0.22551 2.21719 180 151 119 
-1.00363 -0.466517 2.34087 210 175 135 
-0.915929 0.643115 2.14422 146 114 76 
-0.992466 -0.346045 2.31786 180 151 117 
-1.00538 -0.526382 2.34774 178 143 103 
-0.950014 0.205593 2.22377 116 86 50 
-0.931694 0.415617 2.18292 144 114 76 
-0.943642 0.273998 2.20989 182 153 119 
-0.955302 0.0976675 2.23521 182 156 123 
-0.970266 -0.0843234 2.27113 113 83 57 
-1.01464 -0.600351 2.3738 103 78 47 
-0.933466 0.442898 2.19063 192 152 116 
-0.935682 0.344927 2.19482 131 100 69 
-0.935976 0.374223 2.19601 223 189 151 
-0.936086 0.385265 2.19656 219 187 149 
-0.923708 0.519348 2.16803 216 181 149 
-0.956822 0.0722982 2.24178 197 168 136 
-0.949784 0.115402 2.22658 108 78 54 
-0.937571 0.311903 2.20024 123 86 59 
-0.976857 -0.178756 2.28875 126 93 58 
-0.997445 -0.48052 2.33665 126 92 55 
-0.925098 0.500986 2.17476 135 96 55 
-1.01196 -0.565675 2.37159 208 173 135 
-0.991807 -0.396753 2.32561 182 156 123 
-0.945864 0.216756 2.22223 110 80 52 
-1.00195 -0.51585 2.34946 118 84 49 
-0.929901 0.403911 2.18718 182 152 118 
-1.00744 -0.577155 2.36409 180 146 111 
-0.974214 -0.203733 2.28789 197 169 130 
-0.921381 0.509494 2.1696 194 155 112 
-0.966572 -0.109613 2.27095 129 94 62 
-0.966291 -0.063006 2.27074 174 140 103 
-0.938898 0.286173 2.209 138 108 72 
-0.990438 -0.371414 2.32653 199 169 133 
-0.971808 -0.156137 2.28429 127 94 63 
-0.96192 -0.0154751 2.263 126 100 65 
-0.980369 -0.252262 2.30451 197 167 133 
-0.913099 0.589327 2.15245 141 111 75 
-0.918235 0.551948 2.16473 122 88 53 
-0.991837 -0.389975 2.33227 120 90 64 
-0.934547 0.294326 2.20263 129 100 66 
-0.909922 0.630816 2.14718 185 154 125 
-0.910273 0.607852 2.14845 194 161 130 
-0.96678 -0.115452 2.2787 194 164 128 
-0.94104 0.139196 2.22021 119 74 32 
-0.928458 0.360563 2.19304 185 156 126 
-0.923533 0.442359 2.18215 138 103 71 
-0.95265 0.059185 2.24782 113 82 53 
-0.944329 0.100876 2.22831 118 85 50 
-0.998557 -0.535523 2.35399 107 76 47 
-0.98347 -0.332008 2.32064 119 89 61 
-0.936064 0.261492 2.21206 128 92 60 
-0.930262 0.327749 2.20063 209 175 130 
-0.923483 0.425053 2.18547 79 48 20 
-0.91126 0.56905 2.15713 121 88 55 
-0.926047 0.382351 2.19149 206 164 124 
-0.98175 -0.351258 2.31871 188 159 127 
-0.917119 0.486697 2.17276 199 166 131 
-0.940057 0.171796 2.2249 189 158 129 
-1.00179 -0.61389 2.36695 98 66 41 
-0.987385 -0.440394 2.33462 109 79 43 
-1.00022 -0.595891 2.36444 180 154 119 
-0.943449 0.0911127 2.23362 115 83 42 
-0.958961 -0.0790194 2.27088 130 97 62 
-0.939575 0.129641 2.22611 168 138 102 
-0.932013 0.244864 2.21026 119 84 52 
-0.938855 0.151358 2.225 182 146 88 
-0.906781 0.638129 2.15419 132 96 72 
-0.937203 0.252914 2.22386 120 87 54 
-0.902914 0.659185 2.14421 209 165 128 
-0.95253 0.0206397 2.25745 173 141 103 
-0.99892 -0.569553 2.36457 197 164 129 
-0.991602 -0.516181 2.34696 109 79 53 
-0.919677 0.412441 2.18326 189 155 117 
-0.913708 0.501533 2.16954 132 98 63 
-0.987955 -0.463574 2.33884 114 83 52 
-0.909148 0.543621 2.15926 131 95 61 
-0.938499 0.184505 2.22702 107 77 49 
-0.980077 -0.362515 2.32152 167 141 108 
-0.927518 0.305711 2.20263 191 158 123 
-0.935588 0.199734 2.22169 92 61 32 
-0.954634 -0.04559 2.26492 168 139 107 
-0.903329 0.620074 2.15047 195 159 127 
-0.931601 0.277616 2.21665 195 156 117 
-0.923378 0.369056 2.19742 130 97 64 
-0.91133 0.529819 2.1708 133 102 71 
-0.917898 0.451205 2.18557 201 166 124 
-1.00218 -0.63108 2.3785 123 96 75 
-0.964358 -0.205387 2.29152 207 178 136 
-0.896877 0.678012 2.13778 133 94 55 
-0.979092 -0.404112 2.32742 132 102 68 
-0.96773 -0.228393 2.30156 170 139 108 
-0.921887 0.349319 2.19695 145 111 74 
-0.972282 -0.282635 2.3127 172 146 113 
-0.908802 0.513252 2.16839 176 146 118 
-0.95654 -0.118512 2.27705 172 143 109 
-0.950915 -0.0246167 2.26444 200 172 135 
-0.967854 -0.248678 2.30379 189 158 127 
-0.926471 0.288713 2.20976 139 105 67 
-0.983433 -0.49561 2.33939 140 110 72 
-0.934475 0.114087 2.22737 117 81 49 
-0.932248 0.160908 2.22256 125 97 60 
-0.943696 0.0463213 2.24981 205 175 147 
-0.955233 -0.0704184 2.27701 195 163 125 
-0.900685 0.576757 2.15125 117 88 58 
-0.961411 -0.187204 2.2916 118 92 59 
-0.978086 -0.435182 2.33065 127 96 67 
-0.976387 -0.386056 2.32704 144 114 80 
-1.00115 -0.668865 2.38514 160 134 101 
-0.922831 0.295598 2.20421 145 110 70 
-0.932291 0.227669 2.22724 205 177 138 
-0.911423 0.464594 2.18011 112 79 48 
-0.951078 -0.036162 2.27137 173 147 120 
-0.988735 -0.559889 2.35895 123 93 65 
-1.00033 -0.708949 2.38659 160 130 104 
-0.994039 -0.628097 2.37227 81 53 29 
-0.979716 -0.450635 2.33814 200 166 128 
-0.982672 -0.536611 2.34581 135 106 74 
-0.963029 -0.218006 2.30074 132 103 73 
-0.898638 0.604882 2.15338 142 106 70 
-0.914763 0.400571 2.19147 191 152 113 
-0.909328 0.474134 2.1792 195 161 124 
-0.970812 -0.343173 2.32097 193 159 124 
-0.923248 0.256791 2.21266 177 142 112 
-0.917684 0.335562 2.20062 111 78 45 
-0.971789 -0.366315 2.32526 181 153 116 
-0.908316 0.448433 2.17946 116 83 50 
-0.891858 0.610964 2.14149 149 111 74 
-0.95241 -0.159334 2.28085 181 151 117 
-0.904621 0.487428 2.17272 148 113 75 
-0.966676 -0.290286 2.3157 131 101 75 
-0.975996 -0.459493 2.3381 193 163 129 
-0.927323 0.174483 2.22558 212 179 138 
-0.896202 0.562285 2.15431 96 64 39 
-0.974955 -0.479014 2.3368 193 160 125 
-0.892308 0.626782 2.14722 129 95 60 
-0.909903 0.368436 2.18828 189 150 109 
-0.899498 0.530119 2.16531 116 87 55 
-0.939146 0.00930642 2.25715 205 176 144 
-0.950794 -0.066352 2.28572 132 101 73 
-0.890046 0.674711 2.14467 122 82 46 
-0.921908 0.21063 2.21876 212 177 137 
-0.933558 0.0603503 2.24495 171 137 99 
-0.906889 0.406881 2.18557 118 84 56 
-0.986315 -0.638046 2.36986 130 101 69 
-0.903188 0.45934 2.17755 176 145 116 
-0.926592 0.0874573 2.23055 129 96 61 
-0.916363 0.277922 2.20942 124 95 63 
-0.924404 0.16474 2.22806 153 124 84 
-0.887108 0.64417 2.14119 177 138 105 
-0.943423 -0.052556 2.27263 208 172 138 
-0.92547 0.104079 2.23045 124 91 56 
-0.981079 -0.582352 2.363 212 178 141 
-0.909448 0.342114 2.19662 120 82 46 
-0.941432 -0.0371081 2.27106 196 169 142 
-0.907765 0.389902 2.19499 127 94 53 
-0.911197 0.303825 2.20179 215 180 142 
-0.981685 -0.600774 2.36775 194 159 121 
-0.935839 -0.0129355 2.25998 132 98 60 
-0.920803 0.127809 2.22489 155 121 84 
-0.956661 -0.287911 2.3097 134 102 77 
-0.903158 0.375051 2.18654 125 96 64 
-0.918167 0.224174 2.22208 148 115 80 
-0.915527 0.234012 2.21624 121 83 47 
-0.918589 0.148876 2.22215 178 145 112 
-0.901626 0.473223 2.18545 202 168 131 
-0.93159 0.0206173 2.2558 143 116 86 
-0.966571 -0.465057 2.33853 162 135 108 
-0.887815 0.60041 2.15457 184 145 106 
-0.954647 -0.29762 2.311 127 97 69 
-0.983211 -0.682968 2.37716 188 156 118 
-0.968952 -0.489285 2.34327 118 91 62 
-0.982653 -0.695478 2.38063 194 162 124 
-0.878614 0.648392 2.13654 173 140 107 
-0.89391 0.477361 2.17466 114 82 44 
-0.924042 0.0645108 2.24527 227 195 157 
-0.906525 0.292134 2.20513 191 154 112 
-0.875168 0.666277 2.13118 125 90 62 
-0.889422 0.529288 2.16538 176 146 110 
-0.979794 -0.662721 2.37796 127 95 70 
-0.924342 0.0744065 2.24676 191 158 123 
-0.914706 0.15858 2.2254 130 96 59 
-0.906538 0.281461 2.20752 181 148 117 
-0.891053 0.498534 2.17198 132 94 55 
-0.953384 -0.326658 2.31819 202 172 134 
-0.973819 -0.610231 2.36661 109 82 52 
-0.912165 0.179677 2.22252 114 80 43 
-0.875401 0.68997 2.13745 172 134 98 
-0.888269 0.514045 2.16727 129 93 57 
-0.962165 -0.504901 2.34046 189 159 131 
-0.929108 -0.00617813 2.26283 216 180 132 
-0.883447 0.561807 2.15647 179 142 97 
-0.914188 0.140355 2.22829 146 106 70 
-0.957718 -0.367932 2.33193 193 165 125 
-0.930893 -0.0637109 2.2714 109 79 45 
-0.971081 -0.585348 2.36573 125 102 70 
-0.955603 -0.378103 2.32886 212 180 142 
-0.963382 -0.522778 2.34715 198 165 130 
-0.956065 -0.389504 2.33123 191 161 127 
-0.940447 -0.238628 2.29285 115 89 64 
-0.945402 -0.263049 2.30539 143 113 85 
-0.87536 0.657525 2.14237 181 146 116 
-0.877799 0.616527 2.14752 101 69 46 
-0.880079 0.625212 2.15388 180 141 108 
-0.951332 -0.342405 2.32167 123 96 67 
-0.925898 -0.017053 2.2613 132 103 69 
-0.958742 -0.423526 2.33923 208 180 141 
-0.923171 0.00583249 2.25472 134 100 65 
-0.887292 0.450327 2.17149 181 141 105 
-0.927311 -0.0396551 2.26591 194 155 112 
-0.891671 0.417111 2.18279 202 167 135 
-0.893873 0.403987 2.18989 188 156 118 
-0.934055 -0.168658 2.28388 179 149 115 
-0.935109 -0.196227 2.28624 200 171 131 
-0.92468 -0.0298677 2.26277 142 112 76 
-0.8903 0.437263 2.18409 116 82 54 
-0.901986 0.239884 2.21042 212 175 133 
-0.894911 0.364348 2.19387 127 95 57 
-0.898511 0.31702 2.2032 178 142 106 
-0.917022 0.041544 2.24716 189 158 129 
-0.911586 0.118536 2.23479 130 96 59 
-0.920031 -0.00469232 2.2548 130 97 64 
-0.959555 -0.536628 2.34952 163 137 102 
-0.880362 0.53543 2.16316 169 139 103 
-0.905673 0.19889 2.22243 206 167 128 
-0.875389 0.587807 2.15057 206 168 131 
-0.909489 0.0990967 2.23055 142 108 71 
-0.940598 -0.243713 2.30584 186 156 128 
-0.891105 0.389621 2.18991 190 157 122 
-0.873067 0.644894 2.14714 170 137 104 
-0.936331 -0.22453 2.29619 125 95 57 
-0.893839 0.345649 2.19695 119 85 57 
-0.891083 0.377399 2.19177 199 166 133 
-0.873206 0.635612 2.15125 164 129 99 
-0.884132 0.462669 2.17677 124 84 48 
-0.914074 0.0605171 2.24704 187 152 112 
-0.975919 -0.721032 2.39629 204 173 145 
-0.934186 -0.215139 2.29554 114 84 50 
-0.964172 -0.576335 2.36961 191 161 123 
-0.967289 -0.648275 2.37745 171 143 104 
-0.939787 -0.279322 2.3113 169 142 112 
-0.925017 -0.107169 2.27566 217 183 137 
-0.875362 0.551337 2.15981 104 73 42 
-0.923035 -0.0860827 2.27346 137 105 67 
-0.925094 -0.122729 2.27739 116 83 50 
-0.963409 -0.650664 2.36926 180 151 121 
-0.895487 0.287869 2.20833 178 143 115 
-0.867373 0.622405 2.14213 160 125 93 
-0.946037 -0.443668 2.32875 191 163 124 
-0.970307 -0.679273 2.38857 169 142 113 
-0.891543 0.2974 2.20046 175 142 109 
-0.901766 0.178517 2.22523 169 134 102 
-0.952572 -0.495133 2.34643 188 159 127 
-0.964147 -0.617787 2.37558 215 184 140 
-0.965672 -0.696701 2.38002 167 140 111 
-0.865415 0.644235 2.14017 98 65 30 
-0.906802 0.0768507 2.23884 142 106 70 
-0.88778 0.355475 2.19416 134 101 70 
-0.86252 0.687027 2.13456 167 137 109 
-0.945024 -0.411434 2.33155 208 179 149 
-0.907534 0.0453744 2.2416 135 102 69 
-0.91668 -0.0364191 2.26463 168 135 94 
-0.895072 0.245635 2.21583 123 90 57 
-0.934272 -0.269333 2.30802 116 86 52 
-0.923668 -0.142187 2.28267 145 117 80 
-0.901552 0.106652 2.23053 150 111 70 
-0.906222 0.064612 2.24196 115 82 47 
-0.925084 -0.171208 2.28816 134 103 72 
-0.866313 0.606757 2.14782 169 136 105 
-0.877009 0.499777 2.17482 175 143 105 
-0.945749 -0.472377 2.33827 133 102 74 
-0.965494 -0.710086 2.38682 198 171 144 
-0.950028 -0.526264 2.34955 174 145 113 
-0.953154 -0.540306 2.35779 184 160 124 
-0.937303 -0.362344 2.32071 126 96 58 
-0.909508 0.0200557 2.25395 224 187 145 
-0.91639 -0.0270775 2.27139 212 178 132 
-0.894676 0.206826 2.21899 115 78 51 
-0.86197 0.661946 2.14149 198 159 126 
-0.872355 0.507708 2.16618 104 73 42 
-0.930631 -0.256483 2.30545 215 181 143 
-0.95722 -0.607383 2.37003 130 100 64 
-0.881131 0.392408 2.18817 166 136 102 
-0.878085 0.432431 2.18261 196 165 134 
-0.899132 0.128347 2.23224 174 144 108 
-0.930162 -0.290334 2.30708 141 117 83 
-0.936767 -0.339914 2.32307 136 102 77 
-0.884652 0.334838 2.1989 118 85 50 
-0.950985 -0.56104 2.35834 181 151 113 
-0.955787 -0.629223 2.37222 117 86 57 
-0.925959 -0.213357 2.30034 134 103 72 
-0.871386 0.489118 2.17066 119 86 53 
-0.879188 0.367005 2.18981 126 87 48 
-0.950933 -0.585011 2.36291 184 153 122 
-0.91942 -0.200783 2.28571 123 93 59 
-0.937937 -0.420136 2.33202 129 101 64 
-0.873169 0.482525 2.17784 139 105 68 
-0.872796 0.450065 2.17631 180 146 108 
-0.910555 -0.0683281 2.26708 181 150 106 
-0.860232 0.595507 2.14784 106 75 47 
-0.93441 -0.372314 2.32715 146 117 83 
-0.895544 0.174128 2.23415 193 158 118 
-0.891839 0.143705 2.22434 114 82 44 
-0.902258 0.0290253 2.24985 182 144 107 
-0.942419 -0.538712 2.34775 132 102 66 
-0.874073 0.417082 2.18337 195 157 121 
-0.85906 0.623158 2.14749 178 145 112 
-0.88918 0.219021 2.22012 141 106 74 
-0.921756 -0.228828 2.29843 231 206 176 
-0.940865 -0.506098 2.34507 215 178 133 
-0.916331 -0.168508 2.28569 214 183 152 
-0.904196 0.00106774 2.2569 151 118 77 
-0.925921 -0.275441 2.3103 212 184 145 
-0.918247 -0.193122 2.29294 212 180 141 
-0.903667 0.0124092 2.2583 143 109 72 
-0.892207 0.104632 2.22964 195 157 118 
-0.905063 -0.0420616 2.26146 211 173 134 
-0.909826 -0.0950904 2.2727 123 94 62 
-0.855828 0.645811 2.14431 166 135 104 
-0.94364 -0.552689 2.35659 213 181 140 
-0.879843 0.290163 2.20284 96 61 29 
-0.895173 0.0845737 2.23939 188 153 115 
-0.873595 0.384502 2.18768 175 145 109 
-0.920791 -0.251326 2.30155 139 109 75 
-0.923019 -0.298959 2.30684 128 97 66 
-0.874971 0.3506 2.1912 102 66 32 
-0.924929 -0.310783 2.31258 145 118 89 
-0.904392 -0.0550475 2.26214 201 168 135 
-0.939844 -0.516539 2.34837 115 88 59 
-0.884262 0.238899 2.21487 164 129 89 
-0.880136 0.278166 2.20489 114 81 48 
-0.851958 0.66043 2.13701 197 166 135 
-0.93431 -0.431786 2.33631 156 127 95 
-0.932556 -0.460043 2.33206 123 93 59 
-0.872093 0.400559 2.18709 179 141 105 
-0.854989 0.608672 2.14567 191 156 116 
-0.951246 -0.695236 2.379 181 150 121 
-0.867341 0.474948 2.17684 179 145 110 
-0.862861 0.519161 2.16666 111 77 52 
-0.858186 0.571929 2.15361 92 64 40 
-0.941437 -0.563207 2.35717 118 88 60 
-0.875096 0.3422 2.19702 109 74 36 
-0.869483 0.436703 2.18321 105 74 45 
-0.896251 0.037998 2.24753 218 178 142 
-0.926123 -0.229148 2.32294 221 194 149 
-0.862027 0.504329 2.16694 169 138 109 
-0.852937 0.631125 2.14571 178 147 119 
-0.88332 0.18929 2.21945 119 85 57 
-0.899739 -0.0144801 2.25977 159 119 83 
-0.922653 -0.328889 2.3159 234 204 170 
-0.944664 -0.610821 2.37135 113 79 54 
-0.900292 -0.0292647 2.26453 129 99 63 
-0.862957 0.449281 2.17502 164 131 96 
-0.907278 -0.15584 2.28193 160 131 99 
-0.928041 -0.392545 2.33349 199 170 130 
-0.880235 0.207876 2.21814 136 100 68 
-0.929784 -0.467153 2.33894 220 192 155 
-0.8722 0.329883 2.19824 167 137 103 
-0.88425 0.165496 2.2276 148 116 78 
-0.927066 -0.419614 2.33196 205 179 144 
-0.845985 0.684965 2.13586 220 186 149 
-0.850933 0.567176 2.1485 176 143 108 
-0.928415 -0.444585 2.3387 192 159 126 
-0.941204 -0.645873 2.36977 208 173 133 
-0.85208 0.586964 2.15382 180 150 126 
-0.860412 0.459112 2.17461 182 152 124 
-0.906839 -0.142477 2.28713 228 194 146 
-0.870244 0.319417 2.19928 109 74 54 
-0.939851 -0.62391 2.37003 142 116 83 
-0.863182 0.396669 2.183 120 90 62 
-0.872177 0.266043 2.20441 125 92 57 
-0.927564 -0.489235 2.34061 204 172 134 
-0.875308 0.224933 2.21224 126 95 66 
-0.932029 -0.56437 2.35276 198 169 137 
-0.863292 0.419659 2.18619 185 151 116 
-0.867491 0.381485 2.19681 119 89 53 
-0.928323 -0.431328 2.3456 211 180 136 
-0.860934 0.440723 2.18018 116 83 50 
-0.944027 -0.664875 2.38507 120 91 61 
-0.853598 0.52041 2.16372 73 41 20 
-0.868646 0.303814 2.19989 196 156 121 
-0.883853 0.0840142 2.23641 192 156 120 
-0.912456 -0.303711 2.30705 193 162 131 
-0.909223 -0.244675 2.30041 220 180 129 
-0.908169 -0.180439 2.29785 226 193 142 
-0.898703 -0.0869787 2.27466 151 116 74 
-0.885384 0.0540149 2.24249 130 96 68 
-0.862079 0.430302 2.18818 120 86 49 
-0.933608 -0.57375 2.36369 228 194 167 
-0.864684 0.369229 2.19526 113 81 43 
-0.928242 -0.523864 2.35038 190 159 113 
-0.904993 -0.199153 2.29221 148 115 74 
-0.86814 0.280009 2.20714 185 150 122 
-0.911942 -0.319571 2.31448 222 186 136 
-0.847597 0.559927 2.1581 111 80 49 
-0.933341 -0.610877 2.36942 181 152 118 
-0.857525 0.407912 2.18355 169 136 105 
-0.841128 0.656458 2.14255 188 158 132 
-0.846113 0.579587 2.15542 182 151 122 
-0.904812 -0.226273 2.29862 147 111 75 
-0.861952 0.344793 2.19507 77 50 21 
-0.859425 0.377814 2.1884 190 159 115 
-0.936217 -0.664851 2.37822 195 168 141 
-0.89383 -0.0526036 2.27328 218 181 136 
-0.86705 0.247911 2.20801 137 97 61 
-0.84281 0.596822 2.14858 169 142 115 
-0.916441 -0.394839 2.32976 207 168 127 
-0.846438 0.509407 2.15927 167 131 97 
-0.874721 0.140343 2.22928 135 99 65 
-0.842007 0.63552 2.15017 199 164 134 
-0.899172 -0.175246 2.29047 134 96 60 
-0.90889 -0.346005 2.31431 159 124 84 
-0.868138 0.194273 2.21437 101 68 35 
-0.881641 0.0605052 2.24881 140 107 72 
-0.867948 0.21035 2.21585 120 82 46 
-0.925473 -0.54364 2.35859 199 168 114 
-0.902463 -0.293954 2.3009 122 88 53 
-0.935755 -0.720283 2.38431 211 185 158 
-0.934763 -0.673043 2.38298 210 179 148 
-0.930498 -0.624596 2.37301 196 158 113 
-0.851876 0.446324 2.17869 90 59 30 
-0.935605 -0.709987 2.387 214 187 158 
-0.913327 -0.44748 2.33196 135 102 69 
-0.903778 -0.279412 2.30805 141 106 66 
-0.850201 0.433957 2.17647 102 71 43 
-0.881399 0.047613 2.25472 191 158 125 
-0.927546 -0.646292 2.36962 171 144 114 
-0.873829 0.130246 2.23632 126 93 60 
-0.906381 -0.372511 2.31555 155 120 80 
-0.881353 0.013095 2.25591 207 177 143 
-0.842748 0.550996 2.16126 178 148 122 
-0.856878 0.327825 2.19641 186 148 109 
-0.842375 0.538917 2.16121 163 133 107 
-0.923309 -0.580573 2.36317 215 181 136 
-0.837962 0.571392 2.15113 113 86 59 
-0.903385 -0.324967 2.31326 139 106 71 
-0.880335 0.000693572 2.25619 122 89 56 
-0.842986 0.529056 2.16527 177 146 118 
-0.873063 0.0650975 2.23944 205 171 134 
-0.844055 0.459468 2.16881 177 144 103 
-0.898238 -0.155948 2.30364 201 162 121 
-0.914182 -0.48475 2.34276 144 112 74 
-0.844774 0.499822 2.17074 111 78 45 
-0.834179 0.650415 2.14521 204 171 140 
-0.865532 0.160219 2.22379 133 94 55 
-0.887198 -0.119671 2.27626 184 150 112 
-0.912237 -0.47335 2.33975 143 109 72 
-0.896407 -0.216679 2.30079 161 124 82 
-0.829491 0.67592 2.13601 99 65 38 
-0.920784 -0.59318 2.36276 138 104 66 
-0.837697 0.592561 2.15737 214 181 148 
-0.912563 -0.508138 2.34313 205 173 132 
-0.914322 -0.538947 2.34793 146 113 70 
-0.841696 0.516209 2.16819 175 144 115 
-0.883075 0.0206603 2.27209 193 159 122 
-0.84222 0.49033 2.17025 90 61 27 
-0.860994 0.234144 2.21689 128 94 66 
-0.863478 0.144768 2.22151 131 93 54 
-0.843793 0.450103 2.17441 188 155 122 
-0.871701 0.0807702 2.24503 132 97 59 
-0.870253 0.0539697 2.24244 125 86 47 
-0.847232 0.392784 2.18689 88 53 31 
-0.861855 0.19218 2.22299 214 179 139 
-0.92239 -0.638851 2.37528 168 133 103 
-0.905687 -0.422574 2.33398 144 110 73 
-0.840757 0.479248 2.1728 184 157 130 
-0.898129 -0.307442 2.31534 226 191 151 
-0.871982 0.0251037 2.25191 206 171 133 
-0.855937 0.272157 2.21391 189 151 102 
-0.899654 -0.394484 2.32304 209 177 136 
-0.902221 -0.408287 2.32913 179 148 104 
-0.83366 0.548451 2.15971 199 172 145 
-0.828196 0.622962 2.14607 183 151 126 
-0.909529 -0.524108 2.34989 148 115 82 
-0.9037 -0.356422 2.33621 209 177 139 
-0.891346 -0.266512 2.30447 208 173 131 
-0.913317 -0.572718 2.36191 142 107 75 
-0.871716 0.0139878 2.25676 211 182 142 
-0.825765 0.639465 2.14229 93 63 37 
-0.859132 0.2249 2.22797 180 143 114 
-0.883321 -0.185268 2.28732 152 117 85 
-0.897035 -0.371488 2.32241 138 108 70 
-0.859875 0.113725 2.22967 109 75 48 
-0.90541 -0.457643 2.34513 207 175 137 
-0.829899 0.566238 2.15574 133 102 74 
-0.847366 0.29556 2.19998 187 153 125 
-0.882531 -0.165883 2.28715 130 97 62 
-0.859874 0.093896 2.22998 127 92 52 
-0.83694 0.466211 2.17476 182 151 120 
-0.853029 0.210886 2.21498 164 134 100 
-0.855203 0.181127 2.22045 124 90 62 
-0.827269 0.592038 2.15105 203 171 133 
-0.822823 0.667982 2.14096 129 95 60 
-0.899788 -0.466303 2.33391 192 158 121 
-0.912187 -0.596419 2.36572 164 129 91 
-0.913106 -0.657717 2.36806 151 113 77 
-0.830816 0.525 2.16182 216 188 151 
-0.841298 0.382384 2.19013 167 137 109 
-0.919087 -0.695434 2.38646 198 162 126 
-0.884155 -0.226448 2.29716 146 114 76 
-0.82654 0.553856 2.15603 190 160 134 
-0.882868 -0.21408 2.29758 138 106 67 
-0.853762 0.162834 2.22466 131 97 60 
-0.836014 0.433005 2.18135 175 146 112 
-0.854172 0.149164 2.22531 113 84 54 
-0.894766 -0.417294 2.32794 153 121 83 
-0.827292 0.538236 2.15936 149 118 89 
-0.846338 0.254566 2.20915 186 153 118 
-0.836706 0.400611 2.18496 105 76 46 
-0.891112 -0.358593 2.32105 208 179 145 
-0.858905 0.0652556 2.24066 115 82 49 
-0.84961 0.229799 2.21802 116 83 52 
-0.850937 0.137091 2.22275 87 57 31 
-0.905083 -0.589086 2.36128 202 167 125 
-0.847484 0.201058 2.2152 177 144 113 
-0.908522 -0.646921 2.37056 192 157 119 
-0.833217 0.450059 2.18135 110 83 54 
-0.897881 -0.467672 2.34357 131 98 63 
-0.898214 -0.508585 2.34601 139 107 68 
-0.825548 0.515082 2.16254 118 93 63 
-0.838689 0.345851 2.19643 166 133 100 
-0.833327 0.418593 2.18353 122 96 69 
-0.912319 -0.719952 2.38514 177 148 118 
-0.838235 0.308452 2.19961 95 63 38 
-0.82868 0.474722 2.17617 190 157 124 
-0.838588 0.319474 2.20019 104 73 45 
-0.897835 -0.556284 2.35252 140 110 72 
-0.902576 -0.658333 2.36696 205 169 135 
-0.88735 -0.387006 2.32854 200 168 129 
-0.841397 0.229498 2.21225 174 141 110 
-0.898224 -0.534797 2.35732 206 172 135 
-0.89557 -0.520877 2.35083 215 180 140 
-0.812416 0.673101 2.13939 172 135 106 
-0.854534 0.0451647 2.24605 182 148 102 
-0.845122 0.168916 2.22295 128 92 58 
-0.890219 -0.434726 2.3386 222 189 154 
-0.84734 0.126698 2.22849 182 148 113 
-0.810977 0.6842 2.13848 128 94 66 
-0.851142 0.118232 2.24037 199 163 127 
-0.899501 -0.610301 2.3646 119 87 49 
-0.822986 0.481557 2.1697 168 136 98 
-0.904445 -0.686396 2.3781 187 155 117 
-0.838571 0.260197 2.21022 118 84 56 
-0.827632 0.40402 2.18303 102 72 44 
-0.821357 0.526487 2.16853 184 151 116 
-0.83307 0.299005 2.19692 177 141 107 
-0.898183 -0.579493 2.36368 198 164 126 
-0.843816 0.155354 2.22599 126 96 60 
-0.827286 0.426813 2.18565 211 179 140 
-0.809298 0.619953 2.14086 166 131 89 
-0.896198 -0.594471 2.36395 126 97 65 
-0.809461 0.636414 2.14235 181 146 114 
-0.808945 0.660408 2.14091 113 82 54 
-0.838721 0.209553 2.21789 105 73 48 
-0.820629 0.494842 2.17309 180 150 114 
-0.848074 0.0355628 2.24109 174 140 105 
-0.828356 0.354415 2.19276 201 172 142 
-0.82768 0.379774 2.19268 136 109 80 
-0.888597 -0.439653 2.34823 146 115 84 
-0.81702 0.50539 2.1647 129 100 70 
-0.875616 -0.32168 2.31421 188 154 116 
-0.829545 0.329011 2.19749 184 154 126 
-0.808078 0.608484 2.14235 189 155 117 
-0.814413 0.547912 2.16058 172 142 108 
-0.821553 0.443332 2.17954 110 82 45 
-0.822769 0.412881 2.18195 193 160 129 
-0.810207 0.579175 2.15214 125 95 67 
-0.827432 0.345313 2.197 184 153 124 
-0.83701 0.191745 2.22069 129 95 60 
-0.877602 -0.384134 2.32484 203 171 133 
-0.861721 -0.178198 2.28401 122 81 49 
-0.830572 0.290961 2.20547 99 67 44 
-0.84794 0.0282727 2.2512 117 84 51 
-0.823297 0.389232 2.19067 198 165 132 
-0.803822 0.651025 2.13915 110 77 46 
-0.880981 -0.471429 2.33903 206 170 134 
-0.823815 0.336019 2.194 110 80 56 
-0.88504 -0.545759 2.35291 150 116 81 
-0.799886 0.67747 2.13425 131 101 67 
-0.885331 -0.531594 2.35472 222 189 154 
-0.814909 0.457923 2.17341 123 94 64 
-0.870637 -0.352169 2.31602 139 97 57 
-0.810045 0.522309 2.16177 115 81 46 
-0.833601 0.156179 2.22215 131 99 60 
-0.848254 -0.045696 2.25932 185 152 117 
-0.802676 0.626815 2.14317 78 50 26 
-0.824329 0.311313 2.19976 147 120 91 
-0.826971 0.278885 2.20671 176 149 122 
-0.870874 -0.333962 2.31907 142 112 76 
-0.836699 0.0949213 2.23128 184 153 122 
-0.880415 -0.508452 2.34723 149 113 77 
-0.83259 0.169248 2.22298 92 60 37 
-0.820589 0.366268 2.19486 189 157 119 
-0.815844 0.425501 2.18179 191 158 125 
-0.839184 0.073133 2.24048 120 82 43 
-0.812829 0.473088 2.17384 107 80 51 
-0.825402 0.252236 2.20565 116 86 50 
-0.832856 0.146985 2.2253 133 96 67 
-0.848873 -0.0878871 2.26661 183 153 119 
-0.893883 -0.717719 2.38558 132 99 64 
-0.838758 0.0504862 2.24201 188 157 126 
-0.825403 0.264196 2.20977 112 82 56 
-0.796195 0.689538 2.13524 213 180 147 
-0.819882 0.298956 2.19687 93 67 42 
-0.817322 0.377672 2.19029 153 119 82 
-0.889603 -0.67218 2.37961 206 174 136 
-0.809801 0.493677 2.17302 164 134 106 
-0.864607 -0.325626 2.31389 133 100 65 
-0.825502 0.227718 2.21351 176 146 112 
-0.88297 -0.535845 2.36338 146 113 80 
-0.881183 -0.575011 2.35949 131 101 63 
-0.810839 0.434324 2.17883 96 67 37 
-0.871791 -0.460353 2.3373 212 172 120 
-0.794121 0.650013 2.13531 124 90 62 
-0.812796 0.3884 2.18684 186 151 113 
-0.855964 -0.261716 2.29687 151 114 70 
-0.819 0.31882 2.20319 194 164 130 
-0.85271 -0.177712 2.28926 126 88 52 
-0.877082 -0.559138 2.3536 205 161 122 
-0.803531 0.498118 2.16356 103 72 43 
-0.871219 -0.494114 2.34 206 171 129 
-0.814811 0.344822 2.19506 140 109 78 
-0.854845 -0.224754 2.29912 125 97 60 
-0.814476 0.331174 2.1954 147 109 73 
-0.800416 0.536099 2.15937 175 145 111 
-0.82224 0.202795 2.21533 111 80 51 
-0.877224 -0.603656 2.35872 198 160 124 
-0.877026 -0.589256 2.35996 207 170 126 
-0.794303 0.611569 2.14528 176 147 113 
-0.80675 0.446197 2.17906 161 132 102 
-0.86481 -0.452934 2.32959 144 107 65 
-0.864825 -0.438009 2.33084 198 164 126 
-0.816006 0.287464 2.2038 204 175 141 
-0.823274 0.177963 2.22337 171 138 105 
-0.819703 0.240986 2.21463 73 46 25 
-0.816783 0.273801 2.20727 210 177 136 
-0.833536 -0.0093441 2.24991 138 108 74 
-0.790506 0.681638 2.14087 124 95 65 
-0.858388 -0.339198 2.31658 180 144 108 
-0.872728 -0.570534 2.35686 132 100 61 
-0.788725 0.663638 2.13756 147 113 86 
-0.790889 0.64194 2.14367 201 165 133 
-0.831542 0.00280987 2.25019 122 88 61 
-0.879917 -0.697555 2.37907 215 178 134 
-0.822153 0.11456 2.22584 190 151 110 
-0.840747 -0.0838048 2.27602 212 175 133 
-0.822138 0.103408 2.22712 211 172 129 
-0.87427 -0.659836 2.36508 178 144 107 
-0.8179 0.194139 2.21811 181 152 118 
-0.78976 0.632466 2.14631 193 160 129 
-0.821093 0.186235 2.2299 127 93 68 
-0.804201 0.394309 2.18711 170 141 111 
-0.797928 0.469374 2.17025 162 129 94 
-0.865899 -0.507801 2.34801 180 147 104 
-0.867135 -0.553619 2.35167 199 167 129 
-0.79846 0.48507 2.1725 179 146 115 
-0.794907 0.528271 2.16367 118 85 50 
-0.808479 0.295091 2.20086 193 162 131 
-0.787253 0.622797 2.1443 195 163 138 
-0.816979 0.163237 2.22182 113 82 53 
-0.870877 -0.601737 2.36581 182 148 110 
-0.795674 0.449515 2.16783 171 136 106 
-0.873029 -0.641177 2.37349 129 94 62 
-0.80686 0.315802 2.1996 184 156 117 
-0.854035 -0.378687 2.32332 113 83 49 
-0.804235 0.326486 2.19357 176 137 104 
-0.787965 0.585702 2.15059 198 167 138 
-0.82287 0.0394727 2.24066 188 150 113 
-0.85392 -0.396387 2.32532 143 109 71 
-0.855722 -0.420414 2.3306 141 111 75 
-0.810423 0.231805 2.21184 138 105 72 
-0.813142 0.210688 2.2194 206 172 135 
-0.797678 0.403163 2.1799 126 97 65 
-0.859514 -0.518704 2.34244 134 102 64 
-0.869201 -0.619203 2.36921 130 102 65 
-0.818005 0.110357 2.23355 123 87 51 
-0.799071 0.3862 2.18515 110 80 56 
-0.871598 -0.687132 2.37585 138 106 68 
-0.857017 -0.451148 2.33683 118 86 48 
-0.867136 -0.654003 2.36824 179 146 113 
-0.805422 0.278243 2.20542 188 154 119 
-0.812796 0.140633 2.22494 140 106 69 
-0.782753 0.652716 2.14568 192 154 115 
-0.862394 -0.597449 2.35687 133 99 62 
-0.812566 0.181933 2.22539 208 171 129 
-0.790227 0.5075 2.16755 116 83 50 
-0.859896 -0.564816 2.35424 208 170 133 
-0.799139 0.336722 2.19343 169 140 110 
-0.858209 -0.533025 2.34932 204 167 125 
-0.785299 0.567128 2.15714 179 145 118 
-0.813496 0.124617 2.23195 134 104 70 
-0.867783 -0.706695 2.37669 186 152 115 
-0.853866 -0.435528 2.34057 214 175 136 
-0.786911 0.489561 2.16345 171 138 103 
-0.777934 0.612954 2.13919 200 165 125 
-0.796155 0.371344 2.18982 108 77 49 
-0.85727 -0.521219 2.35212 213 179 141 
-0.853234 -0.480229 2.34118 219 179 130 
-0.784945 0.54494 2.16166 195 166 134 
-0.850105 -0.444858 2.33326 197 165 124 
-0.815557 0.0491754 2.24227 126 92 57 
-0.825549 -0.0708837 2.27018 124 93 64 
-0.852632 -0.492318 2.3432 205 165 129 
-0.785173 0.51519 2.16482 110 78 53 
-0.856877 -0.582223 2.35644 209 174 134 
-0.780563 0.5756 2.15359 121 87 60 
-0.783714 0.50167 2.16345 172 142 104 
-0.862746 -0.69619 2.37501 114 84 48 
-0.807891 0.111204 2.22592 137 103 66 
-0.815026 0.0350665 2.24586 130 100 64 
-0.780434 0.532351 2.15489 196 165 136 
-0.80013 0.265356 2.20915 101 74 45 
-0.779051 0.614363 2.15278 181 142 101 
-0.786723 0.448422 2.17557 113 82 54 
-0.800868 0.237533 2.21179 121 89 64 
-0.812558 0.0648322 2.24337 137 102 72 
-0.795887 0.292138 2.20057 179 148 117 
-0.839071 -0.364379 2.31498 189 157 118 
-0.85304 -0.635218 2.35399 189 155 117 
-0.783803 0.481217 2.17155 137 108 78 
-0.844362 -0.42636 2.33188 135 102 71 
-0.851979 -0.570446 2.35407 150 118 80 
-0.844299 -0.476194 2.33233 150 114 78 
-0.801706 0.186481 2.22015 178 144 109 
-0.862401 -0.720222 2.38658 204 172 134 
-0.858452 -0.669651 2.37639 201 166 128 
-0.853708 -0.597649 2.36285 125 95 61 
-0.796126 0.246778 2.20801 179 144 114 
-0.776938 0.555414 2.15876 194 157 113 
-0.860608 -0.693875 2.38412 173 143 107 
-0.786623 0.349369 2.1843 174 132 92 
-0.817278 -0.0750441 2.26742 108 77 48 
-0.855218 -0.654003 2.37049 174 144 108 
-0.786141 0.363967 2.18621 92 65 35 
-0.782021 0.406807 2.1758 111 82 52 
-0.767233 0.690774 2.13711 171 140 111 
-0.788431 0.326165 2.19403 172 142 108 
-0.769838 0.631839 2.1439 165 134 106 
-0.842361 -0.481555 2.33995 178 146 108 
-0.800612 0.101952 2.22897 196 162 135 
-0.838594 -0.437956 2.33221 186 156 118 
-0.843333 -0.491685 2.34595 176 145 114 
-0.845869 -0.533751 2.35383 198 164 129 
-0.839922 -0.446022 2.33745 170 139 110 
-0.85343 -0.713664 2.37509 131 101 63 
-0.835255 -0.402815 2.32442 119 89 55 
-0.848585 -0.575727 2.36231 200 171 127 
-0.813982 -0.0983281 2.2674 186 148 103 
-0.775165 0.513041 2.16424 135 102 69 
-0.775452 0.523303 2.16631 105 75 51 
-0.783817 0.339734 2.18815 148 115 82 
-0.765756 0.651616 2.14025 120 83 54 
-0.774526 0.537644 2.16394 115 85 57 
-0.778903 0.43319 2.17763 126 95 66 
-0.843084 -0.563509 2.35191 141 111 77 
-0.7907 0.225574 2.21176 169 139 113 
-0.768486 0.559561 2.1516 118 80 41 
-0.844936 -0.548915 2.35893 124 94 58 
-0.786146 0.273492 2.19946 158 127 96 
-0.775808 0.443028 2.17406 173 142 111 
-0.850479 -0.683463 2.3767 176 143 112 
-0.847883 -0.631435 2.36945 201 169 131 
-0.77889 0.379558 2.18243 169 135 97 
-0.833189 -0.429772 2.32951 121 91 57 
-0.782932 0.28514 2.19476 127 96 65 
-0.792566 0.190774 2.22078 182 152 116 
-0.82446 -0.295459 2.30665 178 149 115 
-0.764468 0.610225 2.14571 179 137 99 
-0.817197 -0.183871 2.28762 160 130 94 
-0.772597 0.488433 2.17074 93 65 41 
-0.768471 0.544327 2.15862 123 87 53 
-0.830318 -0.413966 2.32526 192 158 123 
-0.837389 -0.533353 2.34579 114 83 52 
-0.795761 0.113963 2.23327 203 165 126 
-0.773099 0.423909 2.17573 201 170 142 
-0.832748 -0.464726 2.33677 196 166 130 
-0.78306 0.246847 2.20376 188 148 112 
-0.832996 -0.498299 2.34022 213 180 147 
-0.769648 0.499509 2.16938 200 158 120 
-0.834104 -0.514881 2.34588 197 163 128 
-0.838271 -0.603993 2.35953 203 169 131 
-0.761047 0.587876 2.14969 130 96 69 
-0.781251 0.309218 2.20503 120 84 58 
-0.780926 0.290724 2.20451 109 78 49 
-0.755987 0.663159 2.13647 182 148 121 
-0.754438 0.647735 2.13152 105 73 48 
-0.77152 0.387645 2.18369 177 144 111 
-0.773316 0.347963 2.18827 159 128 99 
-0.834556 -0.573248 2.35698 139 109 73 
-0.834189 -0.544428 2.35482 138 108 72 
-0.840937 -0.673601 2.37348 135 100 68 
-0.760692 0.573081 2.15528 121 88 57 
-0.76614 0.456146 2.17091 208 169 128 
-0.833705 -0.527261 2.35664 123 92 63 
-0.827449 -0.475681 2.33925 116 86 58 
-0.825583 -0.452313 2.33414 147 114 81 
-0.767851 0.433081 2.17875 128 94 66 
-0.786308 0.132105 2.22754 125 95 67 
-0.768757 0.411915 2.18115 132 101 70 
-0.791518 0.0842474 2.24282 118 79 50 
-0.782555 0.190521 2.22298 185 150 108 
-0.760925 0.539643 2.16464 116 81 49 
-0.830478 -0.559004 2.35795 212 184 147 
-0.825757 -0.506846 2.34527 205 174 143 
-0.784774 0.0904566 2.23234 187 151 117 
-0.768313 0.36293 2.18976 172 143 111 
-0.76089 0.485978 2.16946 175 144 113 
-0.830712 -0.598272 2.36307 199 169 133 
-0.765161 0.397771 2.18431 187 148 105 
-0.75044 0.607049 2.14343 167 137 101 
-0.767726 0.329325 2.1917 183 153 119 
-0.827116 -0.583122 2.35783 152 120 81 
-0.751524 0.571644 2.14871 162 129 94 
-0.82909 -0.61421 2.36347 202 171 140 
-0.764224 0.378381 2.18514 94 63 35 
-0.824356 -0.52594 2.34987 139 108 77 
-0.833237 -0.648064 2.37734 181 150 121 
-0.76844 0.320738 2.19812 187 156 125 
-0.768628 0.280123 2.19848 136 105 76 
-0.747271 0.649444 2.14285 80 49 21 
-0.828707 -0.654482 2.36875 219 189 153 
-0.830929 -0.693883 2.37698 190 160 122 
-0.773236 0.188169 2.21676 86 61 31 
-0.826947 -0.632233 2.36736 162 129 98 
-0.751193 0.550075 2.15685 173 144 112 
-0.779787 0.0503073 2.23458 146 111 71 
-0.787642 -0.0778552 2.25665 132 96 60 
-0.759125 0.438219 2.18219 94 60 23 
-0.747212 0.597223 2.14769 160 129 101 
-0.786354 0.00731177 2.25551 112 79 38 
-0.77403 0.138895 2.22262 191 152 109 
-0.755993 0.44994 2.174 128 85 50 
-0.820269 -0.55178 2.35034 116 86 58 
-0.817254 -0.482298 2.34472 211 179 141 
-0.762073 0.354111 2.19389 188 150 111 
-0.809625 -0.395909 2.32474 216 182 145 
-0.7567 0.420689 2.18038 120 84 52 
-0.750063 0.527047 2.16212 172 141 110 
-0.739817 0.68908 2.13432 178 148 120 
-0.8257 -0.676005 2.37386 150 121 89 
-0.813941 -0.491074 2.34129 210 175 143 
-0.76618 0.269449 2.20869 213 180 149 
-0.75684 0.385133 2.18415 115 77 41 
-0.808904 -0.408897 2.32788 182 151 120 
-0.742694 0.623952 2.14428 90 58 33 
-0.822371 -0.620942 2.36693 212 179 144 
-0.761089 0.29449 2.19602 130 97 62 
-0.751644 0.45873 2.17079 190 149 97 
-0.739029 0.65667 2.13618 120 79 47 
-0.823174 -0.582899 2.37284 200 171 137 
-0.749696 0.494876 2.16785 82 57 35 
-0.746941 0.536427 2.15992 131 102 72 
-0.756223 0.37165 2.18731 165 135 99 
-0.814914 -0.534213 2.35286 210 179 132 
-0.816435 -0.606485 2.36164 186 157 125 
-0.761289 0.258726 2.20696 127 97 63 
-0.756799 0.303339 2.19425 199 165 128 
-0.757525 0.313515 2.19683 173 143 107 
-0.759457 0.226411 2.20179 205 174 143 
-0.754895 0.3298 2.19317 190 160 126 
-0.74445 0.510176 2.16473 186 152 125 
-0.736599 0.656681 2.14561 182 143 104 
-0.73734 0.600547 2.14723 167 132 104 
-0.818706 -0.691118 2.37681 202 170 132 
-0.772878 0.0106596 2.24662 198 163 131 
-0.746322 0.446294 2.17481 101 71 45 
-0.736901 0.579461 2.14958 123 93 59 
-0.731161 0.683596 2.13361 138 103 71 
-0.811518 -0.574179 2.36104 198 167 123 
-0.754312 0.28658 2.20246 167 135 96 
-0.814668 -0.682367 2.37461 155 123 84 
-0.764014 0.112448 2.22948 170 136 99 
-0.798506 -0.395283 2.32748 190 157 114 
-0.814903 -0.671113 2.3757 152 122 84 
-0.774757 -0.0733563 2.2604 137 103 68 
-0.767223 0.0270834 2.23986 174 136 99 
-0.749667 0.344127 2.19366 119 80 39 
-0.758067 0.215969 2.21752 109 80 50 
-0.746108 0.358614 2.18446 129 86 44 
-0.80805 -0.597038 2.36026 188 153 121 
-0.731694 0.558856 2.14414 189 154 126 
-0.738141 0.538887 2.16394 87 57 31 
-0.749876 0.293461 2.19644 131 93 57 
-0.810043 -0.646735 2.36933 173 141 103 
-0.735286 0.568605 2.15829 157 130 103 
-0.740169 0.493007 2.17241 184 153 125 
-0.74228 0.403894 2.17799 114 79 41 
-0.809322 -0.636027 2.36873 190 152 113 
-0.764037 0.0562722 2.23836 118 84 47 
-0.730559 0.613527 2.14652 203 165 129 
-0.742193 0.480412 2.18175 200 170 136 
-0.735262 0.529689 2.16152 113 84 54 
-0.796067 -0.472476 2.33264 134 100 72 
-0.750472 0.258565 2.2048 141 98 53 
-0.7267 0.67161 2.13736 100 66 31 
-0.74297 0.384808 2.18448 104 72 33 
-0.735158 0.519154 2.16379 92 66 51 
-0.739323 0.418913 2.17821 60 34 17 
-0.750149 0.224854 2.20882 166 136 102 
-0.74469 0.322285 2.19398 159 132 102 
-0.799664 -0.507291 2.34979 206 172 134 
-0.793072 -0.441586 2.33155 132 98 70 
-0.738525 0.430921 2.17781 101 67 32 
-0.726921 0.626462 2.14666 130 93 49 
-0.749771 0.237366 2.21186 113 71 31 
-0.80001 -0.612523 2.35639 202 170 132 
-0.802102 -0.580578 2.36284 141 110 81 
-0.72318 0.648631 2.13831 126 91 53 
-0.745287 0.275042 2.20253 166 135 104 
-0.735294 0.485136 2.17555 93 64 34 
-0.731478 0.562133 2.16614 208 168 133 
-0.796471 -0.526157 2.34936 134 103 75 
-0.73941 0.343277 2.19204 103 72 44 
-0.729371 0.511667 2.16256 186 157 125 
-0.799342 -0.627944 2.36398 140 107 72 
-0.745399 0.212728 2.20988 132 90 52 
-0.731256 0.457707 2.17025 136 105 76 
-0.734003 0.389638 2.17903 109 76 43 
-0.738982 0.313292 2.19426 123 88 46 
-0.742725 0.264444 2.20316 142 97 64 
-0.725272 0.550475 2.15511 210 171 138 
-0.735911 0.376566 2.18927 103 73 47 
-0.716736 0.683737 2.13347 180 144 110 
-0.737456 0.299877 2.19435 122 89 58 
-0.742673 0.24931 2.20935 201 156 115 
-0.793459 -0.556289 2.35654 204 166 121 
-0.727191 0.499374 2.16709 155 117 78 
-0.732699 0.354078 2.18511 188 157 129 
-0.73037 0.405186 2.17941 114 83 55 
-0.785612 -0.486956 2.33843 179 146 111 
-0.753216 0.0625581 2.24763 185 152 111 
-0.787707 -0.518382 2.34744 186 152 106 
-0.714538 0.673776 2.13827 173 139 104 
-0.728762 0.423083 2.18376 88 57 26 
-0.714927 0.609066 2.14278 174 139 107 
-0.731344 0.332889 2.19274 102 68 41 
-0.789581 -0.612355 2.3616 202 164 125 
-0.734307 0.251741 2.20322 117 86 55 
-0.715907 0.576755 2.15263 171 136 98 
-0.728507 0.364436 2.18957 187 158 128 
-0.741228 0.188391 2.22651 200 148 91 
-0.71622 0.564583 2.15464 113 78 48 
-0.717968 0.530416 2.16076 124 91 56 
-0.732051 0.270006 2.20235 172 139 106 
-0.722566 0.457986 2.17665 202 165 123 
-0.736472 0.133408 2.21624 177 132 91 
-0.725241 0.385637 2.18593 82 53 19 
-0.711796 0.596501 2.14711 95 64 35 
-0.727473 0.302624 2.19246 180 150 116 
-0.789651 -0.703865 2.37538 187 152 110 
-0.730468 0.230251 2.20341 92 61 30 
-0.734447 0.202012 2.21481 126 90 64 
-0.781048 -0.552866 2.35291 133 99 64 
-0.786352 -0.691816 2.36923 178 146 108 
-0.719527 0.447076 2.17531 148 110 74 
-0.744208 0.0418773 2.2458 206 164 124 
-0.734703 0.149073 2.21747 163 119 74 
-0.708095 0.649411 2.14126 107 76 48 
-0.785182 -0.630161 2.36846 122 92 58 
-0.714926 0.539892 2.16391 176 134 94 
-0.708996 0.622957 2.14782 159 129 95 
-0.715944 0.482446 2.17184 129 94 62 
-0.730729 0.188033 2.21378 117 81 47 
-0.72021 0.373036 2.18538 153 120 89 
-0.73592 0.0901424 2.23158 142 94 45 
-0.724747 0.279137 2.20061 172 141 110 
-0.721879 0.356094 2.19217 178 147 119 
-0.713788 0.498004 2.16996 106 76 38 
-0.718557 0.392632 2.18287 119 79 43 
-0.701114 0.685315 2.13309 173 142 114 
-0.706356 0.575334 2.14893 140 114 89 
-0.703667 0.664565 2.14098 198 163 125 
-0.721232 0.322351 2.19343 98 64 36 
-0.717514 0.403194 2.1825 197 159 122 
-0.708136 0.559735 2.15658 184 150 113 
-0.708035 0.548002 2.15632 120 88 63 
-0.778345 -0.603489 2.36249 136 105 77 
-0.725686 0.270159 2.21025 183 153 119 
-0.736407 0.0449117 2.23952 150 103 57 
-0.710197 0.526857 2.16624 134 91 57 
-0.701934 0.634744 2.14302 115 85 59 
-0.711634 0.454824 2.17235 89 55 27 
-0.70438 0.587735 2.15206 167 132 100 
-0.779062 -0.653814 2.37253 140 107 72 
-0.764988 -0.471803 2.33018 141 110 79 
-0.712387 0.424491 2.17827 89 55 28 
-0.717928 0.312853 2.19393 155 124 96 
-0.700784 0.597757 2.14273 117 84 51 
-0.776464 -0.614901 2.36788 182 152 118 
-0.711073 0.440093 2.17686 102 67 39 
-0.699088 0.587707 2.14394 176 143 110 
-0.706207 0.502106 2.16546 185 152 117 
-0.725244 0.158616 2.22027 180 147 112 
-0.713726 0.34343 2.1877 129 93 57 
-0.727194 0.12897 2.22774 186 150 114 
-0.721231 0.231679 2.21138 183 154 120 
-0.715374 0.292812 2.19465 192 156 120 
-0.697863 0.649283 2.14359 107 74 41 
-0.698603 0.619616 2.14672 181 147 112 
-0.698507 0.607734 2.14697 187 153 115 
-0.775835 -0.70851 2.37924 167 138 104 
-0.71712 0.265258 2.203 74 42 17 
-0.723532 0.140489 2.22042 185 155 121 
-0.699746 0.556741 2.15325 127 97 63 
-0.719714 0.21701 2.21207 176 146 112 
-0.769308 -0.571605 2.35921 210 178 140 
-0.774278 -0.685303 2.3767 125 92 57 
-0.770723 -0.584115 2.36627 218 186 148 
-0.71439 0.27533 2.19951 166 135 104 
-0.766584 -0.547432 2.3541 184 150 122 
-0.691913 0.651345 2.13159 166 133 102 
-0.72386 0.112688 2.227 179 143 109 
-0.766518 -0.536691 2.35599 208 170 133 
-0.769588 -0.637295 2.36644 214 180 152 
-0.768421 -0.594719 2.36363 199 166 131 
-0.76338 -0.499215 2.34868 196 163 130 
-0.76986 -0.647024 2.37189 193 165 128 
-0.708151 0.369019 2.18666 109 75 38 
-0.697158 0.596999 2.15548 180 141 102 
-0.699323 0.53886 2.16355 114 83 55 
-0.714416 0.247158 2.20744 175 137 100 
-0.760371 -0.546925 2.34612 127 97 63 
-0.71768 0.171733 2.21763 177 144 111 
-0.72004 0.164286 2.22592 184 151 118 
-0.699747 0.483732 2.16797 165 129 97 
-0.707828 0.305808 2.19145 119 85 47 
-0.688796 0.674272 2.13497 177 148 114 
-0.704246 0.390259 2.1827 154 118 82 
-0.724042 0.000649568 2.23916 190 152 113 
-0.701734 0.442531 2.17618 74 40 12 
-0.713961 0.19449 2.20961 140 110 74 
-0.723281 0.0333608 2.23733 119 80 49 
-0.690129 0.683641 2.14189 196 163 132 
-0.69852 0.515469 2.16851 105 74 43 
-0.699169 0.460134 2.16997 196 163 130 
-0.689968 0.622548 2.1421 123 93 65 
-0.760941 -0.582077 2.35598 133 101 63 
-0.71373 0.203561 2.21459 201 167 129 
-0.698399 0.450255 2.17142 167 137 103 
-0.720287 0.0721632 2.23531 132 100 62 
-0.706317 0.263354 2.19738 117 83 55 
-0.703409 0.340506 2.19064 92 61 32 
-0.70326 0.35694 2.18956 106 77 43 
-0.713805 0.157988 2.2198 179 145 110 
-0.68654 0.632949 2.13891 124 93 65 
-0.755502 -0.510548 2.34645 217 180 136 
-0.764646 -0.697363 2.37713 114 84 50 
-0.719351 0.0608142 2.24095 110 77 44 
-0.688772 0.579138 2.15216 177 144 111 
-0.714574 0.113161 2.22937 182 149 114 
-0.684693 0.645269 2.14125 181 150 119 
-0.688977 0.548084 2.1537 96 66 40 
-0.709478 0.177622 2.21699 110 76 49 
-0.751018 -0.486753 2.34351 182 149 114 
-0.75429 -0.531223 2.35298 141 106 74 
-0.68558 0.562544 2.14771 172 140 115 
-0.697564 0.365349 2.18415 104 71 36 
-0.68172 0.658978 2.13667 190 159 130 
-0.700903 0.299218 2.19514 119 84 54 
-0.691238 0.501541 2.16739 184 142 102 
-0.683522 0.596893 2.14521 110 80 52 
-0.70838 0.139331 2.21881 192 157 117 
-0.751762 -0.552006 2.35393 213 175 128 
-0.698668 0.32212 2.19524 172 132 96 
-0.687122 0.525755 2.16218 169 138 109 
-0.686346 0.508051 2.16115 112 76 40 
-0.689075 0.457489 2.17135 183 146 104 
-0.749821 -0.56992 2.35541 194 155 116 
-0.701577 0.216411 2.20868 196 160 126 
-0.758054 -0.708649 2.38174 147 105 57 
-0.689153 0.46893 2.17256 173 131 89 
-0.696406 0.286299 2.19733 188 150 113 
-0.704491 0.130696 2.2213 136 103 68 
-0.67612 0.671538 2.13678 191 157 120 
-0.678733 0.608707 2.14552 180 149 120 
-0.7433 -0.47684 2.34122 124 90 52 
-0.708282 0.0787171 2.23346 108 73 41 
-0.706308 0.0889483 2.22759 198 156 118 
-0.681002 0.572369 2.15545 172 139 106 
-0.690193 0.35301 2.1828 176 145 114 
-0.677542 0.621753 2.1454 138 108 74 
-0.700434 0.18632 2.21633 222 183 144 
-0.749487 -0.617481 2.36624 128 94 59 
-0.700832 0.158573 2.21745 113 76 50 
-0.694887 0.265998 2.20234 175 141 104 
-0.685746 0.41147 2.17552 82 51 20 
-0.741828 -0.529007 2.34749 126 95 66 
-0.678688 0.537442 2.15575 111 82 52 
-0.681923 0.489734 2.16695 113 80 49 
-0.750467 -0.677466 2.37675 113 79 44 
-0.694056 0.246022 2.2025 135 101 66 
-0.739337 -0.503567 2.34172 135 105 69 
-0.671298 0.654732 2.13469 129 95 67 
-0.69015 0.300926 2.1927 168 137 106 
-0.683879 0.44139 2.17545 165 131 93 
-0.673886 0.600424 2.14424 188 157 128 
-0.670368 0.68801 2.13421 127 96 68 
-0.695065 0.225356 2.21186 204 163 119 
