ply                 
format ascii 1.0    
element vertex 1219
property float x    
property float y    
property float z    
property uchar red  
property uchar green
property uchar blue 
end_header          
-0.537472 0.184255 2.19901 142 114 75 
-0.534591 0.152819 2.1964 139 108 77 
-0.535897 0.262893 2.17967 124 94 58 
-0.53541 0.22948 2.18484 39 11 0 
-0.536247 0.117448 2.21081 136 109 79 
-0.534911 0.338036 2.16359 95 65 31 
-0.535983 0.0643987 2.22347 170 141 111 
-0.532744 0.0866111 2.20744 155 123 82 
-0.534078 0.407439 2.15065 139 109 71 
-0.538343 0.627981 2.12664 116 81 51 
-0.535231 0.357199 2.16709 197 165 127 
-0.535243 0.20675 2.19767 100 70 42 
-0.53508 0.481373 2.14546 124 98 73 
-0.533536 0.165443 2.2025 94 63 35 
-0.532375 0.32135 2.16876 192 158 120 
-0.533163 0.0340729 2.23247 176 144 105 
-0.531084 0.346502 2.16506 101 71 43 
-0.531292 0.131779 2.20781 67 40 13 
-0.531208 0.252616 2.18457 164 131 100 
-0.534583 0.7239 2.10823 163 131 106 
-0.532235 0.533707 2.13946 166 132 97 
-0.528828 0.0543063 2.22622 104 73 29 
-0.528154 0.306265 2.17831 102 75 45 
-0.525823 0.213895 2.18799 134 99 69 
-0.524783 0.099522 2.20816 173 139 102 
-0.525785 0.0294566 2.22885 85 61 25 
-0.522499 0.11008 2.1975 183 153 119 
-0.52347 0.291819 2.1717 146 119 90 
-0.524545 -0.0290506 2.2437 76 45 25 
-0.521104 0.144511 2.19822 159 129 95 
-0.525322 0.506351 2.14564 115 79 43 
-0.521455 0.160066 2.19588 110 76 48 
-0.526018 0.741271 2.10182 170 144 107 
-0.517426 0.248084 2.16223 126 106 73 
-0.52024 0.0178879 2.23264 134 105 71 
-0.519254 0.0580612 2.22066 121 92 62 
-0.520289 -0.000465581 2.23965 150 119 90 
-0.519496 0.412079 2.15524 163 134 104 
-0.518652 0.180646 2.19796 82 54 32 
-0.51992 -0.0666772 2.25485 144 114 86 
-0.517745 0.254561 2.18418 53 27 2 
-0.516428 0.0891653 2.21077 169 142 112 
-0.516049 0.425294 2.15262 75 47 25 
-0.515717 -0.0581582 2.24969 148 121 94 
-0.513814 0.380733 2.15384 85 59 24 
-0.513696 0.0333579 2.22581 155 128 101 
-0.515871 0.579172 2.12579 89 58 29 
-0.51209 0.128696 2.19936 110 77 44 
-0.51675 0.63935 2.12153 173 139 112 
-0.511986 0.159445 2.20222 59 32 3 
-0.506486 0.181414 2.17608 152 123 91 
-0.507735 0.257555 2.16749 152 123 89 
-0.510603 0.369161 2.1609 142 113 83 
-0.509813 0.313035 2.17023 144 115 85 
-0.508645 0.288657 2.17235 93 58 20 
-0.507306 0.0711989 2.21098 87 62 32 
-0.382949 -0.368305 1.66604 92 5 0 
-0.509929 0.0101332 2.24197 79 52 25 
-0.508063 0.0526456 2.22506 68 42 15 
-0.506274 0.301814 2.16865 99 66 33 
-0.505641 0.276288 2.17035 63 33 0 
-0.505723 0.211883 2.18455 123 93 67 
-0.506236 0.10545 2.21083 136 111 80 
-0.505001 0.167423 2.19847 135 109 82 
-0.505236 0.254641 2.18224 85 55 27 
-0.380531 -0.306122 1.65616 203 24 17 
-0.502644 0.185409 2.18923 69 42 12 
-0.503196 0.330309 2.1638 168 130 94 
-0.50211 -0.0030307 2.23302 140 111 79 
-0.499942 0.0416255 2.21716 97 67 31 
-0.501866 0.0135129 2.23366 153 122 91 
-0.4998 0.0717157 2.21976 81 51 25 
-0.500225 -0.0345355 2.2433 161 133 109 
-0.49694 0.224153 2.18041 130 103 74 
-0.497766 0.100878 2.20866 91 61 25 
-0.494975 0.278014 2.16856 157 125 86 
-0.494444 0.166888 2.19714 124 94 70 
-0.49533 0.409484 2.15544 71 42 8 
-0.495284 0.0467532 2.23077 156 121 83 
-0.492366 0.149694 2.19662 147 110 68 
-0.491646 0.385039 2.15307 160 131 101 
-0.373528 -0.559242 1.71998 33 31 32 
-0.492438 -0.0120826 2.23742 157 118 79 
-0.491425 0.130711 2.20368 165 131 93 
-0.491963 0.371257 2.16068 95 61 24 
-0.49018 0.269403 2.17326 156 125 94 
-0.490691 0.181014 2.19795 97 67 41 
-0.488546 0.289515 2.16911 151 124 95 
-0.486237 0.216801 2.17949 147 117 89 
-0.486068 0.0893966 2.20915 93 62 33 
-0.369664 -0.486188 1.70398 219 80 113 
-0.486952 0.0187557 2.22988 76 46 20 
-0.485915 0.0372497 2.22177 82 56 19 
-0.483979 0.306848 2.16543 173 145 108 
-0.486123 0.485898 2.14183 156 122 87 
-0.483139 0.205337 2.18289 78 50 13 
-0.366674 -0.353736 1.67289 183 108 105 
-0.367256 -0.388129 1.6838 226 115 148 
-0.482777 0.0776304 2.2155 152 122 94 
-0.483099 0.359841 2.16155 98 67 36 
-0.481677 0.171686 2.19596 65 35 11 
-0.481181 0.0482896 2.22264 154 125 95 
-0.478684 0.146375 2.20012 83 55 31 
-0.478568 0.431461 2.1465 118 85 52 
-0.476651 0.258571 2.17241 77 51 26 
-0.477068 0.0658082 2.21633 92 61 30 
-0.361649 -0.528276 1.70808 143 40 67 
-0.361415 -0.447882 1.69479 241 165 191 
-0.475344 0.210813 2.18927 94 65 35 
-0.475445 0.369681 2.15726 144 117 90 
-0.474649 0.100313 2.2104 98 68 30 
-0.360782 -0.273722 1.66008 31 26 23 
-0.472771 0.227554 2.17856 170 140 104 
-0.472759 0.125301 2.20929 86 54 31 
-0.471525 0.345739 2.15876 85 53 30 
-0.358341 -0.487997 1.70283 226 105 150 
-0.46984 0.279573 2.16799 164 133 104 
-0.354511 -0.224486 1.63137 194 15 11 
-0.470859 0.187674 2.1982 164 131 98 
-0.469574 0.156875 2.19817 65 35 7 
-0.354303 -0.423286 1.68554 68 61 45 
-0.353219 -0.402143 1.68557 192 170 149 
-0.463265 0.193656 2.18686 110 81 49 
-0.462713 0.269357 2.17035 138 108 82 
-0.351651 -0.550469 1.71458 143 50 79 
-0.462816 0.331481 2.16641 157 129 90 
-0.460252 0.230168 2.17888 94 67 37 
-0.460826 0.30353 2.16921 82 52 26 
-0.458083 0.317896 2.15417 105 71 43 
-0.350325 -0.340964 1.67502 116 2 0 
-0.458091 0.278948 2.1692 147 117 89 
-0.348984 -0.383881 1.68184 105 93 51 
-0.343715 -0.211743 1.6163 168 19 23 
-0.348072 -0.362037 1.67559 48 45 38 
-0.346402 -0.563349 1.71222 226 186 116 
-0.340937 -0.208759 1.60523 156 45 51 
-0.455065 0.250132 2.17628 87 57 29 
-0.45502 0.292203 2.16928 62 32 8 
-0.345076 -0.533381 1.71337 146 31 62 
-0.344179 -0.329311 1.66788 47 37 36 
-0.452111 0.434611 2.15037 107 76 48 
-0.343652 -0.311694 1.67661 73 71 72 
-0.340818 -0.420551 1.69169 87 78 71 
-0.340217 -0.517195 1.70869 141 127 126 
-0.339279 -0.543538 1.715 126 9 35 
-0.337789 -0.487366 1.70364 93 31 56 
-0.441953 0.330648 2.16501 166 136 110 
-0.336135 -0.356825 1.67779 208 91 82 
-0.333083 -0.243233 1.65186 42 22 11 
-0.331844 -0.265135 1.65477 147 144 137 
-0.327728 -0.554379 1.71532 42 25 9 
-0.32783 -0.322324 1.66915 87 0 0 
-0.325682 -0.281718 1.65342 61 59 60 
-0.326137 -0.342155 1.67503 228 101 142 
-0.324937 -0.449299 1.69451 119 42 60 
-0.322321 -0.270649 1.64279 250 255 247 
-0.322643 -0.243331 1.65098 170 169 148 
-0.320024 -0.217747 1.63046 2 0 3 
-0.318093 -0.471459 1.69739 57 0 9 
-0.317389 -0.311237 1.6633 199 71 70 
-0.316613 -0.234976 1.64437 19 8 6 
-0.314635 -0.27598 1.65689 173 61 59 
-0.308486 -0.207914 1.61242 13 2 0 
-0.312202 -0.483804 1.70046 194 95 126 
-0.30825 -0.495432 1.70417 55 24 22 
-0.306086 -0.393273 1.67895 234 134 146 
-0.304492 -0.216879 1.62803 15 0 0 
-0.306044 -0.37962 1.67744 45 36 39 
-0.306053 -0.266268 1.65676 153 102 98 
-0.30512 -0.290792 1.66081 42 0 0 
-0.302606 -0.47748 1.70037 50 46 47 
-0.300552 -0.415619 1.68582 217 166 135 
-0.299494 -0.489155 1.70314 220 131 153 
-0.297336 -0.550656 1.70828 125 107 103 
-0.296741 -0.569756 1.71059 135 129 129 
-0.297671 -0.45736 1.69919 206 139 122 
-0.295954 -0.42604 1.69349 83 77 77 
-0.295231 -0.531475 1.71253 166 69 78 
-0.293782 -0.296376 1.66219 219 124 156 
-0.289221 -0.542856 1.7133 231 107 45 
-0.284944 0.0181568 1.56833 204 191 174 
-0.287045 -0.449167 1.68921 168 120 84 
-0.282866 -0.370748 1.65162 249 225 215 
-0.2826 -0.440088 1.683 84 42 18 
-0.282685 -0.563171 1.71505 159 167 170 
-0.282285 -0.323369 1.66842 236 181 202 
-0.280186 -0.551985 1.71238 222 226 212 
-0.277381 -0.389891 1.65547 253 223 215 
-0.279305 -0.501353 1.69873 48 48 48 
-0.280074 -0.332903 1.6668 228 184 209 
-0.278502 -0.292848 1.66057 227 81 130 
-0.276434 -0.524059 1.70962 62 103 59 
-0.275222 -0.254751 1.6512 172 101 99 
-0.274013 -0.238809 1.64448 44 43 41 
-0.272826 -0.569067 1.71689 51 34 27 
-0.271435 -0.226458 1.63685 78 0 0 
-0.271912 -0.513717 1.70813 84 142 104 
-0.269432 -0.449599 1.67515 243 240 231 
-0.269987 -0.557697 1.71106 32 42 31 
-0.268882 -0.489359 1.70115 25 40 33 
-0.268515 -0.281642 1.65677 76 0 0 
-0.266645 -0.578646 1.72113 144 86 72 
-0.263821 -0.215854 1.62248 162 62 62 
-0.262787 -0.396093 1.66719 193 171 158 
-0.261545 -0.408199 1.66025 99 49 48 
-0.263834 -0.535381 1.70945 106 120 103 
-0.263257 -0.294117 1.65964 122 0 0 
-0.260619 -0.510532 1.70324 102 135 118 
-0.260748 -0.567578 1.71859 63 101 62 
-0.254282 -0.201062 1.59398 187 94 102 
-0.257154 -0.39065 1.68135 106 123 87 
-0.256208 -0.346823 1.6683 231 92 151 
-0.255898 -0.526556 1.70944 39 37 24 
-0.251689 -0.430959 1.66797 228 180 178 
-0.253486 -0.165845 1.63414 93 81 67 
-0.251598 -0.573992 1.71774 143 112 84 
-0.251902 -0.475481 1.69841 50 57 41 
-0.251515 -0.492737 1.70179 17 33 22 
-0.251331 -0.368353 1.67617 229 182 202 
-0.250528 -0.561981 1.71675 89 124 100 
-0.242745 -0.193457 1.5935 84 0 0 
-0.245255 -0.414969 1.68478 86 113 96 
-0.245041 -0.390641 1.67812 211 160 133 
-0.244218 -0.287006 1.65763 73 4 0 
-0.241327 -0.530539 1.70894 220 190 152 
-0.241403 -0.240495 1.6458 201 110 92 
-0.237979 -0.50066 1.70309 23 40 30 
-0.235983 -0.25663 1.64011 221 47 22 
-0.235906 -0.547061 1.70648 223 225 212 
-0.237142 -0.373897 1.67808 156 114 100 
-0.236006 -0.471136 1.69719 75 100 79 
-0.234545 -0.564225 1.71522 50 76 29 
-0.234589 -0.444705 1.69175 108 89 75 
-0.231919 -0.385964 1.68004 42 33 28 
-0.231445 -0.408368 1.68331 122 145 116 
-0.22876 -0.464232 1.70246 12 28 17 
-0.227622 -0.494018 1.70089 169 110 102 
-0.226484 -0.52503 1.70159 76 46 20 
-0.226287 -0.270999 1.65206 210 58 21 
-0.22541 -0.373765 1.67532 159 115 86 
-0.224893 -0.43401 1.68887 91 104 95 
-0.218392 -0.14126 1.55539 114 109 113 
-0.224082 -0.474665 1.69715 174 121 103 
-0.223592 -0.563084 1.71541 108 128 93 
-0.222238 -0.39733 1.68013 136 114 101 
-0.219795 -0.314656 1.63612 239 235 224 
-0.220853 -0.545441 1.70508 229 227 212 
-0.221519 -0.506992 1.70416 38 24 13 
-0.218445 -0.299229 1.6327 144 135 126 
-0.220241 -0.358417 1.67153 58 26 15 
-0.220116 -0.383286 1.67648 33 11 0 
-0.218697 -0.484532 1.69619 133 44 40 
-0.218196 -0.414283 1.68366 167 130 112 
-0.214809 -0.582082 1.71777 182 133 103 
-0.214859 -0.346516 1.66817 227 184 203 
-0.214399 -0.425379 1.68592 131 145 119 
-0.213998 -0.437429 1.68535 43 32 12 
-0.211665 -0.554298 1.71023 163 129 102 
-0.211434 -0.4581 1.69287 164 113 82 
-0.210938 -0.497338 1.7019 185 141 96 
-0.211024 -0.331134 1.66516 127 72 93 
-0.204487 -0.127269 1.54819 231 231 229 
-0.208013 -0.364945 1.67256 196 139 109 
-0.207051 -0.253459 1.6478 65 5 0 
-0.203527 -0.314085 1.63515 245 238 228 
-0.2029 -0.509815 1.70591 98 31 15 
-0.202248 -0.53483 1.7092 172 114 90 
-0.202653 -0.417527 1.68851 146 37 43 
-0.201526 -0.390109 1.67631 164 116 93 
-0.200511 -0.407465 1.68065 153 122 104 
-0.199582 -0.238747 1.64124 185 38 46 
-0.198993 -0.228316 1.63302 255 145 138 
-0.197227 -0.32649 1.6371 134 129 123 
-0.197624 -0.460383 1.6929 176 131 98 
-0.197615 -0.492051 1.70029 193 141 94 
-0.196517 -0.369432 1.67275 183 141 117 
-0.195373 -0.480753 1.69319 143 40 43 
-0.192756 -0.314449 1.63325 242 231 229 
-0.193319 -0.391732 1.66951 165 137 125 
-0.189276 -0.071569 1.53933 1 0 4 
-0.193642 -0.397365 1.68142 42 10 0 
-0.190958 -0.292846 1.62942 253 172 106 
-0.191288 -0.508399 1.7024 130 42 40 
-0.191482 -0.383452 1.67473 139 111 99 
-0.189764 -0.52426 1.70614 79 43 19 
-0.189521 -0.412096 1.68321 195 172 154 
-0.186921 -0.335117 1.63992 112 103 98 
-0.187878 -0.537538 1.70763 53 23 13 
-0.18639 -0.228838 1.63216 223 203 214 
-0.185162 -0.477325 1.69105 118 39 22 
-0.18413 -0.497213 1.69904 169 99 101 
-0.183632 -0.354301 1.66845 227 123 124 
-0.178795 -0.0624366 1.53657 55 56 60 
-0.182101 -0.404645 1.67957 49 20 12 
-0.18169 -0.38887 1.67795 52 23 5 
-0.177799 -0.204457 1.58965 41 0 0 
-0.178326 -0.370898 1.67247 195 145 122 
-0.175626 -0.342155 1.63895 245 233 233 
-0.176735 -0.432705 1.68604 39 31 20 
-0.174222 -0.471201 1.69348 87 43 18 
-0.173803 -0.48178 1.69855 81 49 38 
-0.172611 -0.226496 1.62943 134 21 7 
-0.172327 -0.400685 1.6773 49 17 0 
-0.170614 -0.380114 1.6738 194 161 126 
-0.16924 -0.452891 1.6893 68 30 19 
-0.167924 -0.526337 1.70671 143 93 70 
-0.166355 -0.349017 1.64183 110 105 101 
-0.165869 -0.463774 1.69181 69 31 12 
-0.16484 -0.412324 1.67935 130 160 124 
-0.164111 -0.153294 1.62315 220 198 177 
-0.161248 -0.494765 1.69635 198 154 127 
-0.157614 -0.435594 1.68507 100 96 95 
-0.154033 -0.210204 1.59138 241 150 106 
-0.156379 -0.422521 1.68518 10 48 23 
-0.156157 -0.406253 1.67926 54 73 41 
-0.152123 -0.0539934 1.52975 222 223 228 
-0.154384 -0.534873 1.69806 31 4 0 
-0.15324 -0.343307 1.63825 239 230 221 
-0.15271 -0.355843 1.64058 230 224 212 
-0.153477 -0.528014 1.70496 44 19 12 
-0.149555 -0.495262 1.70291 32 25 17 
-0.148294 -0.551724 1.70766 126 55 11 
-0.14665 -0.365119 1.64344 229 218 216 
-0.148477 -0.136467 1.62108 227 194 177 
-0.146679 -0.440452 1.68439 150 170 142 
-0.14743 -0.163345 1.62626 88 73 68 
-0.146189 -0.424982 1.68109 41 41 39 
-0.145405 -0.406111 1.67443 51 100 79 
-0.142426 -0.351235 1.63987 227 217 205 
-0.142979 -0.448216 1.67887 52 34 22 
-0.14221 -0.538276 1.70235 96 0 0 
-0.142459 -0.389196 1.675 137 115 94 
-0.142885 -0.172758 1.62739 67 34 27 
-0.141428 -0.482216 1.69208 88 113 94 
-0.141462 -0.415245 1.68209 106 142 116 
-0.140337 -0.513894 1.69703 55 18 12 
-0.139173 -0.523592 1.70368 178 58 68 
-0.136079 -0.0075528 1.52071 162 155 162 
-0.137415 -0.182928 1.63008 162 140 127 
-0.137387 -0.0178505 1.57626 233 233 235 
-0.134959 -0.35988 1.64048 254 246 243 
-0.135222 -0.397953 1.67431 32 47 26 
-0.134874 -0.148091 1.62221 83 54 38 
-0.131815 -0.376228 1.66706 32 36 13 
-0.132768 -0.165583 1.62506 92 64 61 
-0.131328 -0.386684 1.66203 158 132 105 
-0.128493 -0.216348 1.59479 60 0 2 
-0.128163 -0.0335771 1.52738 160 160 162 
-0.128902 -0.438122 1.68378 153 153 141 
-0.13017 -0.135894 1.61965 224 195 177 
-0.12667 -0.523014 1.70082 40 41 27 
-0.127832 -0.178962 1.62698 173 146 137 
-0.125406 -0.10874 1.61363 238 179 165 
-0.123424 -0.45542 1.68092 85 88 71 
-0.122944 -0.00643012 1.51975 221 222 226 
-0.124172 -0.146777 1.62094 121 94 75 
-0.123023 -0.36737 1.6686 183 152 160 
-0.121057 -0.417296 1.64007 40 26 17 
-0.12138 -0.0177851 1.52573 221 222 226 
-0.12277 -0.16034 1.62373 99 71 50 
-0.120269 -0.407776 1.64353 82 55 44 
-0.119807 -0.514518 1.68951 104 108 91 
-0.119628 -0.395761 1.66759 84 58 33 
-0.119112 -0.533445 1.70401 206 125 59 
-0.120375 -0.170986 1.6259 250 208 194 
-0.11563 0.298181 1.36965 207 155 159 
-0.117282 -0.126894 1.61694 183 88 86 
-0.115515 -0.375403 1.66781 202 122 63 
-0.112186 -0.424157 1.63788 236 208 194 
-0.11275 -0.280176 1.62403 208 155 103 
-0.114097 -0.150605 1.6199 152 55 62 
-0.111099 -0.40914 1.63776 118 90 69 
-0.109791 0.281359 1.36934 105 9 20 
-0.11069 -0.554864 1.70703 81 66 61 
-0.110356 -0.38797 1.67102 143 113 103 
-0.111416 -0.182387 1.62726 179 138 134 
-0.111572 -0.11821 1.61222 242 202 190 
-0.111108 -0.164095 1.62359 237 211 194 
-0.110366 -0.140425 1.61945 115 42 36 
-0.107607 -0.0269393 1.52529 146 145 151 
-0.106589 -0.533105 1.70038 216 109 29 
-0.106509 -0.503599 1.68815 124 120 93 
-0.10549 -0.433553 1.64074 141 114 97 
-0.106581 -0.353838 1.66407 87 70 89 
-0.105703 -0.371115 1.66968 130 104 105 
-0.104854 -0.00431263 1.53065 209 208 213 
-0.105332 -0.107033 1.61182 202 64 77 
-0.102992 -0.339814 1.66067 91 76 95 
-0.101559 -0.457006 1.67185 66 66 30 
-0.100745 -0.417637 1.63716 227 198 184 
-0.100565 -0.405085 1.63586 232 203 187 
-0.10177 -0.174299 1.62556 195 165 157 
-0.101042 -0.130787 1.61648 229 211 189 
-0.0993884 -0.287194 1.6265 135 85 36 
-0.100332 -0.156964 1.6223 104 67 48 
-0.0968165 -0.465629 1.6599 143 144 112 
-0.0972908 -0.298139 1.62298 208 164 115 
-0.0952822 -0.534672 1.69919 94 94 84 
-0.094959 -0.428013 1.63867 130 101 87 
-0.0956085 -0.369137 1.66615 161 147 160 
-0.0968209 -0.145944 1.61953 77 67 68 
-0.0934258 -0.184444 1.62632 116 42 41 
-0.0911609 -0.581403 1.7114 100 97 92 
-0.0903951 -0.410878 1.63482 122 96 81 
-0.0913842 -0.347023 1.66184 81 67 82 
-0.0906032 -0.174249 1.62527 124 40 40 
-0.0899789 -0.162804 1.62423 142 58 58 
-0.0892838 -0.120077 1.6126 149 150 142 
-0.0867793 -0.150839 1.62021 227 200 179 
-0.0853844 -0.373493 1.6661 81 66 73 
-0.0842608 -0.544047 1.70412 57 106 113 
-0.0855518 -0.135093 1.61652 235 205 179 
-0.0827727 -0.402372 1.63283 126 97 91 
-0.0804226 -0.419269 1.63643 222 194 180 
-0.0775122 -0.57883 1.71007 3 28 33 
-0.0788975 -0.3572 1.66108 164 163 171 
-0.079528 -0.176404 1.62476 61 41 30 
-0.0761238 -0.53894 1.6986 80 120 119 
-0.076646 -0.164985 1.62224 94 76 64 
-0.0747076 -0.366649 1.66574 0 7 17 
-0.0742832 -0.140442 1.61683 85 70 63 
-0.0723931 -0.395478 1.63362 124 91 82 
-0.0733924 -0.0884015 1.60505 105 72 53 
-0.0704245 -0.526195 1.70047 40 29 33 
-0.0701508 -0.471092 1.66735 139 134 104 
-0.0676464 -0.358686 1.66236 0 9 6 
-0.0649245 -0.575794 1.70801 7 24 31 
-0.0658877 -0.407936 1.63676 131 96 90 
-0.0626492 -0.544565 1.70662 186 126 102 
-0.0642532 -0.134592 1.61417 124 143 141 
-0.0633797 -0.173468 1.62494 156 168 168 
-0.0623591 -0.160114 1.622 229 203 186 
-0.0616878 -0.144447 1.6166 241 215 200 
-0.0599703 -0.220316 1.60454 10 0 0 
-0.0556403 -0.395047 1.63029 110 84 61 
-0.0537465 -0.529998 1.69645 56 6 7 
-0.0530588 -0.134428 1.61466 91 73 69 
-0.052666 -0.152334 1.61715 158 173 168 
-0.0471396 -0.411247 1.63443 135 101 92 
-0.0447892 -0.250771 1.63888 58 0 8 
-0.0408453 -0.182339 1.62222 37 25 25 
-0.0405139 0.264721 1.36983 100 13 19 
-0.0352067 -0.244497 1.62802 51 87 83 
-0.0332143 -0.215226 1.58888 220 69 120 
-0.0287684 -0.255066 1.63571 51 70 76 
-0.0305226 -0.35268 1.12676 6 2 1 
-0.0208623 -0.0929418 1.57435 8 7 12 
-0.00922595 -0.226436 1.58425 29 33 32 
0.00144581 0.340968 1.52408 108 93 86 
-0.952824 0.676652 2.0842 197 165 124 
-0.952433 0.703867 2.08686 143 113 79 
-0.948718 0.690548 2.08995 150 109 79 
-0.942879 0.731967 2.07724 187 158 126 
-0.935573 0.637165 2.1007 179 150 120 
-0.927916 0.578355 2.11511 199 162 118 
-0.938278 0.751122 2.07719 106 76 40 
-0.929924 0.628693 2.10552 140 101 60 
-0.933217 0.675115 2.10203 143 104 71 
-0.928231 0.678851 2.08848 202 160 120 
-0.920391 0.631011 2.09898 143 104 65 
-0.92571 0.704103 2.08598 143 109 71 
-0.909116 0.455741 2.1462 182 139 96 
-0.923191 0.713526 2.08091 194 160 123 
-0.917464 0.641801 2.09831 202 160 120 
-0.912808 0.622146 2.1001 139 105 68 
-0.908203 0.585787 2.11234 123 93 57 
-0.909197 0.600306 2.11105 123 89 51 
-0.916734 0.724107 2.08088 210 170 134 
-0.89496 0.428682 2.15171 207 167 131 
-0.911119 0.666234 2.10005 204 166 127 
-0.911826 0.708617 2.08407 152 114 77 
-0.90241 0.623484 2.10586 144 109 71 
-0.903559 0.682625 2.08788 200 167 132 
-0.89203 0.518661 2.12602 222 193 151 
-0.894954 0.569716 2.11624 222 192 154 
-0.901886 0.726079 2.08197 138 98 62 
-0.895038 0.640461 2.09874 137 95 53 
-0.893805 0.656106 2.09444 124 84 49 
-0.881675 0.426081 2.15728 114 78 42 
-0.88876 0.613669 2.10453 137 103 65 
-0.885909 0.588371 2.10704 225 187 140 
-0.874069 0.388825 2.15838 189 157 119 
-0.879425 0.533745 2.11577 209 171 126 
-0.88664 0.63388 2.09669 215 176 133 
-0.888102 0.681581 2.08723 112 77 35 
-0.890138 0.728195 2.07415 129 94 54 
-0.866486 0.333545 2.17083 133 93 58 
-0.876177 0.547342 2.11696 117 80 38 
-0.857421 0.247924 2.18899 201 162 121 
-0.871882 0.469851 2.13988 190 157 124 
-0.885938 0.702036 2.08535 150 108 68 
-0.86728 0.490191 2.12988 221 183 136 
-0.879774 0.722381 2.07417 184 149 109 
-0.851745 0.21879 2.2048 195 156 117 
-0.854709 0.305288 2.17753 114 83 39 
-0.872594 0.628902 2.09468 192 152 116 
-0.868483 0.519546 2.12893 175 143 105 
-0.855141 0.336788 2.17322 87 60 31 
-0.876026 0.694718 2.08508 117 81 47 
-0.873751 0.650967 2.0982 123 83 47 
-0.870684 0.619306 2.10312 129 95 57 
-0.872997 0.683787 2.08464 129 96 65 
-0.859461 0.433725 2.15115 113 74 41 
-0.867304 0.581475 2.11218 124 92 54 
-0.86096 0.466773 2.14273 146 107 76 
-0.862939 0.533921 2.12354 113 79 44 
-0.873428 0.710543 2.08109 224 192 151 
-0.851531 0.369554 2.16417 194 155 114 
-0.849582 0.345142 2.17026 85 57 33 
-0.859409 0.523001 2.12468 197 159 122 
-0.864824 0.604035 2.11013 186 147 114 
-0.866546 0.680216 2.09228 122 88 60 
-0.84143 0.288707 2.18016 196 164 126 
-0.862715 0.642933 2.09938 190 161 119 
-0.85855 0.588946 2.1078 121 88 57 
-0.850189 0.446142 2.1442 200 166 131 
-0.836087 0.245663 2.19091 125 92 61 
-0.857113 0.619568 2.10013 175 139 103 
-0.854762 0.576879 2.11358 169 134 92 
-0.861314 0.657141 2.10224 181 143 104 
-0.852057 0.55717 2.11519 161 128 85 
-0.848714 0.498371 2.13282 200 165 125 
-0.862584 0.703757 2.08978 183 148 108 
-0.843045 0.423995 2.15492 103 68 38 
-0.849901 0.598908 2.10636 112 78 41 
-0.827397 0.23307 2.19661 176 144 105 
-0.841958 0.476629 2.13934 90 52 16 
-0.841233 0.458409 2.14489 90 58 35 
-0.853311 0.68985 2.08565 196 158 113 
-0.822234 0.201283 2.20034 196 159 117 
-0.833242 0.385877 2.15454 191 159 120 
-0.830923 0.337045 2.17092 171 139 100 
-0.818927 0.147773 2.21988 190 154 106 
-0.838734 0.541472 2.11395 211 173 134 
-0.841103 0.576017 2.1079 196 162 125 
-0.82254 0.223367 2.20119 184 154 116 
-0.820969 0.246375 2.18823 130 97 66 
-0.816755 0.161997 2.21737 126 97 55 
-0.839062 0.56844 2.11533 196 167 135 
-0.831144 0.444692 2.14334 130 99 55 
-0.838359 0.61768 2.09276 183 148 118 
-0.816456 0.191225 2.20762 189 158 114 
-0.819685 0.258372 2.19079 126 97 65 
-0.830092 0.431225 2.15321 125 95 61 
-0.826088 0.373314 2.16428 191 162 128 
-0.841538 0.658535 2.09357 192 164 125 
-0.830078 0.464843 2.14015 199 166 135 
-0.820151 0.296306 2.1801 191 161 125 
-0.821171 0.314328 2.1787 178 150 113 
-0.823607 0.395803 2.15346 190 159 115 
-0.821333 0.345874 2.16827 209 174 142 
-0.830729 0.521968 2.12541 166 138 101 
-0.813323 0.202493 2.2082 115 85 49 
-0.821882 0.384329 2.15649 196 168 131 
-0.817394 0.277102 2.19114 120 91 61 
-0.826259 0.482832 2.13006 183 150 119 
-0.806756 0.0750917 2.24478 192 158 121 
-0.810379 0.178548 2.2135 214 184 132 
-0.802734 0.0842677 2.23305 128 93 61 
-0.794264 -0.0444981 2.26233 144 105 66 
-0.81162 0.231759 2.19952 204 174 136 
-0.795354 -0.0128348 2.2525 202 171 140 
-0.826791 0.509139 2.1314 120 88 63 
-0.811642 0.267041 2.1874 217 181 133 
-0.827604 0.571588 2.11233 138 105 74 
-0.821139 0.450666 2.14384 124 94 58 
-0.812761 0.326273 2.17657 219 185 147 
-0.812782 0.365861 2.159 210 177 136 
-0.802946 0.160718 2.21575 149 116 73 
-0.815621 0.412132 2.14954 220 185 145 
-0.797838 0.0936286 2.22831 197 169 132 
-0.814036 0.376985 2.16075 199 167 128 
-0.803219 0.185873 2.2096 140 108 69 
-0.829504 0.631241 2.10482 208 176 129 
-0.778498 -0.213018 2.30233 183 145 108 
-0.82252 0.560029 2.11233 234 201 160 
-0.808211 0.310131 2.18032 137 105 67 
-0.801884 0.210716 2.20409 211 173 136 
-0.816169 0.512438 2.12145 181 145 109 
-0.805952 0.286099 2.18617 129 94 64 
-0.811117 0.463029 2.13067 181 147 112 
-0.816876 0.512112 2.13474 159 124 86 
-0.786244 0.00682937 2.25101 114 83 54 
-0.777398 -0.111941 2.27445 193 155 116 
-0.814341 0.535884 2.11912 191 160 131 
-0.793689 0.138505 2.22285 128 95 60 
-0.800676 0.272716 2.18839 196 161 123 
-0.808824 0.424959 2.15006 201 163 124 
-0.785733 0.033896 2.24298 187 151 117 
-0.788099 0.0714501 2.23524 115 55 21 
-0.797565 0.232925 2.19814 131 101 63 
-0.802268 0.330746 2.17216 188 155 122 
-0.773912 -0.140169 2.28346 185 156 116 
-0.815182 0.57351 2.11277 208 175 134 
-0.80791 0.452234 2.14373 186 152 117 
-0.811563 0.553475 2.11152 203 169 131 
-0.809124 0.478278 2.13631 187 155 114 
-0.793028 0.17912 2.21243 121 92 60 
-0.772715 -0.12396 2.27797 173 143 105 
-0.803036 0.38626 2.16073 130 96 68 
-0.796028 0.259345 2.19278 110 83 56 
-0.790239 0.162874 2.21637 121 90 61 
-0.769732 -0.169146 2.2941 107 76 45 
-0.776891 -0.030273 2.2604 173 143 107 
-0.801723 0.414528 2.15249 95 65 31 
-0.773874 -0.0414327 2.26142 120 87 56 
-0.8031 0.493057 2.1293 188 156 115 
-0.794804 0.318716 2.17656 122 93 61 
-0.776064 0.0107143 2.24923 191 161 125 
-0.770648 -0.0537334 2.26311 194 156 119 
-0.776908 0.0679148 2.23318 157 125 87 
-0.803378 0.547464 2.11575 181 141 115 
-0.763736 -0.131379 2.27645 176 144 105 
-0.767508 -0.0965001 2.27502 102 72 44 
-0.778225 0.10569 2.225 185 144 98 
-0.775506 0.0378943 2.24776 198 157 113 
-0.799824 0.506905 2.12953 124 86 49 
-0.786614 0.288983 2.17824 126 89 60 
-0.759539 -0.182485 2.29301 134 104 66 
-0.750101 -0.329423 2.32648 126 87 54 
-0.770991 0.026353 2.24353 166 137 95 
-0.790086 0.375407 2.15828 114 88 55 
-0.766278 -0.0662786 2.27054 87 56 27 
-0.769358 -0.00928825 2.25673 177 141 107 
-0.783544 0.268328 2.18564 167 133 98 
-0.789455 0.391986 2.15218 127 93 66 
-0.798964 0.583406 2.10268 139 104 66 
-0.779624 0.186632 2.20889 191 157 111 
-0.762556 -0.0840776 2.26932 180 152 112 
-0.788618 0.362156 2.16557 113 77 43 
-0.759555 -0.141392 2.28572 132 103 73 
-0.759905 -0.115736 2.2763 182 151 123 
-0.799035 0.557814 2.11642 191 156 124 
-0.78127 0.242744 2.19251 196 159 107 
-0.793832 0.460618 2.14318 107 76 48 
-0.757403 -0.153481 2.28556 128 97 68 
-0.779758 0.22341 2.20183 187 155 114 
-0.737034 -0.470709 2.357 202 172 136 
-0.75796 -0.100667 2.27335 113 87 62 
-0.762759 -0.0245711 2.25722 107 74 43 
-0.737815 -0.430452 2.34884 176 143 108 
-0.792965 0.515655 2.12761 180 145 113 
-0.781151 0.34086 2.16425 182 145 103 
-0.788466 0.476013 2.13381 183 152 108 
-0.763901 0.0440684 2.23679 96 67 37 
-0.765078 0.0873123 2.22725 105 71 43 
-0.741632 -0.317062 2.32326 210 173 129 
-0.74384 -0.276957 2.31571 134 92 54 
-0.753731 -0.121297 2.28217 180 147 114 
-0.766102 0.104461 2.22715 110 80 46 
-0.726772 -0.52023 2.37046 188 152 116 
-0.769177 0.215297 2.19616 183 151 113 
-0.75411 -0.0724243 2.27166 193 162 134 
-0.734515 -0.360817 2.33117 191 158 127 
-0.747884 -0.1643 2.29135 208 168 132 
-0.755994 -0.00762223 2.25216 180 151 119 
-0.748431 -0.135951 2.28295 114 87 60 
-0.742632 -0.214509 2.29728 165 122 87 
-0.757524 0.0350269 2.24265 103 74 44 
-0.724036 -0.533206 2.37601 183 153 119 
-0.727733 -0.430594 2.34627 191 159 118 
-0.763179 0.173807 2.20669 115 89 54 
-0.761046 0.125928 2.22075 136 104 65 
-0.731557 -0.377754 2.33906 123 88 56 
-0.751854 -0.0439029 2.2658 200 171 139 
-0.737171 -0.25268 2.30857 191 158 115 
-0.762016 0.15704 2.21681 115 81 56 
-0.773497 0.371496 2.16269 178 143 103 
-0.753568 0.0110982 2.2517 224 193 162 
-0.747729 -0.0918764 2.27703 97 70 43 
-0.754129 0.0504638 2.2393 170 140 102 
-0.766539 0.267736 2.19123 139 105 77 
-0.746058 -0.0795379 2.27153 122 92 64 
-0.768008 0.32378 2.1727 140 109 78 
-0.763014 0.243178 2.19132 183 153 119 
-0.779471 0.546454 2.11622 124 89 51 
-0.757378 0.113793 2.22903 213 183 155 
-0.749079 -0.019541 2.25736 142 109 76 
-0.765901 0.285965 2.18305 101 72 42 
-0.721197 -0.470732 2.35857 173 143 105 
-0.754837 0.0828773 2.23557 186 153 118 
-0.778151 0.535107 2.1204 175 145 109 
-0.71426 -0.563669 2.37903 130 93 51 
-0.718034 -0.513534 2.37083 130 92 53 
-0.732069 -0.266 2.31205 131 94 50 
-0.720657 -0.457857 2.35704 172 142 108 
-0.759659 0.204862 2.20472 202 172 136 
-0.761036 0.233398 2.19761 189 161 124 
-0.772671 0.485569 2.12788 193 157 121 
-0.769783 0.414455 2.14945 148 113 81 
-0.713472 -0.569888 2.38678 127 92 52 
-0.71727 -0.499814 2.37013 165 130 88 
-0.771769 0.438552 2.14954 126 91 63 
-0.744596 -0.00736542 2.24983 201 168 127 
-0.736005 -0.152313 2.28424 179 143 107 
-0.732786 -0.210723 2.29784 187 153 107 
-0.766592 0.395879 2.15466 191 161 125 
-0.725369 -0.323145 2.32579 107 79 42 
-0.754819 0.180612 2.21065 115 82 49 
-0.770273 0.472607 2.13664 210 177 144 
-0.720009 -0.399802 2.34292 109 78 50 
-0.768412 0.501814 2.12158 200 167 134 
-0.751558 0.161062 2.21294 121 91 57 
-0.747052 0.0928934 2.22667 207 165 127 
-0.749673 0.12852 2.22024 115 85 51 
-0.743851 0.0367963 2.2422 223 183 147 
-0.723308 -0.335246 2.33365 191 158 115 
-0.733647 -0.114254 2.27695 191 155 119 
-0.754283 0.269649 2.18166 120 93 63 
-0.713176 -0.478856 2.36602 181 140 96 
-0.737486 -0.0380659 2.26086 180 150 114 
-0.728905 -0.170298 2.28975 110 79 48 
-0.756533 0.310396 2.17607 93 62 31 
-0.713861 -0.431708 2.35165 132 91 59 
-0.717174 -0.357002 2.33091 200 168 130 
-0.706042 -0.558555 2.38192 182 149 118 
-0.735409 -0.0605079 2.26656 189 155 110 
-0.762107 0.432303 2.14615 144 101 66 
-0.723032 -0.256336 2.31022 104 75 45 
-0.751603 0.238414 2.19602 213 176 132 
-0.759451 0.371075 2.16692 101 71 37 
-0.730023 -0.137235 2.28439 133 102 74 
-0.749977 0.214828 2.20286 173 143 107 
-0.709487 -0.471311 2.35914 133 94 61 
-0.72408 -0.217368 2.30051 163 133 105 
-0.716829 -0.342038 2.32849 117 84 51 
-0.726313 -0.180651 2.29305 187 155 117 
-0.72541 -0.198723 2.29887 171 138 103 
-0.760164 0.422232 2.15131 129 93 57 
-0.764713 0.507493 2.13107 111 81 53 
-0.732146 -0.0767815 2.27117 124 94 60 
-0.752198 0.289494 2.18056 209 171 132 
-0.760232 0.490594 2.12777 228 190 154 
-0.74293 0.147152 2.21735 197 154 112 
-0.733681 -0.0255179 2.26011 116 80 44 
-0.71194 -0.369996 2.33449 129 89 54 
-0.71028 -0.403435 2.34495 150 111 78 
-0.706891 -0.426182 2.34448 155 116 77 
-0.704959 -0.490083 2.36656 204 162 120 
-0.702246 -0.517511 2.36891 195 157 120 
-0.724103 -0.150028 2.28573 201 167 130 
-0.749833 0.322548 2.17282 209 177 139 
-0.751295 0.38925 2.14771 186 142 97 
-0.715488 -0.282132 2.31745 110 76 49 
-0.697519 -0.570678 2.38081 144 108 72 
-0.73781 0.133626 2.21699 200 158 120 
-0.744504 0.275503 2.18155 145 109 73 
-0.733822 0.0658553 2.23687 168 137 106 
-0.732044 0.0307109 2.24444 173 135 90 
-0.72703 -0.0446294 2.26025 124 90 53 
-0.728049 -0.0186935 2.25387 128 93 65 
-0.724291 -0.10098 2.27651 110 74 52 
-0.749962 0.376149 2.16053 127 84 49 
-0.733611 0.0781417 2.23314 128 90 51 
-0.723898 -0.0629753 2.26211 168 139 105 
-0.721487 -0.113943 2.27576 181 153 116 
-0.703041 -0.453577 2.3598 185 143 105 
-0.717755 -0.189823 2.29618 213 180 145 
-0.735433 0.117581 2.22573 166 138 98 
-0.703305 -0.441948 2.35761 213 171 123 
-0.714171 -0.222034 2.3016 113 82 53 
-0.711954 -0.264656 2.31124 188 155 110 
-0.727784 0.0408212 2.23681 124 90 55 
-0.749299 0.424594 2.14838 104 65 32 
-0.739971 0.246793 2.19585 206 160 101 
-0.697521 -0.47513 2.35879 131 95 61 
-0.710001 -0.254591 2.30783 183 157 124 
-0.723151 -0.00833869 2.24803 182 154 115 
-0.725948 0.0128473 2.2496 190 158 119 
-0.692433 -0.561096 2.38097 207 164 119 
-0.734827 0.177713 2.21441 106 71 33 
-0.714634 -0.15425 2.28755 121 87 52 
-0.700672 -0.383838 2.34052 186 151 109 
-0.691782 -0.524071 2.3688 94 64 26 
-0.702548 -0.348014 2.33244 116 80 48 
-0.73273 0.197404 2.20063 115 79 43 
-0.749868 0.525208 2.11895 189 148 96 
-0.701435 -0.391399 2.34752 210 177 123 
-0.710913 -0.205135 2.2999 101 71 47 
-0.743334 0.392865 2.15513 185 144 90 
-0.729953 0.151741 2.21219 121 83 46 
-0.703856 -0.329501 2.33019 116 80 44 
-0.694508 -0.491856 2.37044 177 139 100 
-0.701924 -0.313235 2.31842 174 135 92 
-0.716213 -0.0950247 2.27494 184 151 116 
-0.710318 -0.179474 2.29081 121 84 58 
-0.726884 0.126683 2.21937 171 139 100 
-0.729761 0.18602 2.2072 110 77 46 
-0.711989 -0.117307 2.27778 121 92 62 
-0.717156 -0.0254969 2.26009 171 139 101 
-0.702469 -0.276244 2.31831 120 81 42 
-0.721814 0.0774319 2.23353 120 87 52 
-0.719003 0.031344 2.24385 108 78 52 
-0.745045 0.537547 2.11712 114 84 48 
-0.724683 0.140092 2.21858 181 153 106 
-0.728934 0.228735 2.19509 91 63 24 
-0.735179 0.334647 2.17051 109 72 43 
-0.688641 -0.481595 2.36422 130 92 53 
-0.68275 -0.568894 2.37978 95 67 30 
-0.695961 -0.33658 2.32726 218 180 144 
-0.719113 0.0904151 2.22516 183 154 114 
-0.709792 -0.0795508 2.26607 117 86 57 
-0.68987 -0.447103 2.35514 193 158 118 
-0.706525 -0.145513 2.28413 110 76 49 
-0.738109 0.443111 2.1418 119 82 53 
-0.684989 -0.512027 2.36746 212 169 124 
-0.713576 0.00234377 2.24607 173 143 105 
-0.707858 -0.104944 2.27525 174 144 106 
-0.686414 -0.456525 2.35667 106 77 45 
-0.735032 0.427904 2.14682 182 150 111 
-0.701859 -0.168202 2.28636 140 98 60 
-0.696665 -0.28443 2.32079 202 160 112 
-0.683041 -0.497859 2.36611 168 132 96 
-0.723857 0.243333 2.19172 169 146 105 
-0.67985 -0.538536 2.37669 135 99 75 
-0.732291 0.409469 2.15361 71 39 28 
-0.736149 0.499573 2.12874 115 84 56 
-0.696941 -0.226767 2.3046 187 147 96 
-0.701952 -0.127801 2.27956 124 94 60 
-0.67676 -0.581708 2.38734 117 85 60 
-0.678057 -0.550057 2.37961 122 95 68 
-0.683535 -0.468247 2.36294 186 142 107 
-0.737577 0.521638 2.12746 135 100 68 
-0.698433 -0.184705 2.29491 176 143 112 
-0.734212 0.481177 2.13507 102 71 50 
-0.710374 0.0236458 2.24767 87 53 25 
-0.728014 0.377648 2.15812 118 85 52 
-0.709022 -0.00911971 2.2583 188 154 108 
-0.712022 0.0686587 2.23627 119 88 60 
-0.684056 -0.406632 2.34541 132 89 57 
-0.688862 -0.305428 2.31966 135 103 65 
-0.720196 0.27267 2.18108 165 135 101 
-0.718848 0.227653 2.19767 170 140 106 
-0.694802 -0.200535 2.29945 115 77 40 
-0.721528 0.312369 2.17071 207 178 138 
-0.697053 -0.152031 2.28671 193 149 110 
-0.722286 0.324866 2.17266 183 151 113 
-0.706717 0.0379994 2.24149 192 155 111 
-0.702914 -0.0199013 2.25391 175 139 105 
-0.676357 -0.513368 2.37363 172 144 107 
-0.709538 0.0897729 2.23019 199 161 124 
-0.730171 0.469845 2.14264 200 167 136 
-0.718835 0.286683 2.17986 128 94 66 
-0.698062 -0.0948592 2.27314 136 94 56 
-0.727406 0.443666 2.14618 193 160 125 
-0.698887 -0.0755491 2.26888 119 84 46 
-0.680596 -0.389959 2.33984 118 88 52 
-0.701812 -0.0024326 2.24866 127 88 47 
-0.709643 0.13872 2.21633 185 150 110 
-0.709081 0.115393 2.22701 171 141 105 
-0.676313 -0.46029 2.35843 130 90 55 
-0.677888 -0.422179 2.34812 203 159 120 
-0.713726 0.212012 2.20429 101 70 41 
-0.722852 0.388669 2.15997 115 82 47 
-0.68228 -0.329606 2.32682 135 103 65 
-0.711273 0.190409 2.20612 191 160 116 
-0.68424 -0.296172 2.32251 189 154 116 
-0.723352 0.428981 2.14988 90 60 26 
-0.714113 0.261659 2.19152 80 51 19 
-0.697518 -0.0613445 2.27185 214 171 118 
-0.709731 0.176868 2.21331 105 69 43 
-0.689168 -0.16914 2.28968 103 67 33 
-0.672453 -0.479034 2.36361 128 100 78 
-0.725357 0.503436 2.12948 99 71 50 
-0.690813 -0.137699 2.28395 133 99 62 
-0.676895 -0.370717 2.33482 176 141 101 
-0.673911 -0.438938 2.35443 180 150 114 
-0.699667 0.0239438 2.24666 128 93 61 
-0.671488 -0.47033 2.35852 181 150 119 
-0.717167 0.359814 2.16618 96 67 35 
-0.719589 0.411352 2.15269 113 74 43 
-0.67271 -0.414942 2.34117 130 91 58 
-0.701878 0.0971093 2.22562 107 74 41 
-0.68447 -0.228473 2.3053 101 71 45 
-0.714384 0.346094 2.16351 188 148 112 
-0.696926 -0.0120421 2.25758 190 153 108 
-0.671196 -0.450669 2.35782 124 89 57 
-0.699376 0.0592273 2.238 116 82 55 
-0.685684 -0.18687 2.29602 168 128 92 
-0.702005 0.127124 2.22187 116 86 58 
-0.677856 -0.280508 2.31416 128 98 60 
-0.666666 -0.496338 2.36901 190 155 117 
-0.710348 0.314004 2.17588 181 150 119 
-0.663531 -0.532243 2.37419 152 121 77 
-0.701906 0.158092 2.21521 104 68 42 
-0.711896 0.333181 2.17412 189 158 114 
-0.712719 0.391772 2.15326 152 109 74 
-0.663202 -0.511388 2.36794 188 158 120 
-0.718247 0.485176 2.13593 161 119 81 
-0.700028 0.112063 2.23148 119 87 48 
-0.702726 0.198922 2.20597 111 79 40 
-0.679164 -0.217095 2.29966 177 144 109 
-0.718295 0.513934 2.12736 142 109 74 
-0.70011 0.14481 2.22245 195 154 110 
-0.704038 0.252847 2.18921 112 78 40 
-0.681812 -0.157942 2.28761 187 156 127 
-0.710262 0.368039 2.16349 161 128 93 
-0.666542 -0.430611 2.35266 139 105 68 
-0.683903 -0.0739993 2.26186 193 154 113 
-0.70096 0.214419 2.20182 188 154 119 
-0.701609 0.229913 2.19879 191 160 114 
-0.67038 -0.323874 2.32522 194 151 106 
-0.700637 0.241215 2.19352 224 185 144 
-0.685226 -0.0504016 2.26187 126 92 57 
-0.677381 -0.178749 2.29146 175 143 104 
-0.68323 -0.0947273 2.2758 188 145 110 
-0.663415 -0.420988 2.34806 131 98 63 
-0.662143 -0.487762 2.37377 189 153 105 
-0.655692 -0.556733 2.38103 137 105 67 
-0.707256 0.384287 2.16101 191 146 105 
-0.700758 0.295982 2.17477 214 175 132 
-0.678539 -0.125835 2.27965 126 88 52 
-0.690004 0.0852534 2.2329 112 79 36 
-0.692958 0.133854 2.22298 115 82 41 
-0.678712 -0.106891 2.27546 174 144 110 
-0.654606 -0.529555 2.36929 201 170 141 
-0.653237 -0.575633 2.38709 126 88 52 
-0.689985 0.0705568 2.24327 201 159 117 
-0.706469 0.444068 2.14167 207 173 125 
-0.670603 -0.232242 2.30398 119 86 55 
-0.705523 0.414653 2.15375 97 56 34 
-0.687375 0.0599932 2.24381 208 169 128 
-0.658399 -0.444259 2.35517 183 148 108 
-0.694647 0.207329 2.20697 135 98 53 
-0.691632 0.193389 2.20485 128 94 56 
-0.699545 0.335596 2.17372 99 69 31 
-0.661086 -0.390505 2.34867 210 179 135 
-0.689832 0.165048 2.2132 197 154 111 
-0.669654 -0.194169 2.29386 120 85 53 
-0.704212 0.436888 2.15059 108 75 40 
-0.675748 -0.0576316 2.26174 177 148 108 
-0.660564 -0.355212 2.33335 112 83 51 
-0.681251 0.0173218 2.24951 147 104 70 
-0.700601 0.352987 2.17692 126 88 49 
-0.651576 -0.519949 2.37458 122 93 53 
-0.689762 0.181972 2.21307 162 128 90 
-0.680967 0.0275573 2.24721 110 76 38 
-0.649684 -0.53959 2.37843 125 97 60 
-0.675279 -0.0729499 2.27121 169 131 92 
-0.705309 0.484988 2.14027 112 75 46 
-0.671049 -0.143964 2.28624 150 124 97 
-0.656523 -0.4038 2.34575 200 168 130 
-0.684908 0.117729 2.22443 119 80 41 
-0.691769 0.265571 2.18492 182 148 110 
-0.659566 -0.329906 2.32794 183 151 112 
-0.672453 -0.0928823 2.27378 180 144 108 
-0.673989 -0.0396524 2.25838 171 138 95 
-0.658842 -0.313837 2.32174 109 81 44 
-0.656092 -0.36822 2.33631 174 141 108 
-0.68161 0.102224 2.22805 112 81 52 
-0.649821 -0.465143 2.35615 118 87 59 
-0.676966 0.0388165 2.23788 190 160 126 
-0.680074 0.0886824 2.22787 182 152 114 
-0.650637 -0.452495 2.35474 201 171 133 
-0.647046 -0.509192 2.36817 173 143 109 
-0.64854 -0.495567 2.37127 131 98 63 
-0.659607 -0.267492 2.31136 176 146 112 
-0.667683 -0.131759 2.28315 81 51 25 
-0.64272 -0.565346 2.37874 213 184 154 
-0.644225 -0.549282 2.37886 168 141 112 
-0.651982 -0.394398 2.33963 198 163 121 
-0.684887 0.245771 2.19016 185 151 116 
-0.662497 -0.186141 2.29685 161 130 102 
-0.665968 -0.119188 2.27922 195 161 124 
-0.679635 0.140342 2.21738 181 146 118 
-0.697481 0.488179 2.134 193 159 131 
-0.69142 0.383332 2.15801 92 61 30 
-0.65672 -0.293103 2.32451 199 166 121 
-0.66783 -0.0649875 2.26825 121 82 39 
-0.680545 0.175644 2.21316 169 137 96 
-0.679563 0.247617 2.17393 179 146 105 
-0.646152 -0.432761 2.349 208 176 135 
-0.641982 -0.528058 2.37713 173 145 108 
-0.656264 -0.256824 2.31283 102 72 48 
-0.653967 -0.279292 2.31536 189 153 117 
-0.656608 -0.233244 2.30771 128 94 57 
-0.691802 0.440408 2.1465 176 146 110 
-0.680163 0.224323 2.20051 119 84 54 
-0.678541 0.200188 2.20563 113 79 34 
-0.663929 -0.0522357 2.26084 185 146 105 
-0.692369 0.471439 2.13985 170 130 94 
-0.680631 0.235931 2.19822 130 96 58 
-0.666764 -0.0132205 2.25669 187 146 102 
-0.635067 -0.558894 2.37863 130 99 71 
-0.654264 -0.207936 2.30141 95 66 34 
-0.644827 -0.333959 2.32529 197 165 127 
-0.641655 -0.419427 2.34901 200 163 119 
-0.658447 -0.0884654 2.26875 167 139 100 
-0.670089 0.110721 2.22786 124 97 67 
-0.637543 -0.453175 2.35196 162 131 102 
-0.686982 0.458345 2.14365 122 83 42 
-0.635339 -0.51317 2.37017 128 95 64 
-0.655813 -0.13004 2.28271 108 77 49 
-0.676583 0.301125 2.17513 104 71 38 
-0.640779 -0.380545 2.34062 114 78 52 
-0.648114 -0.24965 2.31259 149 117 79 
-0.649813 -0.187625 2.29569 201 171 137 
-0.645471 -0.261865 2.31167 182 149 116 
-0.679468 0.40165 2.15038 98 63 33 
-0.665652 0.101059 2.23173 181 142 101 
-0.677488 0.358304 2.16478 98 68 34 
-0.658203 -0.0232745 2.2571 107 72 50 
-0.645494 -0.241234 2.30644 188 156 118 
-0.63592 -0.405395 2.34154 122 88 51 
-0.643709 -0.294567 2.3244 210 176 138 
-0.680795 0.445445 2.1418 192 149 106 
-0.669114 0.211399 2.202 182 150 112 
-0.67776 0.374916 2.16822 96 67 37 
-0.658379 0.0148432 2.24962 147 118 78 
-0.658481 0.0326982 2.24296 117 84 51 
-0.664383 0.130009 2.22472 175 143 105 
-0.650283 -0.120366 2.28032 100 73 44 
-0.62791 -0.525828 2.37143 210 177 136 
-0.675931 0.382054 2.15976 179 145 100 
-0.673022 0.340163 2.1658 196 162 124 
-0.64431 -0.221633 2.30442 129 97 59 
-0.649864 -0.103558 2.2755 106 80 55 
-0.660197 0.0849536 2.23363 115 81 44 
-0.629677 -0.471516 2.36042 132 101 70 
-0.647832 -0.147219 2.29235 207 172 140 
-0.636624 -0.31209 2.31948 212 171 127 
-0.635153 -0.342812 2.32924 182 146 112 
-0.658052 0.070497 2.23686 169 137 99 
-0.63054 -0.41469 2.34465 176 144 106 
-0.623526 -0.556153 2.37924 105 73 48 
-0.629043 -0.425056 2.34405 193 164 134 
-0.637641 -0.284692 2.31787 127 92 60 
-0.649033 -0.0878086 2.2768 208 179 135 
-0.668065 0.293195 2.18291 126 91 53 
-0.666393 0.275016 2.18636 103 68 38 
-0.658464 0.113909 2.22932 173 145 106 
-0.627039 -0.454788 2.35453 87 54 47 
-0.659929 0.143387 2.22199 172 137 99 
-0.673704 0.427727 2.15171 116 85 56 
-0.630687 -0.37095 2.33459 102 69 34 
-0.650227 0.0214781 2.24672 123 93 65 
-0.65822 0.188095 2.20527 176 139 94 
-0.673315 0.463735 2.14282 116 83 50 
-0.661396 0.237061 2.19862 175 141 103 
-0.63735 -0.211122 2.30137 137 104 69 
-0.65517 0.104706 2.23493 122 97 57 
-0.647714 -0.0485287 2.27147 114 80 52 
-0.665985 0.364677 2.16269 190 157 124 
-0.65657 0.155319 2.22129 119 89 55 
-0.660859 0.256935 2.19108 90 60 36 
-0.63459 -0.247262 2.31108 112 78 50 
-0.643639 -0.0611719 2.26722 164 134 98 
-0.629502 -0.324005 2.32759 100 66 41 
-0.626125 -0.354174 2.32845 185 152 121 
-0.618027 -0.507475 2.36702 128 99 59 
-0.621009 -0.438983 2.35045 198 164 127 
-0.638634 -0.127664 2.28337 202 169 124 
-0.640192 -0.0859939 2.27159 196 167 125 
-0.646557 0.0114437 2.2551 203 173 137 
-0.623778 -0.381095 2.33775 138 99 66 
-0.616697 -0.52554 2.37341 188 151 109 
-0.622768 -0.391607 2.33917 138 103 75 
-0.664618 0.407185 2.15416 101 67 39 
-0.657149 0.288809 2.17926 101 74 45 
-0.627011 -0.289584 2.31785 160 134 99 
-0.651164 0.164493 2.21359 201 168 135 
-0.611483 -0.583952 2.38715 93 62 33 
-0.623562 -0.310804 2.31383 180 152 128 
-0.655274 0.248001 2.19313 96 66 42 
-0.613264 -0.548639 2.38014 114 74 48 
-0.64011 -0.031775 2.26026 193 162 118 
-0.64638 0.0641136 2.24229 212 180 142 
-0.615605 -0.468909 2.35634 186 156 118 
-0.628872 -0.202953 2.2934 167 135 97 
-0.657853 0.34928 2.16472 88 57 29 
-0.634206 -0.112498 2.2761 118 91 61 
-0.611231 -0.560214 2.38189 195 160 118 
-0.647885 0.139337 2.22113 170 140 106 
-0.622131 -0.33854 2.33007 114 83 55 
-0.651865 0.2557 2.18551 185 156 126 
-0.629355 -0.181435 2.29146 91 61 35 
-0.614703 -0.490236 2.36919 209 176 131 
-0.631096 -0.14502 2.28605 114 83 52 
-0.613293 -0.477698 2.36346 204 167 125 
-0.618736 -0.370314 2.33823 124 90 62 
-0.642972 0.0961635 2.22999 196 164 126 
-0.657342 0.410114 2.14722 189 154 114 
-0.640948 0.0755585 2.23483 152 115 73 
-0.644293 0.117949 2.23268 180 146 98 
-0.60907 -0.512089 2.36895 203 162 116 
-0.624816 -0.213107 2.3002 122 85 56 
-0.646089 0.183779 2.21249 117 84 49 
-0.611911 -0.417664 2.34253 184 153 124 
-0.65497 0.380125 2.16366 167 135 97 
-0.621534 -0.243673 2.30799 160 133 104 
-0.607044 -0.497875 2.36441 125 95 57 
-0.629487 -0.0923608 2.27609 102 69 34 
-0.605208 -0.542156 2.3774 175 145 111 
-0.613732 -0.363519 2.33271 126 92 65 
-0.645917 0.211576 2.21042 161 129 91 
-0.613291 -0.389795 2.34425 212 176 142 
-0.650284 0.362968 2.15922 191 159 118 
-0.635892 0.0593159 2.23895 210 181 137 
-0.614077 -0.324954 2.32126 143 117 92 
-0.609205 -0.440624 2.35346 209 178 124 
-0.62798 -0.0735934 2.26843 127 93 56 
-0.648723 0.406184 2.13799 196 157 116 
-0.628658 -0.0391144 2.26414 125 91 54 
-0.623913 -0.103608 2.27379 180 146 109 
-0.621311 -0.160098 2.28755 88 57 36 
-0.601704 -0.531671 2.37436 96 64 43 
-0.598897 -0.565626 2.38234 190 156 119 
-0.603544 -0.464068 2.35624 207 169 130 
-0.637042 0.163998 2.21783 187 157 121 
-0.649489 0.428741 2.14923 203 168 128 
-0.643886 0.323788 2.1745 208 174 126 
-0.637371 0.19083 2.20576 131 101 67 
-0.623953 -0.0618887 2.26738 216 173 120 
-0.62842 0.0232611 2.24881 128 95 62 
-0.614679 -0.204564 2.29415 146 116 88 
-0.638649 0.237336 2.19697 139 105 67 
-0.60788 -0.335118 2.32559 87 60 39 
-0.61862 -0.121423 2.27635 101 69 46 
-0.615084 -0.222374 2.30732 143 122 93 
-0.613118 -0.233349 2.30527 113 83 57 
-0.609222 -0.293078 2.31536 158 129 99 
-0.599834 -0.48121 2.36157 182 144 108 
-0.633962 0.154604 2.22152 193 161 122 
-0.603475 -0.382937 2.33426 200 158 118 
-0.631049 0.1114 2.2283 118 83 51 
-0.62854 0.0885418 2.229 201 163 124 
-0.637308 0.227277 2.20412 129 99 63 
-0.597417 -0.518183 2.37361 207 173 138 
-0.62551 0.0478548 2.23841 191 153 114 
-0.616517 -0.139712 2.28603 172 143 109 
-0.642942 0.386045 2.16124 140 102 66 
-0.636791 0.274912 2.18674 190 160 124 
-0.641772 0.375516 2.16762 123 90 55 
-0.599338 -0.41883 2.34429 195 156 115 
-0.600254 -0.394725 2.33739 118 85 54 
-0.639725 0.359209 2.16751 125 93 55 
-0.617227 -0.0818758 2.27109 165 134 103 
-0.611717 -0.195786 2.30037 92 65 36 
-0.597287 -0.437922 2.35164 174 141 106 
-0.599857 -0.354948 2.32551 106 70 34 
-0.636599 0.347221 2.16353 196 154 114 
-0.626209 0.140362 2.21879 138 106 67 
-0.606309 -0.243489 2.30814 185 158 115 
-0.593458 -0.49774 2.36776 139 107 69 
-0.59158 -0.543709 2.38109 221 186 154 
-0.612952 -0.127786 2.28512 92 65 38 
-0.588619 -0.582808 2.38781 158 124 87 
-0.618183 -0.00223066 2.25234 102 68 31 
-0.61304 -0.0990817 2.27511 81 59 35 
-0.611958 -0.11015 2.27836 173 141 116 
-0.633939 0.330219 2.17055 201 162 121 
-0.607254 -0.185194 2.29199 169 138 117 
-0.640141 0.435131 2.15389 203 164 123 
-0.615032 -0.0374585 2.26223 167 137 101 
-0.623464 0.126387 2.22447 87 59 37 
-0.592937 -0.469676 2.36174 201 169 130 
-0.605316 -0.209628 2.29939 163 133 107 
-0.588374 -0.525965 2.37261 209 179 141 
-0.631321 0.319874 2.17603 193 163 125 
-0.612982 -0.0215468 2.25501 89 62 32 
-0.62754 0.26913 2.18733 182 153 119 
-0.584388 -0.573643 2.38562 189 157 119 
-0.617046 0.0586515 2.23963 99 69 43 
-0.59875 -0.282587 2.31616 98 64 36 
-0.592594 -0.388161 2.33934 166 136 102 
-0.624318 0.244628 2.1894 175 146 112 
-0.618956 0.10057 2.23194 158 127 96 
-0.630911 0.368223 2.16504 170 137 106 
-0.612724 0.033214 2.23913 171 142 110 
-0.633195 0.396197 2.16368 116 82 44 
-0.622967 0.210469 2.20557 107 78 48 
-0.58172 -0.560859 2.37852 171 143 106 
-0.606921 -0.0667199 2.26796 94 64 38 
-0.622879 0.229723 2.20285 153 127 92 
-0.614265 0.0769458 2.23636 109 82 52 
-0.611939 0.0470822 2.23961 92 64 42 
-0.626118 0.345586 2.1674 167 134 101 
-0.595962 -0.231713 2.30318 145 112 81 
-0.591482 -0.306283 2.31781 158 120 81 
-0.594072 -0.245604 2.3042 86 56 30 
-0.579889 -0.542556 2.37814 204 173 145 
-0.613646 0.143738 2.21692 74 46 25 
-0.615572 0.176549 2.21209 103 74 56 
-0.581161 -0.490551 2.36511 131 101 65 
-0.578677 -0.530174 2.37295 130 96 69 
-0.582924 -0.450149 2.35559 203 171 132 
-0.617147 0.200773 2.20782 104 75 45 
-0.602816 -0.055448 2.26748 171 140 109 
-0.59824 -0.143714 2.28756 101 70 42 
-0.59866 -0.106522 2.27133 153 123 97 
-0.618545 0.282646 2.18385 78 51 24 
-0.58597 -0.373733 2.33883 161 130 101 
-0.580664 -0.47788 2.36357 152 120 82 
-0.613446 0.163748 2.21873 102 74 50 
-0.581957 -0.431409 2.34982 233 198 166 
-0.58213 -0.439843 2.35673 220 186 149 
-0.604172 -0.0227407 2.2659 190 159 128 
-0.603692 0.00327547 2.2526 176 144 106 
-0.600767 -0.0350322 2.25814 204 172 134 
-0.61515 0.250169 2.19117 102 70 45 
-0.619693 0.32601 2.17734 117 88 54 
-0.578333 -0.461037 2.35666 183 151 113 
-0.583692 -0.35327 2.33082 160 125 97 
-0.603388 0.0277579 2.2466 167 137 103 
-0.581189 -0.402459 2.34601 216 184 145 
-0.595012 -0.119211 2.27874 103 72 41 
-0.609122 0.135016 2.22661 155 128 99 
-0.576353 -0.51981 2.37965 124 93 64 
-0.614324 0.26901 2.18848 195 160 118 
-0.582942 -0.327049 2.32447 144 118 91 
-0.578994 -0.395797 2.33795 209 177 139 
-0.59172 -0.153529 2.28664 96 63 28 
-0.572193 -0.556761 2.38469 197 165 126 
-0.611283 0.223541 2.20436 181 147 110 
-0.59986 0.0375735 2.24212 187 157 123 
-0.597768 -0.0145868 2.25821 119 86 53 
-0.608753 0.210305 2.20539 183 151 113 
-0.567694 -0.579337 2.38428 100 67 36 
-0.582656 -0.297317 2.32299 106 74 49 
