ply                 
format ascii 1.0    
element vertex 1242
property float x    
property float y    
property float z    
property uchar red  
property uchar green
property uchar blue 
end_header          
-0.53689 -0.0476485 2.2517 97 66 38 
-0.549935 -0.283067 2.30514 138 107 79 
-0.526338 0.0588017 2.22427 198 166 127 
-0.539698 -0.172735 2.27931 103 72 43 
-0.541575 -0.234571 2.29439 81 49 24 
-0.542495 -0.291592 2.30648 147 120 91 
-0.396314 -0.621762 1.69866 144 41 88 
-0.396314 -0.621762 1.69866 144 41 88 
-0.388689 -0.522989 1.68003 161 92 111 
-0.385833 -0.517055 1.68145 15 8 15 
-0.467537 0.63944 2.11547 119 85 58 
-0.379707 -0.593857 1.70481 202 53 108 
-0.365422 -0.421073 1.67057 166 63 82 
-0.361466 -0.37931 1.66476 58 24 14 
-0.360811 -0.392569 1.6671 217 111 134 
-0.36691 -0.525125 1.69467 111 17 41 
-0.36047 -0.382817 1.66595 209 121 137 
-0.359502 -0.43293 1.6782 51 26 30 
-0.359502 -0.43293 1.6782 51 26 30 
-0.359916 -0.487582 1.68471 55 40 35 
-0.357274 -0.438016 1.67922 202 103 132 
-0.360286 -0.527568 1.69553 137 37 63 
-0.349291 -0.337136 1.6581 84 6 0 
-0.358886 -0.55889 1.7063 143 48 78 
-0.356718 -0.529598 1.69693 228 125 152 
-0.350338 -0.402138 1.66986 191 170 143 
-0.347563 -0.330018 1.65612 141 138 131 
-0.347782 -0.366704 1.66403 53 28 31 
-0.347861 -0.370281 1.66527 209 108 142 
-0.349514 -0.432562 1.67652 52 44 41 
-0.349514 -0.432562 1.67652 52 44 41 
-0.345914 -0.362268 1.66334 56 34 37 
-0.35464 -0.578579 1.70845 138 32 70 
-0.345595 -0.36876 1.66504 227 107 142 
-0.345916 -0.389919 1.66731 55 41 14 
-0.345835 -0.412868 1.67229 198 168 134 
-0.352987 -0.577252 1.70794 140 50 78 
-0.344507 -0.387457 1.66696 175 170 138 
-0.351312 -0.574461 1.70836 237 185 135 
-0.351315 -0.57439 1.7086 237 185 135 
-0.351912 -0.62175 1.71872 131 20 62 
-0.341174 -0.384938 1.66781 47 35 23 
-0.340987 -0.40112 1.67028 45 46 41 
-0.412235 0.680489 2.10163 143 110 77 
-0.34302 -0.532761 1.70025 140 25 58 
-0.34302 -0.532761 1.70025 140 25 58 
-0.337312 -0.423845 1.67474 51 36 31 
-0.336621 -0.410893 1.67278 160 146 135 
-0.335636 -0.382552 1.66774 209 120 148 
-0.335636 -0.382552 1.66774 209 120 148 
-0.33645 -0.417867 1.67458 87 74 55 
-0.334712 -0.379895 1.66787 233 118 157 
-0.336048 -0.419869 1.67444 44 28 5 
-0.409171 0.676793 2.10424 79 49 23 
-0.33981 -0.53741 1.70116 158 29 60 
-0.33443 -0.421367 1.67449 195 157 146 
-0.338209 -0.516459 1.69553 149 126 120 
-0.338911 -0.575042 1.70872 146 50 78 
-0.334354 -0.513187 1.6959 224 102 139 
-0.336203 -0.57033 1.70548 130 37 48 
-0.32992 -0.417713 1.67447 46 7 2 
-0.330819 -0.482519 1.68872 89 0 19 
-0.324762 -0.380258 1.66483 42 38 39 
-0.325125 -0.411428 1.67265 42 22 11 
-0.323915 -0.414106 1.67213 190 143 135 
-0.315913 -0.378765 1.66672 234 119 160 
-0.313675 -0.464576 1.68408 210 119 150 
-0.311181 -0.397641 1.67073 230 111 153 
-0.30813 -0.428535 1.67712 54 33 38 
-0.305374 -0.479068 1.68682 197 108 138 
-0.298079 -0.42193 1.67401 43 19 17 
-0.300547 -0.476909 1.68681 52 36 37 
-0.293218 -0.475618 1.68544 223 122 154 
-0.292794 -0.479875 1.68627 55 21 35 
-0.282534 -0.287693 1.64539 55 36 29 
-0.289068 -0.475654 1.68596 86 14 28 
-0.290735 -0.523798 1.69612 220 65 69 
-0.279189 -0.287677 1.64564 59 18 12 
-0.282725 -0.533993 1.6967 219 44 41 
-0.282565 -0.533999 1.69678 221 48 41 
-0.278747 -0.504878 1.68878 38 49 35 
-0.278747 -0.504878 1.68878 38 49 35 
-0.27349 -0.506928 1.68861 18 59 29 
-0.273618 -0.505673 1.69208 12 35 15 
-0.275059 -0.566992 1.70304 39 32 26 
-0.274372 -0.569136 1.70352 144 107 80 
-0.264976 -0.285963 1.64418 51 41 40 
-0.264976 -0.285963 1.64418 51 41 40 
-0.264976 -0.285963 1.64418 51 41 40 
-0.271359 -0.49211 1.6884 24 58 33 
-0.269473 -0.51253 1.69026 74 128 96 
-0.261666 -0.295337 1.64662 142 0 4 
-0.260415 -0.294044 1.64677 238 73 79 
-0.266151 -0.489727 1.68825 33 34 28 
-0.264749 -0.484853 1.68573 95 131 105 
-0.266779 -0.572539 1.704 41 7 0 
-0.262491 -0.513807 1.69111 88 140 104 
-0.263064 -0.572599 1.70399 155 109 93 
-0.263044 -0.572636 1.70388 155 109 93 
-0.256337 -0.51266 1.69149 77 124 92 
-0.255029 -0.48392 1.68544 102 122 95 
-0.255815 -0.560733 1.70158 24 59 27 
-0.253599 -0.525326 1.69388 39 38 17 
-0.254652 -0.569484 1.70308 43 45 24 
-0.254652 -0.569484 1.70308 43 45 24 
-0.252359 -0.522509 1.69287 117 148 107 
-0.24512 -0.289154 1.6442 221 83 83 
-0.250911 -0.495115 1.68755 86 126 99 
-0.250911 -0.495115 1.68755 86 126 99 
-0.25572 -0.667175 1.72179 203 133 141 
-0.247129 -0.39473 1.6665 127 142 111 
-0.252102 -0.566513 1.70215 101 137 89 
-0.249194 -0.488657 1.68637 167 135 114 
-0.249606 -0.524023 1.69333 39 42 13 
-0.242693 -0.288555 1.64438 83 1 3 
-0.242693 -0.288555 1.64438 83 1 3 
-0.247819 -0.477051 1.68325 149 131 107 
-0.250272 -0.570372 1.70297 38 35 16 
-0.247417 -0.520986 1.69255 116 148 107 
-0.246787 -0.509582 1.68895 23 57 33 
-0.242799 -0.395112 1.66645 37 39 25 
-0.242474 -0.397308 1.66726 24 36 14 
-0.247484 -0.568315 1.70234 120 138 100 
-0.247484 -0.568315 1.70234 120 138 100 
-0.244887 -0.495421 1.68709 84 123 96 
-0.24697 -0.589138 1.70602 122 0 0 
-0.243479 -0.501281 1.68824 35 38 31 
-0.243479 -0.501281 1.68824 35 38 31 
-0.236831 -0.290157 1.64468 223 85 83 
-0.243767 -0.525878 1.69371 182 157 126 
-0.243261 -0.529432 1.69426 232 199 158 
-0.23851 -0.399631 1.66771 31 35 12 
-0.242196 -0.570798 1.70229 155 122 87 
-0.235335 -0.374806 1.66252 158 123 104 
-0.235355 -0.405746 1.66769 115 146 112 
-0.233721 -0.366814 1.65928 187 152 124 
-0.233309 -0.37351 1.6619 149 106 87 
-0.238214 -0.570084 1.70198 148 113 85 
-0.235711 -0.49975 1.68745 24 35 27 
-0.23666 -0.564494 1.70102 117 143 96 
-0.234156 -0.503178 1.68817 79 97 83 
-0.237373 -0.672056 1.72116 112 61 76 
-0.237373 -0.672056 1.72116 112 61 76 
-0.22931 -0.369068 1.66104 187 147 121 
-0.229378 -0.408632 1.66888 119 144 114 
-0.232116 -0.508321 1.68924 77 89 77 
-0.230618 -0.46888 1.68189 16 39 21 
-0.227985 -0.398816 1.66725 139 120 114 
-0.234788 -0.671508 1.72058 34 11 17 
-0.227345 -0.40989 1.66936 5 26 0 
-0.226184 -0.383044 1.66354 145 128 120 
-0.226184 -0.383044 1.66354 145 128 120 
-0.227299 -0.436179 1.6741 29 34 28 
-0.227457 -0.453792 1.67752 123 144 103 
-0.225761 -0.414344 1.66988 112 144 107 
-0.224189 -0.404003 1.66793 144 121 107 
-0.223783 -0.411807 1.66931 114 126 104 
-0.224505 -0.444228 1.67585 28 22 6 
-0.225594 -0.4933 1.68596 172 110 97 
-0.224703 -0.446828 1.67623 146 119 100 
-0.224703 -0.446828 1.67623 146 119 100 
-0.22309 -0.415654 1.66968 120 144 108 
-0.222996 -0.434029 1.67352 93 105 93 
-0.220956 -0.393671 1.66524 122 98 86 
-0.220402 -0.392763 1.66499 133 106 99 
-0.219593 -0.4043 1.66727 141 118 100 
-0.219879 -0.413429 1.66965 41 39 18 
-0.219879 -0.413429 1.66965 41 39 18 
-0.218936 -0.399532 1.66538 138 114 102 
-0.218957 -0.394098 1.66538 42 15 4 
-0.224016 -0.573574 1.703 155 106 73 
-0.22185 -0.496507 1.6867 140 41 44 
-0.220079 -0.468908 1.6804 161 125 103 
-0.218093 -0.392537 1.66505 113 86 77 
-0.218956 -0.439279 1.675 103 116 98 
-0.217435 -0.404287 1.66754 51 23 9 
-0.221064 -0.57994 1.70342 176 111 79 
-0.221471 -0.587311 1.70494 227 108 42 
-0.216828 -0.43157 1.67233 17 31 16 
-0.217811 -0.480872 1.68365 141 37 38 
-0.216092 -0.410672 1.66828 155 118 102 
-0.21802 -0.502356 1.68732 198 156 134 
-0.214896 -0.380504 1.66252 49 31 19 
-0.214896 -0.380504 1.66252 49 31 19 
-0.217086 -0.496484 1.68664 124 42 30 
-0.215227 -0.430736 1.67281 23 35 21 
-0.215198 -0.430904 1.67243 21 35 22 
-0.218319 -0.563275 1.70047 43 28 5 
-0.213756 -0.397308 1.66552 160 119 97 
-0.214669 -0.448179 1.6759 150 106 71 
-0.215368 -0.497883 1.68572 203 147 114 
-0.207777 -0.315881 1.62214 244 235 228 
-0.213071 -0.407312 1.66828 97 50 30 
-0.213071 -0.407312 1.66828 97 50 30 
-0.211855 -0.38191 1.66192 160 128 107 
-0.212112 -0.431028 1.67234 121 130 113 
-0.212112 -0.431028 1.67234 121 130 113 
-0.215324 -0.561611 1.69992 139 108 88 
-0.2132 -0.581291 1.70421 172 125 99 
-0.210147 -0.477858 1.68232 146 37 43 
-0.210147 -0.477858 1.68232 146 37 43 
-0.208741 -0.425691 1.67109 48 20 9 
-0.211952 -0.560084 1.69895 112 74 53 
-0.208079 -0.421616 1.67135 165 108 91 
-0.214123 -0.669116 1.72098 84 80 77 
-0.207884 -0.42234 1.66975 167 108 100 
-0.206348 -0.365846 1.65911 190 136 102 
-0.204193 -0.36901 1.65963 184 141 109 
-0.19975 -0.314775 1.62116 150 139 133 
-0.206709 -0.49678 1.68569 114 66 30 
-0.207522 -0.530882 1.69261 131 54 36 
-0.199498 -0.319517 1.6227 235 227 216 
-0.199498 -0.319517 1.6227 235 227 216 
-0.198506 -0.328405 1.62432 242 231 225 
-0.202082 -0.447165 1.67568 144 33 42 
-0.195599 -0.315661 1.62128 134 124 115 
-0.195859 -0.327814 1.6242 150 139 133 
-0.202357 -0.485918 1.68339 129 39 30 
-0.202477 -0.495779 1.6849 104 50 16 
-0.200726 -0.417725 1.67034 144 41 45 
-0.199025 -0.404134 1.6663 52 20 0 
-0.197972 -0.369993 1.65977 182 146 124 
-0.200891 -0.508718 1.68802 99 31 20 
-0.197582 -0.396901 1.66503 125 93 78 
-0.200298 -0.525307 1.69059 167 108 90 
-0.199091 -0.469406 1.67905 119 40 27 
-0.192694 -0.329588 1.62408 245 235 226 
-0.19685 -0.403342 1.66637 142 113 97 
-0.198713 -0.477079 1.68224 202 126 110 
-0.191813 -0.331755 1.62453 145 136 127 
-0.1913 -0.316016 1.62068 233 224 215 
-0.196874 -0.436826 1.67306 172 104 85 
-0.196874 -0.436826 1.67306 172 104 85 
-0.195058 -0.370283 1.65946 178 141 122 
-0.197431 -0.486586 1.68329 105 39 17 
-0.190607 -0.326919 1.62354 233 225 214 
-0.194988 -0.402426 1.66639 65 28 10 
-0.196612 -0.459967 1.67813 165 116 84 
-0.190573 -0.331468 1.62491 187 177 168 
-0.190573 -0.331468 1.62491 187 177 168 
-0.19011 -0.319656 1.62161 107 99 96 
-0.197015 -0.517896 1.68886 141 35 49 
-0.196522 -0.494045 1.6844 211 150 119 
-0.194356 -0.408164 1.66724 49 42 32 
-0.195053 -0.45398 1.67664 194 129 107 
-0.195059 -0.468733 1.67846 108 28 21 
-0.193404 -0.434135 1.6727 114 40 29 
-0.19249 -0.403982 1.66609 166 125 105 
-0.193174 -0.454193 1.67738 117 55 30 
-0.191595 -0.397229 1.66531 53 24 10 
-0.19077 -0.420698 1.66839 122 44 34 
-0.191879 -0.465015 1.67885 169 108 87 
-0.190397 -0.410134 1.66757 129 110 93 
-0.192485 -0.511744 1.68785 159 91 80 
-0.189873 -0.384292 1.66175 127 97 87 
-0.191186 -0.452376 1.67624 168 92 76 
-0.190202 -0.406631 1.66676 158 123 101 
-0.191843 -0.490605 1.68386 100 48 8 
-0.18945 -0.382308 1.6617 56 24 3 
-0.192907 -0.552302 1.69555 112 82 71 
-0.188737 -0.377387 1.66068 163 118 85 
-0.191596 -0.497955 1.68483 143 32 41 
-0.190483 -0.454642 1.67662 173 107 85 
-0.189201 -0.40208 1.66553 161 117 92 
-0.189201 -0.40208 1.66553 161 117 92 
-0.184334 -0.328287 1.62335 238 232 220 
-0.184334 -0.328287 1.62335 238 232 220 
-0.188984 -0.419939 1.66869 204 145 129 
-0.190066 -0.486772 1.68332 98 40 18 
-0.189274 -0.489394 1.68331 216 155 124 
-0.189274 -0.489394 1.68331 216 155 124 
-0.188102 -0.461752 1.67772 164 114 79 
-0.182029 -0.327049 1.62304 146 137 130 
-0.187656 -0.482769 1.68169 178 124 96 
-0.185901 -0.396253 1.66504 180 153 136 
-0.185901 -0.396253 1.66504 180 153 136 
-0.185903 -0.411462 1.66794 53 24 8 
-0.181214 -0.326195 1.62278 116 107 102 
-0.186931 -0.488269 1.68278 111 40 22 
-0.185159 -0.407345 1.66657 57 27 3 
-0.186796 -0.480172 1.68198 148 95 61 
-0.185352 -0.416808 1.66861 112 93 86 
-0.184712 -0.40365 1.66572 51 21 0 
-0.185179 -0.419169 1.6687 46 23 9 
-0.186403 -0.520381 1.68973 81 42 27 
-0.182568 -0.367812 1.65771 74 30 1 
-0.182465 -0.377468 1.65996 196 161 133 
-0.182935 -0.410244 1.66692 150 119 99 
-0.184891 -0.482601 1.68266 102 52 19 
-0.178412 -0.33024 1.62376 197 188 179 
-0.178268 -0.32783 1.62284 252 243 234 
-0.178268 -0.32783 1.62284 252 243 234 
-0.183859 -0.476979 1.67988 117 44 25 
-0.181828 -0.394796 1.6641 74 48 35 
-0.184135 -0.502225 1.68603 167 100 92 
-0.183807 -0.523708 1.68933 78 45 36 
-0.18221 -0.452589 1.6748 144 33 40 
-0.178096 -0.587093 1.63837 100 99 95 
-0.178096 -0.587093 1.63837 100 99 95 
-0.179218 -0.4205 1.66922 124 140 101 
-0.176568 -0.600308 1.64156 212 211 207 
-0.176568 -0.600308 1.64156 212 211 207 
-0.178386 -0.401649 1.66511 58 32 17 
-0.179012 -0.441248 1.67286 177 97 90 
-0.18022 -0.516875 1.6884 140 99 81 
-0.173829 -0.332297 1.62357 113 104 95 
-0.177731 -0.410399 1.66666 149 121 109 
-0.17969 -0.511697 1.68717 146 100 84 
-0.176943 -0.371904 1.65913 181 136 113 
-0.176755 -0.398292 1.66121 125 98 81 
-0.176011 -0.367068 1.65799 209 171 148 
-0.17681 -0.424456 1.66932 67 88 69 
-0.17681 -0.424456 1.66932 67 88 69 
-0.172143 -0.33222 1.62339 238 230 219 
-0.172143 -0.33222 1.62339 238 230 219 
-0.171759 -0.337181 1.62521 136 123 117 
-0.177212 -0.497696 1.68447 78 44 32 
-0.1751 -0.4329 1.67111 36 32 23 
-0.173682 -0.366613 1.65792 163 133 107 
-0.173933 -0.405025 1.66537 64 36 25 
-0.175459 -0.479985 1.68056 56 16 6 
-0.174051 -0.428522 1.6706 79 100 83 
-0.169911 -0.344589 1.62667 106 102 93 
-0.175444 -0.498572 1.68444 122 86 70 
-0.165855 -0.590695 1.59323 213 212 208 
-0.17392 -0.475614 1.67997 74 37 11 
-0.171558 -0.375825 1.65956 44 11 0 
-0.169111 -0.599806 1.64045 101 99 102 
-0.171783 -0.456186 1.67531 141 92 77 
-0.171268 -0.433939 1.67119 92 127 103 
-0.166732 -0.334123 1.62388 228 218 208 
-0.168556 -0.369916 1.65849 172 138 111 
-0.169979 -0.459442 1.67622 58 21 5 
-0.169025 -0.46275 1.67715 133 100 85 
-0.168537 -0.435242 1.67119 80 125 94 
-0.167978 -0.452606 1.67483 57 15 0 
-0.167735 -0.443927 1.67251 149 95 83 
-0.165932 -0.376624 1.65884 42 11 0 
-0.162803 -0.590084 1.63897 99 98 93 
-0.162803 -0.590084 1.63897 99 98 93 
-0.166185 -0.471954 1.67899 60 23 0 
-0.164605 -0.461107 1.67666 134 97 81 
-0.160364 -0.348581 1.6269 237 231 219 
-0.163258 -0.457145 1.6758 65 28 12 
-0.163258 -0.455313 1.67497 146 104 90 
-0.162343 -0.453935 1.67488 81 35 20 
-0.158919 -0.597724 1.63944 100 99 95 
-0.155999 -0.355063 1.62808 135 125 116 
-0.159091 -0.430322 1.66999 80 120 96 
-0.15496 -0.357475 1.62915 245 236 229 
-0.156573 -0.632256 1.64561 209 208 204 
-0.152365 -0.354006 1.62812 233 224 215 
-0.151785 -0.344705 1.62558 255 239 230 
-0.15026 -0.165138 1.6121 210 183 166 
-0.151418 -0.349304 1.62692 136 128 117 
-0.153142 -0.406174 1.66432 119 149 113 
-0.150987 -0.414565 1.66669 13 59 31 
-0.150899 -0.399694 1.66191 161 144 118 
-0.150939 -0.412496 1.66623 85 130 101 
-0.152462 -0.530354 1.68878 166 119 109 
-0.150022 -0.404492 1.66388 126 150 114 
-0.152142 -0.526503 1.68946 44 6 0 
-0.145672 -0.160725 1.61255 202 175 158 
-0.149409 -0.414023 1.66594 92 145 115 
-0.15045 -0.495596 1.68249 189 156 141 
-0.150674 -0.53483 1.68913 145 44 52 
-0.148367 -0.494592 1.6822 29 19 9 
-0.146863 -0.436669 1.6709 21 24 17 
-0.142066 -0.159518 1.61206 169 138 120 
-0.1414 -0.352317 1.62743 234 225 218 
-0.144558 -0.417908 1.6668 17 57 33 
-0.144558 -0.417908 1.6668 17 57 33 
-0.139016 -0.60151 1.64032 88 87 85 
-0.140355 -0.481631 1.67953 94 123 103 
-0.137645 -0.620411 1.64205 214 213 208 
-0.135112 -0.356401 1.62807 245 228 220 
-0.133845 -0.150088 1.60965 88 60 46 
-0.135648 -0.597602 1.638 202 202 194 
-0.134806 -0.604281 1.64019 93 92 90 
-0.134806 -0.604281 1.64019 93 92 90 
-0.13385 -0.363484 1.62986 144 136 125 
-0.13385 -0.363484 1.62986 144 136 125 
-0.133751 -0.599891 1.63919 197 196 192 
-0.131684 -0.167632 1.61326 90 57 48 
-0.133519 -0.628791 1.6427 90 89 85 
-0.131961 -0.360858 1.62895 100 91 82 
-0.132926 -0.395948 1.65743 172 157 134 
-0.131317 -0.607938 1.64019 106 105 100 
-0.128106 -0.144737 1.60748 95 67 53 
-0.125454 -0.162094 1.61174 224 197 180 
-0.125212 -0.153357 1.60976 230 202 191 
-0.125212 -0.153357 1.60976 230 202 191 
-0.127532 -0.636715 1.64482 218 217 212 
-0.127532 -0.636715 1.64482 218 217 212 
-0.122026 -0.145111 1.60786 222 185 176 
-0.12079 -0.156986 1.61008 89 51 42 
-0.120736 -0.162651 1.61157 120 86 74 
-0.120736 -0.162651 1.61157 120 86 74 
-0.11994 -0.170135 1.61304 127 91 79 
-0.119064 -0.159068 1.61091 236 192 179 
-0.122504 -0.527135 1.68716 71 5 0 
-0.122504 -0.527135 1.68716 71 5 0 
-0.122513 -0.524667 1.68701 187 144 102 
-0.122513 -0.524667 1.68701 187 144 102 
-0.122557 -0.530501 1.68818 216 150 102 
-0.120022 -0.547286 1.69008 228 70 69 
-0.113403 -0.152561 1.60872 169 69 77 
-0.112335 -0.141493 1.60703 245 203 191 
-0.112859 -0.416965 1.62492 150 121 103 
-0.111253 -0.413458 1.62437 115 86 68 
-0.111253 -0.413458 1.62437 115 86 68 
-0.110082 -0.166002 1.61175 237 204 187 
-0.108762 -0.424888 1.62631 138 105 88 
-0.105895 -0.149937 1.60804 160 89 87 
-0.106713 -0.409398 1.62375 134 105 87 
-0.105576 -0.435754 1.62745 242 214 200 
-0.105576 -0.435754 1.62745 242 214 200 
-0.105381 -0.420926 1.6249 136 105 85 
-0.10485 -0.426878 1.62591 120 89 69 
-0.104574 -0.409922 1.62322 255 228 210 
-0.104703 -0.433738 1.62696 152 125 106 
-0.10784 -0.554622 1.6913 11 9 0 
-0.102834 -0.1448 1.60653 231 209 195 
-0.102497 -0.148216 1.60731 83 69 58 
-0.102497 -0.148216 1.60731 83 69 58 
-0.101995 -0.141991 1.60576 235 196 181 
-0.10277 -0.409171 1.62285 115 84 64 
-0.10392 -0.347454 1.65024 89 73 84 
-0.10392 -0.347454 1.65024 89 73 84 
-0.102625 -0.420833 1.62457 223 192 172 
-0.101735 -0.15912 1.60995 233 201 188 
-0.105732 -0.555527 1.69103 135 133 120 
-0.101548 -0.173025 1.61312 228 201 190 
-0.100754 -0.143195 1.60601 70 42 30 
-0.100754 -0.143195 1.60601 70 42 30 
-0.100927 -0.153127 1.60843 86 52 42 
-0.103283 -0.361095 1.65252 109 93 106 
-0.101307 -0.428719 1.62569 118 90 68 
-0.101072 -0.431614 1.62658 113 85 63 
-0.104158 -0.563444 1.69224 133 122 104 
-0.104195 -0.560763 1.69204 11 9 0 
-0.0997821 -0.153343 1.60835 88 68 57 
-0.0997821 -0.153343 1.60835 88 68 57 
-0.100035 -0.417979 1.62411 226 195 175 
-0.103544 -0.559108 1.69153 13 9 6 
-0.103544 -0.559108 1.69153 13 9 6 
-0.0994901 -0.168692 1.61178 133 53 52 
-0.101242 -0.348401 1.65041 96 84 96 
-0.0992412 -0.154617 1.60847 73 49 37 
-0.0992412 -0.154617 1.60847 73 49 37 
-0.0990504 -0.140738 1.60552 246 205 187 
-0.101157 -0.358705 1.65255 103 86 102 
-0.0993665 -0.427187 1.62545 139 108 88 
-0.0993665 -0.427187 1.62545 139 108 88 
-0.102739 -0.55391 1.69132 13 0 0 
-0.102438 -0.550683 1.69092 171 55 64 
-0.0986253 -0.404651 1.62212 157 126 105 
-0.0980982 -0.161463 1.61025 234 205 197 
-0.0969661 -0.126274 1.60204 195 61 68 
-0.0976302 -0.424046 1.625 227 196 176 
-0.0967249 -0.172899 1.61243 235 202 195 
-0.0971241 -0.413842 1.62324 245 214 193 
-0.0971241 -0.413842 1.62324 245 214 193 
-0.0946297 -0.14102 1.60548 91 60 42 
-0.094836 -0.155443 1.6081 71 48 34 
-0.0945032 -0.135557 1.60358 191 82 79 
-0.0944877 -0.420951 1.62385 128 97 79 
-0.0931415 -0.111981 1.59831 235 207 196 
-0.0936645 -0.426433 1.62531 229 200 182 
-0.0936645 -0.426433 1.62531 229 200 182 
-0.0948261 -0.370361 1.65454 179 163 174 
-0.0924534 -0.158226 1.60899 145 71 68 
-0.095765 -0.534286 1.68804 94 56 33 
-0.0918595 -0.155547 1.60821 233 205 193 
-0.0920314 -0.424655 1.6252 118 85 68 
-0.091645 -0.411963 1.62207 246 215 195 
-0.091645 -0.411963 1.62207 246 215 195 
-0.0924757 -0.360819 1.65253 101 90 107 
-0.092365 -0.375787 1.65546 137 125 127 
-0.0942317 -0.545545 1.68975 84 4 0 
-0.0897396 -0.411518 1.6219 140 109 91 
-0.0933908 -0.56697 1.69404 66 0 0 
-0.0933908 -0.56697 1.69404 66 0 0 
-0.0891023 -0.152531 1.60699 78 51 40 
-0.0891078 -0.172056 1.61105 161 62 65 
-0.0886601 -0.1561 1.60832 101 67 57 
-0.0905497 -0.373101 1.65476 137 125 129 
-0.0882653 -0.147819 1.60635 69 51 39 
-0.0875912 -0.125095 1.60078 220 204 191 
-0.0881355 -0.416116 1.62273 115 83 62 
-0.0874471 -0.157893 1.60859 107 73 64 
-0.0874309 -0.167396 1.61135 96 58 49 
-0.0906364 -0.579881 1.69546 124 116 103 
-0.0900408 -0.566284 1.69337 97 75 77 
-0.0854959 -0.161546 1.60927 237 210 199 
-0.0849652 -0.145927 1.60587 72 49 33 
-0.0849652 -0.145927 1.60587 72 49 33 
-0.0847484 -0.137091 1.60345 222 195 166 
-0.0847484 -0.137091 1.60345 222 195 166 
-0.0847494 -0.15008 1.60651 85 66 52 
-0.0846706 -0.422734 1.62415 217 188 170 
-0.0846706 -0.422734 1.62415 217 188 170 
-0.0837122 -0.163237 1.60971 80 61 47 
-0.0831211 -0.165476 1.60995 91 74 66 
-0.0835925 -0.413049 1.62198 124 92 77 
-0.0826837 -0.121322 1.59972 121 132 128 
-0.0825705 -0.148016 1.60599 100 83 73 
-0.0823316 -0.161329 1.60899 222 199 183 
-0.0823316 -0.161329 1.60899 222 199 183 
-0.081949 -0.15121 1.6064 74 52 38 
-0.0850907 -0.53586 1.68689 157 75 79 
-0.0811298 -0.167629 1.61033 94 72 61 
-0.0805299 -0.131775 1.60215 119 137 125 
-0.0821954 -0.363851 1.65232 37 31 41 
-0.0834907 -0.568382 1.69318 24 39 44 
-0.0799845 -0.15321 1.60712 238 211 192 
-0.0799845 -0.15321 1.60712 238 211 192 
-0.0829677 -0.573061 1.69381 68 97 95 
-0.082256 -0.534575 1.68624 50 32 18 
-0.0782773 -0.169235 1.61066 83 68 49 
-0.0785205 -0.407582 1.61949 129 97 84 
-0.0777405 -0.123384 1.59983 76 87 81 
-0.0811099 -0.547411 1.68888 23 38 45 
-0.0807164 -0.559226 1.69087 74 122 126 
-0.0768606 -0.144289 1.60502 89 65 53 
-0.0773707 -0.414301 1.62211 113 82 64 
-0.0767369 -0.402928 1.62018 228 196 181 
-0.0761271 -0.141912 1.60405 223 211 195 
-0.0792592 -0.585294 1.69591 17 33 32 
-0.0756298 -0.167161 1.61051 91 74 64 
-0.0752838 -0.160054 1.6078 87 59 48 
-0.0738233 -0.087759 1.59107 86 55 34 
-0.0772527 -0.554907 1.68948 63 128 132 
-0.0772527 -0.554907 1.68948 63 128 132 
-0.0778478 -0.598613 1.69847 178 90 86 
-0.0778478 -0.598613 1.69847 178 90 86 
-0.0742356 -0.402867 1.61986 129 97 82 
-0.073696 -0.413501 1.62205 129 99 88 
-0.073696 -0.413501 1.62205 129 99 88 
-0.073199 -0.142481 1.60476 79 64 57 
-0.0733582 -0.404212 1.61993 229 197 182 
-0.0726211 -0.16796 1.6102 90 68 55 
-0.0720874 -0.140456 1.60369 152 171 165 
-0.0722473 -0.407618 1.62012 224 193 175 
-0.0735674 -0.549606 1.68912 5 28 36 
-0.0735674 -0.549606 1.68912 5 28 36 
-0.0706743 -0.162289 1.60875 80 53 34 
-0.0706743 -0.162289 1.60875 80 53 34 
-0.0728974 -0.585045 1.69478 8 37 41 
-0.0699258 -0.400865 1.61926 111 79 66 
-0.0700334 -0.405808 1.61993 230 199 181 
-0.0725387 -0.544329 1.68809 80 116 116 
-0.0680798 -0.404385 1.61974 124 95 77 
-0.0678408 -0.398892 1.61866 224 193 175 
-0.0672644 -0.145422 1.60439 92 67 60 
-0.0696639 -0.594444 1.69693 26 29 34 
-0.0665012 -0.147324 1.60483 232 204 190 
-0.0687451 -0.539304 1.68668 26 26 26 
-0.0687451 -0.539304 1.68668 26 26 26 
-0.0686573 -0.557099 1.68961 3 28 25 
-0.0658479 -0.403167 1.61925 239 210 192 
-0.0656818 -0.409053 1.62055 137 101 85 
-0.0634586 -0.14488 1.60413 212 190 177 
-0.0634586 -0.14488 1.60413 212 190 177 
-0.0625146 -0.151843 1.60585 90 64 51 
-0.0648355 -0.533184 1.68524 58 23 4 
-0.0650583 -0.559751 1.69101 29 35 25 
-0.0646851 -0.568696 1.69168 78 115 121 
-0.0646851 -0.568696 1.69168 78 115 121 
-0.0616863 -0.169669 1.60972 217 196 175 
-0.0614411 -0.148255 1.60472 90 62 41 
-0.0605611 -0.135362 1.60084 131 147 144 
-0.060408 -0.151146 1.60528 242 214 200 
-0.0583779 -0.162273 1.60825 95 83 71 
-0.0602432 -0.549499 1.68756 35 6 0 
-0.0602432 -0.549499 1.68756 35 6 0 
-0.0597131 -0.530942 1.68516 147 68 51 
-0.0569227 -0.146177 1.60366 82 56 39 
-0.0566846 -0.161818 1.60754 78 79 73 
-0.0565237 -0.404418 1.61945 138 105 88 
-0.0561518 -0.165396 1.609 150 169 165 
-0.0583819 -0.568048 1.69092 36 36 38 
-0.0573208 -0.55521 1.68968 136 64 52 
-0.0568954 -0.548821 1.68715 211 143 122 
-0.0545838 -0.15998 1.60777 145 166 161 
-0.0536122 -0.153389 1.60508 86 79 69 
-0.0549095 -0.572363 1.69201 138 120 110 
-0.0524325 -0.141347 1.60227 109 83 68 
-0.0521674 -0.154919 1.6052 142 164 162 
-0.051672 -0.139936 1.60198 226 196 185 
-0.0512324 -0.147164 1.60351 84 56 35 
-0.053347 -0.590475 1.69616 33 31 32 
-0.0534104 -0.584382 1.69466 35 25 24 
-0.0531782 -0.580209 1.6938 31 15 15 
-0.0519931 -0.569427 1.69143 145 88 81 
-0.0466918 -0.14435 1.60263 228 210 200 
-0.0480893 -0.585246 1.69465 145 93 82 
-0.0454553 -0.142463 1.60157 116 114 101 
-0.0459695 -0.558345 1.68811 140 77 70 
-0.0459803 -0.566301 1.6896 153 76 68 
-0.0454442 -0.531878 1.68394 147 86 83 
-0.0420906 -0.572321 1.69156 147 82 76 
-0.0404804 -0.589453 1.6942 38 35 30 
-0.0383931 -0.586378 1.69226 27 8 0 
-0.0384252 -0.56754 1.68879 46 27 21 
-0.0372485 -0.601037 1.69683 152 30 77 
-0.0370958 -0.576194 1.69133 149 89 79 
-0.0316173 -0.53998 1.68159 145 119 104 
-0.031539 -0.540025 1.6815 152 123 109 
-0.0309095 -0.537043 1.682 27 0 0 
-0.0303316 -0.545834 1.68193 21 0 4 
-0.0287234 -0.376245 1.65096 68 21 5 
-0.0289658 -0.539374 1.68091 36 0 0 
-0.0272837 -0.363147 1.64699 126 81 78 
-0.0252643 -0.369774 1.64934 152 103 99 
-0.0245937 -0.386955 1.64957 106 63 56 
0.0190987 -0.411205 1.60969 165 108 101 
0.0198965 -0.40814 1.61104 43 3 1 
0.0206121 -0.40474 1.61196 161 102 94 
0.0209249 -0.4238 1.61417 162 111 107 
0.0444782 -0.379129 1.64355 227 217 207 
0.0457407 -0.384574 1.64294 230 226 217 
0.0507715 -0.378359 1.64184 229 211 199 
0.0507347 -0.381795 1.64151 231 224 214 
0.0508979 -0.376272 1.6416 119 103 90 
0.0526841 -0.374687 1.64106 229 219 209 
0.0527885 -0.374499 1.64147 240 231 222 
0.0895003 -0.179065 1.53313 1 1 3 
0.0983578 -0.177124 1.53191 0 2 1 
0.115305 0.144897 1.52863 61 51 42 
0.125752 0.203748 1.51755 194 181 165 
0.148992 0.181456 1.51908 129 87 62 
0.149723 0.170012 1.52153 139 99 64 
0.150622 0.153267 1.52571 131 95 59 
0.15158 0.143583 1.5277 128 95 64 
0.15158 0.143583 1.5277 128 95 64 
0.15272 0.137172 1.53004 137 100 74 
0.153681 0.148676 1.52685 58 44 43 
0.153681 0.148676 1.52685 58 44 43 
0.154429 0.130282 1.53111 136 93 58 
0.154924 0.121076 1.53348 137 93 58 
0.156206 0.111477 1.53572 138 93 64 
0.162189 0.149527 1.52597 60 34 19 
0.162189 0.149527 1.52597 60 34 19 
0.162443 0.170875 1.52073 140 99 71 
0.168277 0.162868 1.52225 142 92 55 
0.170595 0.137308 1.52816 125 94 65 
0.170835 0.133259 1.52891 144 98 65 
0.172026 0.167483 1.52092 58 40 36 
0.172026 0.167483 1.52092 58 40 36 
0.172634 0.172714 1.52014 132 85 55 
0.177672 0.188228 1.51538 61 37 25 
0.177672 0.188228 1.51538 61 37 25 
0.181444 0.189788 1.51512 123 91 70 
0.182379 0.179382 1.51709 124 88 64 
0.185082 0.189642 1.51548 68 37 17 
0.186447 0.149903 1.52373 134 92 70 
0.186447 0.149903 1.52373 134 92 70 
0.187042 0.184789 1.51614 57 46 40 
0.187042 0.184789 1.51614 57 46 40 
0.189685 0.189897 1.51451 138 93 62 
0.191898 0.164393 1.52 134 88 64 
0.192212 0.171997 1.5192 135 98 71 
0.195688 0.168258 1.5192 57 46 42 
0.195688 0.168258 1.5192 57 46 42 
0.201394 0.120704 1.53015 59 45 36 
0.201394 0.120704 1.53015 59 45 36 
0.201246 0.140841 1.52544 56 46 45 
0.201246 0.140841 1.52544 56 46 45 
0.201376 0.14093 1.52555 56 46 45 
0.201376 0.14093 1.52555 56 46 45 
0.214108 0.117652 1.53019 143 93 60 
-1.14614 0.424573 1.71196 144 135 136 
-1.14398 0.325043 1.73987 156 150 150 
-1.12328 0.373135 1.7305 195 187 176 
-1.11054 0.0297769 1.74484 171 167 166 
-1.10861 0.0762781 1.74813 139 134 128 
-1.33058 0.593924 2.16459 35 18 8 
-1.10654 0.0832314 1.78338 137 123 114 
-1.09528 0.0690272 1.77196 111 105 107 
-1.12206 -0.0386612 1.8203 133 119 108 
-1.12155 -0.0614408 1.82509 40 31 34 
-1.32408 0.461261 2.19148 95 76 62 
-1.15127 -0.163535 1.88336 167 156 152 
-1.13277 -0.132241 1.85233 153 147 147 
-1.30824 0.384779 2.20491 81 60 43 
-1.2829 0.557752 2.17605 34 15 8 
-1.30692 0.311223 2.22176 26 11 6 
-1.30213 0.333095 2.21556 93 75 61 
-1.2752 0.486813 2.1886 84 65 48 
-1.29181 0.297798 2.22138 95 79 63 
-1.28781 0.25351 2.22705 89 73 60 
-1.30798 0.0631463 2.26415 90 76 63 
-1.2538 0.544258 2.17708 86 67 52 
-1.22474 0.684746 2.15434 105 86 69 
-1.28399 0.10056 2.25344 84 66 52 
-1.26395 0.273326 2.22387 84 66 52 
-1.15714 -0.272148 2.02184 29 14 9 
-1.22398 0.528237 2.17982 39 19 12 
-1.22927 0.389537 2.19786 93 71 48 
-1.27799 -0.0508973 2.28159 102 84 74 
-1.28094 -0.125736 2.29046 88 71 53 
-1.20591 0.546044 2.17135 46 25 6 
-1.21028 0.503107 2.18268 39 21 7 
-1.22254 0.339234 2.20704 90 70 43 
-1.2806 -0.228447 2.30825 78 60 46 
-1.27356 -0.149862 2.30108 109 93 78 
-1.18203 0.69983 2.1446 105 84 65 
-1.28885 -0.330396 2.33182 72 56 43 
-1.24669 0.0473576 2.26447 95 77 65 
-1.27137 -0.192773 2.30799 94 77 67 
-1.22032 0.228065 2.227 100 81 66 
-1.20567 0.347615 2.20822 89 67 53 
-1.22128 0.185535 2.24374 95 74 53 
-1.1934 0.427888 2.19642 95 73 59 
-1.23825 -0.0554503 2.28066 74 56 42 
-1.18575 0.47374 2.18847 85 66 52 
-1.21741 0.131018 2.24677 94 77 61 
-1.23768 -0.108918 2.28428 93 75 63 
-1.16156 0.637889 2.15172 109 84 64 
-1.20644 0.244646 2.23252 94 75 60 
-1.18832 0.325985 2.2102 106 87 70 
-1.19509 0.242067 2.22468 40 24 11 
-1.21408 0.0281617 2.26011 112 91 74 
-1.2437 -0.245858 2.31698 40 22 8 
-1.24102 -0.215259 2.3161 94 76 64 
-1.18652 0.273426 2.21886 99 83 58 
-1.24259 -0.309705 2.32727 94 75 61 
-1.1959 0.0937382 2.24562 95 75 64 
-1.20877 -0.0211412 2.26911 102 85 55 
-1.21015 -0.0303181 2.27359 105 88 70 
-1.13651 0.687553 2.14484 63 39 15 
-1.20798 -0.0829697 2.27394 102 86 63 
-1.18339 0.230434 2.23144 95 74 57 
-1.18457 0.220258 2.23508 115 99 83 
-1.14257 0.615911 2.16146 54 32 9 
-1.16932 0.346122 2.2101 98 79 65 
-1.14313 0.566897 2.16853 110 84 67 
-1.13954 0.598635 2.16431 48 29 14 
-1.13196 0.676524 2.15118 104 82 59 
-1.14122 0.626897 2.1693 119 97 73 
-1.18101 0.168094 2.24373 104 82 71 
-1.20557 -0.130353 2.28835 121 95 78 
-1.22221 -0.276665 2.32546 47 30 14 
-1.21003 -0.186509 2.30292 101 84 64 
-1.19722 -0.0555067 2.28162 107 81 66 
-1.17655 0.113375 2.24489 89 70 56 
-1.19292 -0.0143677 2.27753 91 73 59 
-1.1331 0.570251 2.16995 104 86 66 
-1.12603 0.620775 2.15791 103 78 56 
-1.17646 0.0687041 2.2503 98 77 58 
-1.16333 0.241259 2.22911 87 70 52 
-1.18418 -0.02952 2.27212 90 72 52 
-1.13653 0.454301 2.18599 100 74 59 
-1.21332 -0.325611 2.32786 109 93 70 
-1.17585 0.0278351 2.2629 100 79 58 
-1.18085 -0.0797699 2.27187 84 62 49 
-1.17162 0.0611014 2.25953 36 18 4 
-1.18379 -0.119442 2.28242 29 10 3 
-1.21094 -0.42797 2.33687 102 83 68 
-1.13408 0.39511 2.1976 53 34 19 
-1.17337 -0.0236157 2.27226 88 69 52 
-1.12857 0.447023 2.1928 51 29 16 
-1.15559 0.13314 2.24413 89 72 56 
-1.12743 0.46095 2.19425 51 31 24 
-1.14973 0.168965 2.23669 105 83 60 
-1.09811 0.684185 2.1423 109 82 61 
-1.19247 -0.263443 2.32048 108 89 74 
-1.17694 -0.137458 2.29415 44 20 10 
-1.14754 0.131107 2.23874 37 19 5 
-1.19485 -0.310993 2.32881 125 103 80 
-1.13817 0.215508 2.22381 100 77 59 
-1.19617 -0.353625 2.337 104 78 63 
-1.19542 -0.366256 2.338 111 89 66 
-1.10131 0.595977 2.16164 55 32 14 
-1.19891 -0.408217 2.34419 101 79 58 
-1.11467 0.470448 2.18958 100 82 60 
-1.16106 -0.0626607 2.27734 108 80 66 
-1.19538 -0.417614 2.34303 102 83 68 
-1.14843 0.0790511 2.25526 39 18 1 
-1.10793 0.47811 2.18109 54 33 12 
-1.13716 0.165013 2.23596 99 80 65 
-1.11266 0.425868 2.19141 110 85 65 
-1.09568 0.604683 2.16075 72 53 38 
-1.18379 -0.330297 2.32691 103 83 59 
-1.11601 0.366927 2.19942 111 92 77 
-1.11612 0.388778 2.19977 95 77 57 
-1.11203 0.417316 2.19602 103 76 65 
-1.16793 -0.195444 2.3033 55 36 21 
-1.15685 -0.101715 2.28334 114 91 73 
-1.09002 0.615368 2.1592 112 87 67 
-1.10628 0.451263 2.18938 104 86 66 
-1.15129 -0.059793 2.27508 98 80 60 
-1.14841 -0.0188233 2.27001 89 71 51 
-1.16531 -0.179294 2.30458 115 94 77 
-1.15652 -0.111272 2.28777 99 82 62 
-1.11796 0.290027 2.21596 41 23 9 
-1.14978 -0.0694466 2.27592 95 78 62 
-1.16732 -0.236765 2.30909 93 74 57 
-1.10827 0.379996 2.19968 100 78 55 
-1.09244 0.555015 2.1727 81 58 40 
-1.10796 0.361621 2.20441 101 80 63 
-1.17349 -0.331162 2.32894 109 87 66 
-1.19503 -0.531449 2.37117 100 82 62 
-1.0777 0.634927 2.14767 74 49 29 
-1.12063 0.195356 2.22964 101 83 61 
-1.13018 0.0628303 2.25406 97 81 58 
-1.13323 0.0203903 2.26277 93 74 57 
-1.09194 0.505159 2.18619 73 52 31 
-1.15976 -0.274534 2.31905 102 80 67 
-1.07451 0.613431 2.15922 164 130 102 
-1.15563 -0.210632 2.31549 62 39 23 
-1.11599 0.129551 2.24241 97 79 59 
-1.08184 0.478406 2.17653 90 64 41 
-1.08352 0.441697 2.18077 62 40 19 
-1.06449 0.673615 2.14526 150 120 92 
-1.09735 0.335934 2.20974 108 89 75 
-1.12809 -0.0407857 2.2682 101 83 63 
-1.07414 0.565559 2.16598 79 51 37 
-1.06826 0.630744 2.15719 111 83 62 
-1.07457 0.533565 2.17029 91 66 44 
-1.10526 0.159832 2.22981 104 86 66 
-1.09651 0.303901 2.2142 111 89 75 
-1.12854 -0.0848516 2.27695 109 91 69 
-1.06 0.658077 2.14747 148 117 89 
-1.05644 0.695194 2.14007 171 147 121 
-1.06715 0.582261 2.16278 147 120 93 
-1.06938 0.551603 2.16857 198 165 124 
-1.09793 0.244671 2.22413 117 99 77 
-1.07519 0.467748 2.17985 143 119 91 
-1.07694 0.45286 2.18552 149 124 102 
-1.1227 -0.048956 2.27413 45 27 13 
-1.07466 0.419032 2.18231 78 51 24 
-1.05989 0.620737 2.15482 173 142 111 
-1.06858 0.519659 2.17409 156 130 103 
-1.1468 -0.288283 2.32649 109 91 67 
-1.14994 -0.38561 2.33257 105 82 64 
-1.05582 0.676762 2.15009 192 152 116 
-1.08221 0.39977 2.20437 67 45 31 
-1.05818 0.637587 2.15697 108 76 51 
-1.05983 0.608249 2.16 110 80 56 
-1.07603 0.414809 2.19162 84 56 34 
-1.09739 0.198513 2.2355 105 85 61 
-1.07098 0.403333 2.18583 62 36 23 
-1.05153 0.614477 2.14827 113 79 51 
-1.05605 0.584867 2.15811 154 124 90 
-1.06577 0.503404 2.1775 183 153 115 
-1.06655 0.463725 2.17923 101 74 55 
-1.04927 0.668173 2.14699 165 130 98 
-1.05678 0.575066 2.16242 162 130 91 
-1.05109 0.632852 2.1526 183 144 115 
-1.05762 0.555428 2.16537 104 73 53 
-1.05955 0.539971 2.16976 83 56 29 
-1.11265 -0.0176108 2.2743 134 107 80 
-1.09544 0.151275 2.24124 115 96 79 
-1.05239 0.658117 2.15978 97 66 37 
-1.07836 0.307946 2.21299 108 83 63 
-1.05346 0.5338 2.16461 163 133 99 
-1.06681 0.412931 2.19346 70 43 22 
-1.0552 0.523118 2.17011 169 139 101 
-1.04583 0.623312 2.15267 193 149 112 
-1.06316 0.457052 2.18759 174 142 103 
-1.10948 -0.102102 2.27906 123 103 78 
-1.06904 0.363124 2.2009 114 92 71 
-1.04544 0.611197 2.15563 199 155 116 
-1.13659 -0.376395 2.3355 111 94 68 
-1.05813 0.479571 2.18092 168 141 111 
-1.05511 0.502004 2.17528 111 84 54 
-1.07803 0.258202 2.22117 111 89 66 
-1.10063 -0.0210602 2.26697 69 48 27 
-1.10623 -0.118086 2.27935 136 113 82 
-1.04683 0.576657 2.16496 206 168 119 
-1.08855 0.0843296 2.24752 100 79 62 
-1.05294 0.510695 2.17901 122 90 52 
-1.04674 0.562576 2.16643 204 162 120 
-1.06151 0.400049 2.19654 110 80 56 
-1.04187 0.593809 2.15787 136 104 66 
-1.07231 0.268189 2.21853 87 62 40 
-1.03348 0.674332 2.14333 175 145 119 
-1.07316 0.182909 2.22454 58 36 23 
-1.07338 0.205767 2.22594 110 85 63 
-1.03342 0.650411 2.14682 127 90 63 
-1.04945 0.4528 2.18367 81 56 36 
-1.07461 0.128378 2.2326 48 30 6 
-1.0409 0.546452 2.16686 201 172 140 
-1.06232 0.270601 2.21175 118 94 70 
-1.03561 0.579234 2.15975 128 94 57 
-1.02769 0.68858 2.14568 91 59 34 
-1.11114 -0.220612 2.31234 134 108 83 
-1.04493 0.460771 2.1796 164 134 106 
-1.0441 0.489899 2.17844 166 136 108 
-1.03221 0.629457 2.15505 109 75 47 
-1.07154 0.137386 2.23405 62 47 24 
-1.11556 -0.275372 2.32601 129 107 83 
-1.02792 0.665 2.15242 117 86 65 
-1.06618 0.18953 2.22879 128 102 79 
-1.03429 0.564913 2.16499 165 135 107 
-1.07304 0.105272 2.24168 133 108 77 
-1.04161 0.470074 2.18004 125 93 55 
-1.0985 -0.195637 2.2975 121 100 79 
-1.02636 0.619859 2.15322 182 153 119 
-1.04977 0.337349 2.20005 126 102 76 
-1.07559 0.0491176 2.25206 73 47 32 
-1.04626 0.379988 2.19472 79 55 29 
-1.02639 0.600753 2.15644 170 139 108 
-1.03193 0.505351 2.16735 110 79 59 
-1.02118 0.672685 2.14681 186 159 132 
-1.08475 -0.0123725 2.2746 113 92 61 
-1.03011 0.519867 2.16568 121 94 65 
-1.03443 0.548307 2.17575 221 188 153 
-1.08364 0.0216009 2.2758 64 46 26 
-1.06096 0.163657 2.22973 162 138 114 
-1.07041 0.0655725 2.25013 158 129 97 
-1.02187 0.634695 2.15391 92 61 41 
-1.05631 0.206169 2.22366 59 37 14 
-1.03521 0.460908 2.18325 188 153 115 
-1.05144 0.223489 2.21528 70 43 14 
-1.02797 0.53931 2.17002 125 92 59 
-1.02565 0.582365 2.16581 181 152 122 
-1.04696 0.286934 2.21027 122 96 73 
-1.05683 0.123726 2.22942 141 114 87 
-1.03717 0.398778 2.19113 86 60 37 
-1.03712 0.417761 2.19191 164 127 98 
-1.01633 0.609863 2.15013 183 149 121 
-1.08352 -0.135528 2.28583 68 49 35 
-1.10316 -0.348619 2.32936 130 108 84 
-1.03807 0.36785 2.19776 137 107 79 
-1.08284 -0.160673 2.28838 169 147 123 
-1.02417 0.526942 2.17013 127 97 71 
-1.0658 0.0500556 2.25488 153 124 92 
-1.05075 0.246642 2.22588 116 92 66 
-1.01154 0.687739 2.14641 111 81 57 
-1.03093 0.442437 2.18507 112 80 57 
-1.0456 0.246539 2.21585 111 87 61 
-1.01191 0.619255 2.14816 115 84 55 
-1.01864 0.543979 2.16349 177 146 115 
-1.01313 0.665317 2.15264 192 159 128 
-1.02825 0.486019 2.1839 205 172 129 
-1.05761 0.0968546 2.24314 151 127 101 
-1.0863 -0.223669 2.30184 70 47 29 
-1.02687 0.474348 2.1812 118 88 54 
-1.1077 -0.4342 2.34675 124 104 80 
-1.00889 0.678173 2.14661 130 96 69 
-1.04672 0.231578 2.22363 120 94 69 
-1.02343 0.501218 2.17688 113 79 44 
-1.06903 -0.00994079 2.2696 78 54 30 
-1.07009 -0.088493 2.27121 91 67 43 
-1.07254 -0.124021 2.27676 142 116 89 
-1.04737 0.195405 2.22687 148 119 85 
-1.03134 0.41048 2.19476 165 132 101 
-1.02009 0.513989 2.17162 189 160 130 
-1.01365 0.566726 2.1589 179 149 125 
-1.02195 0.533795 2.17765 177 150 121 
-1.06616 0.00713833 2.26743 172 142 108 
-1.00836 0.635644 2.14908 190 160 132 
-1.08362 -0.209304 2.30349 205 183 159 
-1.059 0.0630746 2.25415 209 178 149 
-1.04951 0.116924 2.23549 86 60 35 
-1.00581 0.668582 2.14623 123 90 59 
-1.04544 0.181101 2.22733 133 103 67 
-1.04607 0.164657 2.22837 115 94 73 
-1.11334 -0.466082 2.37 79 57 34 
-1.02496 0.41633 2.18732 99 69 45 
-1.1108 -0.529809 2.36361 131 114 88 
-1.08505 -0.244631 2.31331 81 60 39 
-1.11499 -0.584693 2.37403 127 104 86 
-1.04614 0.151071 2.23229 145 114 86 
-1.00648 0.608426 2.15184 186 152 117 
-1.05598 0.0489631 2.25414 154 126 102 
-1.06428 -0.0408456 2.27129 179 149 113 
-1.00898 0.592846 2.15793 186 155 126 
-1.02496 0.395746 2.1918 103 76 46 
-1.05822 0.00354159 2.2606 111 84 57 
-1.0665 -0.0491727 2.27759 163 136 109 
-1.02757 0.362916 2.1979 167 132 102 
-1.04369 0.140251 2.23045 167 136 105 
-1.08534 -0.266868 2.31774 136 116 91 
-1.06438 -0.104798 2.2739 177 151 126 
-1.06704 -0.144078 2.27907 192 163 131 
-1.0373 0.230931 2.22174 75 48 29 
-1.09949 -0.47884 2.35037 138 113 93 
-1.01666 0.441664 2.18022 120 90 56 
-1.04042 0.127519 2.22848 164 135 105 
-1.04952 0.0640413 2.24889 107 77 51 
-1.0121 0.522452 2.17319 170 141 111 
-1.08979 -0.289606 2.33631 91 72 55 
-1.11129 -0.633898 2.37871 114 93 72 
-1.0581 -0.0483832 2.26921 116 88 64 
-1.01362 0.501336 2.17803 104 74 50 
-1.07616 -0.220361 2.30628 163 135 95 
-1.04707 0.0838109 2.247 139 105 70 
-1.05621 -0.032172 2.26623 100 70 42 
-1.08619 -0.306836 2.3289 152 132 108 
-1.02775 0.347755 2.2091 88 60 38 
-1.01882 0.432647 2.19083 112 81 52 
-1.00976 0.537246 2.17247 167 137 113 
-1.04975 0.0754223 2.25486 117 87 53 
-1.01556 0.423837 2.18503 90 60 36 
-1.01347 0.48552 2.18159 99 69 41 
-1.05489 -0.0161283 2.26719 141 114 87 
-1.03593 0.19341 2.22869 85 61 33 
-1.03233 0.244529 2.22171 82 55 36 
-1.00461 0.550716 2.16492 160 131 99 
-1.02426 0.317523 2.20554 150 118 79 
-1.04038 0.0947921 2.23856 185 149 115 
-1.06628 -0.143338 2.29556 176 149 122 
-1.01629 0.441873 2.19208 166 135 104 
-1.03241 0.210907 2.22456 103 73 47 
-0.995102 0.672397 2.1487 177 146 115 
-1.05426 -0.0600692 2.26996 166 139 112 
-1.08901 -0.430166 2.34351 130 108 87 
-1.06849 -0.196954 2.30203 194 165 131 
-1.0929 -0.462762 2.3533 154 130 106 
-1.07627 -0.287476 2.31852 84 63 42 
-1.04635 0.0270534 2.25906 110 83 56 
-1.02498 0.254617 2.21425 125 93 68 
-0.995051 0.650097 2.15336 174 141 106 
-1.08968 -0.473028 2.34891 162 137 115 
-1.01669 0.3951 2.19839 106 76 50 
-1.0926 -0.503548 2.35705 132 111 84 
-1.09465 -0.513175 2.3632 140 119 92 
-1.0521 -0.0997771 2.27334 204 176 152 
-1.00012 0.517156 2.16688 195 164 133 
-1.02101 0.302061 2.21102 61 38 20 
-1.00903 0.451865 2.18648 108 81 54 
-0.991908 0.616908 2.15099 186 157 125 
-1.04619 0.0168367 2.26431 95 68 47 
-1.0402 0.0442961 2.25463 180 150 112 
-1.06737 -0.196302 2.31305 157 131 98 
-1.02793 0.11753 2.22868 171 141 103 
-1.02152 0.284499 2.21763 83 57 34 
-1.02584 0.184254 2.22604 131 104 75 
-1.06779 -0.296993 2.31545 178 155 124 
-1.01143 0.350035 2.1985 96 70 45 
-1.02558 0.138177 2.22757 113 86 57 
-0.984541 0.680074 2.1435 187 153 125 
-1.00573 0.404745 2.18762 98 72 49 
-1.05435 -0.184925 2.29042 195 166 136 
-0.995139 0.552499 2.168 165 139 114 
-1.04349 -0.0535835 2.268 108 82 57 
-0.983761 0.666783 2.14445 220 190 166 
-1.06694 -0.243875 2.31906 200 173 144 
-1.03928 0.00322773 2.26201 149 122 95 
-0.995971 0.533619 2.17228 174 145 113 
-1.02241 0.157239 2.22661 185 144 90 
-0.981287 0.695152 2.14178 193 160 129 
-0.989092 0.562835 2.15954 128 101 71 
-1.06977 -0.396411 2.32853 149 123 98 
-1.04741 -0.118457 2.28247 160 134 97 
-1.01897 0.210533 2.22304 111 80 36 
-1.02194 0.195046 2.23041 159 127 86 
-1.00506 0.396329 2.19488 96 71 49 
-1.01709 0.164035 2.21942 175 136 93 
-1.02031 0.174711 2.22693 99 64 34 
-0.98359 0.650239 2.15094 189 159 125 
-0.990798 0.593034 2.16644 175 142 111 
-0.983284 0.613492 2.14985 140 109 80 
-1.02006 0.147847 2.22667 211 175 127 
-1.01939 0.120298 2.22523 130 97 64 
-1.00349 0.381218 2.19324 88 62 39 
-1.04614 -0.104647 2.28252 114 86 62 
-1.07349 -0.382898 2.34025 92 70 46 
-1.04217 -0.0838004 2.27404 115 89 62 
-1.05147 -0.193836 2.29531 183 157 122 
-1.04189 -0.0195182 2.27643 178 145 102 
-1.06591 -0.29626 2.32795 212 182 156 
-0.994458 0.511304 2.17879 154 127 100 
-1.0284 0.0672271 2.24908 179 145 107 
-1.04301 -0.154338 2.27962 108 80 58 
-1.00668 0.328029 2.20527 153 123 97 
-1.09571 -0.706516 2.39342 126 108 86 
-1.08914 -0.630465 2.37991 67 46 25 
-0.993419 0.467029 2.17786 184 150 113 
-1.01586 0.243161 2.22579 176 150 113 
-0.989032 0.544246 2.16971 181 151 115 
-1.07628 -0.49641 2.35347 146 120 95 
-1.00942 0.283798 2.213 173 145 108 
-1.01479 0.227783 2.22486 199 166 135 
-1.01969 0.108149 2.23402 212 172 123 
-1.02758 0.0500463 2.25194 171 139 101 
-1.0319 0.0392993 2.26247 106 76 50 
-0.976114 0.646462 2.14526 122 92 66 
-1.02967 0.0285137 2.25852 107 80 53 
-0.982974 0.60878 2.16042 206 182 148 
-0.989625 0.47584 2.17431 133 102 71 
-1.0581 -0.317267 2.31895 175 148 121 
-1.03793 -0.143076 2.27579 156 126 98 
-0.98092 0.595876 2.15627 118 91 62 
-0.984316 0.573171 2.16515 123 94 64 
-1.06856 -0.39106 2.34284 157 131 106 
-1.0571 -0.302906 2.31967 192 165 138 
-1.06177 -0.345379 2.33007 172 146 121 
-1.00087 0.345754 2.20334 92 67 47 
-1.00758 0.253828 2.21762 175 150 120 
-0.99497 0.414747 2.1901 178 145 112 
-1.0591 -0.335354 2.32705 192 165 136 
-1.06775 -0.441568 2.34444 176 151 129 
-0.975314 0.663155 2.15172 194 159 121 
-1.03095 -0.0869946 2.26784 118 88 64 
-0.975928 0.621734 2.15289 122 88 51 
-0.989184 0.453878 2.18098 110 82 60 
-0.990909 0.480634 2.1858 181 150 119 
-1.04594 -0.228341 2.30347 160 130 104 
-1.01393 0.125862 2.23481 202 172 138 
-0.99329 0.35751 2.1915 100 74 47 
-0.97141 0.685026 2.14665 135 104 76 
-1.06441 -0.452319 2.34281 158 136 115 
-1.05927 -0.40118 2.3328 137 115 94 
-1.05655 -0.360895 2.32767 90 64 41 
-1.01682 0.0713194 2.24239 140 107 74 
-1.00191 0.300011 2.21183 94 66 45 
-1.03874 -0.19221 2.28838 117 90 61 
-0.99223 0.398916 2.19166 171 142 108 
-0.980108 0.53955 2.16657 121 91 65 
-1.03143 -0.108133 2.27425 160 130 92 
-1.02674 0.00444646 2.26673 175 145 107 
-1.00699 0.215287 2.22554 118 84 57 
-0.991686 0.38201 2.1927 174 147 117 
-0.978463 0.56061 2.16466 179 150 120 
-1.00341 0.2427 2.21748 170 138 99 
-1.04505 -0.240564 2.30675 118 91 62 
-1.07005 -0.537557 2.36049 111 85 62 
-0.98742 0.425677 2.18464 123 90 59 
-1.00066 0.257979 2.21252 153 126 97 
-1.07692 -0.630359 2.37715 127 101 74 
-1.03064 -0.149941 2.27728 153 128 98 
-1.00506 0.232885 2.22471 178 138 102 
-0.978856 0.515727 2.16846 126 99 69 
-1.0499 -0.290772 2.32065 135 105 77 
-1.0645 -0.487127 2.35075 173 149 123 
-1.00981 0.107577 2.2349 130 101 71 
-0.9669 0.656861 2.14527 96 64 43 
-1.00004 0.271987 2.2164 96 69 42 
-0.966959 0.637882 2.14534 141 115 82 
-0.981292 0.503217 2.17684 120 87 56 
-0.969574 0.63069 2.15198 122 92 58 
-0.986199 0.437797 2.18831 174 141 106 
-1.03025 -0.162809 2.28052 189 158 127 
-1.03324 -0.177903 2.28701 164 131 96 
-1.05646 -0.454615 2.33756 72 51 30 
-1.00868 0.117089 2.23605 195 163 124 
-1.02079 0.0134998 2.26295 114 82 44 
-0.983169 0.485954 2.18363 202 170 132 
-1.0031 0.157777 2.22575 173 143 117 
-1.00545 0.126855 2.23008 143 109 72 
-1.04145 -0.27135 2.30831 141 107 72 
-1.02262 -0.026847 2.26825 98 71 50 
-1.00648 0.0919217 2.23315 189 155 127 
-1.02386 -0.0610905 2.27143 98 67 36 
-1.05399 -0.383422 2.33743 82 55 36 
-0.98966 0.349619 2.1996 146 116 90 
-0.991598 0.315791 2.20451 92 67 37 
-1.03371 -0.213295 2.29392 161 127 100 
-0.969008 0.590878 2.15617 198 168 132 
-0.979594 0.475164 2.17991 177 144 113 
-0.983668 0.40623 2.18904 157 131 98 
-1.04232 -0.29256 2.31565 131 100 71 
-1.01826 -0.0106712 2.26385 116 89 60 
-1.06928 -0.634946 2.37422 155 135 110 
-1.03537 -0.228095 2.30171 189 156 121 
-1.00005 0.167042 2.22659 189 159 121 
-1.00022 0.118768 2.22664 139 105 68 
-0.95971 0.681961 2.14137 157 125 86 
-0.960665 0.602806 2.14261 186 153 112 
-0.994026 0.284324 2.21586 164 135 103 
-1.0558 -0.440796 2.34913 107 81 58 
-0.988716 0.327229 2.20485 155 129 104 
-1.0637 -0.589903 2.36602 154 130 104 
-0.987907 0.339856 2.20433 90 65 35 
-0.998124 0.222672 2.22707 103 70 37 
-1.00909 0.0629627 2.24989 128 94 56 
-0.983358 0.364755 2.19661 104 73 42 
-0.978819 0.417528 2.1873 129 99 71 
-1.01052 0.0539495 2.256 131 101 67 
-0.994771 0.237506 2.22242 112 82 54 
-1.0003 0.0681642 2.23379 174 141 106 
-1.03913 -0.319629 2.31934 211 177 140 
-0.957667 0.697868 2.14526 222 184 147 
-1.05 -0.484844 2.34244 84 59 39 
-0.963233 0.61966 2.15718 127 98 66 
-1.02027 -0.150213 2.28018 198 164 127 
-0.955847 0.668356 2.1424 192 159 124 
-1.01277 0.00111924 2.26589 195 159 123 
-0.986678 0.29901 2.20931 189 155 118 
-1.04701 -0.439085 2.33993 87 59 37 
-1.0338 -0.246997 2.31235 212 175 131 
-1.03719 -0.30559 2.31955 120 89 60 
-0.963323 0.583607 2.16103 132 100 59 
-0.989619 0.271242 2.21757 123 92 63 
-1.03947 -0.334386 2.32675 187 153 116 
-0.965482 0.541956 2.16755 177 148 114 
-1.01292 -0.0816626 2.26973 95 65 39 
-1.04081 -0.359533 2.33123 172 142 108 
-1.01649 -0.102709 2.27706 142 105 76 
-0.972296 0.464458 2.18294 173 144 114 
-1.03993 -0.3772 2.32927 167 141 106 
-1.01142 -0.046128 2.26714 201 167 129 
-1.02094 -0.201946 2.28663 181 148 105 
-0.986032 0.26343 2.21274 198 166 128 
-0.962804 0.510895 2.16277 119 89 55 
-1.01413 -0.118127 2.27381 166 138 101 
-1.06305 -0.625247 2.38046 77 50 33 
-0.993106 0.133283 2.2286 130 99 68 
-0.99743 0.0891729 2.2391 186 152 117 
-1.00868 0.0291251 2.26408 204 174 138 
-1.04582 -0.460566 2.34441 170 140 106 
-0.96734 0.489506 2.17536 172 143 109 
-0.984797 0.283222 2.21285 169 140 106 
-1.06004 -0.585836 2.37609 94 70 46 
-1.01167 -0.0660293 2.27145 169 143 110 
-1.00663 0.0139918 2.26136 111 79 41 
-0.953323 0.653474 2.14669 205 162 127 
-0.970934 0.452816 2.18565 121 92 60 
-0.96334 0.528864 2.16828 93 65 41 
-1.0099 -0.0364513 2.26897 191 159 118 
-0.988061 0.224052 2.223 182 153 123 
-1.06494 -0.691085 2.38992 134 109 87 
-0.955547 0.601885 2.15343 182 151 120 
-0.999268 0.0798801 2.24806 188 153 115 
-0.974915 0.351498 2.19593 183 156 126 
-0.957544 0.571477 2.15808 118 84 49 
-0.98965 0.09625 2.22692 117 86 55 
-0.988994 0.182262 2.22672 163 134 104 
-0.976342 0.37287 2.19924 198 166 127 
-0.972776 0.403764 2.19192 123 90 57 
-1.00795 -0.0117154 2.26954 120 89 60 
-0.984082 0.246446 2.21694 182 152 114 
-0.949255 0.681602 2.14205 72 39 8 
-0.975822 0.394921 2.20042 171 138 105 
-0.981783 0.313098 2.21272 120 91 61 
-0.957346 0.591844 2.15999 223 190 155 
-0.95531 0.647016 2.15624 217 179 142 
-0.989878 0.118736 2.22985 94 68 41 
-1.0285 -0.302589 2.31565 208 173 133 
-0.983044 0.292581 2.21878 109 81 57 
-0.9848 0.233108 2.22365 163 134 102 
-0.956726 0.557578 2.16268 130 97 66 
-0.985798 0.108415 2.22457 196 168 131 
-1.03149 -0.345816 2.32516 130 100 62 
-0.957323 0.537368 2.16553 133 104 74 
-0.960387 0.496566 2.17249 115 85 51 
-0.995237 0.0708681 2.24822 174 141 108 
