ply                 
format ascii 1.0    
element vertex 950
property float x    
property float y    
property float z    
property uchar red  
property uchar green
property uchar blue 
end_header          
-0.969495 0.330123 2.18407 117 87 49 
-0.906295 0.492597 2.14908 114 82 44 
-0.883699 0.497396 2.14979 139 105 68 
-0.871339 0.473588 2.14836 182 152 124 
-0.869988 0.479671 2.14672 107 76 48 
-0.863099 0.460565 2.15297 90 59 30 
-0.863274 0.449054 2.15756 102 71 43 
-0.868759 0.365098 2.17082 77 49 28 
-0.877012 0.265168 2.19177 177 142 100 
-2.7223 1.76525 7.04362 80 52 28 
-0.85085 0.494047 2.14539 184 157 130 
-0.852724 0.41674 2.1548 171 138 97 
-0.846013 0.468048 2.14856 212 186 149 
-0.847679 0.409322 2.16304 104 73 44 
-0.837613 0.488947 2.14653 190 157 124 
-0.842115 0.409721 2.16177 179 149 121 
-0.836099 0.439746 2.15592 211 179 140 
-0.838993 0.403813 2.16523 100 73 44 
-0.841776 0.340476 2.17636 184 154 126 
-0.834006 0.402002 2.16607 198 165 132 
-0.839463 0.33335 2.17988 170 139 110 
-0.819239 0.538315 2.13485 115 81 46 
-0.829975 0.405287 2.16449 130 97 66 
-0.829975 0.405287 2.16449 130 97 66 
-0.830305 0.344194 2.17539 210 179 148 
-0.850296 0.0933139 2.22752 124 90 55 
-0.834473 0.26537 2.18902 174 144 116 
-0.832919 0.250102 2.19723 73 46 25 
-0.830652 0.265568 2.19297 116 84 59 
-0.812602 0.488793 2.1475 105 74 46 
-0.807705 0.416176 2.15516 126 97 65 
-0.812057 0.337168 2.17657 118 87 58 
-0.831314 0.0839807 2.22851 116 82 54 
-0.823571 0.16826 2.21236 212 179 144 
-0.838608 -0.0226427 2.25174 128 95 62 
-0.830377 0.0278396 2.23744 124 92 67 
-0.788575 0.501956 2.14142 187 160 133 
-0.803012 0.306031 2.17798 132 96 62 
-0.811367 0.223934 2.20226 117 86 55 
-0.821305 0.0819074 2.22764 222 189 146 
-0.825905 -0.0124115 2.24714 190 160 124 
-0.788944 0.462879 2.15021 117 86 58 
-0.782746 0.538557 2.1359 105 75 51 
-0.787697 0.440781 2.15399 132 103 73 
-0.785812 0.457709 2.15211 173 142 111 
-0.791332 0.354878 2.16927 95 66 34 
-0.780303 0.391013 2.16298 194 164 136 
-0.801875 0.0759546 2.22875 120 58 17 
-0.812003 -0.0906168 2.26017 180 146 111 
-0.777735 0.331387 2.1737 187 156 125 
-0.781183 0.281032 2.18696 127 96 65 
-0.814092 -0.138308 2.27706 192 160 121 
-0.778221 0.256973 2.18894 174 144 116 
-0.776656 0.288578 2.18339 198 168 140 
-0.765361 0.434081 2.15501 120 84 52 
-0.772266 0.328525 2.17603 79 52 25 
-0.780525 0.227708 2.19911 123 89 61 
-0.763751 0.443103 2.15378 158 127 98 
-0.753402 0.530395 2.13338 115 83 58 
-0.776047 0.246716 2.19542 190 159 128 
-0.776047 0.246716 2.19542 190 159 128 
-0.787133 0.0897059 2.22534 194 149 107 
-0.765434 0.34124 2.17278 190 160 126 
-0.75445 0.469972 2.14513 111 76 48 
-0.776507 0.171938 2.20765 123 90 57 
-0.750603 0.51049 2.13923 93 65 41 
-0.773024 0.192733 2.20593 183 149 121 
-0.77831 0.0925579 2.2208 113 78 50 
-0.749049 0.466249 2.14634 176 145 116 
-0.753105 0.408336 2.15869 93 58 26 
-0.773863 0.14396 2.21394 138 108 74 
-0.772679 0.172274 2.21181 203 171 133 
-0.746375 0.507253 2.14119 184 153 125 
-0.746672 0.498445 2.14678 196 167 137 
-0.775972 0.0463887 2.22783 109 79 41 
-0.746352 0.461033 2.1487 109 78 58 
-0.755212 0.342732 2.17204 172 142 108 
-0.77106 0.14001 2.21659 215 185 147 
-0.747705 0.432391 2.15395 60 34 17 
-0.770073 0.131605 2.21883 217 188 156 
-0.746113 0.421706 2.15455 157 128 96 
-0.742909 0.468644 2.14713 183 153 127 
-0.764911 0.17002 2.20849 133 100 65 
-0.786065 -0.137735 2.26993 181 151 113 
-0.740512 0.431612 2.15302 167 137 99 
-0.734315 0.514609 2.13996 155 117 78 
-0.755602 0.130189 2.21656 187 154 123 
-0.764574 0.00335705 2.24727 185 153 115 
-0.770026 -0.0955569 2.26344 126 96 68 
-0.733495 0.398211 2.16207 82 53 19 
-0.733542 0.372081 2.16642 111 79 56 
-0.770334 -0.146331 2.27423 138 107 76 
-0.727519 0.414769 2.15458 131 96 58 
-0.736893 0.255744 2.1873 172 141 112 
-0.764354 -0.0987821 2.26528 216 187 153 
-0.747141 0.122947 2.21812 172 138 103 
-0.723869 0.415502 2.15435 197 159 122 
-0.720102 0.438207 2.15458 89 55 28 
-0.71859 0.461026 2.15096 97 63 35 
-0.723107 0.35521 2.16737 129 93 57 
-0.759278 -0.148032 2.27573 94 64 36 
-0.756476 -0.219028 2.28617 214 175 132 
-0.723738 0.240802 2.19451 108 79 49 
-0.715535 0.330982 2.17346 172 139 108 
-0.705447 0.464432 2.14639 167 137 103 
-0.730384 0.0956559 2.21874 199 165 128 
-0.713881 0.312714 2.17338 206 171 131 
-0.701605 0.468797 2.14508 114 84 50 
-0.733695 -0.0079047 2.23894 184 154 118 
-0.729616 0.0329113 2.23464 123 93 67 
-0.713764 0.241431 2.19403 190 155 115 
-0.714271 0.20801 2.19932 127 88 47 
-0.694807 0.471296 2.14348 183 146 104 
-0.72091 0.0150878 2.24096 112 84 47 
-0.687343 0.490343 2.14449 111 81 55 
-0.729931 -0.164883 2.27379 187 157 123 
-0.687505 0.425229 2.15167 173 138 100 
-0.713344 0.0655601 2.22709 181 148 117 
-0.729077 -0.159474 2.27405 116 83 52 
-0.701366 0.220252 2.19841 205 165 116 
-0.701366 0.220252 2.19841 205 165 116 
-0.708391 0.13193 2.22031 130 95 57 
-0.713862 0.0301035 2.23491 177 139 103 
-0.682406 0.466575 2.1465 163 130 99 
-0.724299 -0.153917 2.27479 171 136 98 
-0.68249 0.404192 2.15679 100 66 31 
-0.709338 0.0246286 2.23636 126 88 52 
-0.685531 0.35939 2.16524 193 157 123 
-0.685531 0.35939 2.16524 193 157 123 
-0.677616 0.430357 2.15484 100 70 44 
-0.725998 -0.331741 2.30716 115 86 52 
-0.677595 0.390985 2.16265 165 135 99 
-0.684105 0.295024 2.18098 185 148 104 
-0.684105 0.295024 2.18098 185 148 104 
-0.694651 0.121966 2.2147 130 95 53 
-0.696126 0.0844402 2.22327 187 153 115 
-0.716207 -0.253081 2.29099 227 203 177 
-0.68394 0.246136 2.191 214 176 127 
-0.715389 -0.271439 2.29363 152 109 66 
-0.687772 0.122799 2.21627 199 164 126 
-0.706356 -0.192297 2.28047 184 148 116 
-0.677751 0.224713 2.19778 161 126 88 
-0.661829 0.453182 2.1503 197 165 124 
-0.671584 0.26969 2.18656 99 73 40 
-0.671501 0.27003 2.18717 99 73 40 
-0.702565 -0.27164 2.29279 139 100 69 
-0.703683 -0.347999 2.31329 214 176 140 
-0.664427 0.245362 2.19201 116 86 52 
-0.653508 0.404706 2.15733 141 105 69 
-0.694568 -0.192473 2.28693 166 129 87 
-0.686294 -0.111798 2.26226 173 143 105 
-0.666817 0.117415 2.21895 186 156 122 
-0.674476 -0.0151475 2.24394 199 156 121 
-0.644136 0.446181 2.15105 86 51 29 
-0.685005 -0.185239 2.27957 183 148 110 
-0.661036 0.172833 2.20791 211 181 145 
-0.642092 0.438794 2.15168 167 133 105 
-0.649428 0.323248 2.17643 132 99 58 
-0.643115 0.412968 2.15673 114 79 51 
-0.670792 -0.0299438 2.24688 110 77 34 
-0.641607 0.357924 2.15998 187 149 112 
-0.655873 0.173383 2.20755 161 128 87 
-0.684943 -0.29069 2.29979 142 104 67 
-0.646273 0.301787 2.17633 221 186 146 
-0.646686 0.287656 2.18099 195 165 129 
-0.65031 0.229159 2.19455 203 169 131 
-0.677424 -0.201116 2.28168 121 89 51 
-0.641204 0.334916 2.17094 183 153 119 
-0.666252 -0.0485453 2.25049 104 70 35 
-0.667825 -0.101736 2.26337 134 101 68 
-0.630672 0.456697 2.14879 79 47 22 
-0.639974 0.300817 2.17756 130 95 65 
-0.631296 0.394272 2.16158 96 70 43 
-0.665058 -0.140756 2.27059 180 146 109 
-0.667186 -0.192728 2.28118 185 157 118 
-0.653932 0.0101005 2.24214 211 181 147 
-0.666369 -0.204774 2.28261 112 82 44 
-0.65926 -0.090708 2.25886 155 122 91 
-0.642154 0.165632 2.20696 115 82 49 
-0.623176 0.43218 2.15357 131 100 71 
-0.670561 -0.358724 2.31388 138 103 71 
-0.655711 -0.137411 2.26791 190 160 124 
-0.618398 0.449036 2.14939 190 155 117 
-0.660497 -0.216497 2.28687 104 75 45 
-0.65606 -0.195776 2.28058 214 181 146 
-0.648601 -0.0944413 2.25972 162 128 91 
-0.651063 -0.137227 2.27042 157 125 86 
-0.647668 -0.0887317 2.26203 211 182 142 
-0.662109 -0.352109 2.31407 208 175 140 
-0.616587 0.326491 2.17026 134 98 62 
-0.649207 -0.142184 2.28069 190 158 117 
-0.653303 -0.248175 2.29837 195 163 124 
-0.658985 -0.352764 2.32059 176 144 106 
-0.653699 -0.3013 2.30519 212 174 137 
-0.658433 -0.407607 2.32508 199 161 124 
-0.653859 -0.388222 2.31932 200 167 126 
-0.636516 -0.134503 2.27148 141 108 73 
-0.608955 0.284558 2.18349 94 58 22 
-0.639318 -0.205203 2.28406 136 103 68 
-0.616471 0.179592 2.20684 205 172 131 
-0.607542 0.276794 2.18261 113 80 49 
-0.624437 -0.00401701 2.2392 115 82 49 
-0.619494 0.0342897 2.22902 167 141 106 
-0.618338 -0.00609464 2.23857 177 150 123 
-0.622762 -0.0870806 2.25596 163 134 104 
-0.619491 -0.0271133 2.24705 152 126 101 
-0.596694 0.329262 2.17365 184 150 113 
-0.631706 -0.30112 2.30119 161 131 103 
-0.59098 0.365994 2.16501 101 68 35 
-0.615806 -0.0300365 2.24801 57 33 7 
-0.618326 -0.105019 2.25946 102 74 52 
-0.629899 -0.311265 2.30127 104 74 50 
-0.590503 0.323661 2.17192 117 83 48 
-0.616954 -0.116946 2.26151 172 143 111 
-0.616954 -0.116946 2.26151 172 143 111 
-0.622278 -0.220559 2.28385 104 77 50 
-0.62285 -0.245894 2.28978 163 136 107 
-0.620134 -0.212022 2.28207 160 131 97 
-0.619404 -0.233562 2.28721 158 132 109 
-0.60808 -0.0601536 2.25186 163 132 103 
-0.615266 -0.179112 2.27939 79 51 30 
-0.618045 -0.242939 2.28995 112 87 57 
-0.607504 -0.0887713 2.25346 171 141 103 
-0.5924 0.184526 2.20333 86 51 29 
-0.602263 -0.00605494 2.23813 181 152 120 
-0.618486 -0.257583 2.29535 112 85 56 
-0.611815 -0.321995 2.30265 173 142 114 
-0.589323 0.0634976 2.22312 152 122 88 
-0.592247 -0.00199443 2.23777 176 142 104 
-0.586709 0.0751772 2.22041 99 65 37 
-0.588549 0.0392685 2.22533 111 77 42 
-0.596815 -0.101791 2.25895 102 71 40 
-0.596815 -0.101791 2.25895 102 71 40 
-0.573463 0.301623 2.17627 186 152 124 
-0.607812 -0.328781 2.30395 164 134 110 
-0.583577 0.0859761 2.22028 158 128 94 
-0.59641 -0.160593 2.27218 103 66 37 
-0.60087 -0.240562 2.2897 163 134 104 
-0.5904 -0.0686836 2.2512 183 151 112 
-0.593812 -0.136815 2.26652 94 63 34 
-0.606018 -0.34935 2.31084 163 131 92 
-0.592974 -0.144014 2.26925 107 75 52 
-0.587555 -0.0887018 2.25632 158 127 96 
-0.597661 -0.295195 2.29752 119 88 60 
-0.602573 -0.426116 2.31965 206 167 124 
-0.584399 -0.12716 2.26418 103 70 35 
-0.580128 -0.0487343 2.25046 102 67 37 
-0.577755 -0.0284957 2.24396 102 72 38 
-0.580929 -0.103148 2.2585 125 95 61 
-0.594352 -0.355404 2.31202 161 132 100 
-0.57085 0.0149511 2.23712 165 130 88 
-0.57085 0.0149511 2.23712 165 130 88 
-0.572521 -0.0643289 2.24935 109 83 48 
-0.557148 0.212551 2.19739 178 148 112 
-0.58408 -0.259226 2.2948 123 89 61 
-0.57365 -0.0973339 2.25791 194 161 128 
-0.560667 0.0663284 2.21822 162 133 99 
-0.558142 0.137232 2.21198 170 137 102 
-0.557001 0.0640405 2.22074 84 54 26 
-0.577826 -0.300563 2.30338 185 153 115 
-0.571206 -0.190194 2.27922 204 172 133 
-0.557922 0.0177951 2.2329 161 132 100 
-0.544964 0.145787 2.20278 171 137 102 
-0.56481 -0.202921 2.27898 130 100 64 
-0.549969 0.0525739 2.22285 158 131 101 
-0.567741 -0.266411 2.29431 103 73 45 
-0.567336 -0.307647 2.30372 173 143 109 
-0.539014 0.159359 2.20431 83 54 22 
-0.561834 -0.287648 2.29642 115 84 55 
-0.561992 -0.318159 2.30249 65 37 16 
-0.537667 0.127562 2.21397 109 79 51 
-0.544106 -0.0175996 2.23959 118 86 47 
-0.552798 -0.189818 2.27647 101 73 49 
-0.548298 -0.120425 2.26118 177 147 113 
-0.537072 0.0727733 2.21864 84 54 30 
-0.555568 -0.263113 2.29236 160 130 96 
-0.536574 0.0644441 2.22048 111 83 46 
-0.547493 -0.128902 2.26362 155 124 96 
-0.542034 -0.0478362 2.24482 97 66 38 
-0.554903 -0.290817 2.29668 138 107 79 
-0.531218 0.0620814 2.21726 198 166 127 
-0.544674 -0.177002 2.2718 103 72 43 
-0.546457 -0.240817 2.28645 81 49 24 
-0.547214 -0.299622 2.29792 147 120 91 
-0.389391 -0.628203 1.66003 144 41 88 
-0.389391 -0.628203 1.66003 144 41 88 
-0.382103 -0.52916 1.64335 161 92 111 
-0.37928 -0.52324 1.64491 15 8 15 
-0.470023 0.660444 2.10397 119 85 58 
-0.37296 -0.600475 1.66697 202 53 108 
-0.359091 -0.426823 1.63565 166 63 82 
-0.355214 -0.384773 1.6304 58 24 14 
-0.354527 -0.398136 1.63258 217 111 134 
-0.360362 -0.531555 1.6582 111 17 41 
-0.354209 -0.388314 1.63156 209 121 137 
-0.353155 -0.438832 1.6432 51 26 30 
-0.353155 -0.438832 1.6432 51 26 30 
-0.353413 -0.493795 1.64885 55 40 35 
-0.350903 -0.44396 1.64416 202 103 132 
-0.353707 -0.534035 1.65905 137 37 63 
-0.34304 -0.342283 1.62424 84 6 0 
-0.352253 -0.565571 1.66933 143 48 78 
-0.350127 -0.536099 1.66044 228 125 152 
-0.34398 -0.40781 1.63524 191 170 143 
-0.341306 -0.335102 1.62232 141 138 131 
-0.341476 -0.372107 1.62985 53 28 31 
-0.341554 -0.375718 1.63106 209 108 142 
-0.343098 -0.43847 1.64152 52 44 41 
-0.343098 -0.43847 1.64152 52 44 41 
-0.339604 -0.36764 1.62922 56 34 37 
-0.34792 -0.585329 1.6711 138 32 70 
-0.339276 -0.374191 1.63085 227 107 142 
-0.33955 -0.395505 1.63285 55 41 14 
-0.339432 -0.418635 1.63754 198 168 134 
-0.346264 -0.583999 1.67061 140 50 78 
-0.338138 -0.393027 1.63252 175 170 138 
-0.344599 -0.581216 1.6711 237 185 135 
-0.344603 -0.581149 1.67135 237 185 135 
-0.345071 -0.628674 1.68054 131 20 62 
-0.334797 -0.390507 1.63343 47 35 23 
-0.334576 -0.406811 1.63569 45 46 41 
-0.412717 0.702185 2.08872 143 110 77 
-0.33638 -0.539353 1.66377 140 25 58 
-0.33638 -0.539353 1.66377 140 25 58 
-0.330839 -0.429717 1.63987 51 36 31 
-0.33017 -0.416675 1.63808 160 146 135 
-0.329229 -0.388117 1.6334 209 120 148 
-0.329229 -0.388117 1.6334 209 120 148 
-0.329991 -0.423707 1.6398 87 74 55 
-0.328308 -0.385446 1.63357 233 118 157 
-0.329579 -0.42572 1.63963 44 28 5 
-0.409584 0.69845 2.09149 79 49 23 
-0.333146 -0.544036 1.66461 158 29 60 
-0.327946 -0.42723 1.63965 195 157 146 
-0.331575 -0.52296 1.65932 149 126 120 
-0.332152 -0.581843 1.67149 146 50 78 
-0.327716 -0.519693 1.65976 224 102 139 
-0.329428 -0.577087 1.66831 130 37 48 
-0.323419 -0.423566 1.6397 46 7 2 
-0.324217 -0.488837 1.65306 89 0 19 
-0.318268 -0.385808 1.63048 42 38 39 
-0.3186 -0.417238 1.63795 42 22 11 
-0.317371 -0.41993 1.63739 190 143 135 
-0.309375 -0.38434 1.63243 234 119 160 
-0.307002 -0.470809 1.6487 210 119 150 
-0.30459 -0.403382 1.63623 230 111 153 
-0.301478 -0.434525 1.64224 54 33 38 
-0.29863 -0.485417 1.65124 197 108 138 
-0.29136 -0.427876 1.6392 43 19 17 
-0.293782 -0.483261 1.65128 52 36 37 
-0.286404 -0.481967 1.64992 223 122 154 
-0.285972 -0.486253 1.65069 55 21 35 
-0.275801 -0.2925 1.61191 55 36 29 
-0.282233 -0.48202 1.65046 86 14 28 
-0.283845 -0.530462 1.65989 220 65 69 
-0.27243 -0.292491 1.61217 59 18 12 
-0.27577 -0.540717 1.6603 219 44 41 
-0.27561 -0.540725 1.66038 221 48 41 
-0.271798 -0.51142 1.65281 38 49 35 
-0.271798 -0.51142 1.65281 38 49 35 
-0.266506 -0.51349 1.65262 18 59 29 
-0.266656 -0.512273 1.65616 12 35 15 
-0.268017 -0.573899 1.66609 39 32 26 
-0.267324 -0.576055 1.66654 144 107 80 
-0.258094 -0.290781 1.6107 51 41 40 
-0.258094 -0.290781 1.6107 51 41 40 
-0.258094 -0.290781 1.6107 51 41 40 
-0.264395 -0.49862 1.65268 24 58 33 
-0.262463 -0.519142 1.65419 74 128 96 
-0.254757 -0.300252 1.61307 142 0 4 
-0.253498 -0.298951 1.61324 238 73 79 
-0.25916 -0.496239 1.65258 33 34 28 
-0.257745 -0.491318 1.65011 95 131 105 
-0.25969 -0.579494 1.66697 41 7 0 
-0.255443 -0.520453 1.65505 88 140 104 
-0.255957 -0.579566 1.66697 155 109 93 
-0.255935 -0.579601 1.66686 155 109 93 
-0.249257 -0.519325 1.65547 77 124 92 
-0.247967 -0.490403 1.64984 102 122 95 
-0.248685 -0.567666 1.66479 24 59 27 
-0.246491 -0.53207 1.65766 39 38 17 
-0.247505 -0.576458 1.66613 43 45 24 
-0.247505 -0.576458 1.66613 43 45 24 
-0.245245 -0.529234 1.6567 117 148 107 
-0.238068 -0.294034 1.61067 221 83 83 
-0.243812 -0.50168 1.6518 86 126 99 
-0.243812 -0.50168 1.6518 86 126 99 
-0.248451 -0.674444 1.68293 203 133 141 
-0.240067 -0.400555 1.63203 127 142 111 
-0.244944 -0.573476 1.66525 101 137 89 
-0.242092 -0.495186 1.65072 167 135 114 
-0.242475 -0.530767 1.65714 39 42 13 
-0.235622 -0.293436 1.61086 83 1 3 
-0.235622 -0.293436 1.61086 83 1 3 
-0.240713 -0.483497 1.64775 149 131 107 
-0.243101 -0.577359 1.66601 38 35 16 
-0.240275 -0.527716 1.65641 116 148 107 
-0.239646 -0.516229 1.65297 23 57 33 
-0.235704 -0.400948 1.63197 37 39 25 
-0.235377 -0.403166 1.63276 24 36 14 
-0.2403 -0.575298 1.66542 120 138 100 
-0.2403 -0.575298 1.66542 120 138 100 
-0.23775 -0.501997 1.65133 84 123 96 
-0.239761 -0.596206 1.66873 122 0 0 
-0.236328 -0.507898 1.6524 35 38 31 
-0.236328 -0.507898 1.6524 35 38 31 
-0.22971 -0.295063 1.61114 223 85 83 
-0.236601 -0.532649 1.65751 182 157 126 
-0.236088 -0.536222 1.658 232 199 158 
-0.231382 -0.405516 1.63319 31 35 12 
-0.23498 -0.577801 1.66534 155 122 87 
-0.228191 -0.380489 1.62826 158 123 104 
-0.228197 -0.411677 1.63308 115 146 112 
-0.22656 -0.372418 1.62507 187 152 124 
-0.226147 -0.379183 1.62765 149 106 87 
-0.230979 -0.577093 1.66505 148 113 85 
-0.228511 -0.506372 1.65164 24 35 27 
-0.229421 -0.571484 1.6642 117 143 96 
-0.226945 -0.509826 1.65232 79 97 83 
-0.230029 -0.679373 1.68225 112 61 76 
-0.230029 -0.679373 1.68225 112 61 76 
-0.222119 -0.374711 1.62684 187 147 121 
-0.222177 -0.414605 1.63426 119 144 114 
-0.22489 -0.515007 1.65332 77 89 77 
-0.223406 -0.475316 1.64653 16 39 21 
-0.220778 -0.404716 1.63274 139 120 114 
-0.227434 -0.678826 1.68169 34 11 17 
-0.220129 -0.41588 1.63473 5 26 0 
-0.218964 -0.38881 1.62919 145 128 120 
-0.218964 -0.38881 1.62919 145 128 120 
-0.220073 -0.44237 1.63915 29 34 28 
-0.220224 -0.460112 1.64234 123 144 103 
-0.218531 -0.42037 1.63519 112 144 107 
-0.21695 -0.40995 1.63336 144 121 107 
-0.216539 -0.417816 1.63466 114 126 104 
-0.217257 -0.450488 1.64081 28 22 6 
-0.218333 -0.499904 1.65027 172 110 97 
-0.217456 -0.453105 1.64115 146 119 100 
-0.217456 -0.453105 1.64115 146 119 100 
-0.215839 -0.421691 1.63498 120 144 108 
-0.215739 -0.440212 1.6386 93 105 93 
-0.213692 -0.399534 1.63078 122 98 86 
-0.213134 -0.398619 1.63054 133 106 99 
-0.212317 -0.410252 1.63269 141 118 100 
-0.212605 -0.41946 1.63497 41 39 18 
-0.212605 -0.41946 1.63497 41 39 18 
-0.211653 -0.405438 1.63084 138 114 102 
-0.211679 -0.39997 1.63091 42 15 4 
-0.216706 -0.580647 1.66606 155 106 73 
-0.214565 -0.503143 1.65097 140 41 44 
-0.21279 -0.475354 1.64504 161 125 103 
-0.210808 -0.398397 1.6306 113 86 77 
-0.21167 -0.445516 1.64003 103 116 98 
-0.210143 -0.410247 1.63296 51 23 9 
-0.213731 -0.587039 1.66637 176 111 79 
-0.214136 -0.594442 1.66775 227 108 42 
-0.209525 -0.437741 1.63743 17 31 16 
-0.210505 -0.487415 1.64814 141 37 38 
-0.208788 -0.416681 1.63363 155 118 102 
-0.210705 -0.509033 1.6515 198 156 134 
-0.207587 -0.386268 1.6282 49 31 19 
-0.207587 -0.386268 1.6282 49 31 19 
-0.20977 -0.503132 1.65092 124 42 30 
-0.207914 -0.436911 1.63794 23 35 21 
-0.207883 -0.437076 1.63755 21 35 22 
-0.210981 -0.57031 1.66371 43 28 5 
-0.206435 -0.403213 1.63102 160 119 97 
-0.207348 -0.454484 1.6408 150 106 71 
-0.208036 -0.50453 1.64996 203 147 114 
-0.200326 -0.320904 1.58798 244 235 228 
-0.205747 -0.413307 1.63368 97 50 30 
-0.205747 -0.413307 1.63368 97 50 30 
-0.204519 -0.387685 1.62757 160 128 107 
-0.204775 -0.437207 1.63746 121 130 113 
-0.204775 -0.437207 1.63746 121 130 113 
-0.20797 -0.568643 1.6632 139 108 88 
-0.205825 -0.588428 1.66716 172 125 99 
-0.202788 -0.484392 1.64685 146 37 43 
-0.202788 -0.484392 1.64685 146 37 43 
-0.201379 -0.431834 1.63627 48 20 9 
-0.204577 -0.567108 1.66225 112 74 53 
-0.200715 -0.42774 1.63659 165 108 91 
-0.206699 -0.676522 1.68224 84 80 77 
-0.200514 -0.428452 1.63496 167 108 100 
-0.19897 -0.371498 1.62493 190 136 102 
-0.196797 -0.374693 1.62541 184 141 109 
-0.192235 -0.319799 1.58699 150 139 133 
-0.199321 -0.503444 1.64996 114 66 30 
-0.20013 -0.537755 1.65638 131 54 36 
-0.191984 -0.324585 1.58851 235 227 216 
-0.191984 -0.324585 1.58851 235 227 216 
-0.190987 -0.333548 1.59005 242 231 225 
-0.19467 -0.453492 1.64061 144 33 42 
-0.188052 -0.320699 1.5871 134 124 115 
-0.188318 -0.332957 1.58994 150 139 133 
-0.194942 -0.492519 1.64782 129 39 30 
-0.19506 -0.502441 1.64919 104 50 16 
-0.193307 -0.423832 1.63563 144 41 45 
-0.191589 -0.410121 1.63172 52 20 0 
-0.190525 -0.375696 1.62554 182 146 124 
-0.193463 -0.515474 1.65213 99 31 20 
-0.190135 -0.402833 1.63053 125 93 78 
-0.192861 -0.532155 1.65445 167 108 90 
-0.191653 -0.47589 1.64369 119 40 27 
-0.185128 -0.334748 1.58979 245 235 226 
-0.189397 -0.409329 1.6318 142 113 97 
-0.191276 -0.483637 1.6468 202 126 110 
-0.184242 -0.336935 1.59023 145 136 127 
-0.183718 -0.321061 1.58649 233 224 215 
-0.189423 -0.44308 1.63812 172 104 85 
-0.189423 -0.44308 1.63812 172 104 85 
-0.187587 -0.375992 1.62522 178 141 122 
-0.189981 -0.493202 1.64772 105 39 17 
-0.183024 -0.332061 1.58927 233 225 214 
-0.187521 -0.408412 1.63184 65 28 10 
-0.18916 -0.466399 1.64291 165 116 84 
-0.182993 -0.336651 1.59061 187 177 168 
-0.182993 -0.336651 1.59061 187 177 168 
-0.18252 -0.324735 1.5874 107 99 96 
-0.189558 -0.524705 1.65283 141 35 49 
-0.189065 -0.500708 1.64872 211 150 119 
-0.186883 -0.414196 1.63262 49 42 32 
-0.187588 -0.46037 1.64149 194 129 107 
-0.187591 -0.475217 1.64311 108 28 21 
-0.185927 -0.440378 1.6378 114 40 29 
-0.185001 -0.40998 1.63151 166 125 105 
-0.185697 -0.460596 1.64224 117 55 30 
-0.1841 -0.403179 1.63082 53 24 10 
-0.183267 -0.426825 1.63361 122 44 34 
-0.184391 -0.471493 1.64357 169 108 87 
-0.182893 -0.41619 1.63293 129 110 93 
-0.184999 -0.51853 1.65192 159 91 80 
-0.182361 -0.390127 1.62737 127 97 87 
-0.183693 -0.458761 1.64112 168 92 76 
-0.182697 -0.412658 1.63216 158 123 101 
-0.184355 -0.497259 1.64823 100 48 8 
-0.181935 -0.388131 1.62734 56 24 3 
-0.18542 -0.559315 1.65899 112 82 71 
-0.181214 -0.383168 1.62637 163 118 85 
-0.184105 -0.504652 1.64909 143 32 41 
-0.182984 -0.461046 1.64147 173 107 85 
-0.181686 -0.408068 1.63097 161 117 92 
-0.181686 -0.408068 1.63097 161 117 92 
-0.176702 -0.333449 1.58906 238 232 220 
-0.176702 -0.333449 1.58906 238 232 220 
-0.18147 -0.426068 1.63394 204 145 129 
-0.182567 -0.493407 1.64775 98 40 18 
-0.181767 -0.496044 1.64771 216 155 124 
-0.181767 -0.496044 1.64771 216 155 124 
-0.180586 -0.46821 1.64247 164 114 79 
-0.174379 -0.332204 1.58876 146 137 130 
-0.180137 -0.489374 1.64617 178 124 96 
-0.178361 -0.402206 1.63056 180 153 136 
-0.178361 -0.402206 1.63056 180 153 136 
-0.178365 -0.417539 1.63329 53 24 8 
-0.173558 -0.331344 1.58851 116 107 102 
-0.179407 -0.494912 1.64718 111 40 22 
-0.177613 -0.413385 1.63196 57 27 3 
-0.179273 -0.48677 1.64651 148 95 61 
-0.177809 -0.422926 1.6339 112 93 86 
-0.177162 -0.40966 1.63114 51 21 0 
-0.177635 -0.425302 1.63396 46 23 9 
-0.178878 -0.527239 1.65369 81 42 27 
-0.17499 -0.373514 1.62349 74 30 1 
-0.17489 -0.383257 1.62565 196 161 133 
-0.175372 -0.416311 1.63228 150 119 99 
-0.177356 -0.489224 1.64717 102 52 19 
-0.170736 -0.335429 1.58946 197 188 179 
-0.170589 -0.332996 1.58855 252 243 234 
-0.170589 -0.332996 1.58855 252 243 234 
-0.176312 -0.483545 1.64443 117 44 25 
-0.174253 -0.400739 1.62962 74 48 35 
-0.176594 -0.508974 1.65025 167 100 92 
-0.176263 -0.530579 1.65323 78 45 36 
-0.174649 -0.458981 1.63966 144 33 40 
-0.170405 -0.593342 1.60044 100 99 95 
-0.170405 -0.593342 1.60044 100 99 95 
-0.171629 -0.42666 1.63447 124 140 101 
-0.168872 -0.6066 1.60341 212 211 207 
-0.168872 -0.6066 1.60341 212 211 207 
-0.170784 -0.407654 1.63056 58 32 17 
-0.171425 -0.447565 1.63786 177 97 90 
-0.172653 -0.52372 1.65242 140 99 81 
-0.166117 -0.337508 1.58924 113 104 95 
-0.170127 -0.416475 1.63201 149 121 109 
-0.172118 -0.518508 1.65125 146 100 84 
-0.169321 -0.377658 1.62487 181 136 113 
-0.169134 -0.404242 1.62665 125 98 81 
-0.168379 -0.372781 1.62377 209 171 148 
-0.169202 -0.430646 1.63452 67 88 69 
-0.169202 -0.430646 1.63452 67 88 69 
-0.164417 -0.337433 1.58906 238 230 219 
-0.164417 -0.337433 1.58906 238 230 219 
-0.164034 -0.342441 1.59085 136 123 117 
-0.169623 -0.504425 1.64877 78 44 32 
-0.16748 -0.439161 1.63622 36 32 23 
-0.166031 -0.372326 1.62371 163 133 107 
-0.166296 -0.411063 1.63078 64 36 25 
-0.167854 -0.486594 1.64509 56 16 6 
-0.166423 -0.434756 1.63576 79 100 83 
-0.162175 -0.349913 1.59225 106 102 93 
-0.167842 -0.505309 1.64872 122 86 70 
-0.158057 -0.596288 1.55484 213 212 208 
-0.166303 -0.482199 1.64456 74 37 11 
-0.163892 -0.381621 1.62527 44 11 0 
-0.161388 -0.606104 1.60232 101 99 102 
-0.164143 -0.462627 1.64014 141 92 77 
-0.163619 -0.440216 1.63629 92 127 103 
-0.158965 -0.339362 1.58954 228 218 208 
-0.160862 -0.375668 1.62425 172 138 111 
-0.162328 -0.465915 1.64101 58 21 5 
-0.161367 -0.469253 1.6419 133 100 85 
-0.160867 -0.441533 1.63627 80 125 94 
-0.160309 -0.459033 1.63971 57 15 0 
-0.160061 -0.450282 1.63749 149 95 83 
-0.158217 -0.382432 1.62452 42 11 0 
-0.155057 -0.596387 1.60103 99 98 93 
-0.155057 -0.596387 1.60103 99 98 93 
-0.15851 -0.47853 1.64364 60 23 0 
-0.156914 -0.467606 1.64144 134 97 81 
-0.152556 -0.353951 1.59244 237 231 219 
-0.155555 -0.463618 1.64063 65 28 12 
-0.155554 -0.461766 1.63981 146 104 90 
-0.154631 -0.460383 1.63975 81 35 20 
-0.15116 -0.60404 1.60137 100 99 95 
-0.14816 -0.360494 1.59356 135 125 116 
-0.151344 -0.436593 1.63513 80 120 96 
-0.147115 -0.362932 1.59462 245 236 229 
-0.148818 -0.638627 1.60693 209 208 204 
-0.144497 -0.359438 1.59361 233 224 215 
-0.143906 -0.350056 1.59114 255 239 230 
-0.142265 -0.168934 1.57892 210 183 166 
-0.143539 -0.354697 1.59244 136 128 117 
-0.145336 -0.412254 1.62971 119 149 113 
-0.143167 -0.420726 1.63201 13 59 31 
-0.14307 -0.405715 1.62735 161 144 118 
-0.143118 -0.418639 1.63156 85 130 101 
-0.144709 -0.537325 1.65262 166 119 109 
-0.142188 -0.410565 1.62929 126 150 114 
-0.144387 -0.533471 1.65338 44 6 0 
-0.13763 -0.164486 1.5794 202 175 158 
-0.141576 -0.420177 1.63125 92 145 115 
-0.142668 -0.502361 1.64683 189 156 141 
-0.142911 -0.541825 1.6529 145 44 52 
-0.140569 -0.501354 1.64656 29 19 9 
-0.139023 -0.443014 1.63597 21 24 17 
-0.133987 -0.163272 1.57889 169 138 120 
-0.133444 -0.357753 1.59292 234 225 218 
-0.136688 -0.424105 1.63208 17 57 33 
-0.136688 -0.424105 1.63208 17 57 33 
-0.131187 -0.607897 1.60224 88 87 85 
-0.132491 -0.488323 1.64407 94 123 103 
-0.129822 -0.626807 1.60363 214 213 208 
-0.127109 -0.361882 1.59353 245 228 220 
-0.125675 -0.153761 1.57647 88 60 46 
-0.127802 -0.603967 1.59998 202 202 194 
-0.126962 -0.610676 1.60206 93 92 90 
-0.126962 -0.610676 1.60206 93 92 90 
-0.125842 -0.369027 1.59527 144 136 125 
-0.125842 -0.369027 1.59527 144 136 125 
-0.125899 -0.606278 1.60114 197 196 192 
-0.123508 -0.171483 1.58005 90 57 48 
-0.125686 -0.635196 1.60413 90 89 85 
-0.123936 -0.366381 1.59437 100 91 82 
-0.124943 -0.401941 1.62286 172 157 134 
-0.123462 -0.61434 1.60201 106 105 100 
-0.119873 -0.148365 1.57428 95 67 53 
-0.117211 -0.1659 1.57852 224 197 180 
-0.116958 -0.157076 1.57655 230 202 191 
-0.116958 -0.157076 1.57655 230 202 191 
-0.119686 -0.643159 1.60613 218 217 212 
-0.119686 -0.643159 1.60613 218 217 212 
-0.113733 -0.148752 1.57465 222 185 176 
-0.112495 -0.160748 1.57684 89 51 42 
-0.112446 -0.16647 1.57833 120 86 74 
-0.112446 -0.16647 1.57833 120 86 74 
-0.111649 -0.174029 1.57978 127 91 79 
-0.110753 -0.162854 1.57768 236 192 179 
-0.11454 -0.534155 1.6511 71 5 0 
-0.11454 -0.534155 1.6511 71 5 0 
-0.114548 -0.531676 1.65098 187 144 102 
-0.114548 -0.531676 1.65098 187 144 102 
-0.114597 -0.537546 1.65207 216 150 102 
-0.112059 -0.554417 1.65371 228 70 69 
-0.10503 -0.156289 1.57547 169 69 77 
-0.10394 -0.145114 1.5738 245 203 191 
-0.104738 -0.422813 1.58962 150 121 103 
-0.103117 -0.419285 1.5891 115 86 68 
-0.103117 -0.419285 1.5891 115 86 68 
-0.101688 -0.16987 1.57847 237 204 187 
-0.10062 -0.430797 1.59093 138 105 88 
-0.0974424 -0.153652 1.57477 160 89 87 
-0.0985402 -0.415209 1.58853 134 105 87 
-0.097423 -0.441732 1.59195 242 214 200 
-0.097423 -0.441732 1.59195 242 214 200 
-0.0972111 -0.426809 1.58955 136 105 85 
-0.0966828 -0.432801 1.5905 120 89 69 
-0.0963867 -0.415735 1.58799 255 228 210 
-0.0965413 -0.439703 1.59147 152 125 106 
-0.0997995 -0.561825 1.65484 11 9 0 
-0.0943453 -0.148468 1.57325 231 209 195 
-0.094009 -0.151918 1.57403 83 69 58 
-0.094009 -0.151918 1.57403 83 69 58 
-0.0934954 -0.145632 1.57248 235 196 181 
-0.0945692 -0.41498 1.58762 115 84 64 
-0.0956404 -0.353104 1.61613 89 73 84 
-0.0956404 -0.353104 1.61613 89 73 84 
-0.0944355 -0.426718 1.58923 223 192 172 
-0.0932495 -0.162932 1.57665 233 201 188 
-0.0976779 -0.562734 1.65456 135 133 120 
-0.0930739 -0.176977 1.57981 228 201 190 
-0.0922428 -0.14685 1.57273 70 42 30 
-0.0922428 -0.14685 1.57273 70 42 30 
-0.0924272 -0.156881 1.57514 86 52 42 
-0.0950114 -0.366864 1.61829 109 93 106 
-0.0931165 -0.434656 1.59025 118 90 68 
-0.092883 -0.437573 1.59112 113 85 63 
-0.0961019 -0.570694 1.65565 133 122 104 
-0.0961365 -0.568003 1.6555 11 9 0 
-0.0912713 -0.1571 1.57506 88 68 57 
-0.0912713 -0.1571 1.57506 88 68 57 
-0.0918234 -0.423851 1.58879 226 195 175 
-0.0954788 -0.566339 1.655 13 9 6 
-0.0954788 -0.566339 1.655 13 9 6 
-0.0909915 -0.172603 1.57846 133 53 52 
-0.0929388 -0.354064 1.61629 96 84 96 
-0.0907263 -0.158388 1.57517 73 49 37 
-0.0907263 -0.158388 1.57517 73 49 37 
-0.0905197 -0.144371 1.57223 246 205 187 
-0.0928631 -0.364462 1.61835 103 86 102 
-0.0911607 -0.433118 1.59003 139 108 88 
-0.0911607 -0.433118 1.59003 139 108 88 
-0.0946618 -0.561125 1.65489 13 0 0 
-0.0943553 -0.557885 1.65454 171 55 64 
-0.0903891 -0.410438 1.58694 157 126 105 
-0.0895782 -0.165305 1.57694 234 205 197 
-0.0883999 -0.129767 1.56875 195 61 68 
-0.0894085 -0.429961 1.58962 227 196 176 
-0.0882025 -0.176856 1.5791 235 202 195 
-0.0888873 -0.41969 1.58797 245 214 193 
-0.0888873 -0.41969 1.58797 245 214 193 
-0.0860542 -0.144664 1.57218 91 60 42 
-0.0862775 -0.159229 1.57478 71 48 34 
-0.0859215 -0.139146 1.57027 191 82 79 
-0.0862405 -0.426847 1.5885 128 97 79 
-0.0845223 -0.11534 1.565 235 207 196 
-0.0854173 -0.432371 1.5899 229 200 182 
-0.0854173 -0.432371 1.5899 229 200 182 
-0.0864872 -0.376231 1.62023 179 163 174 
-0.0838732 -0.162044 1.57566 145 71 68 
-0.0876146 -0.541415 1.65192 94 56 33 
-0.0832707 -0.159339 1.57488 233 205 193 
-0.0837699 -0.430587 1.58982 118 85 68 
-0.0833671 -0.417802 1.5868 246 215 195 
-0.0833671 -0.417802 1.5868 246 215 195 
-0.0841052 -0.366609 1.6183 101 90 107 
-0.0840099 -0.38171 1.62111 137 125 127 
-0.0860846 -0.552737 1.65346 84 4 0 
-0.0814471 -0.417358 1.58663 140 109 91 
-0.0852635 -0.574285 1.65744 66 0 0 
-0.0852635 -0.574285 1.65744 66 0 0 
-0.0804828 -0.156297 1.57365 78 51 40 
-0.0805084 -0.176015 1.57768 161 62 65 
-0.0800391 -0.159903 1.57498 101 67 57 
-0.0821753 -0.379002 1.62043 137 125 129 
-0.0796321 -0.151539 1.57302 69 51 39 
-0.0789286 -0.128591 1.56745 220 204 191 
-0.0798368 -0.42199 1.58742 115 83 62 
-0.0788157 -0.161715 1.57525 107 73 64 
-0.0788084 -0.171314 1.578 96 58 49 
-0.0825071 -0.587254 1.65865 124 116 103 
-0.0818897 -0.573597 1.65678 97 75 77 
-0.0768485 -0.165407 1.57592 237 210 199 
-0.0762963 -0.149634 1.57253 72 49 33 
-0.0762963 -0.149634 1.57253 72 49 33 
-0.0760688 -0.14071 1.57011 222 195 166 
-0.0760688 -0.14071 1.57011 222 195 166 
-0.0760829 -0.153828 1.57317 85 66 52 
-0.0763541 -0.428663 1.58878 217 188 170 
-0.0763541 -0.428663 1.58878 217 188 170 
-0.0750482 -0.167118 1.57635 80 61 47 
-0.0744537 -0.16938 1.57658 91 74 66 
-0.0752569 -0.41891 1.5867 124 92 77 
-0.0739671 -0.12479 1.56637 121 132 128 
-0.0738796 -0.151747 1.57263 100 83 73 
-0.0736518 -0.165193 1.57563 222 199 183 
-0.0736518 -0.165193 1.57563 222 199 183 
-0.0732554 -0.154973 1.57304 74 52 38 
-0.0768651 -0.543007 1.65075 157 75 79 
-0.0724444 -0.171557 1.57695 94 72 61 
-0.0718016 -0.135349 1.56879 119 137 125 
-0.0737352 -0.369681 1.61806 37 31 41 
-0.0752966 -0.575717 1.65656 24 39 44 
-0.0712725 -0.156996 1.57376 238 211 192 
-0.0712725 -0.156996 1.57376 238 211 192 
-0.0747767 -0.580417 1.65712 68 97 95 
-0.0740082 -0.541716 1.65012 50 32 18 
-0.0695645 -0.173184 1.57727 83 68 49 
-0.0701426 -0.413401 1.58425 129 97 84 
-0.0689755 -0.126879 1.56647 76 87 81 
-0.0728705 -0.554633 1.65258 23 38 45 
-0.0724906 -0.566512 1.65439 74 122 126 
-0.0681074 -0.147992 1.57166 89 65 53 
-0.0689908 -0.420183 1.58682 113 82 64 
-0.068337 -0.408733 1.585 228 196 181 
-0.0673645 -0.145593 1.57068 223 211 195 
-0.0710599 -0.592719 1.65903 17 33 32 
-0.0668872 -0.171094 1.57713 91 74 64 
-0.0665318 -0.163915 1.5744 87 59 48 
-0.0649827 -0.0909162 1.55766 86 55 34 
-0.0689965 -0.562171 1.65306 63 128 132 
-0.0689965 -0.562171 1.65306 63 128 132 
-0.0696582 -0.606104 1.66138 178 90 86 
-0.0696582 -0.606104 1.66138 178 90 86 
-0.0658172 -0.408674 1.58467 129 97 82 
-0.0652872 -0.419385 1.58677 129 99 88 
-0.0652872 -0.419385 1.58677 129 99 88 
-0.0644059 -0.146173 1.57139 79 64 57 
-0.0649352 -0.410029 1.58473 229 197 182 
-0.0638492 -0.171905 1.5768 90 68 55 
-0.0632817 -0.144128 1.57031 152 171 165 
-0.0638211 -0.413456 1.58488 224 193 175 
-0.0652759 -0.556859 1.6528 5 28 36 
-0.0652759 -0.556859 1.6528 5 28 36 
-0.0618768 -0.16618 1.57535 80 53 34 
-0.0618768 -0.16618 1.57535 80 53 34 
-0.0646551 -0.592471 1.65791 8 37 41 
-0.0614722 -0.406665 1.58409 111 79 66 
-0.0615879 -0.41164 1.58471 230 199 181 
-0.064232 -0.551554 1.65185 80 116 116 
-0.0596173 -0.410211 1.58454 124 95 77 
-0.0593691 -0.40468 1.58351 224 193 175 
-0.0584149 -0.149152 1.57098 92 67 60 
-0.0614138 -0.601929 1.65992 26 29 34 
-0.0576458 -0.151074 1.57142 232 204 190 
-0.0604031 -0.546504 1.65051 26 26 26 
-0.0604031 -0.546504 1.65051 26 26 26 
-0.0603424 -0.564395 1.65317 3 28 25 
-0.0573671 -0.408988 1.58405 239 210 192 
-0.0572075 -0.414917 1.5853 137 101 85 
-0.0545694 -0.14861 1.57071 212 190 177 
-0.0545694 -0.14861 1.57071 212 190 177 
-0.0536228 -0.155644 1.57243 90 64 51 
-0.0564545 -0.540354 1.64916 58 23 4 
-0.0567192 -0.567085 1.65456 29 35 25 
-0.0563592 -0.576064 1.65508 78 115 121 
-0.0563592 -0.576064 1.65508 78 115 121 
-0.0528053 -0.173648 1.57628 217 196 175 
-0.052535 -0.152021 1.57129 90 62 41 
-0.0516342 -0.139003 1.5674 131 147 144 
-0.0514945 -0.154942 1.57184 242 214 200 
-0.0494544 -0.166184 1.57481 95 83 71 
-0.0518547 -0.556767 1.65124 35 6 0 
-0.0518547 -0.556767 1.65124 35 6 0 
-0.0512882 -0.538116 1.64912 147 68 51 
-0.0479689 -0.149929 1.57021 82 56 39 
-0.0477444 -0.165726 1.57409 78 79 73 
-0.0479732 -0.410267 1.58424 138 105 88 
-0.0472085 -0.169342 1.57555 150 169 165 
-0.0500105 -0.575421 1.65434 36 36 38 
-0.0489176 -0.562533 1.65331 136 64 52 
-0.0484812 -0.556091 1.65085 211 143 122 
-0.0456184 -0.163874 1.57433 145 166 161 
-0.0446323 -0.157219 1.57161 86 79 69 
-0.0465195 -0.579773 1.65537 138 120 110 
-0.0434277 -0.14506 1.5688 109 83 68 
-0.0431747 -0.158765 1.57172 142 164 162 
-0.0426577 -0.143636 1.56851 226 196 185 
-0.0422216 -0.150936 1.57004 84 56 35 
-0.0449755 -0.597991 1.65925 33 31 32 
-0.0450296 -0.591863 1.65785 35 25 24 
-0.0447884 -0.587669 1.65705 31 15 15 
-0.0435766 -0.576829 1.65484 145 88 81 
-0.0376314 -0.148101 1.56914 228 210 200 
-0.0396717 -0.592744 1.65783 145 93 82 
-0.0363815 -0.146197 1.56808 116 114 101 
-0.0374908 -0.565687 1.65168 140 77 70 
-0.0375166 -0.573686 1.65305 153 76 68 
-0.0369116 -0.539077 1.64789 147 86 83 
-0.0336062 -0.579762 1.65495 147 82 76 
-0.0320188 -0.596975 1.65732 38 35 30 
-0.0299139 -0.593871 1.65541 27 8 0 
-0.0299096 -0.574937 1.65223 46 27 21 
-0.0287854 -0.60863 1.65978 152 30 77 
-0.0285845 -0.583654 1.65466 149 89 79 
-0.0230017 -0.547212 1.6454 145 119 104 
-0.0229233 -0.547256 1.64532 152 123 109 
-0.0222792 -0.544274 1.64587 27 0 0 
-0.0217199 -0.553094 1.64565 21 0 4 
-0.0197892 -0.382261 1.61653 68 21 5 
-0.0203301 -0.546602 1.64472 36 0 0 
-0.0183194 -0.369038 1.61264 126 81 78 
-0.0162879 -0.375736 1.61495 152 103 99 
-0.0156497 -0.393041 1.615 106 63 56 
0.0281957 -0.417151 1.57428 165 108 101 
0.0290158 -0.414085 1.57568 43 3 1 
0.0297519 -0.410678 1.57665 161 102 94 
0.0300201 -0.429857 1.57869 162 111 107 
0.0540816 -0.385249 1.60896 227 217 207 
0.0553354 -0.390729 1.60828 230 226 217 
0.0604298 -0.384471 1.60722 229 211 199 
0.0603793 -0.387928 1.60686 231 224 214 
0.0605629 -0.382368 1.607 119 103 90 
0.0623689 -0.38077 1.60647 229 219 209 
0.0624774 -0.380584 1.60689 240 231 222 
0.0994241 -0.183226 1.49817 1 1 3 
0.108353 -0.181285 1.49691 0 2 1 
0.126175 0.143154 1.49296 61 51 42 
0.136719 0.202284 1.48127 194 181 165 
0.160155 0.179798 1.48283 129 87 62 
0.160897 0.168299 1.48539 139 99 64 
0.161817 0.151474 1.48972 131 95 59 
0.162787 0.141735 1.4918 128 95 64 
0.162787 0.141735 1.4918 128 95 64 
0.16395 0.135295 1.4942 137 100 74 
0.164909 0.146852 1.49089 58 44 43 
0.164909 0.146852 1.49089 58 44 43 
0.165672 0.128358 1.49532 136 93 58 
0.166179 0.119102 1.49778 137 93 58 
0.167478 0.109445 1.50009 138 93 64 
0.173491 0.147681 1.48995 60 34 19 
0.173491 0.147681 1.48995 60 34 19 
0.173729 0.169127 1.48449 140 99 71 
0.17962 0.161065 1.48605 142 92 55 
0.181978 0.135371 1.49219 125 94 65 
0.182221 0.131299 1.49297 144 98 65 
0.183398 0.165688 1.48464 58 40 36 
0.183398 0.165688 1.48464 58 40 36 
0.184012 0.170947 1.48381 132 85 55 
0.189069 0.186499 1.47883 61 37 25 
0.189069 0.186499 1.47883 61 37 25 
0.192875 0.188057 1.47853 123 91 70 
0.193823 0.177601 1.4806 124 88 64 
0.19655 0.187905 1.47888 68 37 17 
0.197954 0.147976 1.48752 134 92 70 
0.197954 0.147976 1.48752 134 92 70 
0.198528 0.183022 1.47957 57 46 40 
0.198528 0.183022 1.47957 57 46 40 
0.201185 0.188138 1.47786 138 93 62 
0.203439 0.162516 1.4836 134 88 64 
0.203759 0.170164 1.48273 135 98 71 
0.207261 0.16639 1.48274 57 46 42 
0.207261 0.16639 1.48274 57 46 42 
0.213064 0.118587 1.49412 59 45 36 
0.213064 0.118587 1.49412 59 45 36 
0.212897 0.13883 1.48922 56 46 45 
0.212897 0.13883 1.48922 56 46 45 
0.21303 0.138921 1.48933 56 46 45 
0.21303 0.138921 1.48933 56 46 45 
0.225895 0.115481 1.4941 143 93 60 
