# .PCD v0.7 - Point Cloud Data file format
VERSION 0.7
FIELDS x y z rgb
SIZE 4 4 4 4
TYPE F F F U
COUNT 1 1 1 1
WIDTH 1309
HEIGHT 1
VIEWPOINT 0 0 0 1 0 0 0
POINTS 1309
DATA ascii
0.29727799 0.31345901 1.41346 4143921
0.29732001 0.313499 1.41357 4078129
0.29823101 0.311793 1.41408 5591367
0.29914299 0.31350201 1.41416 4011823
0.30236 0.311993 1.4153399 5721667
0.30552 0.313306 1.41505 4603187
0.30673099 0.31455699 1.41547 3222048
0.30764899 0.312695 1.4160399 5590081
0.30950201 0.31442699 1.4157799 3879720
0.314877 0.31289899 1.41584 6313288
0.31606099 0.31463 1.41637 4800565
0.316773 0.31267801 1.41763 6971218
0.31804299 0.31439999 1.41811 5918531
0.31903699 0.313429 1.41974 6576458
0.32285801 0.31426799 1.41983 5391928
0.32790601 0.31543499 1.4228801 6114879
0.32636201 0.31578499 1.42383 5522999
0.33195701 0.31386399 1.42463 8284763
0.331393 0.31569299 1.42466 4864298
0.33467799 0.314188 1.4254301 6705730
0.33657101 0.315303 1.42522 3812124
0.342536 0.314199 1.42746 6706243
0.34156099 0.31578201 1.4263901 3615260
0.34468099 0.31436199 1.42864 4798504
0.34361601 0.31586599 1.4272 3417625
0.34544599 0.31580201 1.42729 3615004
0.34589699 0.316293 1.42899 3812382
0.35062301 0.31553301 1.4291 4470569
0.346872 0.31574199 1.42983 4338726
0.348836 0.31729299 1.42893 4207397
0.35240501 0.31555501 1.4297301 4602411
0.353331 0.31723899 1.4295501 4273703
0.027573699 0.30065799 1.33137 4539455
0.0300014 0.303184 1.33369 2302493
0.0320765 0.302966 1.33497 2631458
0.0341134 0.30275199 1.33626 2894886
0.079865299 0.30331901 1.34285 2894885
0.080654502 0.30485699 1.34685 3618352
0.102266 0.30605 1.34872 4605758
0.102697 0.30549401 1.35254 4013363
0.10233 0.304447 1.35041 3026470
0.103301 0.306146 1.35422 4276535
0.105129 0.306281 1.3574899 4078902
0.110823 0.30543101 1.35952 3815988
0.106771 0.30673701 1.35905 4079158
0.110114 0.307886 1.3595901 2368542
0.112527 0.306283 1.3625 4408124
0.111812 0.306806 1.36128 4144696
0.111496 0.30873001 1.36215 2039577
0.115118 0.30858701 1.36201 1973527
0.118238 0.308498 1.36194 1907734
0.12386 0.30805799 1.3599 1907990
0.121298 0.30643499 1.36088 3684145
0.13316099 0.30649999 1.35957 2631712
0.135842 0.30710199 1.36624 2960422
0.13314199 0.30884099 1.3667099 2236955
0.138399 0.30874699 1.37045 2171162
0.14016201 0.309329 1.37067 1973527
0.165379 0.30823201 1.37532 2960677
0.167722 0.30825099 1.3760099 3223592
0.166502 0.31009999 1.37648 4276280
0.177323 0.30992699 1.37321 2762786
0.176633 0.309181 1.3756 3946803
0.18566699 0.309443 1.3746001 2894372
0.17856599 0.310635 1.37563 2170906
0.190479 0.30940601 1.3756599 3420972
0.19042701 0.30982101 1.3794 3684143
0.191734 0.31155401 1.37798 2236698
0.192169 0.31021401 1.38077 3420715
0.19403499 0.31042901 1.3815 2499869
0.19574399 0.31064001 1.38353 2433820
0.207746 0.31189099 1.38061 1973784
0.197568 0.31255701 1.38344 1973527
0.201884 0.31153899 1.38262 1973527
0.201611 0.31163001 1.38205 1973783
0.209084 0.31083199 1.38221 2302491
0.209953 0.31055501 1.3838201 3618350
0.21964601 0.312462 1.3869801 2894884
0.21995699 0.31046301 1.38843 2960422
0.23591501 0.31137601 1.39351 2763301
0.23394001 0.31145999 1.3934 2894887
0.233124 0.31312001 1.39284 2763557
0.249323 0.31369099 1.3970799 2697508
0.25329101 0.31350899 1.39755 2631715
0.259083 0.313173 1.4008501 5000003
0.256648 0.31276101 1.4000601 3750195
0.26126999 0.31373599 1.40407 4407608
0.26090401 0.31564701 1.4035 2565663
0.26329899 0.31339201 1.4028701 4407352
0.25874999 0.31537399 1.40241 3354922
0.26271799 0.31566 1.4040101 2302235
0.26474899 0.31623101 1.4051501 2039064
0.268567 0.313425 1.4026099 4078643
0.27290699 0.31442299 1.40391 3618350
0.273922 0.31514299 1.40562 2894370
0.27514601 0.315752 1.40747 2499612
0.27616099 0.31406 1.40839 4999744
0.27819401 0.314192 1.4076999 4604987
0.28383699 0.31586301 1.4074399 2828833
0.28578299 0.31582099 1.40764 3749677
0.28745899 0.31449199 1.40874 3223077
0.28967199 0.31516501 1.40984 1907475
0.29745299 0.314964 1.40721 1842197
0.2967 0.31549999 1.41439 1907219
0.29520199 0.315815 1.41532 1841682
0.30509499 0.31556499 1.41494 2301461
0.309852 0.31609699 1.41421 2630426
0.31281 0.31573299 1.41371 2893083
0.314825 0.31633401 1.41467 2959133
0.31725299 0.316578 1.4165699 2761755
0.31757501 0.31632599 1.4167 3090463
0.31981701 0.317628 1.4173599 2630169
0.31902799 0.31678101 1.41795 3024669
0.319738 0.31867099 1.4197 3288099
0.32754001 0.31861401 1.41993 6181957
0.33022001 0.31723401 1.42344 4009760
0.32832 0.317267 1.42342 4536359
0.32893699 0.31876901 1.42156 5129012
0.33211401 0.31716901 1.42355 3417880
0.33265701 0.31898299 1.42405 3353112
0.33560699 0.31694701 1.42445 3286551
0.335783 0.31880799 1.4251699 3287576
0.340754 0.317451 1.42548 3221528
0.344735 0.31756201 1.42707 3747102
0.34288201 0.31765899 1.42743 3484188
0.34751701 0.318919 1.43023 4470312
0.35229099 0.31882301 1.42871 4996913
0.0324325 0.30452499 1.3331701 2171164
0.033456098 0.30439001 1.3349 2171164
0.079757899 0.306283 1.3401099 2763301
0.078786097 0.308667 1.3452899 1907991
0.079511598 0.30746701 1.34738 2565921
0.103038 0.307394 1.35269 4342329
0.101947 0.30729899 1.35111 4473658
0.102932 0.30902299 1.3512599 2499871
0.107551 0.30969 1.35365 1776148
0.103774 0.30816099 1.35422 3158057
0.106199 0.30829999 1.35736 2499871
0.105182 0.30954 1.35552 1973526
0.108396 0.308597 1.35616 2039577
0.108741 0.31044999 1.3587 1973784
0.111061 0.31042501 1.36167 1907992
0.11247 0.310467 1.36257 1973785
0.112975 0.31046599 1.36256 1907991
0.115232 0.31044799 1.36289 1842198
0.114826 0.31219599 1.36342 2039577
0.16436701 0.31159499 1.37385 2171162
0.17866801 0.31118599 1.36897 3223594
0.18243 0.31244001 1.37271 1973784
0.180436 0.31176901 1.37149 1973783
0.18561 0.31133199 1.37313 2039320
0.18900201 0.31147999 1.37516 2039320
0.190317 0.31264001 1.3764499 1973783
0.193607 0.311757 1.37866 2302491
0.193525 0.31233299 1.37782 2302492
0.19512001 0.31236601 1.3803101 1973527
0.195861 0.31234401 1.38143 1973270
0.199304 0.313568 1.38302 1907991
0.207534 0.314933 1.382 2105368
0.209207 0.315359 1.3820601 2565919
0.208969 0.31311199 1.38214 2236955
0.209861 0.31270599 1.38287 2763298
0.210849 0.31452501 1.3834 4342073
0.21264701 0.31451401 1.38437 5000001
0.212329 0.315761 1.38434 5131330
0.220837 0.31431699 1.3869801 3026213
0.218962 0.31426999 1.38624 3355435
0.224694 0.31615201 1.38799 2828320
0.224094 0.31398299 1.3881201 2894628
0.222267 0.31621301 1.3868001 3223077
0.222844 0.31579101 1.38841 2894114
0.232812 0.314904 1.3915 2894885
0.232042 0.31713101 1.392 2960421
0.234047 0.316726 1.39258 3026215
0.23395599 0.31699601 1.393 3026214
0.23355 0.315317 1.39485 2763300
0.240003 0.31510699 1.3938299 2565922
0.24025799 0.316273 1.39731 2565922
0.246409 0.31801 1.39729 3487023
0.24219 0.316091 1.39793 2631458
0.248191 0.31824401 1.39899 3749938
0.25021899 0.31794 1.39855 3815731
0.249101 0.316268 1.39881 2631714
0.247006 0.31663299 1.3997 2631715
0.25228301 0.31768799 1.39817 3683889
0.253198 0.31594199 1.39849 2763301
0.25958201 0.31745601 1.40247 2368029
0.26425001 0.31765899 1.40344 1973784
0.272021 0.31898999 1.40418 1841941
0.27300501 0.31684101 1.40495 2039063
0.27382299 0.31894699 1.4050601 1841684
0.27479601 0.31731001 1.40601 1973270
0.27566099 0.31894499 1.40613 1907220
0.279392 0.319258 1.40517 2104855
0.280628 0.31739399 1.40605 2104855
0.28257999 0.31737301 1.40658 2170647
0.28156099 0.319231 1.4067 2236697
0.29925501 0.32049099 1.41443 2236696
0.29925501 0.32049099 1.41443 2105368
0.30063701 0.318349 1.41447 2170902
0.30281699 0.32056099 1.41681 2565148
0.31658199 0.31819901 1.41442 2564890
0.32019299 0.319769 1.4173501 2762269
0.321583 0.319345 1.42024 4406835
0.32456601 0.32069299 1.42013 5130041
0.32954201 0.32069299 1.4229 4208166
0.33197999 0.32074001 1.42371 3353114
0.33646199 0.32042101 1.42419 2827029
0.33850199 0.32042 1.4252599 2893077
0.33447501 0.322496 1.42444 2695188
0.340404 0.320438 1.42642 3024150
0.344026 0.32024401 1.42644 3352858
0.34542701 0.321008 1.42782 3747102
0.34752399 0.320997 1.42888 4207140
0.34964299 0.32098001 1.42994 5128497
0.084186599 0.310799 1.3384 2039835
0.0804317 0.30979499 1.34227 1908249
0.087694801 0.31127101 1.34536 1907992
0.088727601 0.30975801 1.34751 1973784
0.089914002 0.311979 1.34839 2039577
0.104331 0.31120801 1.35088 1775892
0.104826 0.31273001 1.34847 1841685
0.102826 0.31040299 1.34931 2039319
0.105941 0.313335 1.3541501 1644562
0.104784 0.31184599 1.35552 1710356
0.110787 0.31219199 1.35904 2039578
0.109641 0.31211799 1.35773 1973785
0.107317 0.31415799 1.3576601 1644820
0.10878 0.31392801 1.35762 1710612
0.112368 0.312139 1.3616199 2039577
0.111068 0.31366199 1.3608 1776406
0.112587 0.31423199 1.36323 1776149
0.111752 0.314134 1.36227 1710356
0.133296 0.31412101 1.35642 2631199
0.133834 0.311712 1.35631 2236699
0.134629 0.312886 1.3581899 2763042
0.13579801 0.31399301 1.35991 2104855
0.18341801 0.31586599 1.36958 1907990
0.184857 0.314459 1.37182 2039321
0.185754 0.31599799 1.37271 1973527
0.188383 0.31672499 1.37379 1907990
0.186619 0.31721601 1.3762 1973526
0.192717 0.317045 1.38159 1973784
0.194508 0.31799799 1.38267 1907734
0.196086 0.318028 1.3838 1907734
0.196032 0.316136 1.38284 1973784
0.20041201 0.31573701 1.38158 1973784
0.20836499 0.31681299 1.3829401 2697248
0.209233 0.31862199 1.38344 4209972
0.211541 0.318418 1.38358 5130559
0.21062 0.31668001 1.3834 4604987
0.221562 0.31828901 1.38185 5525315
0.221471 0.31851801 1.3833899 5393729
0.225309 0.31814399 1.38729 4538935
0.223473 0.318115 1.38668 4867900
0.226431 0.316852 1.38904 2828321
0.22719599 0.31902 1.38963 5130815
0.23002601 0.31754699 1.39147 3026212
0.228204 0.31730899 1.39029 3354920
0.22926401 0.31939101 1.3908 4933692
0.233867 0.31899399 1.39213 4078385
0.231893 0.319213 1.39151 4473143
0.24465699 0.32051 1.39472 4144178
0.249449 0.31969899 1.39773 4604990
0.25341699 0.31919101 1.39732 5196870
0.257952 0.32083601 1.40007 3552043
0.26374799 0.320048 1.4014 1907734
0.25964099 0.32101801 1.40071 2499612
0.269068 0.320014 1.40212 2105369
0.26713499 0.32002199 1.40104 2170906
0.26509401 0.31964099 1.40407 1907991
0.26525101 0.321289 1.4012901 2696992
0.271189 0.320829 1.40459 2302491
0.27309299 0.320831 1.40456 1973526
0.27833799 0.321179 1.40529 2565149
0.28285 0.32169399 1.40632 3091748
0.29591399 0.32287601 1.41109 2696991
0.29630601 0.32058799 1.41108 2171162
0.29694599 0.32259801 1.4119 2236697
0.29750401 0.321753 1.411 2105112
0.299808 0.32209301 1.41362 2170647
0.301999 0.322402 1.4160399 2367769
0.30389401 0.322422 1.4171799 2564634
0.30295399 0.32402501 1.4154 3354406
0.305435 0.32209101 1.41672 2564890
0.30590901 0.32436499 1.41722 3222563
0.31127 0.323856 1.41695 2762269
0.320081 0.32196701 1.41733 2828061
0.32076201 0.32306799 1.4191 3156512
0.32883999 0.32232201 1.4216501 3879458
0.33105201 0.322537 1.4227 3353115
0.332991 0.322644 1.42382 2892823
0.087400101 0.31232399 1.33479 2500129
0.085249297 0.313438 1.3382601 2763301
0.085939497 0.314293 1.34061 3092266
0.084870704 0.31185299 1.34052 1974042
0.085898802 0.31521299 1.34346 3289387
0.085010298 0.31292701 1.3433 1974041
0.087118998 0.31357801 1.34484 2236956
0.089459904 0.312958 1.34657 2434335
0.088290296 0.314394 1.34697 3092007
0.091971897 0.31355199 1.34653 3223593
0.093495801 0.31472999 1.34649 3552558
0.105393 0.31424001 1.34603 3683887
0.107783 0.31480199 1.34796 2631458
0.109362 0.31406099 1.3523099 1644563
0.110459 0.314991 1.35454 2105114
0.10958 0.315516 1.3545099 2697251
0.110461 0.31615701 1.35557 3684146
0.134289 0.317752 1.3579201 5000003
0.13445 0.315393 1.35809 3157542
0.135361 0.31678399 1.35987 3420714
0.13575301 0.318214 1.36193 4539452
0.136602 0.31751701 1.36482 3487021
0.13982099 0.31687 1.36446 2894884
0.137512 0.316039 1.36621 1973527
0.142966 0.31597 1.36445 2105113
0.181765 0.31713799 1.3664401 3026212
0.185188 0.317406 1.36717 2368282
0.185491 0.31795701 1.3694299 2302746
0.18817 0.318082 1.37182 2039575
0.18929601 0.318968 1.37374 2434076
0.18902101 0.31808901 1.37797 1907990
0.190321 0.319727 1.3758399 2236440
0.191737 0.32069701 1.37988 3092006
0.19034401 0.31896999 1.38085 1842197
0.192093 0.319383 1.3821599 1907990
0.19353899 0.32087401 1.38109 3355435
0.19562399 0.320779 1.3806601 3618607
0.20110901 0.31960601 1.38132 2828834
0.202768 0.321358 1.3814 4736828
0.208272 0.32016 1.38208 4933693
0.204713 0.32131401 1.38146 4999743
0.20654599 0.32133201 1.38227 5131072
0.20295399 0.31970701 1.38327 3289128
0.20992699 0.32083499 1.38352 5328194
0.211133 0.318984 1.38344 5196352
0.22242001 0.319855 1.3813601 5525059
0.22297999 0.31913099 1.38502 5393987
0.224457 0.31971499 1.38671 5262400
0.22596399 0.32027999 1.38837 5393730
0.22784799 0.32081401 1.3900501 5591107
0.238609 0.322541 1.39008 5065279
0.2358 0.32081899 1.39215 5657158
0.233789 0.32111499 1.39184 5591364
0.231774 0.32142001 1.39122 5525571
0.240677 0.322065 1.3906699 5591366
0.238364 0.32071599 1.39205 5591622
0.241846 0.32145801 1.39259 5196609
0.25136501 0.32273099 1.39476 3749936
0.252985 0.323504 1.39722 4276023
0.258288 0.323728 1.39922 4078901
0.26181501 0.32378799 1.40054 4933954
0.26794401 0.32205799 1.40229 3618095
0.26315299 0.322465 1.4018101 4144181
0.27007401 0.322357 1.4036 4276281
0.271622 0.32252899 1.40319 4736831
0.27376801 0.322846 1.40449 4605244
0.27472499 0.32455099 1.40326 2696992
0.27583599 0.322822 1.40355 4407608
0.27773699 0.323001 1.4042799 4670525
0.279713 0.322862 1.40442 4670524
0.28160799 0.323044 1.40518 4209972
0.28262699 0.32514101 1.4048001 4078387
0.284017 0.32377401 1.4058501 4933951
0.28547901 0.325124 1.40705 5196866
0.28926599 0.325454 1.4086601 5393989
0.29505599 0.324808 1.41079 5065281
0.296716 0.32456201 1.41072 4670268
0.30088499 0.32394201 1.41391 3420457
0.30638599 0.32604301 1.4141099 5261889
0.31094101 0.32565901 1.41448 4998460
0.321473 0.32707301 1.41878 5063479
0.32101399 0.324909 1.41875 3682085
0.322864 0.325569 1.4194 5063480
0.32535899 0.327714 1.42164 3287323
0.32502899 0.32556 1.42224 4866355
0.32681301 0.32777101 1.42202 3353373
0.083458602 0.316311 1.33148 2302751
0.084125601 0.31565499 1.3339601 3223852
0.085852496 0.314812 1.3358901 4605504
0.0860627 0.31665301 1.34123 4473661
0.085206002 0.31688601 1.3396699 4013368
0.0868304 0.317489 1.34354 4736576
0.086965501 0.31601101 1.34559 4078645
0.086631 0.316037 1.34585 4013109
0.088207699 0.316926 1.3478 4473403
0.099688701 0.317875 1.3444999 3684401
0.099745803 0.31770599 1.34488 3881524
0.106107 0.31813201 1.3446 3355437
0.101217 0.31871301 1.34583 2960422
0.106973 0.316441 1.34623 4605503
0.108289 0.31858799 1.34624 3092009
0.110209 0.318315 1.34875 4276282
0.109535 0.31703299 1.35156 4473661
0.1134 0.31881201 1.35068 4670782
0.113399 0.31775299 1.35416 4867905
0.116326 0.319334 1.3527499 2828835
0.132365 0.31979001 1.3539701 3552557
0.13255399 0.31741399 1.35408 4868159
0.133477 0.31874999 1.35587 4802366
0.13387001 0.32014701 1.3579 3881522
0.135368 0.31911501 1.35961 4078902
0.13601001 0.32040101 1.36154 2565664
0.136889 0.32154101 1.3634 1973528
0.13766301 0.320319 1.3653899 3223593
0.142059 0.321722 1.36272 1842198
0.14602201 0.32129899 1.36285 1842455
0.184616 0.31905901 1.36559 4276022
0.187251 0.321619 1.3681099 4473401
0.188077 0.319796 1.36955 4144692
0.188025 0.322442 1.37024 4276022
0.18949001 0.320099 1.3720599 3881264
0.191687 0.321944 1.3758301 3947314
0.19128101 0.32228699 1.378 3684142
0.20053799 0.321879 1.38239 4473657
0.20950501 0.32297599 1.38377 5327936
0.207376 0.323219 1.38323 5196351
0.21362101 0.324819 1.38474 4340011
0.216727 0.32250899 1.38427 5261886
0.22214399 0.32416901 1.38192 4274475
0.22416499 0.324525 1.3830301 4406061
0.223013 0.322263 1.38214 5393215
0.2256 0.323531 1.38457 5393215
0.23085301 0.32497001 1.38922 4143663
0.24223199 0.32344601 1.38822 3946799
0.240154 0.323659 1.38879 3552042
0.23673899 0.32404 1.39077 3486249
0.23117501 0.32342699 1.39131 4867386
0.24223199 0.32344601 1.38822 3946799
0.24223199 0.32344601 1.38822 3946799
0.24358501 0.32481 1.39183 3420199
0.24786 0.32642299 1.39469 2434075
0.247756 0.324119 1.3943 4407609
0.244611 0.32679701 1.39528 2433562
0.25558501 0.32647601 1.39596 2170648
0.253535 0.32688099 1.39622 2236697
0.257974 0.325396 1.39819 2236698
0.25682199 0.32713401 1.39759 2170649
0.27044299 0.326033 1.39955 3288872
0.27191201 0.32610899 1.4011101 2433564
0.276243 0.32725099 1.40315 2696992
0.28153601 0.32667801 1.40367 3552044
0.282792 0.32729301 1.40513 3420715
0.28598499 0.32735601 1.40767 3025699
0.28779599 0.32728899 1.40839 3157284
0.29017901 0.327209 1.40883 3354407
0.29188901 0.32705101 1.40925 3157028
0.29375201 0.327039 1.41023 3354407
0.29474601 0.328841 1.4104 2104598
0.29554799 0.326958 1.41091 2696478
0.29594499 0.32900801 1.4105901 2170391
0.30631801 0.32796299 1.41134 2235927
0.306734 0.32820699 1.41317 2433048
0.30820301 0.328567 1.41422 2498840
0.32257199 0.32897601 1.41861 4076842
0.32449001 0.32912901 1.41947 4800820
0.32631499 0.32955399 1.4206001 4735026
0.327142 0.32860199 1.4225301 3945253
0.080752604 0.31871501 1.33175 1776664
0.083287701 0.31996 1.33804 1842457
0.0801313 0.32078001 1.33719 1776921
0.086461201 0.318342 1.3412 3815731
0.085050397 0.31925201 1.33953 2434080
0.087968901 0.32155901 1.34185 4078902
0.0877828 0.319801 1.3427401 4276282
0.097502798 0.320977 1.34267 2565663
0.103753 0.32089099 1.34164 1973784
0.099035501 0.31940201 1.34339 2236955
0.099713102 0.31975499 1.34491 2039577
0.105402 0.321785 1.3459001 1645333
0.10368 0.321477 1.34487 1776406
0.109267 0.31995499 1.34629 1973785
0.110271 0.321419 1.34594 1842456
0.112934 0.31990701 1.34743 3684145
0.11188 0.32179901 1.34776 2697764
0.112095 0.32153499 1.34793 2960936
0.115831 0.32191601 1.34674 3223851
0.116348 0.320384 1.34926 3355436
0.119685 0.32195801 1.34764 3289387
0.117807 0.32111099 1.35207 2499870
0.123089 0.32235399 1.35054 2960679
0.119504 0.32236299 1.3504 3157801
0.123849 0.320586 1.35189 2105369
0.124927 0.32249701 1.35202 2763300
0.12625401 0.32074499 1.35314 2500127
0.12663101 0.32277101 1.35338 2829093
0.128067 0.32146701 1.35429 2960678
0.13011999 0.32209399 1.35528 2368541
0.134473 0.322438 1.35741 2302748
0.135141 0.32148099 1.3595099 1973784
0.13621099 0.32273701 1.3615 1776406
0.138376 0.32478899 1.36174 1710869
0.138026 0.322537 1.36489 1841942
0.140453 0.32245299 1.36538 1842198
0.17948499 0.32414401 1.36778 2631455
0.18614 0.32313401 1.36676 3092005
0.187943 0.32381099 1.36818 2894626
0.195342 0.326242 1.37367 3223592
0.19595601 0.32611701 1.37598 3947572
0.197091 0.32686999 1.38025 4407608
0.19888499 0.32760701 1.38034 3683629
0.207991 0.32532299 1.38167 4669749
0.208867 0.327501 1.3816 4143403
0.21605401 0.32641199 1.3832 4142373
0.213875 0.32685801 1.38394 4010787
0.22380599 0.32697299 1.38372 4010788
0.225495 0.32562199 1.38366 4208682
0.225271 0.32824901 1.38507 4208424
0.22687501 0.32678199 1.38489 4669234
0.228762 0.32736501 1.38456 4932406
0.22825 0.32542899 1.3860101 5327422
0.23054799 0.326767 1.38789 5064508
0.23242401 0.32663199 1.38878 3551784
0.233798 0.328731 1.38939 4210227
0.238902 0.32661301 1.39197 2236183
0.236094 0.327187 1.39289 2302232
0.241759 0.32703099 1.39432 2368025
0.24625599 0.327829 1.3944 2565661
0.25533 0.32827899 1.39448 3881008
0.25155199 0.327189 1.39597 2894370
0.24964599 0.327135 1.3953 2434075
0.24805801 0.328886 1.39597 4012850
0.25808799 0.32923901 1.39739 3420458
0.26523501 0.330055 1.39812 4604730
0.26720199 0.32922399 1.39928 4143923
0.26724699 0.32921901 1.39926 4143923
0.275291 0.32817799 1.39964 2170390
0.27705199 0.32890201 1.40092 2039062
0.27822 0.33051899 1.40266 2170903
0.27876601 0.328302 1.40297 2697249
0.285319 0.33141801 1.4064699 2499354
0.29017499 0.33041501 1.40488 2104597
0.29192999 0.331256 1.40578 2433818
0.30001399 0.331 1.40896 2301976
0.30444899 0.33149099 1.4110399 2235926
0.30724299 0.331536 1.4118299 2301718
0.30927199 0.330172 1.4136699 2498584
0.31816801 0.330603 1.4146 2958107
0.32304999 0.33267501 1.4175299 4405551
0.321105 0.33282399 1.4172 3418913
0.32185999 0.33083799 1.41784 3550499
0.32658601 0.33285201 1.41733 3813670
0.32867101 0.33284101 1.41732 3089948
0.32533699 0.33127299 1.41982 4406062
0.327299 0.33121201 1.42002 3682339
0.35857999 0.333794 1.42899 4404518
0.079474598 0.32078201 1.33469 1711128
0.079998799 0.322871 1.33648 1711127
0.082726397 0.322236 1.33796 1645334
0.081910498 0.32215101 1.33909 1776920
0.084083803 0.321578 1.33964 1908249
0.082141697 0.323984 1.33998 1776663
0.086923197 0.323376 1.3417701 4407866
0.0985507 0.32279301 1.34258 3552558
0.100869 0.323055 1.34334 2368286
0.106047 0.32310799 1.34394 1842200
0.106449 0.32359201 1.34579 1710870
0.111159 0.3251 1.34571 1842456
0.112169 0.3233 1.34867 2105627
0.111121 0.32329899 1.34688 1776663
0.112309 0.32402301 1.3487099 1908249
0.113234 0.32573101 1.34903 1776662
0.117702 0.323926 1.3489 2236957
0.128151 0.324119 1.35524 1842199
0.127515 0.325726 1.35439 1579284
0.13030501 0.32411301 1.3559099 2368799
0.132211 0.324103 1.3565 3355693
0.12929399 0.325744 1.35524 1842199
0.13233 0.32580101 1.35618 3618608
0.133332 0.32416201 1.3569 2894628
0.133963 0.325827 1.35704 2960679
0.13738801 0.32640499 1.35997 2105627
0.139553 0.327021 1.36219 2500384
0.177966 0.325564 1.3664 2434334
0.186821 0.325073 1.36507 2236954
0.187502 0.32724401 1.3668801 2303005
0.188741 0.32598701 1.3681901 2302747
0.189114 0.32809699 1.36821 1842454
0.190974 0.32668599 1.3689899 2368540
0.19262201 0.328877 1.37007 2039575
0.19682001 0.328881 1.36994 2105369
0.195014 0.32953301 1.37298 2105112
0.196182 0.32859299 1.3754801 2434076
0.19388001 0.32794499 1.37547 2434333
0.202783 0.32886001 1.37833 2631197
0.204446 0.32889199 1.37924 2960162
0.206213 0.327461 1.37886 4144178
0.206204 0.32970101 1.3793 3420968
0.20560101 0.32959801 1.3790801 2960418
0.206615 0.32783601 1.37953 4209970
0.21012101 0.32926601 1.3809201 4274989
0.217684 0.33070201 1.3812701 4011045
0.22369701 0.32918599 1.38345 4010787
0.221019 0.330221 1.3841701 3944994
0.225458 0.33014899 1.3833801 4076838
0.230561 0.328803 1.38622 5196092
0.23134901 0.33126101 1.38627 4340783
0.23732699 0.33250201 1.39545 2630940
0.238333 0.330558 1.39425 4604986
0.237819 0.33222201 1.3931 2433561
0.24681 0.33035401 1.39534 4802109
0.245317 0.331238 1.39568 3749420
0.240687 0.33214301 1.39621 2894368
0.247062 0.332432 1.39553 2236182
0.248822 0.33223599 1.3954099 2301719
0.25043899 0.33191001 1.39465 2301719
0.249532 0.330421 1.3954999 4341301
0.25239399 0.33177999 1.39472 2301720
0.25816199 0.330818 1.39597 3420202
0.25924999 0.332955 1.3950599 3420201
0.259635 0.33114201 1.39652 4670268
0.26324499 0.33091301 1.39698 5196611
0.26672 0.33160099 1.3992701 5130818
0.27517101 0.33317399 1.3976901 2631197
0.27662599 0.330892 1.3996 3815472
0.27292401 0.33076099 1.39973 4736573
0.28325599 0.331698 1.40504 3157540
0.28094199 0.33247501 1.40584 3815471
0.28414199 0.333303 1.40508 4604729
0.27866101 0.33310801 1.4061 4342072
0.28647801 0.33307999 1.40499 4604729
0.28846499 0.33342901 1.40389 4867901
0.29270199 0.333884 1.40567 4933437
0.30182299 0.33443701 1.40785 3288353
0.30346099 0.333188 1.40934 2301716
0.306012 0.33334899 1.4109499 2432789
0.309118 0.335136 1.4129 3748647
0.312958 0.33326599 1.41295 2629912
0.320243 0.33453801 1.41583 3089947
0.32224399 0.334548 1.41697 3747621
0.32602099 0.334497 1.41682 3879206
0.32758501 0.334795 1.41721 3024155
0.35661301 0.338018 1.4285001 6575686
0.36136401 0.33768201 1.42794 4996139
0.357535 0.335971 1.42896 4207397
0.358628 0.33787599 1.42839 5456691
0.35977 0.33594599 1.42931 4141602
0.080077097 0.32565501 1.33821 2434593
0.080441602 0.327465 1.33907 3289643
0.078715697 0.327445 1.33821 2894887
0.077997498 0.32564399 1.33746 2500385
0.081400499 0.32571 1.33943 2697507
0.082861602 0.325753 1.34057 3289643
0.082923003 0.325739 1.34053 3289643
0.082017601 0.32749701 1.3401099 3815986
0.083893701 0.32747099 1.34097 4078901
0.087447397 0.32697999 1.34153 3552813
0.087722801 0.32522699 1.3420399 4078900
0.089545801 0.32724601 1.34247 3158312
0.089340799 0.32510999 1.34278 4078900
0.097573802 0.328062 1.34298 3881779
0.104451 0.32784599 1.34391 1974041
0.102608 0.325966 1.34451 2039835
0.100459 0.32597801 1.34434 2105371
0.099644698 0.327501 1.34426 2236955
0.111527 0.325528 1.34374 1974042
0.111335 0.326805 1.34448 1973786
0.10678 0.32845899 1.3458101 2039578
0.128546 0.32738 1.35446 1776663
0.129287 0.32963899 1.35303 1579028
0.13078 0.327315 1.35492 2302750
0.13145299 0.32974899 1.35482 2302749
0.133008 0.327968 1.35566 3882037
0.133754 0.32972699 1.35604 4079160
0.135822 0.32978201 1.35692 2303006
0.137114 0.328785 1.36006 2697764
0.179077 0.330587 1.36603 1710869
0.189062 0.32926199 1.36621 1974040
0.18503 0.33100799 1.36563 2039834
0.183257 0.32991999 1.3661799 2039833
0.196436 0.33165401 1.37609 1908246
0.197577 0.33041301 1.37716 1974038
0.201736 0.33064801 1.37798 1973782
0.203721 0.33060399 1.37863 2302490
0.202674 0.33239201 1.37828 2105112
0.205238 0.331806 1.37898 2829089
0.20617899 0.33355999 1.37929 4276535
0.208032 0.33355099 1.38025 4737083
0.20761301 0.331047 1.38007 4407862
0.21315899 0.330933 1.38116 3945766
0.2111 0.330966 1.3810199 4078123
0.21209601 0.33272299 1.38132 4341552
0.21016701 0.332663 1.38072 4473652
0.215185 0.330937 1.38148 3879973
0.214131 0.33271801 1.38159 4275502
0.21617 0.33270401 1.38183 4143658
0.22187901 0.33164299 1.38309 3945765
0.224461 0.33432099 1.38482 4341037
0.225577 0.332618 1.3850501 4208681
0.230427 0.33283299 1.3854001 4669748
0.226493 0.33429101 1.38498 4406574
0.23186401 0.33360499 1.38706 3485733
0.232793 0.33202001 1.38787 2827804
0.234265 0.332706 1.3894399 2367768
0.233573 0.33445501 1.3878599 2236182
0.235349 0.33397999 1.3936 2170647
0.24068099 0.333608 1.3939199 2039061
0.245515 0.33324701 1.39557 2104597
0.24301299 0.33331999 1.39528 2104597
0.249678 0.33366099 1.39429 2104341
0.253286 0.333417 1.39259 2169878
0.257734 0.33445999 1.39482 2301722
0.26089901 0.33393201 1.39658 4999489
0.26217601 0.33336899 1.3973401 4867645
0.26412401 0.335951 1.39777 2565147
0.26623899 0.333978 1.39926 2499354
0.26587999 0.33603799 1.39842 2301975
0.26754299 0.336292 1.39981 2368282
0.27599201 0.33522499 1.3992701 2170647
0.27770001 0.33408499 1.40097 2762783
0.28075299 0.33694801 1.40286 2565148
0.282823 0.33484399 1.40443 3025698
0.279396 0.335017 1.40738 3486506
0.284695 0.335379 1.40478 2630941
0.28247699 0.33699101 1.40478 2433562
0.29183999 0.33592299 1.40487 2564890
0.29925001 0.33577499 1.40706 4669748
0.300154 0.33715299 1.40873 4077612
0.30386999 0.33568099 1.4091001 4143662
0.30775899 0.336097 1.4104199 4406834
0.30953401 0.33694699 1.41115 4735542
0.31101501 0.335686 1.41229 3814440
0.31380999 0.33828399 1.41243 4735543
0.315963 0.33850601 1.41351 4669492
0.314823 0.33646601 1.41352 3024411
0.31757 0.336624 1.4142801 2892569
0.320939 0.33853501 1.41504 4405806
0.32168701 0.336532 1.41596 3879719
0.323239 0.33659101 1.4173501 4735028
0.326711 0.336458 1.41676 4011048
0.348414 0.33993301 1.4261 5917243
0.351161 0.33937299 1.42598 5917243
0.35022199 0.33981499 1.42652 5983036
0.35314 0.33922899 1.42602 6048315
0.356857 0.340101 1.42778 7627088
0.354651 0.340092 1.42685 6377022
0.36016399 0.33977401 1.4277101 8679775
0.36337399 0.34035099 1.42867 9008482
0.36565 0.33992699 1.42793 8876897
0.079578899 0.32919499 1.33874 2565665
0.085472003 0.33041099 1.33977 2500127
0.080801196 0.33083799 1.33878 3355180
0.0871296 0.33043101 1.3407 2105368
0.088052601 0.32886299 1.34172 2434589
0.086319901 0.32885 1.34083 2960677
0.0964595 0.33014101 1.3402801 3552557
0.099564403 0.32952401 1.34294 3157800
0.103983 0.331056 1.34396 3420972
0.106098 0.330066 1.34536 2039577
0.106751 0.33097601 1.34664 2171419
0.108781 0.32931101 1.34718 1974042
0.107756 0.331806 1.34997 2105627
0.106936 0.33311999 1.35525 2500385
0.107815 0.33296099 1.35657 2171420
0.110696 0.33353701 1.35809 2829094
0.112672 0.33156201 1.35851 1711126
0.112888 0.33369601 1.36061 2500641
0.113098 0.33355901 1.3602099 2500384
0.132636 0.331907 1.35511 3749938
0.134913 0.331727 1.35623 2763556
0.137164 0.33159801 1.3565 1908248
0.141017 0.33160701 1.3621 2171420
0.142801 0.33269101 1.35911 1974042
0.141335 0.33393499 1.36216 1974041
0.181199 0.33164299 1.36531 1776661
0.183257 0.33270699 1.36461 2105627
0.186922 0.33208701 1.36501 1974041
0.18918601 0.33412099 1.36492 1974040
0.199765 0.33414599 1.3775899 1973783
0.198744 0.33590201 1.37756 2039576
0.20174199 0.33413601 1.37791 2039576
0.20073 0.33589101 1.37788 2302748
0.20524099 0.33539 1.37883 4605244
0.21897499 0.33467299 1.3826801 4276014
0.22102 0.33560801 1.38406 4341039
0.229169 0.33631799 1.38458 4670260
0.232195 0.33568701 1.38653 2893853
0.230948 0.336961 1.38537 4209455
0.233585 0.33663401 1.38754 2367768
0.235532 0.33812299 1.38853 2499354
0.248098 0.33772001 1.39404 1973268
0.25529 0.33800101 1.39132 2038806
0.26258701 0.33724099 1.39691 2565147
0.26429999 0.33815801 1.39764 2301975
0.28487399 0.33749101 1.4042701 2630941
0.291058 0.33803499 1.40434 2433818
0.29165599 0.34033099 1.40426 2104853
0.30277401 0.33996499 1.40774 1973010
0.30461901 0.338222 1.40907 3617576
0.30943599 0.34017 1.40655 1973010
0.30950901 0.33863899 1.40892 2828061
0.31009799 0.33894199 1.41195 3288611
0.31719801 0.340617 1.41328 4801079
0.32026699 0.34051999 1.41405 4208428
0.32228601 0.34052601 1.41519 4274220
0.33240601 0.341921 1.41974 5720378
0.33629501 0.342623 1.41931 4010019
0.33818099 0.34256101 1.42073 4404520
0.33818901 0.34257999 1.42053 4404776
0.33860999 0.34065801 1.4217499 5391671
0.34018299 0.34270999 1.4199899 4141348
0.34507099 0.34169 1.42451 6180672
0.342893 0.34187001 1.42479 5391414
0.347601 0.34181601 1.42566 5522743
0.34935299 0.341645 1.42583 6969675
0.35146999 0.34352201 1.42501 8219484
0.35233301 0.34089601 1.42501 7561297
0.35592499 0.342172 1.42695 7231816
0.361471 0.34388199 1.42816 4732197
0.360111 0.34189799 1.4288501 7363402
0.362427 0.342044 1.42823 6442043
0.36345401 0.34383801 1.42847 4732197
0.36551201 0.34351999 1.42711 4666404
0.364512 0.341831 1.42742 6771265
0.367917 0.34158099 1.42629 6376251
0.078936704 0.33085799 1.33789 2631714
0.0818673 0.33247501 1.33882 4210232
0.092746198 0.33278799 1.33881 2237213
0.088863797 0.331985 1.34035 2105626
0.088289998 0.33359301 1.33954 2105370
0.090525098 0.33355299 1.3400199 2236956
0.097342901 0.33202001 1.33969 3092007
0.094613999 0.33209899 1.33978 2631971
0.092696197 0.33103701 1.34026 2631970
0.100532 0.33316299 1.34049 3618609
0.100561 0.333161 1.34048 3618609
0.102769 0.33201501 1.34192 4605246
0.102917 0.333379 1.34405 4473659
0.105486 0.33192 1.3450201 3750193
0.103496 0.33471701 1.3460701 4802624
0.104992 0.334885 1.35488 4342588
0.10997 0.336393 1.35506 2763299
0.108469 0.334993 1.35637 4276538
0.10999 0.33458 1.3561701 4276538
0.111061 0.33645701 1.35647 2828837
0.129518 0.335311 1.35313 1842199
0.113432 0.335076 1.3579201 4144952
0.114936 0.33624199 1.35896 2763299
0.133782 0.33530301 1.3540601 3420972
0.13628 0.33352 1.35571 3355436
0.135775 0.33531401 1.35465 4144695
0.14138199 0.33641499 1.3575701 3026473
0.14118201 0.33522201 1.35989 2960680
0.14424001 0.33743101 1.36553 2960936
0.14249399 0.336898 1.3642 3026473
0.14348599 0.33873799 1.37183 2895143
0.14658301 0.336981 1.37476 2960679
0.14457101 0.33878499 1.37431 3815989
0.19096 0.33619899 1.36511 3092777
0.19045299 0.33898699 1.3734699 3421228
0.18966401 0.33914199 1.37845 4013365
0.190657 0.34019399 1.38 3749936
0.20166799 0.337679 1.37834 4670781
0.202209 0.33740601 1.37903 4802623
0.20427001 0.33722699 1.37871 5197124
0.202941 0.33979899 1.38002 3617836
0.20325901 0.339021 1.37878 4210229
0.205174 0.33977899 1.38042 3749165
0.20699801 0.33871999 1.3808399 4867901
0.20892701 0.337686 1.38114 4999742
0.20967001 0.33896899 1.38143 4538936
0.211225 0.337989 1.38313 4867899
0.215451 0.33967701 1.38139 3749677
0.217389 0.339506 1.38051 3617834
0.217581 0.339564 1.3803999 3552040
0.22975799 0.33835599 1.38405 4736055
0.232318 0.33794001 1.38653 2893854
0.231481 0.339082 1.38521 3814956
0.233603 0.338918 1.38809 2433561
0.234393 0.34005699 1.3887 3157026
0.23606899 0.340698 1.39038 3223589
0.237827 0.341286 1.39183 3289382
0.23682 0.339353 1.39297 1973524
0.23868001 0.339818 1.39282 1973523
0.239972 0.341703 1.3940901 3420969
0.24058899 0.34013599 1.39651 2039317
0.24733301 0.339829 1.39327 2039061
0.248843 0.341537 1.39311 3420969
0.25132501 0.34125999 1.3933001 3486761
0.25272101 0.338727 1.3921 1973268
0.25359401 0.34048799 1.39306 2762783
0.256082 0.339917 1.39192 2368026
0.26745301 0.34053099 1.3993599 2565403
0.26790401 0.34243301 1.39805 3947313
0.269391 0.34100699 1.39863 2960417
0.271395 0.339533 1.39755 2433818
0.27090499 0.34231499 1.39981 3947312
0.27270699 0.34101099 1.39983 2696989
0.27418101 0.343339 1.40403 3815470
0.28169501 0.342962 1.4038301 2696734
0.28280699 0.341851 1.4054199 2367768
0.28791201 0.34336999 1.40481 4407606
0.28992501 0.34323701 1.40478 4407092
0.291466 0.343003 1.40475 4144176
0.30142701 0.34157199 1.40374 2893855
0.30110201 0.341362 1.40198 3288612
0.30343199 0.341638 1.40554 1972754
0.30487299 0.3425 1.4071701 2038803
0.307944 0.34381601 1.41014 1906961
0.31623101 0.341427 1.4069099 2235669
0.31916499 0.343734 1.40816 2630168
0.316679 0.34136701 1.40926 2432791
0.320604 0.34380499 1.41021 2564118
0.318232 0.34210399 1.4105901 2695962
0.319446 0.34238699 1.41284 3287584
0.32181901 0.34390199 1.41247 3682085
0.32471499 0.34387201 1.41398 3616034
0.326251 0.34371701 1.4162 3747618
0.32979801 0.343851 1.4169 4075555
0.331561 0.34466699 1.41608 4733228
0.33353001 0.34463701 1.41708 4733227
0.33180499 0.342462 1.41756 5457463
0.335803 0.344464 1.4181 4076324
0.34501201 0.34546599 1.4238501 4009763
0.34156901 0.34597099 1.42369 4075555
0.34393299 0.343739 1.42386 4075813
0.34599701 0.34384 1.42471 3352090
0.347543 0.34561801 1.42498 4667179
0.34928501 0.34543699 1.42514 5193266
0.34834999 0.34371799 1.42541 4733229
0.35262999 0.34524301 1.42492 7758416
0.354482 0.345716 1.42546 6705214
0.35618299 0.345754 1.42642 5389355
0.35521901 0.34391001 1.42607 7560521
0.358183 0.34575 1.4271801 4403489
0.35905901 0.343972 1.42778 4929321
0.085329898 0.33528 1.3385201 3684144
0.084237501 0.33700201 1.33805 3420972
0.087357201 0.335253 1.339 2105370
0.089209303 0.33524901 1.33965 1776406
0.087789901 0.33699399 1.33945 1644820
0.097912997 0.33647799 1.3389601 1710869
0.099465802 0.33421001 1.3385299 2171420
0.099214204 0.33660099 1.33848 1776406
0.100014 0.33559999 1.34057 2039578
0.099992402 0.335605 1.34057 2039578
0.102551 0.335805 1.3440599 4210744
0.10113 0.33452699 1.34246 3486766
0.101152 0.334521 1.34245 3486766
0.103638 0.336088 1.3483 3881779
0.104386 0.337401 1.35024 2434591
0.103852 0.33862701 1.34815 2434591
0.105874 0.33805999 1.3529299 2237212
0.108966 0.33831301 1.35315 2105626
0.111625 0.33821899 1.35694 2039578
0.110356 0.33912301 1.3556401 2039577
0.119126 0.33871001 1.35571 1842199
0.133038 0.33714801 1.35353 2171163
0.13079 0.33715901 1.35316 1710869
0.131559 0.33908099 1.35351 1842455
0.135236 0.33712399 1.35386 3618608
0.13581 0.33893499 1.3538001 3947571
0.143053 0.337455 1.35912 2039835
0.142472 0.33988601 1.35948 1842455
0.142612 0.33923799 1.3642 1776406
0.14539699 0.341418 1.37203 1710870
0.147351 0.340213 1.37269 1974041
0.146652 0.341019 1.37781 2171164
0.17767 0.340918 1.36783 3882036
0.189649 0.34076399 1.36998 2500383
0.189897 0.340846 1.37797 2697505
0.191614 0.34194401 1.3803101 2367770
0.19142599 0.34212101 1.37946 2236697
0.195484 0.342922 1.38034 2170647
0.204282 0.34117699 1.37877 2499355
0.20628799 0.34054601 1.37862 2762526
0.20830899 0.34105301 1.3766 2762526
0.210301 0.34114701 1.37648 2894368
0.20860299 0.34098399 1.38044 2959905
0.21221399 0.341149 1.37718 3025955
0.214489 0.34098101 1.3789901 2959905
0.217094 0.341968 1.38246 2368024
0.232253 0.34115499 1.38454 4341557
0.23375601 0.34203401 1.38583 4144434
0.235209 0.34220201 1.38868 3881262
0.236928 0.34286201 1.39024 2960161
0.235828 0.34441999 1.38925 3025697
0.24236301 0.34344 1.39325 2565918
0.245189 0.343061 1.3920799 2434332
0.25239399 0.34268701 1.39282 3026468
0.26606199 0.34511301 1.3961999 2631711
0.268502 0.34459299 1.39797 4078899
0.26903701 0.34374201 1.4003 4605243
0.270816 0.344565 1.39979 3881263
0.27038699 0.344313 1.40229 4341814
0.27217001 0.34422299 1.40218 4276020
0.27245 0.34566399 1.40042 2170904
0.27375299 0.34449601 1.40215 3815469
0.282226 0.34466299 1.40479 4210485
0.28323501 0.34639001 1.4046299 2039318
0.28471699 0.34596699 1.40395 2302233
0.28905201 0.34498399 1.40418 3749676
0.28957599 0.34518301 1.40404 3486505
0.29123399 0.34507799 1.40456 4144177
0.29146901 0.34518799 1.40452 4078384
0.29287899 0.34556901 1.40511 4341299
0.293165 0.34554201 1.40514 4407092
0.30127299 0.34355399 1.40458 4011821
0.29653099 0.346394 1.40727 5064763
0.298522 0.34632701 1.4080499 4932920
0.30620399 0.344293 1.40836 2169874
0.30673301 0.34603101 1.41012 3354403
0.317085 0.346569 1.40838 4604215
0.32111299 0.345442 1.40813 3946026
0.32317099 0.34727401 1.4110399 4734772
0.32258299 0.34572601 1.41326 3813414
0.324177 0.34592599 1.41537 4141864
0.32489699 0.34758201 1.4135 5786945
0.32615301 0.34759599 1.4148 6641737
0.325872 0.34581101 1.41589 4273448
0.32735899 0.347709 1.41552 7760217
0.32783401 0.34539399 1.416 4799535
0.329671 0.34611499 1.41678 5785656
0.331431 0.34693801 1.416 7035466
0.33351699 0.34853801 1.41868 7298636
0.33635101 0.34654701 1.41873 4207141
0.33458599 0.346441 1.41733 5193522
0.3405 0.34735501 1.4213001 5193778
0.33902499 0.347018 1.42164 4865069
0.34414601 0.34761599 1.4234999 4470055
0.34211099 0.34783301 1.42346 4864813
0.34972399 0.349282 1.42373 6837830
0.351661 0.34699401 1.42459 7561039
0.356785 0.34795699 1.42713 6377021
0.35815099 0.34999901 1.4284101 4995624
0.35912099 0.34829301 1.42899 5193775
0.36194599 0.349866 1.4285901 5259309
0.360158 0.35003 1.42898 4930088
0.36028501 0.35015699 1.42944 5259309
0.36096901 0.348418 1.42993 5194030
0.085074298 0.338707 1.33836 3552815
0.086914502 0.33870301 1.33907 2105370
0.088324003 0.33877701 1.33988 1644820
0.087462403 0.340473 1.33933 1710869
0.086068302 0.340386 1.33856 2500128
0.094461799 0.338709 1.34053 1645076
0.099114202 0.33803499 1.3406 1974041
0.099622898 0.33802399 1.34053 1973785
0.092671603 0.34091499 1.34234 1579283
0.0964012 0.340794 1.34237 1842198
0.10221 0.33822799 1.3440599 3947317
0.101058 0.340101 1.3436199 2829093
0.10503 0.340965 1.34758 2170905
0.105393 0.33930299 1.3508 2237211
0.109872 0.34123001 1.34951 1842453
0.112139 0.34187201 1.35147 1776660
0.106835 0.34007099 1.35325 2105625
0.116174 0.341786 1.3523999 1908246
0.119701 0.341943 1.35224 1973784
0.11938 0.340332 1.354 1842199
0.12132 0.341822 1.35312 1841941
0.12658399 0.341571 1.35483 1973783
0.13816801 0.34112099 1.35493 2960420
0.141524 0.33997899 1.35522 1842454
0.142241 0.34234101 1.35511 2302747
0.140414 0.342354 1.35416 2960676
0.142277 0.34106001 1.35727 1776662
0.143068 0.342453 1.3592401 1842198
0.142855 0.34111899 1.3616101 1842455
0.144357 0.34334999 1.36106 2039577
0.14329299 0.34189901 1.3674901 1842199
0.14493901 0.34292901 1.37024 1776406
0.143968 0.345323 1.37114 1842455
0.148479 0.345561 1.37507 1645076
0.14653701 0.34421799 1.37745 1710613
0.175432 0.34450701 1.36805 3881780
0.176708 0.34260499 1.36748 3355436
0.178647 0.34264699 1.36808 3881778
0.18089899 0.34265 1.3688999 2566174
0.19021399 0.34317499 1.37075 2631968
0.19705001 0.34496 1.37981 2696734
0.20739099 0.34277701 1.37581 2696989
0.208607 0.34421501 1.3758399 3026210
0.214895 0.34380999 1.37784 2894368
0.21551999 0.343072 1.37607 2960161
0.21652 0.34295699 1.37924 2367767
0.217325 0.345204 1.37923 3354918
0.229884 0.34467399 1.38504 2368024
0.24085601 0.347168 1.38816 2631711
0.24068099 0.34490401 1.38858 2631710
0.24282999 0.34623301 1.38851 2236953
0.24361099 0.34464601 1.38946 2039575
0.241689 0.34470201 1.38914 2434332
0.24535801 0.34525999 1.39083 2171161
0.249522 0.34546801 1.39276 2697504
0.26394799 0.34752399 1.39413 2565662
0.267681 0.34623301 1.39727 3684399
0.27075699 0.346755 1.39943 1644561
0.26887801 0.34674299 1.3983099 2565405
0.27268001 0.346681 1.40019 1776147
0.27204701 0.34799001 1.40093 1776147
0.27435899 0.34671399 1.40136 1841684
0.279075 0.34632301 1.40125 1841940
0.27986899 0.34803599 1.40093 1513233
0.28121501 0.34677801 1.40478 1841940
0.28155899 0.34860501 1.40485 1447441
0.288434 0.349466 1.4041899 1512977
0.29118699 0.34957799 1.40482 1644306
0.29186299 0.34723601 1.40449 2433820
0.292386 0.34740499 1.40493 2762528
0.290261 0.34679499 1.40414 1973269
0.29265401 0.34969401 1.40526 1775891
0.29392299 0.34815899 1.4051 3223078
0.29576999 0.34816 1.4062099 4144177
0.29397899 0.347642 1.4050699 3683629
0.297622 0.34815601 1.4072599 4604213
0.29937199 0.348003 1.40767 4735541
0.29863 0.350007 1.4076101 3156770
0.300318 0.34979799 1.40783 3814441
0.300926 0.34919199 1.40852 4406320
0.30188599 0.34722999 1.40827 4340527
0.30593601 0.34793499 1.40863 4603954
0.31777 0.34779501 1.40856 4735544
0.31816199 0.349038 1.40892 4274993
0.32637399 0.34985599 1.41599 6838859
0.32897699 0.349641 1.4173501 7101000
0.33078 0.35030699 1.4185899 5390126
0.334438 0.350225 1.41851 4666662
0.33727801 0.34903601 1.42004 5785915
0.34083101 0.34947601 1.4208 7233104
0.33927801 0.34895599 1.42084 6378053
0.34449601 0.35157499 1.42167 4798763
0.345422 0.349455 1.42252 6707014
0.34322101 0.34960401 1.42229 7035979
0.34691101 0.351634 1.42278 5259057
0.347956 0.349594 1.42384 6838088
0.35156301 0.35154399 1.42425 4272419
0.35413301 0.35212299 1.42546 5785914
0.356152 0.352112 1.4265 6048570
0.35502201 0.350182 1.42641 5521712
0.35909799 0.35164201 1.428 5718578
0.361067 0.35163501 1.42835 7824210
0.062820897 0.34501499 1.34374 2039578
0.084135801 0.34044501 1.33807 3947317
0.083958901 0.34197301 1.33692 2697507
0.069086596 0.343252 1.3423899 3289644
0.087084897 0.34210101 1.3386101 1842456
0.085281499 0.34204099 1.33794 2302749
0.087984197 0.34223801 1.33989 1776406
0.087944999 0.342235 1.33996 1710870
0.091665603 0.34196699 1.33961 1842199
0.092598401 0.34376001 1.34068 2105372
0.093879901 0.342785 1.3419501 2763044
0.095647797 0.343348 1.34293 3421230
0.094797596 0.34142601 1.3431 1907991
0.0982849 0.343225 1.34312 3289643
0.100263 0.34322 1.3437999 3815987
0.102212 0.34322 1.34442 4079158
0.116339 0.342298 1.34657 2500383
0.116101 0.343023 1.34964 2566176
0.118065 0.34328401 1.35154 2829092
0.12073 0.34355 1.35192 3289386
0.123231 0.34488201 1.35083 3157800
0.125139 0.34486899 1.35144 2368285
0.14045499 0.344069 1.35203 3881523
0.138363 0.34308299 1.35271 4144694
0.14360701 0.34336001 1.3568799 2829092
0.14388099 0.34472501 1.35918 3487021
0.14505599 0.34563401 1.36106 3421486
0.146254 0.346542 1.3629301 2697508
0.147966 0.346394 1.37359 2697507
0.14816201 0.34806499 1.37269 3553072
0.146742 0.34825099 1.37106 3224108
0.14743701 0.346645 1.37561 2434591
0.164554 0.34751201 1.3721499 3947830
0.176515 0.34631699 1.36845 3684399
0.192077 0.346816 1.37247 2960933
0.190414 0.34820899 1.3720599 1974295
0.190558 0.34561801 1.37199 2763554
0.193645 0.347839 1.37317 2368796
0.195485 0.347987 1.37651 3026727
0.208368 0.34593001 1.37424 4342327
0.19889601 0.34785199 1.37672 3421227
0.210233 0.34593999 1.3748 4276533
0.21555001 0.346118 1.3777601 3946798
0.21773501 0.34690899 1.37883 4407349
0.21615 0.348432 1.3777 4867901
0.234854 0.34874699 1.38713 2894368
0.23643699 0.34995401 1.38841 2762783
0.24211299 0.34838399 1.38787 2631198
0.23815399 0.35079601 1.3902299 2960162
0.25348401 0.35083801 1.39337 3223078
0.255438 0.35084599 1.39371 3354664
0.25434801 0.34927201 1.39425 2565405
0.25135201 0.35114399 1.39433 2960162
0.25737599 0.35081899 1.3940099 3223078
0.256212 0.34940299 1.39518 2499868
0.26482499 0.34968901 1.39419 3618092
0.26842999 0.350366 1.3969001 1907218
0.269407 0.34869701 1.39774 1644304
0.27003399 0.34990799 1.39845 1644305
0.27201301 0.34998101 1.3994 1644562
0.276162 0.35175699 1.40303 1513232
0.285099 0.350117 1.40202 1381648
0.286338 0.350088 1.40201 1381648
0.28532401 0.35195699 1.404 1513234
0.28798601 0.351311 1.40329 1447184
0.28374001 0.35234001 1.40387 1644819
0.289552 0.350972 1.40319 1447184
0.290187 0.351262 1.40344 1447184
0.29179901 0.35154599 1.40456 1644049
0.29383299 0.35122001 1.40425 1578512
0.296756 0.351502 1.40519 1709841
0.298599 0.351904 1.40644 2630427
0.29720199 0.35030201 1.40777 2696221
0.299263 0.35030001 1.4078 3222306
0.30037999 0.35240901 1.4076999 4340785
0.30284601 0.35239699 1.40841 4735541
0.305361 0.35237399 1.40897 3814441
0.30864501 0.352245 1.40907 2235925
0.314518 0.351852 1.40777 2432534
0.31627801 0.349967 1.40813 3090722
0.327043 0.35145199 1.41453 4799534
0.32735401 0.35184401 1.4171 4601898
0.32939801 0.35182399 1.41763 4666920
0.32885301 0.35349 1.41675 4141347
0.326381 0.354038 1.41653 4141862
0.332854 0.35205299 1.41793 4929578
0.33539799 0.35198599 1.41892 4403235
0.33803701 0.35212499 1.42021 3877405
0.33667499 0.354285 1.41957 4336674
0.33891201 0.353955 1.41917 4271906
0.34047899 0.352119 1.42067 3811869
0.342958 0.35351801 1.42024 3877921
0.34554201 0.35368299 1.42179 4272678
0.34825099 0.353751 1.42292 3088147
0.350499 0.353744 1.4238 2957074
0.35291401 0.35373899 1.42445 4141606
0.35473999 0.35438499 1.42538 6509895
0.35529599 0.35408401 1.42567 7562325
0.356913 0.35515901 1.4269 6706499
0.359249 0.355138 1.4276201 6047799
0.36107999 0.355003 1.42751 5521712
0.36013499 0.35335699 1.4279 9337190
0.36216399 0.353407 1.42848 8153172
0.36327201 0.35506099 1.42812 5126957
0.071546197 0.344881 1.33971 1644820
0.057693701 0.345184 1.34377 2171163
0.071958303 0.34707701 1.34231 1645077
0.085792102 0.34409299 1.34012 1776662
0.083683603 0.34407899 1.33947 1907992
0.091113403 0.34585401 1.34165 2105628
0.093750797 0.345669 1.34137 3355438
0.096775703 0.34497899 1.3429199 3158314
0.129151 0.34797999 1.3500201 1776405
0.127794 0.346423 1.3503799 1842199
0.134537 0.347422 1.35149 1973784
0.130707 0.34671599 1.3515 2039321
0.135956 0.34747699 1.35261 1973527
0.141792 0.347978 1.3545099 2236698
0.14497299 0.34874001 1.35728 2697505
0.144761 0.34699401 1.3591 2565919
0.144637 0.34705701 1.35917 2565919
0.14885201 0.34900299 1.35753 2171162
0.148582 0.348957 1.35763 2236956
0.145713 0.34792599 1.3610899 2237213
0.14808001 0.35107699 1.36878 2039833
0.14816301 0.349603 1.3708301 2434591
0.149987 0.34937501 1.37226 2434591
0.150344 0.350748 1.37006 1974040
0.151814 0.350604 1.3718899 1974040
0.153641 0.35024399 1.37316 2302748
0.160413 0.35110101 1.37032 1842198
0.164803 0.34954 1.36607 1842197
0.169594 0.34994 1.36541 1645075
0.17161401 0.35021499 1.3689899 1645074
0.172754 0.34865099 1.37043 2302747
0.173509 0.350097 1.36939 1710610
0.18404999 0.34915 1.36984 2500381
0.19151799 0.35061899 1.37015 1645332
0.19329099 0.350995 1.37139 2040088
0.191855 0.349401 1.37345 1579281
0.194998 0.35145801 1.37298 2566175
0.195208 0.35039601 1.37681 1710867
0.19978499 0.34971499 1.3749599 1842452
0.210594 0.34918499 1.37198 2236952
0.19844399 0.35194999 1.37633 2895140
0.198053 0.35005 1.37646 1776916
0.21233501 0.34819001 1.37331 3947313
0.213468 0.34959501 1.3748 3025955
0.21319 0.351524 1.37588 3223591
0.216443 0.350802 1.3774101 2828319
0.23631801 0.35222501 1.38842 4670523
0.23695099 0.35178399 1.38659 4736573
0.240457 0.353039 1.3917201 4473402
0.24209 0.35390401 1.39376 4276023
0.241809 0.35134599 1.39174 2960163
0.244158 0.35368499 1.3932101 4276024
0.25352001 0.352514 1.39197 4670780
0.25640401 0.35261601 1.39403 4341558
0.260095 0.354323 1.39447 2170135
0.265928 0.351785 1.3942 4933696
0.262445 0.35425699 1.39447 2433307
0.26446301 0.35425699 1.3947001 2828320
0.26183501 0.35260499 1.39469 3618094
0.267809 0.35215101 1.3954999 4736317
0.26984999 0.35232499 1.3968 4078644
0.274425 0.35205099 1.3957601 3618093
0.27584201 0.352689 1.39766 3223336
0.276122 0.353466 1.4014699 3025956
0.28027499 0.354774 1.40328 3355177
0.28700799 0.35464001 1.40223 3223848
0.28655201 0.35268801 1.40327 1908247
0.28894499 0.354765 1.40266 3947313
0.28496701 0.354413 1.40376 3092263
0.289509 0.35328299 1.4042 2960420
0.290604 0.35558301 1.40451 4406835
0.291345 0.353728 1.40521 3815214
