ply                 
format ascii 1.0    
element vertex 1253
property float x    
property float y    
property float z    
property uchar red  
property uchar green
property uchar blue 
end_header          
-0.169035 -0.113631 1.46051 31 30 28 
-0.00459558 -0.306667 1.48754 30 26 23 
0.053442 0.0666531 1.39291 31 29 30 
0.025244 0.672146 1.31171 104 99 96 
0.000621354 -0.355671 1.50851 99 98 96 
-0.016389 -0.161369 1.43272 98 94 91 
-0.0393614 0.0366743 1.36776 79 78 76 
-0.0764388 -0.215135 1.44824 30 29 25 
-0.143176 0.10242 1.40366 83 82 78 
0.0407696 -0.0428329 1.40471 32 32 30 
-0.0173165 -0.0901097 1.40815 30 25 19 
0.0667295 0.0121436 1.40541 7 3 2 
0.0283661 -0.0200828 1.38652 20 19 15 
0.0310623 0.417389 1.36257 115 114 109 
-0.0178575 -0.400321 1.52051 34 31 26 
0.0394797 0.0398843 1.38754 75 74 72 
-0.0810761 -0.484512 1.55539 37 36 34 
-0.0397433 -0.0492259 1.3813 95 94 92 
-0.0658924 -0.0652201 1.38601 34 30 29 
-0.0454192 0.0843161 1.36522 3 0 0 
0.012421 -0.245594 1.44803 101 100 96 
-0.16845 -0.0930724 1.45193 25 24 22 
0.0684747 0.041153 1.40438 14 12 13 
0.0261627 -0.0874724 1.42195 109 108 104 
0.018427 -0.0807761 1.41724 1 0 0 
0.0492685 0.606768 1.35 93 91 92 
0.055094 0.580679 1.36678 118 116 117 
-0.0468866 -0.0658431 1.38812 27 22 18 
-0.165106 -0.0182454 1.41106 48 47 45 
-0.0535412 -0.158237 1.41868 31 30 28 
0.0363336 -0.121924 1.43852 116 114 115 
0.0488301 0.589854 1.35635 9 8 6 
0.0159859 -0.333734 1.50483 123 118 115 
0.0424614 -0.0327329 1.39892 128 127 125 
-0.010623 -0.12757 1.42145 110 109 107 
0.0669254 0.678887 1.33097 87 82 78 
-0.0379886 -0.121627 1.41336 111 107 104 
-0.0267611 -0.104674 1.4097 90 89 87 
-0.0102832 -0.0550737 1.393 117 116 112 
-0.0500674 0.144376 1.37327 81 81 81 
-0.0472909 -0.715729 1.60968 200 209 224 
-0.0422521 -0.698359 1.61526 35 36 66 
-0.0185209 0.145688 1.36373 70 68 69 
-0.0335396 -0.167715 1.42711 60 59 55 
0.0231806 0.0342024 1.37666 52 50 51 
-0.0112482 0.127677 1.3617 73 71 72 
-0.0705263 0.212078 1.3664 50 49 54 
0.0413784 0.529061 1.36514 56 56 56 
-0.0501492 -0.747793 1.62551 104 113 128 
-0.0288091 -0.736833 1.60468 228 232 255 
-0.0521652 -0.734484 1.61164 165 167 190 
-0.2367 0.508339 1.49084 3 1 22 
-0.063084 -0.150404 1.4253 18 14 11 
-0.041741 -0.306267 1.47725 20 17 12 
-0.13573 -0.295895 1.52403 18 14 5 
-0.185806 -0.287806 1.54426 29 31 46 
-0.1908 -0.25087 1.56846 206 207 211 
-0.102759 -0.190126 1.45384 116 115 111 
-0.2409 0.514368 1.50544 16 16 28 
-0.240805 0.516675 1.49354 104 105 110 
-0.081696 -0.0846187 1.41394 1 0 0 
-0.233997 0.528239 1.47193 141 141 143 
-0.13492 -0.0308553 1.39329 25 23 11 
0.0574835 -0.0344273 1.40816 28 27 23 
0.0132117 -0.0219715 1.38145 25 25 13 
0.049481 0.588468 1.35304 118 117 115 
-0.137487 -0.0474751 1.41369 39 38 33 
-0.045474 -0.157865 1.4247 31 27 24 
0.0636706 -0.0594058 1.42421 26 23 18 
-0.235156 0.544418 1.47571 94 94 92 
-0.239466 0.542603 1.49301 116 116 116 
0.0290632 -0.0882281 1.42835 128 127 123 
0.040026 0.0104653 1.38818 9 7 8 
-0.359777 0.718995 1.60741 139 131 120 
-0.0517782 -0.114607 1.40845 17 16 12 
0.0393208 -0.122105 1.44458 144 144 142 
0.0469296 0.0290635 1.39212 124 123 121 
-0.17674 -0.123548 1.47258 110 109 105 
-0.0241421 -0.425766 1.53221 17 16 14 
-0.00487057 -0.183844 1.44426 115 101 101 
-0.0916239 0.463324 1.34655 106 105 103 
-0.0504536 -0.223824 1.44792 17 13 12 
-0.0120053 -0.23628 1.44073 98 97 95 
-0.0876024 -0.401127 1.52717 126 123 118 
-0.114465 -0.285657 1.5066 118 112 112 
-0.0363595 0.0536937 1.37044 0 0 0 
0.0548425 0.207163 1.38663 106 105 103 
-0.196781 0.118727 1.45282 1 0 0 
-0.0332557 -0.716695 1.61096 100 110 122 
0.0153188 -0.325432 1.50902 11 12 6 
0.0101486 -0.336603 1.50982 8 7 5 
0.0172554 -0.341362 1.5152 110 110 108 
0.0126454 -0.349855 1.51587 117 113 112 
-0.044469 -0.349122 1.4956 34 30 21 
-0.0957072 -0.36316 1.52035 15 11 8 
-0.0226559 -0.390054 1.51894 128 124 121 
-0.00579787 0.0385925 1.37155 83 79 78 
0.0131925 -0.23464 1.44966 12 12 10 
-0.21053 0.144367 1.46743 94 92 95 
-0.221859 0.145788 1.48977 1 0 2 
0.043406 0.338156 1.36961 7 3 2 
-0.195314 -0.168246 1.58173 18 14 11 
0.008461 0.134154 1.3681 97 96 94 
-0.0203087 0.209473 1.3521 88 87 85 
-0.0370599 -0.37863 1.50776 36 32 29 
-0.0925226 -0.0637549 1.40863 125 124 122 
-0.163976 0.651293 1.31055 109 104 101 
-0.168635 0.0816054 1.43066 91 91 91 
-0.0486225 0.18256 1.35636 100 99 97 
0.00567969 -0.0413651 1.39262 105 105 103 
-0.00364517 0.24165 1.36134 1 0 0 
-0.153361 0.0407016 1.41107 85 85 85 
-0.239154 0.604931 1.49585 114 112 113 
-0.0611178 -0.607274 1.59255 128 123 120 
-0.179981 -0.211975 1.53519 107 96 94 
0.0584315 -0.0462114 1.41369 37 36 34 
-0.00379375 -0.360155 1.51121 130 124 124 
-0.0363517 -0.403111 1.52023 39 38 34 
0.0523972 0.0669972 1.39037 23 22 20 
-0.233664 0.574442 1.47008 0 0 7 
-0.00968596 0.240773 1.35231 109 109 107 
-0.00750483 0.0614219 1.37609 114 110 109 
-0.121164 -0.315604 1.51894 35 32 27 
-0.201848 0.164892 1.45246 85 84 82 
-0.237975 0.562515 1.48479 96 97 91 
-0.246274 0.558647 1.4976 118 98 74 
-0.22374 0.32772 1.49059 133 132 127 
-0.0195229 -0.0628045 1.4053 111 112 107 
-0.0525584 -0.184458 1.431 110 106 103 
-0.238053 0.550743 1.4853 76 76 74 
-0.022159 -0.742133 1.61107 67 75 96 
-0.187241 -0.270013 1.55253 215 214 220 
-0.0276087 -0.690114 1.61705 70 77 96 
0.0821244 0.021594 1.41777 1 0 0 
-0.0751864 -0.282473 1.48908 88 85 80 
-0.243855 0.555299 1.50566 112 88 62 
-0.00496439 -0.111755 1.4221 131 127 126 
0.0578182 0.114502 1.39184 105 103 104 
0.0955368 0.0422874 1.43209 4 3 1 
-0.0766256 -0.294782 1.48263 33 31 19 
-0.0622771 -0.077641 1.39385 128 126 127 
0.0192402 -0.0809715 1.41938 10 9 7 
-0.0613802 -0.127481 1.41698 36 33 28 
-0.0634238 -0.0656602 1.39365 29 27 28 
-0.0409316 -0.0618373 1.38998 34 31 26 
-0.0120276 -0.214235 1.44443 36 31 27 
-0.00670543 0.0909992 1.37433 127 126 122 
0.0123601 -0.215442 1.45583 102 93 94 
-0.237269 0.518447 1.47773 143 146 155 
-0.176092 -0.206934 1.51994 14 4 2 
-0.232881 0.523103 1.46366 94 95 99 
-0.0214607 -0.361665 1.5099 126 125 121 
-0.137354 -0.367794 1.60021 205 203 216 
-0.5185 0.620535 1.23215 145 140 137 
-0.00695103 -0.0556703 1.396 91 90 88 
-0.0357131 -0.184251 1.43224 12 7 3 
0.0351708 0.0188193 1.3843 1 1 0 
0.0564722 0.0177034 1.4006 114 114 114 
-0.117621 0.0178675 1.39306 123 122 120 
0.0131266 -0.245931 1.44997 107 106 104 
-0.01458 0.443557 1.33761 15 12 7 
-0.0895827 -0.380944 1.52668 86 85 81 
-0.0333063 -0.0570096 1.3858 128 127 123 
-0.0392951 -0.313694 1.4887 135 131 128 
-0.198709 -0.144972 1.56554 90 89 85 
-0.117795 0.0953023 1.39699 104 102 103 
0.0553778 -0.0857852 1.43558 98 94 93 
0.0433214 -0.0323432 1.40337 104 102 103 
-0.108592 -0.241225 1.48156 36 33 26 
-0.0303758 -0.0907749 1.41075 82 81 79 
-0.00432493 -0.41361 1.53216 32 28 25 
-0.0522934 0.0816057 1.37409 77 75 76 
-0.0137416 -0.0903955 1.4096 28 27 23 
-0.0244986 -0.304493 1.48758 87 83 82 
-0.051114 0.111627 1.3706 86 86 86 
-0.0578957 -0.449071 1.53525 12 11 7 
-0.151521 -0.175177 1.47263 83 82 80 
-0.0318807 -0.216454 1.44317 3 3 0 
-0.164691 -0.0305366 1.412 109 104 100 
-0.0381059 -0.756193 1.61777 208 215 234 
-0.122043 -0.620171 1.37294 88 89 117 
-0.0668682 -0.657805 1.61564 102 101 109 
-0.0757166 -0.22429 1.46462 40 35 31 
-0.132948 0.337535 1.38307 132 128 125 
-0.224694 0.18303 1.49196 7 3 0 
-0.0816814 -0.113268 1.42353 108 105 100 
-0.210162 -0.138376 1.59642 124 133 142 
-0.131981 0.374151 1.36829 69 68 66 
-0.041192 -0.369873 1.50004 122 118 115 
-0.0722988 -0.573651 1.60387 26 24 29 
-0.000199824 -0.363358 1.52286 125 119 119 
-0.0352144 -0.605009 1.57649 34 30 29 
-0.0467926 -0.334646 1.49098 35 36 31 
-0.17403 0.0733868 1.43318 64 64 62 
-0.00346852 -0.315238 1.4964 144 143 141 
-0.234793 0.211445 1.5268 6 2 0 
-0.0546717 -0.287473 1.48166 106 103 96 
0.00105419 -0.253851 1.44587 122 119 112 
-0.0186776 -0.656011 1.5959 48 47 45 
0.00325396 0.0992939 1.36985 13 12 10 
-0.00348127 -0.222239 1.44536 84 83 81 
-0.154657 -0.0475969 1.4222 41 38 33 
-0.137019 -0.0540522 1.42991 22 19 12 
-0.232597 0.188328 1.51934 25 22 17 
-0.0663953 -0.116255 1.41567 115 110 104 
0.066379 0.012059 1.40221 3 1 2 
-0.181829 -0.161419 1.53522 26 25 23 
-0.146905 -0.261965 1.52101 94 93 89 
0.0266958 0.201744 1.37173 92 91 89 
-0.0625941 -0.647286 1.5876 115 114 112 
-0.00901899 -0.1285 1.42787 97 96 94 
-0.221612 0.321629 1.47716 106 105 103 
-0.231388 0.513606 1.46458 95 95 107 
-0.0447888 -0.686577 1.61454 194 200 216 
-0.239155 0.479269 1.45363 20 16 15 
-0.157174 -0.0864243 1.43503 81 80 78 
-0.234053 0.511753 1.45488 14 16 28 
-0.0468009 -0.322172 1.47755 29 26 21 
-0.0341623 -0.650808 1.58052 42 40 41 
-0.240952 0.564794 1.51419 71 51 24 
-0.0715517 -0.171299 1.43677 43 40 35 
-0.228354 0.198391 1.49209 34 31 26 
-0.535452 0.67192 1.17707 116 113 98 
0.0531244 0.336204 1.37879 21 18 13 
-0.232225 0.170627 1.52392 8 5 0 
-0.214684 0.135946 1.48314 83 83 81 
-0.144439 -0.204455 1.47539 100 96 93 
0.0653537 0.069147 1.40253 39 38 36 
-0.147525 -0.0311634 1.39897 127 126 121 
-0.0143655 -0.189599 1.44368 44 30 27 
-0.0367643 -0.424941 1.52989 81 80 76 
0.0633384 0.0402068 1.40353 0 0 0 
-0.0502093 -0.656926 1.60178 45 44 42 
0.00479039 -0.224944 1.45268 79 75 74 
-0.039732 -0.412118 1.51978 120 116 115 
-0.0122202 0.10074 1.36556 31 30 28 
0.0170728 0.0513981 1.38107 72 71 69 
0.0404167 0.0402208 1.38771 96 95 91 
-0.102012 -0.0524477 1.39055 83 79 68 
-0.103903 -0.0424052 1.39892 102 99 92 
0.0244768 0.510822 1.35206 87 86 84 
-0.233699 0.183534 1.50927 28 25 18 
-0.212224 0.638096 1.37857 96 96 96 
0.0403428 0.137839 1.37649 110 106 105 
-0.134593 -0.24461 1.50595 25 25 23 
-0.234254 0.0542768 1.51165 65 65 65 
-0.00930039 0.14674 1.36399 64 62 63 
0.0345922 0.656733 1.31433 90 87 82 
-0.0114192 0.433026 1.34081 123 120 113 
-0.0411692 -0.738651 1.62032 228 228 252 
-0.0504317 -0.642668 1.56367 52 48 47 
-0.0712607 -0.596242 1.60368 197 197 209 
-0.0687566 -0.596644 1.61717 107 107 119 
-0.0122508 -0.665922 1.60352 90 88 89 
-0.508225 0.625007 1.21581 28 24 25 
-0.233067 0.212377 1.5356 40 36 33 
-0.234622 0.319482 1.51749 2 2 0 
-0.233352 0.517238 1.44731 123 122 127 
-0.0556387 -0.650852 1.58662 35 34 32 
-0.0438047 0.0800031 1.36268 85 80 76 
-0.0950012 0.0628659 1.37557 76 76 76 
0.0234031 0.225555 1.36445 77 76 71 
-0.0292367 -0.320837 1.49242 66 66 64 
-0.130979 -0.246781 1.51595 47 47 45 
-0.277494 0.782331 3.13523 85 86 80 
-0.152014 -0.217165 1.4794 18 15 10 
-0.216737 -0.112127 1.60375 59 61 74 
-0.0429009 0.215435 1.35904 94 93 89 
-0.44913 0.681048 1.23585 105 103 91 
-0.492796 0.695078 2.03011 105 106 100 
-0.235567 0.48493 1.47092 15 11 10 
-0.190542 -0.268057 1.56351 39 39 51 
-0.227687 -0.0697223 1.58546 35 31 32 
-0.227743 -0.0700758 1.60124 53 51 62 
0.00882127 -0.0434892 1.4015 118 118 116 
-0.27691 0.682354 1.27013 73 71 56 
-0.23355 -0.0140799 1.49458 53 52 48 
-0.136427 0.63536 1.31897 118 115 110 
-0.102423 0.623424 1.31862 110 106 107 
-0.24409 0.604417 1.42016 24 23 18 
0.378076 0.74833 1.62845 102 100 85 
0.0196969 0.0303449 1.37349 69 67 68 
0.0318573 0.030935 1.39746 83 82 80 
-0.0749114 -0.491318 1.57355 34 32 33 
-0.144622 -0.152321 1.47547 34 30 27 
0.0439574 0.0409866 1.39614 80 79 75 
-0.163884 -0.17681 1.5034 35 35 27 
-0.0607806 -0.417696 1.52858 41 37 34 
-0.170384 0.0741645 1.44162 68 68 66 
-0.247567 0.500444 1.5054 40 40 40 
0.0312049 0.424955 1.36234 129 126 117 
0.00570322 0.0807261 1.37356 78 78 76 
0.0208885 -0.357961 1.53465 103 97 97 
-0.055095 0.141736 1.35207 79 79 79 
-0.00045391 -0.317921 1.50528 80 79 77 
0.0306395 0.2024 1.38035 80 79 77 
-0.236182 0.0800936 1.55501 58 57 55 
-0.036245 -0.647479 1.57415 44 42 43 
-0.0481056 -0.42453 1.51338 74 73 69 
-0.0666248 -0.412928 1.5136 45 41 38 
-0.128549 -0.34403 1.52967 60 57 52 
-0.0349978 -0.236306 1.44069 141 141 131 
-0.0865255 -0.225345 1.44247 67 64 55 
-0.0606843 -0.226222 1.45767 41 37 34 
-0.00165889 -0.218722 1.45422 101 93 90 
-0.171971 -0.211048 1.4902 4 3 0 
-0.100613 -0.185505 1.44172 93 89 88 
-0.060495 -0.186201 1.4406 73 68 64 
-0.131895 -0.158132 1.47309 119 118 116 
-0.113163 -0.155895 1.44099 100 96 93 
-0.176854 -0.100442 1.45435 19 15 12 
-0.142566 -0.0651561 1.43832 51 47 44 
-0.00202859 0.0174402 1.37076 50 49 47 
0.0256397 0.0339558 1.38292 69 67 70 
-0.240288 0.0810077 1.5451 79 75 74 
-0.0494044 0.120688 1.37141 76 76 76 
-0.0368729 0.13257 1.37059 15 14 12 
0.0463732 0.137842 1.39338 75 71 70 
-0.233966 0.199964 1.52489 14 15 9 
-0.0597798 0.199344 1.36952 54 52 55 
0.0325507 0.29272 1.36095 70 66 67 
0.0105036 0.310153 1.36173 60 59 57 
-0.0410292 0.325111 1.33662 71 70 68 
-0.252823 0.489881 1.48997 54 54 54 
-0.216953 0.494358 1.40339 100 99 97 
-0.233267 0.571128 1.42868 28 27 32 
0.0935695 0.666758 1.35124 30 29 25 
-0.0583699 -0.0788082 1.40662 102 100 101 
-0.162574 0.318287 1.39657 60 59 57 
0.00339985 0.473124 1.3445 112 111 107 
-0.0319997 -0.755471 1.63063 189 202 211 
-0.0403869 -0.741449 1.6312 196 203 219 
-0.029562 -0.743044 1.63066 192 200 213 
-0.0358993 -0.687415 1.60663 187 192 211 
-0.0190887 -0.588728 1.57916 41 39 44 
-0.0424193 -0.296585 1.48519 133 129 126 
-0.0411619 -0.233372 1.4251 76 76 66 
0.102842 -0.114581 1.51172 18 18 28 
-0.221417 -0.0206374 1.47541 54 53 49 
-0.158138 0.0637262 1.41922 55 54 52 
-0.0677318 0.0619307 1.38252 60 58 59 
-0.0581744 0.0813735 1.38189 76 76 76 
-0.0469695 0.110581 1.38007 74 74 74 
-0.0477313 0.324977 1.35671 64 60 57 
-0.213116 0.476657 1.42358 23 22 20 
-0.247346 0.687374 1.32893 81 81 69 
6.49009 2.48935 14.7259 131 134 139 
-0.229162 0.0755833 1.49572 82 82 82 
-0.123498 -0.0307751 1.39361 38 36 24 
-0.165564 -0.0700848 1.43581 123 120 115 
-0.0738345 -0.322912 1.49243 26 18 15 
-0.112093 -0.276915 1.49427 105 104 100 
6.52492 2.5065 14.8318 14 17 22 
-0.107006 0.102947 1.38433 81 81 81 
0.516328 0.698424 1.65773 110 108 95 
-0.128957 0.676411 1.29998 96 95 90 
-0.123555 -0.049699 1.40687 66 61 55 
-0.12392 -0.137726 1.44405 105 104 102 
6.6512 2.36873 15.0517 98 103 109 
-0.194608 0.112374 1.44228 28 27 25 
-0.00881515 0.435592 1.34776 123 120 113 
0.520025 0.72691 1.63527 58 57 53 
-0.0486543 0.0974856 1.37642 79 79 77 
-0.0922541 -0.433404 1.54531 105 101 98 
0.59636 0.707664 1.50457 76 76 68 
0.529195 0.721908 1.61091 48 47 42 
-0.102405 0.0362748 1.38045 32 31 29 
7.07032 2.42703 16.0372 57 62 66 
-0.115901 0.198768 1.38252 60 60 60 
-0.0504171 -0.741892 1.62577 224 225 255 
-0.0370628 -0.730545 1.62219 214 221 239 
-0.157531 -0.0518436 1.41347 105 101 98 
-0.0429347 -0.710799 1.61733 211 211 235 
-0.0273798 0.254497 1.35069 1 0 0 
0.0899528 0.250119 1.42436 31 30 26 
-0.178391 -0.0710505 1.44719 44 43 39 
-0.00433339 -0.0933792 1.41352 22 18 17 
0.0808801 0.226732 1.41646 11 8 3 
-0.00452562 -0.59075 1.6108 117 118 136 
0.072169 0.065842 1.41268 112 111 109 
0.104115 -0.0640426 1.48291 123 122 120 
0.104096 0.0814638 1.45183 94 93 91 
0.0376477 -0.112265 1.43089 14 12 13 
0.0390035 0.437657 1.36284 132 129 122 
-0.138803 -0.138546 1.4523 30 29 27 
0.0263294 -0.299557 1.49752 1 0 0 
0.0170303 -0.300069 1.49475 17 16 14 
-0.0495812 -0.300875 1.47566 12 9 4 
0.0252149 0.157839 1.37299 96 95 93 
-0.0472335 -0.391868 1.50944 32 28 25 
-0.00743089 -0.341549 1.50219 118 114 113 
-0.0101517 0.451388 1.34404 27 23 20 
-0.0238963 0.109449 1.36151 1 0 0 
-0.00314449 0.508878 1.34192 102 101 99 
0.0450936 -0.208146 1.46914 118 117 113 
0.053943 0.0669344 1.39529 12 11 9 
0.014999 -0.197682 1.44337 99 87 87 
-0.0863798 -0.448104 1.54706 24 20 19 
0.0716668 0.056452 1.40628 122 120 121 
0.019116 -0.187546 1.44621 111 102 103 
0.0803836 0.0510737 1.4151 92 88 87 
0.0573102 -0.180692 1.46628 118 115 110 
-0.0360811 -0.339161 1.49196 39 35 34 
-0.115163 -0.175525 1.4544 36 32 31 
0.0523829 -0.172507 1.45578 130 127 122 
0.0177857 -0.155847 1.43817 19 18 14 
-0.0387699 -0.14919 1.41657 117 112 109 
-0.0245047 -0.348134 1.50346 139 135 132 
-0.133932 0.0280666 1.38686 103 103 103 
-0.0548085 -0.132148 1.40908 121 120 116 
-0.0202359 0.0171177 1.36756 1 0 0 
0.0974366 0.0123358 1.43372 98 96 97 
-0.161294 -0.110885 1.45131 121 120 118 
-0.0563539 -0.359031 1.49666 46 42 31 
-0.14716 -0.0394645 1.40777 129 125 124 
-0.120109 -0.0424188 1.39459 15 11 8 
-0.0165695 -0.375972 1.5158 108 104 103 
-0.151924 -0.219555 1.49146 87 86 84 
0.0641784 -0.0734276 1.42554 104 100 99 
-0.0722777 -0.0762645 1.39312 116 115 113 
-0.0933383 -0.403456 1.53679 123 119 118 
0.0112095 0.62768 1.33138 127 125 126 
0.0856073 0.422204 1.41291 17 13 10 
-0.0643638 -0.427731 1.53059 26 22 19 
0.0903403 0.207334 1.42926 129 128 123 
0.0326707 0.465004 1.35944 122 119 114 
0.049813 0.252593 1.37685 114 113 109 
-0.0213476 0.0903456 1.36535 104 103 101 
-0.0275852 -0.745258 1.61345 226 230 255 
-0.0461369 -0.728577 1.6189 90 97 115 
-0.101503 -0.252181 1.47184 132 128 125 
0.0494044 -0.188307 1.46411 159 158 154 
0.124413 0.0239864 1.46241 6 5 1 
-0.0718221 -0.313732 1.48484 61 57 54 
0.0332186 0.404663 1.36455 29 28 23 
0.0346852 0.395637 1.36077 131 127 124 
0.100689 -0.0847867 1.49374 13 12 10 
-0.00849891 -0.405086 1.52904 33 30 25 
0.0146141 -0.0998324 1.42258 130 129 127 
0.130187 0.0607372 1.47101 127 126 122 
-0.0237986 -0.0747313 1.39818 95 94 92 
0.0880159 0.0138579 1.42027 60 58 59 
-0.0584605 -0.377506 1.5058 21 17 16 
0.0250236 -0.324116 1.5039 24 21 16 
-0.139387 -0.0569162 1.40823 29 26 21 
-0.111391 -0.335115 1.51595 30 26 23 
-0.0323475 -0.332016 1.48553 22 21 19 
0.0391577 -0.191975 1.45402 112 111 107 
0.0658783 -0.192815 1.48702 118 114 111 
-0.0151735 -0.0325284 1.37607 29 28 24 
0.051603 0.265547 1.38208 116 111 108 
0.0528676 -0.15452 1.45366 113 112 110 
-0.0634433 -0.136357 1.40968 118 115 110 
0.0919943 0.279394 1.42805 101 98 93 
-0.0417331 -0.527554 1.55951 116 115 113 
0.00995554 -0.180932 1.43831 88 80 78 
-0.00201128 -0.160308 1.42801 94 93 91 
0.0352113 0.4181 1.36716 107 104 99 
0.055556 0.582812 1.37177 126 125 123 
0.0485602 -0.048042 1.41265 17 16 12 
0.0270158 0.00999995 1.37489 1 0 0 
0.0376098 -0.130975 1.43787 133 132 130 
0.0322065 -0.0988847 1.42485 3 1 2 
-0.0516508 -0.320861 1.48091 132 127 124 
-0.0171994 0.326759 1.34388 95 93 96 
-0.109834 -0.175479 1.44179 121 117 116 
0.132219 0.0249957 1.48204 1 0 0 
-0.0449056 -0.65334 1.58646 26 25 21 
-0.0397726 -0.367113 1.50535 124 120 117 
-0.0413255 -0.413257 1.52402 120 116 115 
-0.0221208 -0.0519036 1.38126 120 119 115 
-0.0461399 -0.350227 1.49921 39 35 26 
0.011431 -0.0265778 1.38327 106 102 99 
-0.196596 0.0216987 1.43554 19 17 18 
-0.100734 -0.285196 1.4951 114 114 112 
-0.11225 -0.294726 1.5001 124 120 119 
0.0181787 0.668283 1.3102 108 104 101 
0.0284056 0.502017 1.35578 80 79 77 
0.0741334 0.0413408 1.4063 8 4 1 
-0.0177735 -0.202217 1.44003 46 36 34 
-0.0260529 -0.0436749 1.37641 104 103 99 
-0.13827 -0.00446868 1.38678 99 98 96 
-0.00528945 -0.427699 1.53437 80 76 75 
0.0182429 -0.161437 1.44631 94 93 89 
-0.00655557 -0.598435 1.60501 122 124 139 
0.035991 -0.211746 1.45522 86 85 81 
-0.014186 0.301044 1.3549 1 0 0 
0.0707435 0.132586 1.40328 86 82 81 
0.0366972 -0.421134 1.58477 92 91 86 
-0.0335864 -0.378129 1.51232 108 104 101 
0.141912 -0.0571904 1.55917 109 109 111 
0.0851614 0.432954 1.40796 109 108 104 
-0.44202 0.688652 2.01399 111 111 109 
-0.0590887 -0.33192 1.48425 42 39 32 
-0.0142403 -0.325069 1.49627 104 100 97 
0.00354161 -0.325676 1.50163 97 96 94 
0.0984696 0.115817 1.43947 107 101 101 
-0.0621172 -0.615619 1.60804 106 101 98 
0.121537 -0.12656 1.5684 111 110 108 
-0.049639 -0.175903 1.42254 91 89 90 
-0.153468 -0.205795 1.49149 99 97 98 
0.00134114 -0.399804 1.53163 129 125 124 
-1.2754 0.798959 4.6446 140 142 131 
0.0624913 -0.108437 1.4374 35 34 32 
0.101425 -0.151102 1.53323 77 76 72 
0.100861 0.0592472 1.43447 77 76 74 
-0.0498849 0.253023 1.35665 102 102 102 
0.0379864 0.450698 1.36279 80 79 75 
0.0975926 0.0743624 1.43584 85 84 82 
-0.034033 -0.692492 1.62278 195 204 221 
0.064759 0.0688651 1.40651 39 39 39 
0.0471557 -0.214879 1.47544 151 149 150 
-0.0495782 0.142782 1.35792 89 87 88 
-0.0143373 -0.611154 1.60631 18 12 12 
-0.15403 -0.194075 1.48419 113 112 110 
-0.0146743 -0.385572 1.51445 118 114 113 
0.0635263 0.0403661 1.40752 6 2 0 
-0.0520996 0.130482 1.37175 48 48 48 
0.0356793 0.0587238 1.37645 89 89 89 
0.0846761 0.274924 1.41782 45 44 40 
0.0276321 0.474177 1.3509 99 98 94 
-0.0102649 0.23291 1.36141 89 87 88 
0.026494 0.113739 1.37565 81 79 80 
0.00509607 -0.388246 1.52952 36 32 31 
-0.0405153 -0.324406 1.4908 100 96 93 
0.120195 0.0105956 1.4504 67 66 64 
0.0950502 0.429371 1.41409 57 56 52 
-0.0523751 0.4829 1.34308 67 66 64 
-0.0402083 -0.543889 1.56863 83 78 74 
0.122499 -0.138485 1.57322 195 194 199 
0.0580573 -0.117932 1.43814 93 92 90 
-0.0930996 -0.324207 1.4992 50 46 43 
0.0703812 0.254546 1.40111 36 32 31 
-0.00921324 -0.378972 1.52051 110 106 105 
0.032236 0.697603 1.27463 133 133 123 
-0.0557557 -0.398138 1.51044 85 81 80 
-0.132718 -0.337922 1.57533 34 31 26 
0.000460804 -0.254728 1.44958 103 100 91 
-0.00518707 -0.21545 1.42754 106 102 99 
0.12281 -0.0953632 1.54003 36 35 33 
0.0628843 0.550769 1.374 81 79 80 
0.0600085 0.0774236 1.39038 75 74 72 
0.0903936 0.0814818 1.43615 24 23 21 
0.0606126 0.146408 1.38814 101 100 98 
-0.0487144 0.161615 1.35671 64 63 61 
0.0567927 0.679947 1.31758 58 55 50 
-0.00310785 0.157499 1.3655 67 66 64 
0.0802042 0.0411693 1.41505 41 37 36 
0.0652952 -0.217564 1.49948 60 59 57 
0.0607275 -0.202107 1.48258 128 127 123 
0.00947958 -0.302863 1.48798 136 135 133 
-0.0426261 -0.276438 1.47413 48 44 43 
0.079652 -0.19687 1.52035 70 68 69 
-0.138175 -0.156844 1.46366 62 61 59 
-0.0918039 0.0553438 1.36167 70 70 70 
0.0107484 0.143472 1.37073 64 63 61 
-0.0482091 0.21047 1.34757 109 105 106 
0.0372009 0.294064 1.3635 71 67 64 
0.0672814 0.326033 1.3975 37 33 30 
-0.127609 -0.217531 1.47562 26 22 21 
-0.0299779 -0.421495 1.52297 122 121 119 
-0.105896 0.679681 1.30012 29 25 26 
-0.0321418 -0.354822 1.49826 114 110 107 
0.149903 0.0864342 1.53417 47 52 46 
-218.443 -41.0988 -3132.75 81 89 108 
-125.73 7.51665 -2091.18 186 195 210 
-93.9017 38.805 -1388.52 79 88 103 
-71.9522 24.9585 -942.709 83 92 109 
-13.8325 -7.50322 -158.676 255 253 255 
-10.7325 -3.22912 -87.7142 157 170 179 
-88.2985 -31.084 -1156.02 178 186 199 
-71.7834 -6.45601 -963.986 167 174 190 
-96.4089 10.8502 -1295.8 66 73 91 
-98.4156 11.6428 -1335.29 197 204 222 
-100.359 13.9853 -1381.42 192 199 217 
-72.0073 10.9372 -1068.93 70 79 94 
-153.172 46.6752 -2069.9 198 207 224 
-82.5226 25.5072 -1132.2 202 211 228 
-303.327 237.49 -5066.44 62 74 88 
-72.9378 22.7256 -946.74 194 203 220 
-51.9646 16.4138 -684.385 193 200 219 
-93.6547 34.0146 -1363.29 65 74 89 
-75.4667 26.0427 -1011.68 186 195 212 
-88.2166 35.5169 -1278.13 79 88 103 
-67.087 32.5937 -900.485 72 81 98 
-165.456 50.8652 -2267.82 202 211 228 
-81.7321 28.5569 -1175.66 194 203 218 
-82.0693 18.6347 -1131.85 181 190 207 
-68.0279 27.9458 -929.05 97 106 123 
-93.8673 2.55227 -1256.24 80 87 105 
-98.0877 19.0581 -1417.44 67 76 91 
-84499.8 6318.5 -1.28749e+06 188 197 212 
-85.1219 27.8137 -1231.54 181 190 205 
-72.7861 23.9669 -993.323 196 203 221 
-66.5577 4.92438 -1004.31 181 190 205 
-216.813 80.1302 -3134.18 72 81 96 
-69.2918 24.0361 -929.963 186 195 212 
-71.3602 25.1587 -974.062 86 95 112 
-115.466 1.15944 -1636.34 185 194 209 
-58.8959 42.1806 -839.852 188 195 213 
-87.7487 -31.967 -1255.74 182 192 204 
-95.4321 -36.2287 -1399.02 39 49 61 
-87.5505 -13.6576 -1166.4 97 102 121 
-47.8695 29.6177 -633.679 180 189 206 
-70.5558 3.59881 -929.338 55 60 80 
-98.0887 66.7924 -1408.63 196 203 221 
-109.345 40.7133 -1461.64 59 67 86 
-128.355 47.6576 -1851.89 69 76 92 
-260.453 50.0143 -3778.28 87 96 111 
-68.13 10.1409 -922.459 171 178 196 
-71.0316 6.88679 -961.276 78 85 103 
-73.6588 5.13434 -1003.38 191 198 216 
-1737.97 125.973 -26327.3 173 182 197 
-74.4912 3.10512 -1007.6 191 198 216 
-80.1463 0.851951 -1106.28 163 170 188 
-81.3194 -5.54341 -1091.52 65 72 88 
-118.64 -41.3556 -1621.17 181 189 202 
-162.627 -36.858 -2479.8 71 80 97 
-66.1973 27.1267 -977.702 79 88 103 
-115.891 40.2372 -1559.19 158 167 184 
-54.2795 12.8219 -621.976 75 87 101 
-93.6322 5.74021 -1390.94 90 99 114 
-1180.97 86.6488 -17058.1 188 197 212 
-258.258 13.7663 -4428.99 105 114 129 
-70.4899 3.93372 -930.936 108 113 133 
-76.0907 1.49305 -1029.07 58 65 83 
-98.6583 7.51232 -1492.47 173 182 197 
-245.764 36.6516 -3349.11 176 183 201 
-102.765 -7.55016 -1498.09 78 87 104 
-85.6469 -5.87632 -1176.47 160 167 183 
-222.506 41.5601 -3033.3 79 88 105 
-82.2467 -5.19454 -1111.51 76 83 99 
-65.3312 14.4026 -892.372 173 182 199 
416832 167448 2.50912e+06 55 63 74 
-656.193 513.627 -10963.1 62 74 88 
-49.8262 -18.0358 -711.076 181 191 203 
-95.0062 5.66783 -1416.38 59 68 83 
-68.3087 23.47 -999.495 51 60 75 
-76.2802 11.6177 -1091.27 148 157 172 
-120.413 17.7098 -1636.64 166 173 191 
-71.172 7.5034 -967.961 105 112 130 
-205.088 14.8424 -3467.75 69 78 93 
-70.5853 3.82475 -932.182 60 65 85 
-255.211 12.2493 -4367.56 110 119 134 
-78.297 -1.88894 -1053.34 157 164 182 
-81.2771 -5.17354 -1093.05 77 84 100 
-53.2534 30.8328 -749.312 54 63 80 
-63.9053 23.7972 -854.202 59 67 86 
-74.2756 2.00637 -903.164 161 170 185 
-56.8041 9.58781 -839.393 109 118 133 
-95.5459 -22.8165 -1270.63 76 81 100 
-11.5722 -2.52188 -103.54 151 158 174 
-62244.2 -13625.6 -912649 153 162 179 
-189.66 -4.20042 -2558.44 164 171 189 
-124410 9230.51 -2.12371e+06 182 191 206 
-166.514 12.2896 -2274.65 139 146 164 
-269.57 20.9431 -3913.47 156 165 180 
-157.9 16.4211 -2157.65 102 109 127 
-136.414 25.7107 -1865.46 142 151 168 
-174.896 43.8742 -2543.06 163 172 187 
-114.687 35.0128 -1569.89 186 195 212 
-109.553 4.92951 -1310.65 66 75 92 
-106702 46822.5 -1.94218e+06 63 75 89 
-46.695 7.84824 -539.014 73 82 99 
-86670 -1729.87 -1.17877e+06 166 173 191 
-11.5558 -2.54066 -103.551 58 65 81 
-9.76681 -2.08977 -86.6275 119 126 142 
-0.109845 0.00642344 1.38102 82 81 79 
-0.0401934 -0.66165 1.60785 118 117 115 
8.85411 2.77816 16.4132 9 13 24 
8.96591 2.96309 16.9617 1 5 16 
8.85895 2.78486 16.6787 5 9 21 
7.32436 2.73152 14.2796 126 125 130 
8.76041 2.74714 16.0922 29 33 44 
8.87975 3.01141 16.586 65 66 70 
-0.189137 0.64376 1.36369 108 104 101 
8.78908 2.75774 16.3127 15 19 30 
8.80709 2.76939 16.392 15 22 32 
8.87634 2.79021 16.7097 5 9 21 
8.89946 2.79682 16.8169 23 27 38 
8.85744 2.69356 16.6952 40 46 58 
8.80071 2.68044 16.6438 18 27 36 
7.85436 2.87702 17.038 19 22 31 
8.76 2.66462 16.274 25 29 40 
7.76308 2.66082 16.8588 141 146 152 
-0.200291 0.616372 1.37943 84 83 81 
8.94498 3.06969 16.9272 31 34 43 
7.89305 2.5282 14.1381 143 148 152 
8.43184 2.69073 14.0962 28 33 36 
8.43884 3.0296 17.1534 108 109 113 
8.51891 2.86209 17.0674 20 20 28 
8.27651 2.94913 16.6996 15 16 20 
8.04219 2.87832 16.7189 31 32 37 
8.9671 2.77356 17.0991 118 123 129 
7.87843 2.70594 17.0714 141 146 150 
-0.0842053 0.698631 1.25802 45 43 31 
8.83035 2.69665 16.6953 15 22 32 
8.3892 2.97947 17.1483 40 41 46 
8.2443 2.96029 17.1258 30 31 36 
7.75073 2.48519 13.9298 147 152 158 
-0.155529 -0.125766 1.45545 93 92 90 
-0.210229 0.513909 1.41417 118 116 117 
-0.171264 0.0814026 1.42288 2 0 1 
-0.193188 0.0304805 1.4311 1 0 0 
-0.223526 -0.00224536 1.4645 101 100 98 
4.06462 1.98277 7.70131 103 103 105 
-0.22743 0.608164 1.46505 7 8 10 
-0.235915 0.505313 1.48402 0 0 15 
-0.23455 0.122567 1.57775 95 93 94 
-0.214578 0.0364907 1.45932 102 101 99 
-0.240204 0.504533 1.49844 0 0 7 
-0.22803 0.532441 1.45643 117 117 115 
-0.235715 0.538675 1.48852 2 0 3 
-0.230551 0.144672 1.51608 1 0 0 
-0.235082 0.0154907 1.50438 82 81 79 
-0.236669 0.114538 1.54121 85 85 85 
-0.0741453 0.649422 1.30227 4 0 0 
-0.227928 0.0331568 1.48752 1 0 0 
-0.189972 -0.157211 1.54263 4 3 1 
-0.168754 0.0502372 1.41117 81 79 80 
-0.244367 0.0287908 1.5754 17 16 14 
-0.228591 0.571692 1.46286 91 90 95 
-0.104094 -0.436634 1.57072 29 28 26 
-0.183186 -0.135529 1.50341 19 18 14 
-0.246245 0.483894 1.49336 5 1 0 
-0.0960022 0.00974415 1.3808 3 0 0 
-0.226583 0.500265 1.4563 137 136 142 
-0.0633763 0.649189 1.30173 127 126 122 
-0.180097 -0.252668 1.54205 87 84 79 
-0.197343 0.566282 1.39336 103 101 102 
-0.182254 -0.116836 1.4767 122 120 121 
-0.327802 0.694411 1.40282 131 128 123 
-0.20507 -0.0769234 1.51678 101 99 100 
-0.246571 0.0267755 1.54291 100 100 100 
-0.0568896 -0.576092 1.58727 35 32 27 
-0.0667452 -0.204954 1.44462 90 86 83 
-0.236287 0.0924627 1.57125 1 0 0 
-0.235878 0.12086 1.55719 92 91 89 
-0.227805 0.109296 1.50502 81 81 81 
-0.242856 0.0552244 1.5375 8 4 5 
-0.229776 0.586019 1.44533 81 82 86 
-0.232325 -0.0143152 1.50363 38 34 31 
-0.239876 0.0305108 1.51493 112 108 109 
-0.245485 0.0297129 1.55856 101 100 98 
-0.177837 -0.19625 1.51352 96 86 85 
-0.231837 0.602194 1.45775 18 19 23 
-0.225712 0.577795 1.456 54 54 52 
-0.237245 0.100455 1.55411 82 80 81 
-0.271719 0.670005 1.37536 16 16 8 
-0.242532 0.0615048 1.54621 14 13 11 
-0.206007 0.699952 1.28177 101 91 82 
-0.23271 0.605643 1.47332 24 23 29 
0.0238147 0.775711 2.54123 78 77 75 
-0.0487117 -0.746258 1.63444 89 80 109 
-0.134 0.657537 1.31265 51 47 46 
0.577602 0.73953 1.40034 87 86 84 
-0.162185 0.250909 1.40244 64 62 63 
-0.212328 0.500502 1.41768 95 94 92 
-0.188474 0.63112 1.36855 41 40 38 
-0.353737 0.699978 1.48796 73 72 68 
-0.0628978 -0.358986 1.50734 37 33 30 
-0.247091 0.0595589 1.55669 57 57 57 
-0.243951 0.651903 1.39446 102 99 94 
-0.325235 0.679756 1.43169 70 69 67 
-0.22663 0.0770499 1.50264 44 44 46 
0.588355 0.698473 1.401 32 30 33 
-0.289752 0.682932 1.35592 70 69 64 
0.0303898 -0.128032 1.43576 93 89 90 
0.104671 0.140983 1.44708 106 102 99 
0.0897558 0.0414777 1.42133 7 1 1 
0.0411242 0.616259 1.34015 123 121 122 
0.0172243 0.0178148 1.3779 1 0 0 
0.119627 0.382032 1.45961 107 104 99 
-0.104502 0.626391 1.33014 137 133 134 
0.105017 0.0932779 1.45079 121 120 118 
-0.0586064 0.641363 1.3186 120 116 113 
0.0163763 0.128812 1.37157 100 99 97 
0.0563055 -0.0935519 1.43127 107 103 102 
0.116983 0.508168 1.42965 115 114 110 
0.0223423 -0.052138 1.40285 108 107 105 
0.120395 0.0325049 1.45618 1 0 0 
0.0340182 0.103236 1.37977 76 74 75 
-0.0182537 -0.197355 1.43524 21 11 9 
0.10116 0.0340031 1.42879 94 93 91 
-0.131682 0.643748 1.33481 98 97 95 
0.0359488 0.605229 1.34072 89 87 88 
-0.0280884 0.224764 1.35903 77 76 74 
0.0880994 0.226861 1.42242 20 17 8 
-0.00476871 0.0787362 1.36977 94 93 91 
0.0349125 -0.0516171 1.40648 105 104 102 
0.110119 0.0242507 1.43947 100 99 97 
0.0443617 -0.171432 1.45474 122 117 113 
-0.0189903 0.0509524 1.36699 84 82 83 
0.0687343 0.589824 1.36557 88 87 85 
-0.00378509 0.659159 1.30024 76 75 71 
-0.0365202 -0.711299 1.60458 185 193 206 
-0.0256707 -0.735245 1.61807 152 158 180 
-0.142169 0.0649515 1.59621 71 70 68 
-0.110746 0.0653309 1.61391 70 69 65 
-0.0485591 -0.61705 1.61155 21 19 24 
-0.0375449 -0.659016 1.59971 101 96 93 
-0.0532388 -0.613716 1.62201 12 8 5 
-0.0284474 -0.616608 1.59998 12 8 7 
-0.186772 0.0216309 1.42456 5 4 2 
-0.0280753 -0.662373 1.60132 41 39 40 
-0.0548368 -0.658579 1.62247 69 67 68 
-0.0381696 -0.637196 1.61275 211 212 230 
-0.0342357 -0.619331 1.61023 220 220 228 
0.100487 -0.000438637 1.41036 14 16 28 
-0.0435628 -0.66349 1.6185 32 31 29 
-0.195492 -0.194666 1.55463 1 0 0 
-0.229481 0.0240238 1.47967 81 80 78 
-0.188825 -0.176963 1.53865 76 66 67 
29048.8 6906.26 29044.4 168 171 160 
-0.227662 0.625625 1.4688 76 79 70 
-0.224865 0.0146753 1.47112 6 5 3 
-0.212576 -0.105267 1.54704 32 28 25 
-0.194676 0.200192 1.43703 77 73 72 
-0.271527 0.662799 1.40136 71 68 59 
0.210852 0.821269 2.31368 76 74 75 
-0.222784 -0.0984091 1.55827 127 125 126 
-0.203761 -0.17008 1.56478 125 124 119 
-0.230983 0.533134 1.48484 139 138 143 
-0.239217 0.100154 1.56193 93 93 93 
-0.24943 0.0368132 1.5612 1 0 0 
-0.221688 0.599594 1.4623 38 41 50 
-0.208096 -0.135426 1.55252 3 2 0 
-0.206958 -0.124048 1.53811 99 98 96 
-0.25127 0.0626054 1.56955 80 80 80 
-0.184152 0.221715 1.42638 80 78 79 
-0.209993 -0.105422 1.53121 42 38 35 
0.247435 0.82002 2.27132 70 65 59 
-0.217321 0.521366 1.43229 84 84 84 
-0.187095 -0.104046 1.4621 10 9 7 
-0.225132 0.556711 1.47238 80 80 80 
-0.230551 -0.0416529 1.52173 43 39 36 
0.208353 0.82737 2.29697 14 13 11 
0.195782 0.820439 2.30613 14 10 7 
0.268174 0.786954 2.29187 68 68 56 
-0.22236 -0.0441726 1.49456 44 41 36 
-0.191792 -0.074265 1.45353 42 41 37 
0.174817 0.817841 2.30776 70 73 62 
0.254076 0.82417 2.28525 12 7 1 
0.231353 0.798309 2.35643 68 67 63 
-0.239334 0.108897 1.55667 10 8 9 
-0.228268 -0.0717042 1.54544 106 105 101 
0.222422 0.811531 2.32522 59 58 54 
-0.23658 0.351052 1.5252 25 24 22 
0.0655102 0.344401 1.39353 11 10 6 
0.0803007 0.487873 1.40679 131 130 125 
0.0884049 0.144257 1.43902 13 9 6 
0.0802206 0.330128 1.42106 144 140 137 
0.0530744 0.234237 1.39418 112 108 107 
0.0433686 0.104019 1.39542 88 86 87 
0.0807671 0.589025 1.38739 23 18 15 
0.108513 0.696891 1.34079 109 111 100 
0.0476538 0.214113 1.39073 103 97 97 
0.034899 0.321112 1.37778 77 73 72 
0.108915 0.110606 1.4792 110 106 103 
0.0845359 0.105478 1.45083 14 10 7 
0.0769919 0.51727 1.40048 109 109 107 
0.0476331 0.0929462 1.4117 8 8 10 
0.127297 0.397205 1.49091 96 93 84 
0.110241 0.0526454 1.46534 6 6 6 
0.0863397 0.230538 1.44403 141 136 130 
0.109732 0.0408433 1.46265 8 7 5 
0.0908296 0.25238 1.44891 130 127 122 
0.121176 0.0380362 1.47865 4 2 3 
0.124605 0.0470203 1.4834 36 35 31 
0.064421 0.285273 1.42289 105 104 102 
0.0845037 0.688891 1.3518 95 94 90 
0.0823209 0.0403906 1.43852 75 73 74 
0.163121 0.704772 1.39832 77 76 72 
0.106133 0.0211225 1.46165 101 99 100 
0.0465627 0.322568 1.39318 16 12 9 
0.123114 0.365614 1.48389 119 116 111 
0.083376 0.367818 1.43107 23 22 18 
0.0117213 0.386759 1.37455 117 116 114 
0.124903 -0.0431327 1.52425 140 138 139 
0.0963114 0.582643 1.41616 100 99 94 
0.0983345 -0.0734537 1.50528 126 125 123 
0.09647 0.484869 1.43616 131 130 125 
0.148017 0.511479 1.54711 168 165 156 
0.0388841 -0.201135 1.48503 150 152 149 
0.19531 0.711255 1.44977 94 99 93 
0.146308 0.515069 1.52582 142 139 134 
0.0495932 0.038122 1.41578 24 22 23 
0.0723629 0.210175 1.43312 122 121 117 
0.082885 0.241315 1.43903 11 6 2 
0.0673504 0.255213 1.42634 116 115 113 
0.082244 0.526173 1.40358 131 130 128 
0.0797557 0.672006 1.35257 81 80 78 
0.067852 0.119071 1.43569 117 116 114 
-0.00658179 0.122753 1.38957 26 26 28 
0.119839 0.415632 1.47577 110 109 105 
0.0665361 -0.125007 1.47757 121 118 113 
0.178489 0.708039 1.41296 106 107 102 
0.0399176 -0.235302 1.50069 106 105 103 
0.0229618 0.00924417 1.40393 9 9 11 
0.106764 -0.0335654 1.47648 124 123 118 
0.15448 0.709157 1.37745 114 115 110 
-0.0236624 -0.682308 1.66092 85 83 84 
0.0480936 -0.280021 1.54469 100 99 97 
0.0355707 -0.257143 1.50658 113 112 107 
0.098924 0.692933 1.36506 72 71 69 
0.140401 0.429923 1.53171 136 133 126 
0.177678 0.678116 1.48681 76 75 73 
0.0701897 0.268438 1.42544 105 100 94 
0.119375 0.0621754 1.47753 76 75 71 
0.0816666 0.469905 1.42055 126 125 123 
0.11488 0.0323989 1.47052 19 19 19 
0.0610666 0.147168 1.42432 74 73 71 
0.0991392 0.526861 1.41914 83 82 80 
0.0683112 0.677713 1.34522 80 79 77 
0.0745929 -0.177034 1.52318 82 77 81 
0.0604426 -0.158848 1.48835 114 110 109 
0.0321932 0.651921 1.35169 80 76 75 
0.0407262 0.0267234 1.39907 94 93 91 
0.0535453 0.0181391 1.40668 105 103 104 
0.0543845 0.20781 1.39466 113 112 110 
0.08011 0.0290623 1.42398 98 97 95 
0.0972353 0.0123856 1.43792 98 96 97 
0.0970527 0.62956 1.38495 108 106 107 
0.0629114 0.0555084 1.41106 1 0 0 
-0.0413917 -0.754743 1.62104 29 27 67 
0.0964187 0.298327 1.4373 112 109 104 
0.0392977 0.041028 1.39633 76 75 73 
0.0344744 0.674356 1.31809 91 87 84 
0.0576325 0.128691 1.40287 71 69 70 
-0.0219396 -0.673598 1.64945 47 43 44 
0.0542631 0.581532 1.37004 71 70 68 
0.0316017 0.649878 1.33036 97 97 87 
0.130597 0.0607954 1.47842 95 94 92 
0.064919 0.0688975 1.40864 48 46 47 
0.0463745 0.0658118 1.3969 66 64 65 
-0.00980618 -0.183018 1.45098 98 94 91 
-0.0257467 -0.736938 1.59851 67 75 96 
0.0291232 0.305329 1.37225 72 68 65 
-0.0368321 -0.762677 1.62842 102 109 125 
0.117606 0.111735 1.48353 115 114 112 
0.0902197 0.211843 1.44598 94 90 87 
0.0922834 0.11689 1.45452 115 114 109 
-0.00965578 0.105034 1.3873 87 85 86 
0.029968 0.149686 1.39409 90 88 89 
0.142332 0.518546 1.60856 40 36 35 
0.139513 0.324776 1.52408 94 90 78 
0.148694 0.514858 1.55847 62 57 54 
0.0579739 -0.102668 1.45457 92 92 92 
0.142144 0.431678 1.53193 67 63 54 
0.101696 0.141614 1.45892 102 101 99 
0.00924978 0.144024 1.38767 111 109 110 
0.144182 0.540368 1.6216 36 31 28 
-0.0196667 0.430182 1.36339 106 101 98 
0.142919 0.424097 1.56203 55 48 42 
0.12722 0.413486 1.49562 29 26 21 
0.0288109 0.657355 1.3313 114 112 100 
-0.0415217 0.0842701 1.38461 19 15 12 
0.142961 0.174889 1.55311 11 6 3 
-0.00355805 0.0788947 1.39022 110 105 111 
0.0651613 0.191257 1.42062 88 87 83 
0.0886287 0.202246 1.44172 13 9 6 
0.0155909 0.203535 1.38807 102 100 101 
0.102352 0.204061 1.46404 17 14 9 
0.015395 0.0609068 1.39467 83 81 82 
0.0963353 0.0585903 1.44417 95 93 94 
0.245303 0.740674 1.49758 123 117 105 
-0.0209181 0.234812 1.37669 88 86 89 
0.160733 0.793278 2.20123 65 63 68 
0.151529 0.0586654 1.53227 18 14 11 
-0.0212582 0.0946204 1.38597 100 100 98 
0.062328 0.235792 1.40967 104 103 101 
0.183698 0.719009 1.40163 81 82 76 
0.153078 0.0578229 1.54642 74 73 71 
0.0657276 0.239806 1.42115 8 7 3 
0.140945 0.244679 1.52945 109 104 98 
0.149158 0.525556 1.59208 43 39 36 
0.151025 0.514338 1.5346 22 17 13 
0.120556 0.260781 1.49834 127 112 105 
0.124813 0.509628 1.46122 102 101 97 
0.0777236 0.230783 1.43279 113 110 101 
0.201644 0.711708 1.49361 135 135 133 
0.0703659 0.593353 1.38893 117 116 114 
0.151955 0.0367609 1.54556 97 96 94 
0.143948 0.551356 1.62083 29 24 20 
0.0464358 -0.163696 1.46903 87 88 83 
-0.00668933 0.247707 1.37872 85 83 84 
0.0942266 0.28644 1.44691 31 28 23 
-0.0323004 0.0238832 1.38698 28 28 28 
0.106099 0.290901 1.47035 148 133 128 
0.11021 -0.155221 1.55957 24 23 18 
0.0662631 0.0295149 1.42113 24 24 22 
0.142633 0.305567 1.55972 112 103 94 
0.152426 0.552174 1.54725 29 19 17 
0.156776 0.0190334 1.54359 1 0 0 
0.149132 0.570133 1.57964 141 137 128 
0.139744 0.333801 1.53599 108 101 93 
0.150127 0.56427 1.55951 140 135 132 
0.0842718 0.550305 1.40975 97 96 94 
0.180697 0.682619 1.5025 32 27 23 
0.153147 0.562874 1.54817 45 35 33 
0.0910376 0.670855 1.35682 98 97 93 
0.0783899 -0.146161 1.50276 39 35 32 
0.181964 0.682098 1.51528 125 120 117 
0.137433 -0.00159956 1.48614 128 126 127 
0.0638174 0.346479 1.41122 7 6 2 
0.161797 -0.00620806 1.60768 24 22 23 
0.178008 0.67513 1.49226 147 144 139 
0.0658495 -0.13829 1.47727 134 133 129 
0.149282 -0.0132996 1.52084 13 12 10 
0.0418964 -0.0204566 1.40608 28 28 26 
0.0860237 -0.131244 1.50655 125 124 120 
-0.0399791 -0.036806 1.39413 48 48 46 
0.150488 0.556583 1.59317 25 17 14 
0.105883 0.38172 1.45286 7 3 0 
0.142326 -0.0298709 1.52299 107 108 103 
0.151073 0.549235 1.57257 159 154 150 
0.146147 0.576338 1.51188 110 105 101 
0.0640241 0.389785 1.41102 102 101 99 
0.13846 -0.0419661 1.53316 132 131 127 
0.151727 0.533912 1.53526 123 118 114 
0.128667 -0.121778 1.57817 121 118 111 
0.0972761 -0.120691 1.51966 42 38 35 
0.146871 0.549414 1.60387 128 123 119 
0.138936 0.428814 1.60585 124 119 113 
0.130694 0.43727 1.64258 142 139 130 
0.0482485 0.586238 1.37664 132 131 127 
0.120496 -0.116268 1.56051 119 118 114 
0.15153 0.538784 1.59534 134 129 125 
0.151313 0.530362 1.5626 148 143 139 
0.0430472 -0.065481 1.43344 97 95 96 
0.0899162 0.63396 1.39076 110 109 107 
0.145204 0.43319 1.54917 120 110 109 
0.138681 0.443735 1.59933 132 124 113 
0.120523 -0.110072 1.54832 115 114 110 
0.14458 0.439134 1.57613 49 42 32 
0.0195079 0.430726 1.37511 134 133 128 
0.193347 0.714364 2.00684 173 173 171 
0.143956 0.441367 1.56376 64 59 56 
0.142674 0.446849 1.58357 28 23 17 
0.152328 0.530625 1.5807 19 14 8 
0.141398 0.443206 1.54761 124 115 108 
0.142889 -0.0698943 1.56638 92 86 86 
0.125522 0.441243 1.48234 86 85 80 
0.151421 0.522679 1.5519 33 28 25 
0.0933717 0.440092 1.42401 108 109 104 
0.030839 0.446915 1.37605 47 43 40 
-0.0189795 0.457878 1.36285 44 42 30 
0.131795 -0.1047 1.5644 143 142 138 
-0.0251982 -0.093005 1.42803 21 20 18 
0.100732 -0.227867 1.5884 112 111 107 
0.136923 0.507397 1.62229 18 13 10 
0.0388566 -0.22644 1.48927 145 147 146 
0.0813217 -0.0863886 1.46996 149 148 144 
0.142541 0.507088 1.60369 126 121 117 
0.102745 -0.217598 1.59843 100 100 98 
0.136599 0.523084 1.63238 29 24 21 
0.118938 0.599883 1.43012 126 125 123 
0.0666748 -0.09183 1.45346 108 104 101 
0.0591755 -0.208265 1.50258 25 21 20 
0.0973267 -0.205092 1.56809 130 129 125 
0.146661 0.514915 1.57712 140 135 131 
0.150555 0.510649 1.54515 168 165 156 
0.0639405 0.203652 1.42595 88 84 81 
0.114291 0.129306 1.48128 17 16 14 
0.0785121 0.251299 1.43506 31 32 27 
-0.00515788 0.0900154 1.39022 17 15 18 
0.0494204 -0.0428519 1.42063 115 114 112 
0.129699 0.024705 1.48755 15 14 12 
0.152003 0.0475972 1.53798 3 2 0 
0.211564 0.71629 1.51187 117 117 115 
0.0979796 -0.246446 1.67219 165 168 175 
0.141105 0.421056 1.57501 21 17 6 
0.141375 0.423278 1.5955 103 100 95 
0.149394 0.56473 1.53118 154 149 145 
0.111969 -0.0643931 1.50228 111 110 108 
0.15319 0.536927 1.57222 108 104 103 
0.0978173 -0.0467248 1.46692 118 117 112 
0.0412336 0.597457 1.36939 131 130 125 
0.0832872 0.011724 1.43588 1 1 1 
0.131487 0.627116 1.43938 102 101 99 
0.0686861 0.0414208 1.42154 1 0 0 
0.179693 0.678839 1.58737 85 82 75 
0.107728 -0.133963 1.54886 106 104 105 
0.0211789 0.674985 1.32471 125 121 118 
0.132433 0.436554 1.62755 117 112 106 
0.150329 0.424609 1.58375 30 22 19 
0.121732 0.400634 1.47086 97 94 87 
0.116976 0.384027 1.46779 90 89 85 
0.12032 0.0139603 1.47131 16 15 10 
0.0445035 0.267431 1.39365 113 109 110 
0.10942 -0.085486 1.52212 128 127 125 
0.0833976 0.296766 1.43651 6 2 0 
0.0627113 -0.185359 1.49975 112 110 111 
0.0926569 0.363899 1.44013 94 93 89 
0.141707 0.240545 1.54722 100 96 85 
0.134015 0.329098 1.51501 104 94 85 
0.0243498 0.614671 1.35645 107 105 106 
0.0906973 0.0745509 1.44807 84 83 81 
0.0166478 0.160101 1.38854 113 111 112 
0.157189 -0.00610731 1.621 39 35 34 
0.0724235 0.137882 1.43506 116 111 107 
0.118707 -0.157899 1.57419 110 105 101 
0.105489 0.398499 1.44689 109 105 102 
0.0800432 -0.0769727 1.46564 102 101 99 
0.0578374 0.112865 1.4116 16 16 16 
-0.00409687 -0.136982 1.45078 106 104 107 
0.0427097 0.0314075 1.40748 118 117 113 
0.0629105 0.414962 1.40827 91 90 88 
0.0179866 0.0953855 1.39408 115 113 114 
0.0593457 -0.288603 1.56019 92 91 89 
0.0645935 0.181041 1.42147 93 89 86 
0.130157 0.582042 1.46135 98 95 90 
0.084803 -0.167153 1.52598 122 118 119 
0.0522319 0.298671 1.39618 90 86 85 
0.136266 0.0964319 1.52713 101 97 94 
0.0365881 0.33986 1.38685 8 7 3 
0.137433 0.526892 1.46584 24 21 16 
0.0531922 -0.378586 1.59484 121 117 114 
0.148451 0.514801 1.52405 142 139 134 
0.210938 0.725028 1.45228 133 135 124 
0.223367 0.72742 1.53012 121 123 112 
0.0577132 -0.306996 1.55907 104 101 96 
0.222402 0.729795 1.54171 102 103 95 
0.109284 -0.109928 1.53522 123 119 118 
0.0770985 -0.116042 1.47941 76 73 66 
0.205627 0.718951 1.57676 107 107 105 
0.104304 0.0828313 1.46756 15 15 13 
0.00478857 -0.0185049 1.39733 71 67 66 
0.140805 0.314528 1.53223 101 97 86 
0.140907 0.400505 1.5632 103 91 79 
0.00630026 -0.360814 1.53005 108 104 103 
0.144911 0.0634571 1.52216 13 8 5 
0.0786805 -0.196539 1.53863 93 93 95 
0.130825 -0.085985 1.5591 103 101 102 
0.107819 0.391889 1.45661 32 31 27 
0.064468 0.218059 1.41699 92 91 89 
0.145231 0.360972 1.5636 95 83 71 
0.123903 -0.0340714 1.49843 122 121 116 
0.14264 0.0254129 1.51821 130 127 122 
0.139552 0.060416 1.47362 119 115 112 
0.143002 0.567819 1.59698 144 139 135 
0.18553 0.689607 1.52691 66 65 63 
-0.0226894 -0.663749 1.60491 82 81 79 
0.0322326 -0.219337 1.47241 14 13 8 
0.134605 -0.0211917 1.50873 107 106 102 
0.0934287 0.240409 1.44899 33 32 28 
0.0996851 -0.194046 1.56236 89 85 84 
0.158453 0.705835 1.38944 108 109 104 
0.0760064 -0.161044 1.50792 60 59 57 
0.212193 0.725503 1.46933 117 119 106 
0.1242 0.391933 1.48446 107 104 95 
0.0803459 0.436051 1.4185 116 112 109 
0.0391489 0.0952586 1.40676 60 58 61 
0.143396 0.40198 1.53435 95 85 76 
0.134161 0.418356 1.60652 136 132 121 
-0.043356 -0.0917657 1.42248 110 109 107 
0.144367 -0.0590739 1.55942 88 87 85 
0.0680577 0.0558019 1.42215 13 13 11 
0.141812 0.0625961 1.51113 1 0 0 
0.134192 0.499006 1.49212 93 90 85 
0.141328 0.526217 1.4853 82 81 79 
0.0663118 0.37618 1.41162 90 89 85 
0.062122 0.266504 1.41329 0 0 0 
0.0624249 0.327899 1.40959 37 33 30 
0.10278 -0.066992 1.48352 43 42 40 
0.101646 0.287395 1.45682 55 52 45 
0.143615 0.573109 1.60718 128 123 119 
0.00531768 -0.219801 1.46232 95 85 84 
0.100717 0.0591467 1.45361 13 9 8 
0.141392 0.41073 1.57007 88 80 69 
-0.00986635 -0.618453 1.63456 21 19 24 
0.119983 0.341698 1.49236 142 129 123 
0.0682973 0.101722 1.42335 92 91 89 
-0.0363879 0.240378 1.37761 80 78 81 
-0.0175492 0.148361 1.38056 76 74 77 
-0.556885 0.722688 1.35335 20 17 8 
0.0671563 0.425424 1.4096 79 78 76 
0.145459 0.229521 1.55971 99 90 83 
0.121347 -0.129874 1.57491 93 90 85 
0.0780026 -0.196649 1.52692 74 74 76 
0.0620485 -0.19816 1.50346 108 107 103 
0.140159 0.372415 1.50813 113 111 99 
0.052572 -0.132053 1.45766 69 65 64 
0.132585 -0.0420296 1.51837 140 138 139 
0.115873 0.364582 1.46748 87 86 81 
0.0509721 0.559387 1.38853 75 74 72 
0.014816 0.668102 1.32969 86 82 79 
0.106896 -0.213553 1.63962 84 73 69 
0.0641317 -0.182952 1.4887 98 94 91 
-0.0138221 -0.114562 1.43687 123 121 124 
0.150044 0.541606 1.5534 139 129 127 
0.157338 0.524811 1.53934 92 87 84 
0.0684388 0.0698144 1.42867 21 20 18 
0.0618841 0.109774 1.42876 24 24 24 
-0.038109 -0.413145 1.53918 88 86 87 
0.0156338 0.695204 1.31581 108 105 98 
0.140526 0.680558 1.65578 74 73 68 
0.0629378 0.170014 1.43061 79 75 72 
0.140167 0.385839 1.5403 57 53 44 
0.0315954 -0.188289 1.47196 45 44 39 
0.103716 -0.154902 1.54577 46 45 43 
0.147957 0.343868 1.56993 77 69 56 
0.0359891 -0.0908435 1.44405 96 94 95 
0.0587354 -0.247522 1.53598 16 12 11 
0.0948853 -0.19721 1.68388 22 23 18 
-0.0231214 -0.0632433 1.41119 90 89 85 
-0.00614751 -0.045195 1.40992 56 54 55 
0.129304 0.0108915 1.48233 66 67 62 
0.0832928 0.275003 1.42687 46 43 36 
0.0829725 0.560906 1.40795 52 51 47 
0.196479 0.710013 1.44998 97 102 96 
0.206116 0.72278 1.43793 65 66 60 
0.156251 0.0692858 1.55414 69 68 64 
0.138369 0.0866989 1.5185 25 21 18 
0.143103 0.349187 1.5822 30 26 15 
0.0606617 0.399965 1.41557 72 71 69 
0.147624 0.413039 1.58772 162 155 147 
0.0688655 0.443458 1.40759 88 87 85 
-0.522558 0.737101 1.32048 115 112 103 
0.223649 0.744806 1.61925 38 40 27 
0.223122 0.735286 1.55456 90 92 79 
0.266236 0.711928 1.28253 23 22 4 
0.482196 0.72988 1.53311 127 127 117 
0.144487 0.508768 1.55111 129 124 118 
0.0759577 0.112145 1.44403 110 105 102 
0.202316 0.711243 1.49289 114 114 112 
0.136001 -0.0306519 1.52952 120 119 115 
0.147004 0.0585018 1.53704 5 2 0 
-0.00529959 -0.201482 1.46978 47 33 32 
0.112028 0.513249 1.44122 124 121 116 
0.104392 -0.157168 1.56893 34 31 26 
0.142556 0.661768 1.45147 107 104 95 
0.0476714 0.256331 1.4005 101 97 94 
0.0773119 0.132197 1.4429 25 20 17 
0.115338 0.646707 1.41461 103 99 98 
0.100065 0.110903 1.46571 104 100 99 
0.119979 0.432845 1.47286 129 126 119 
0.0571515 -0.282086 1.56642 110 106 105 
0.140921 0.305937 1.56143 120 110 100 
0.134378 0.527761 1.46762 22 19 14 
0.107365 0.3812 1.45935 4 0 0 
0.0865132 0.492031 1.42157 37 33 30 
0.11913 0.118437 1.49546 120 119 117 
0.0653496 0.623469 1.37096 106 105 103 
0.0745347 0.278213 1.43212 99 96 91 
0.0654318 0.0200786 1.42791 107 106 104 
0.0643385 -0.171917 1.51 88 82 82 
0.0138642 0.683942 1.32053 121 120 115 
0.102055 -0.135473 1.55461 103 102 100 
0.116316 0.380297 1.47174 109 105 96 
0.118916 0.40135 1.47309 111 108 103 
0.118903 0.500001 1.45807 107 106 104 
0.0985281 0.243096 1.45709 127 120 112 
