ply                 
format ascii 1.0    
element vertex 1251
property float x    
property float y    
property float z    
property uchar red  
property uchar green
property uchar blue 
end_header          
-0.117946 -0.287871 1.51101 129 123 123 
-0.0225584 -0.294788 1.49595 13 12 10 
-0.0857782 -0.292374 1.5014 119 116 111 
-0.114089 -0.236164 1.48886 24 20 17 
-0.151394 -0.210216 1.49842 11 7 4 
-0.234029 0.593102 1.48038 89 88 93 
-0.236049 0.331758 1.5261 117 116 111 
-0.0888694 -0.16938 1.45155 33 29 28 
-0.223254 0.078979 1.50384 77 75 76 
-0.127181 -0.0596385 1.42553 54 51 46 
-0.064774 -0.152601 1.43365 8 4 1 
-0.144329 -0.0642772 1.43796 20 17 12 
-0.11816 -0.127985 1.4525 12 11 9 
-0.147884 -0.118281 1.46037 100 98 99 
-0.133958 -0.115097 1.45586 12 11 9 
-0.118723 -0.0946973 1.44113 16 14 15 
-0.082215 -0.0768829 1.41481 39 38 34 
0.570496 0.732207 1.5745 81 82 77 
-0.118277 -0.329946 1.53411 19 14 10 
-0.0890473 -0.0459371 1.40086 8 5 0 
-0.127087 -0.246011 1.5022 2 0 1 
-0.0624907 -0.183647 1.44419 121 117 114 
-0.172244 0.101184 1.43486 119 117 118 
-0.194867 -0.208337 1.57126 104 100 99 
-0.0587887 -0.660512 1.61481 34 32 33 
-0.0737235 -0.185359 1.4517 14 10 7 
-0.164162 -0.172235 1.49084 102 99 94 
-0.0300601 0.127204 1.37959 88 86 87 
-0.0320781 -0.750847 1.63609 208 213 233 
-0.0057502 -0.325591 1.51266 150 146 145 
-0.0760394 -0.172369 1.44849 4 0 0 
-0.154761 -0.111124 1.46237 32 31 29 
-0.234884 0.584352 1.48818 9 10 14 
-0.0843766 -0.45125 1.56229 26 25 23 
-0.0581413 -0.436689 1.54612 45 42 37 
-0.0978571 -0.431076 1.56076 31 28 23 
-0.13036 -0.28121 1.51621 118 117 112 
-0.145167 -0.0782669 1.4464 31 28 23 
-0.176339 -0.0544581 1.44428 109 105 102 
-0.0909448 -0.0363632 1.39712 10 7 0 
-0.0964161 -0.0847351 1.42508 114 113 111 
-0.156892 -0.194619 1.49425 22 18 15 
-0.213939 0.0299623 1.46787 3 0 0 
-0.227878 0.101763 1.5132 1 0 0 
-0.0560318 -0.350016 1.51147 43 38 32 
-0.119445 -0.313286 1.52396 17 14 9 
0.040011 0.686845 1.33135 114 111 104 
-0.177244 0.0104029 1.42921 128 124 121 
-0.126976 -0.111856 1.45045 27 26 24 
-0.168737 -0.0893896 1.46139 41 40 38 
-0.207497 0.0300825 1.46018 4 3 1 
-0.156611 -0.101434 1.46027 1 0 0 
-0.193626 -0.00451764 1.43446 114 109 106 
-0.163758 -0.158283 1.48552 77 73 74 
-0.141787 -0.306875 1.55735 11 7 4 
-0.166561 0.590186 1.37488 95 94 92 
-0.0535418 -0.114858 1.41715 113 109 106 
-0.240109 0.486925 1.47328 110 109 107 
-0.230212 -0.0704374 1.58486 27 23 20 
-0.18324 -0.0904859 1.4674 37 36 32 
-0.20272 0.0198322 1.45797 93 91 92 
-0.158174 0.225768 1.41257 76 74 75 
-0.200469 -0.23148 1.59317 27 30 39 
0.00780977 -0.0432878 1.40909 107 105 106 
-0.0710846 -0.432177 1.54782 37 33 30 
-0.174346 -0.214543 1.51367 101 100 96 
-0.058565 -0.291998 1.48844 45 42 37 
0.0597416 -0.0352786 1.42451 48 47 45 
-0.00849483 -0.411643 1.54482 57 53 52 
-0.0722516 -0.160037 1.44024 90 86 83 
-0.13129 -0.301245 1.52332 47 44 37 
-0.052674 -0.66086 1.60737 32 31 29 
-0.106489 -0.168664 1.46128 101 97 96 
-0.157558 0.0457968 1.41464 80 79 77 
-0.080895 -0.499837 1.58067 108 104 101 
-0.00671907 0.149001 1.38091 69 67 68 
-0.134059 0.340579 1.39791 111 107 106 
-0.213558 0.650827 1.40418 95 94 92 
-0.179433 -0.0631939 1.45447 1 0 0 
0.00500549 0.10699 1.38859 12 10 11 
-0.0346481 -0.218077 1.44848 11 11 3 
-0.0375109 -0.730054 1.6382 194 197 212 
-0.0609532 -0.129186 1.42546 115 111 108 
-0.0758658 -0.282481 1.49313 45 41 38 
-0.242906 0.613128 1.51135 105 103 104 
-0.238035 0.51696 1.49329 116 115 133 
-0.0471517 -0.254425 1.46952 121 120 116 
-0.10958 -0.0630291 1.41744 106 103 98 
-0.0488293 -0.318984 1.49668 46 42 41 
-0.168953 -0.160404 1.49335 124 120 117 
-0.0540697 -0.379366 1.52209 96 92 89 
-0.137595 -0.127309 1.46116 85 84 82 
-0.062111 -0.195137 1.45005 97 93 90 
-0.00977494 0.101248 1.38295 46 45 43 
0.556081 0.712158 1.60014 69 66 57 
-0.226993 0.192682 1.49402 38 35 30 
-0.135167 0.0840168 1.4136 5 4 2 
-0.250484 0.56044 1.51788 132 99 30 
-0.0967431 -0.407726 1.55168 110 105 101 
-0.238843 0.504534 1.47809 4 5 23 
-0.149242 -0.261628 1.52547 94 93 91 
-0.240413 0.5189 1.50838 130 131 149 
0.0184302 -0.218783 1.47028 80 76 75 
-0.0685238 -0.339632 1.5105 98 95 90 
0.0328995 0.692011 1.32658 111 108 101 
-0.242536 0.535567 1.51369 5 3 6 
-0.236799 0.50268 1.48745 79 78 84 
-0.0510352 0.109487 1.38436 78 74 75 
0.0251663 -0.260322 1.47209 57 57 57 
-0.177496 0.072529 1.43799 77 76 74 
-0.032465 -0.0915543 1.41784 108 107 105 
-0.170983 -0.173008 1.50186 94 91 86 
-0.0507953 0.205963 1.37751 58 56 57 
-0.031959 -0.298003 1.49351 45 41 38 
-0.1371 -0.247077 1.50916 38 34 31 
-0.307413 0.712511 1.30961 78 76 63 
-0.151307 -0.221976 1.50234 19 15 12 
-0.267755 0.667294 1.41779 73 73 65 
0.53086 0.731742 1.63162 64 63 58 
-0.240243 0.554178 1.50234 86 82 83 
-0.0387758 0.0507491 1.3822 40 39 37 
-0.230127 0.183294 1.5007 7 4 0 
-0.147688 0.200191 1.41059 50 48 51 
-0.221892 0.673189 1.38302 50 48 49 
-0.206127 0.0976602 1.46807 68 68 68 
-0.135267 -0.177717 1.47926 62 58 59 
-0.0688888 0.0614388 1.39317 56 54 55 
-0.0584208 0.080813 1.39463 59 57 58 
-0.0501665 0.0993031 1.38223 71 70 68 
-0.171247 0.22171 1.42353 79 77 78 
-0.211898 0.48364 1.43385 61 61 59 
-0.0476422 0.692029 1.30634 97 96 92 
0.00849586 -0.137613 1.44629 93 92 88 
-0.0409313 -0.432632 1.53799 83 81 82 
-0.0561922 -0.222743 1.45478 105 101 98 
-0.0821076 -0.066301 1.41018 27 26 21 
-0.172882 -0.0349863 1.43508 25 21 18 
-0.0487804 -0.491068 1.56086 102 97 93 
0.0148581 0.654496 1.33464 115 112 103 
-0.0654215 -0.248076 1.469 30 26 23 
-0.03719 0.257159 1.36945 2 1 0 
-0.164785 0.282468 1.41439 100 100 100 
0.00576959 -0.392257 1.53699 30 26 23 
-0.101712 -0.30153 1.51007 27 26 22 
-0.0498535 -0.199965 1.44775 120 119 115 
-0.101475 -0.152025 1.45231 26 22 19 
-0.0746603 -0.343984 1.51386 124 120 117 
-0.0129307 0.463404 1.35745 97 94 85 
-0.0328724 0.0760974 1.38072 80 76 73 
-0.0370349 -0.327242 1.49984 122 118 115 
-0.169832 -0.116397 1.47449 31 30 28 
-0.00279892 -0.311066 1.50328 30 26 23 
0.0546514 0.066832 1.40678 31 29 30 
0.0238166 0.678254 1.32315 104 99 96 
0.00260925 -0.360676 1.52476 99 98 96 
-0.0151374 -0.164049 1.44716 98 94 91 
-0.0389498 0.0361122 1.3806 79 78 76 
-0.0757058 -0.218689 1.46265 30 29 25 
-0.144322 0.102164 1.41646 83 82 78 
0.0422693 -0.0439254 1.41886 32 32 30 
-0.016283 -0.0919736 1.42203 30 25 19 
0.0682842 0.0117788 1.41968 7 3 2 
0.0296946 -0.0209758 1.40022 20 19 15 
0.0306082 0.421161 1.37527 115 114 109 
-0.0159481 -0.405964 1.53693 34 31 26 
0.0406682 0.0397036 1.40126 75 74 72 
-0.0797199 -0.491516 1.57221 37 36 34 
-0.0390238 -0.0507255 1.39449 95 94 92 
-0.0654106 -0.0670044 1.39915 34 30 29 
-0.0452667 0.0842413 1.37792 3 0 0 
0.0143095 -0.249155 1.46306 101 100 96 
-0.169285 -0.0955981 1.46573 25 24 22 
0.0699258 0.0411205 1.41861 14 12 13 
0.0276243 -0.0891308 1.43637 109 108 104 
0.019789 -0.0823893 1.43151 1 0 0 
0.0482303 0.612506 1.36233 93 91 92 
0.0541701 0.586246 1.37947 118 116 117 
-0.0462028 -0.0675558 1.40141 27 22 18 
-0.166017 -0.0199169 1.42403 48 47 45 
-0.0526652 -0.161024 1.43261 31 30 28 
0.0380002 -0.123941 1.45337 116 114 115 
0.0478378 0.595444 1.36881 9 8 6 
0.0180788 -0.338409 1.52108 123 118 115 
0.0439579 -0.0337057 1.41297 128 127 125 
-0.00942263 -0.129827 1.4356 110 109 107 
0.0658271 0.685346 1.34299 87 82 78 
-0.0370728 -0.123932 1.42725 111 107 104 
-0.0257771 -0.106742 1.42357 90 89 87 
-0.00926104 -0.0565154 1.40661 117 116 112 
-0.0502561 0.144935 1.386 81 81 81 
-0.0447574 -0.725758 1.62815 200 209 224 
-0.0397527 -0.70816 1.63385 35 36 66 
-0.0183365 0.146385 1.37649 70 68 69 
-0.0324328 -0.170535 1.44134 60 59 55 
0.0242527 0.0338833 1.39008 52 50 51 
-0.0108347 0.128234 1.37474 73 71 72 
-0.0711927 0.213259 1.3788 50 49 54 
0.040539 0.534033 1.37779 56 56 56 
-0.0483469 -0.756969 1.64162 104 113 128 
-0.026666 -0.745836 1.62074 228 232 255 
-0.0503255 -0.743563 1.62767 165 167 190 
-0.240931 0.512565 1.50461 3 1 22 
-0.0622034 -0.153203 1.43985 18 14 11 
-0.0404195 -0.310731 1.4923 20 17 12 
-0.135839 -0.300586 1.53899 18 14 5 
-0.18666 -0.292588 1.55911 29 31 46 
-0.192044 -0.255214 1.5834 206 207 211 
-0.102379 -0.193533 1.46844 116 115 111 
-0.245313 0.518625 1.51928 16 16 28 
-0.245136 0.520979 1.50731 104 105 110 
-0.0811938 -0.0867288 1.42829 1 0 0 
-0.238135 0.532735 1.48559 141 141 143 
-0.135068 -0.0325553 1.40725 25 23 11 
0.0593182 -0.0353836 1.42296 28 27 23 
0.0147497 -0.0229748 1.3959 25 25 13 
0.0491651 0.594752 1.36706 118 117 115 
-0.137757 -0.0493723 1.42779 39 38 33 
-0.0443669 -0.160678 1.43931 31 27 24 
0.0655361 -0.0606164 1.43916 26 23 18 
-0.2394 0.549093 1.48939 94 94 92 
-0.243881 0.547215 1.50677 116 116 116 
0.0306527 -0.089912 1.44322 128 127 123 
0.0416618 0.00995223 1.40275 9 7 8 
-0.367089 0.724939 1.62104 139 131 120 
-0.050784 -0.116951 1.42289 17 16 12 
0.0410192 -0.124125 1.45962 144 144 142 
0.0485307 0.0287962 1.40674 124 123 121 
-0.177604 -0.126463 1.48693 110 109 105 
-0.0226007 -0.431429 1.54773 17 16 14 
-0.00338131 -0.186768 1.45918 115 101 101 
-0.0929158 0.467707 1.36006 106 105 103 
-0.0493206 -0.227407 1.4627 17 13 12 
-0.0103537 -0.239847 1.45562 98 97 95 
-0.0867911 -0.406812 1.54241 126 123 118 
-0.114245 -0.290163 1.52154 118 112 112 
-0.0355703 0.0533843 1.38458 0 0 0 
0.0558555 0.209 1.40114 106 105 103 
-0.1987 0.118576 1.4668 1 0 0 
-0.0312878 -0.725481 1.62704 100 110 122 
0.0170567 -0.329811 1.5245 11 12 6 
0.0118719 -0.341132 1.52529 8 7 5 
0.0190258 -0.345903 1.53073 110 110 108 
0.0143974 -0.354513 1.53139 117 113 112 
-0.0431524 -0.354065 1.51079 34 30 21 
-0.0950812 -0.368457 1.53549 15 11 8 
-0.0211347 -0.395327 1.53437 128 124 121 
-0.00462536 0.0382238 1.38582 83 79 78 
0.0150295 -0.238067 1.46469 12 12 10 
-0.212822 0.144462 1.48141 94 92 95 
-0.224456 0.145853 1.50383 1 0 2 
0.0439071 0.341485 1.38388 7 3 2 
-0.197044 -0.171649 1.59666 18 14 11 
0.00942795 0.134967 1.38235 97 96 94 
-0.0198278 0.211074 1.36608 88 87 85 
-0.0356446 -0.383859 1.52306 36 32 29 
-0.0921828 -0.0656658 1.42289 125 124 122 
-0.166576 0.657762 1.32336 109 104 101 
-0.16991 0.0811242 1.44466 91 91 91 
-0.0483759 0.183737 1.37028 100 99 97 
0.00712577 -0.0426209 1.40714 105 105 103 
-0.00318637 0.243689 1.37543 1 0 0 
-0.154147 0.0397899 1.42502 85 85 85 
-0.243833 0.610269 1.50961 114 112 113 
-0.0597232 -0.615032 1.60837 128 123 120 
-0.181006 -0.215869 1.54996 107 96 94 
0.0602772 -0.0472972 1.42854 37 36 34 
-0.00213272 -0.365013 1.52665 130 124 124 
-0.0349315 -0.408595 1.53562 39 38 34 
0.0539193 0.0671927 1.40498 23 22 20 
-0.237968 0.579485 1.48372 0 0 7 
-0.00921726 0.242783 1.36631 109 109 107 
-0.00647956 0.0613174 1.39038 114 110 109 
-0.120995 -0.320467 1.53395 35 32 27 
-0.20401 0.165265 1.46637 85 84 82 
-0.242392 0.567377 1.4985 96 97 91 
-0.250865 0.563412 1.51134 118 98 74 
-0.227096 0.329896 1.50453 133 132 127 
-0.018363 -0.0644075 1.41982 111 112 107 
-0.0514709 -0.187607 1.44564 110 106 103 
-0.242428 0.555465 1.49901 76 76 74 
-0.0199791 -0.751141 1.6272 67 75 96 
-0.188247 -0.274584 1.5674 215 214 220 
-0.0257379 -0.69856 1.63317 70 77 96 
0.0839089 0.0213874 1.43269 1 0 0 
-0.0744133 -0.286794 1.50407 88 85 80 
-0.248465 0.560022 1.51947 112 88 62 
-0.00358758 -0.113859 1.43682 131 127 126 
0.059192 0.115271 1.40645 105 103 104 
0.0972553 0.0423755 1.44715 4 3 1 
-0.0757677 -0.299261 1.49758 33 31 19 
-0.061429 -0.0796025 1.40814 128 126 127 
0.020772 -0.0826182 1.43416 10 9 7 
-0.0605061 -0.13001 1.43146 36 33 28 
-0.062636 -0.0674843 1.40792 29 27 28 
-0.0398832 -0.0635262 1.40431 34 31 26 
-0.0104946 -0.217542 1.45933 36 31 27 
-0.00577686 0.0912465 1.38859 127 126 122 
0.0140614 -0.218643 1.4709 102 93 94 
-0.241449 0.522808 1.49142 143 146 155 
-0.176978 -0.210772 1.53464 14 4 2 
-0.236923 0.527555 1.47729 94 95 99 
-0.0199669 -0.366624 1.52526 126 125 121 
-0.137788 -0.373191 1.61564 205 203 216 
-0.524771 0.625451 1.24241 145 140 137 
-0.00560917 -0.0571437 1.4105 91 90 88 
-0.0344548 -0.187324 1.44696 12 7 3 
0.0367549 0.0183833 1.39882 1 1 0 
0.05815 0.0173444 1.41532 114 114 114 
-0.11777 0.016819 1.40706 123 122 120 
0.0150056 -0.249487 1.46501 107 106 104 
-0.0148697 0.447961 1.35136 15 12 7 
-0.0888695 -0.386407 1.5419 86 85 81 
-0.0321608 -0.0586128 1.40013 128 127 123 
-0.0380095 -0.318216 1.50384 135 131 128 
-0.200448 -0.148139 1.58034 90 89 85 
-0.11829 0.0951767 1.41097 104 102 103 
0.0571694 -0.0873264 1.45058 98 94 93 
0.0450392 -0.0333351 1.41809 104 102 103 
-0.108289 -0.245222 1.49635 36 33 26 
-0.0292634 -0.0927477 1.42529 82 81 79 
-0.00262593 -0.419042 1.54775 32 28 25 
-0.0518217 0.0815668 1.38819 77 75 76 
-0.0124411 -0.092296 1.42419 28 27 23 
-0.0230851 -0.308844 1.50276 87 83 82 
-0.0507202 0.11195 1.38466 86 86 86 
-0.0566401 -0.455152 1.55068 12 11 7 
-0.151892 -0.178594 1.48713 83 82 80 
-0.0305391 -0.219875 1.45799 3 3 0 
-0.165327 -0.0323425 1.42595 109 104 100 
-0.0360857 -0.765422 1.63389 208 215 234 
-0.119528 -0.628921 1.3871 88 89 117 
-0.0655167 -0.666096 1.6316 102 101 109 
-0.0749892 -0.227968 1.47942 40 35 31 
-0.134482 0.340244 1.39674 132 128 125 
-0.227489 0.183518 1.50599 7 3 0 
-0.0811403 -0.115709 1.43797 108 105 100 
-0.212291 -0.141486 1.61132 124 133 142 
-0.133538 0.377311 1.38184 69 68 66 
-0.0397932 -0.375033 1.51528 122 118 115 
-0.0712455 -0.581059 1.61971 26 24 29 
0.00141589 -0.368217 1.53838 125 119 119 
-0.033432 -0.612652 1.59232 34 30 29 
-0.0455213 -0.33944 1.50612 35 36 31 
-0.175355 0.0727869 1.44717 64 64 62 
-0.00186274 -0.319605 1.51173 144 143 141 
-0.238081 0.212211 1.54096 6 2 0 
-0.0535995 -0.291771 1.49668 106 103 96 
0.00287183 -0.257558 1.46085 122 119 112 
-0.0166804 -0.664091 1.61192 48 47 45 
0.00429139 0.0996763 1.38411 13 12 10 
-0.00183349 -0.225601 1.4603 84 83 81 
-0.155187 -0.04956 1.43628 41 38 33 
-0.137383 -0.056016 1.44413 22 19 12 
-0.235711 0.188838 1.53349 25 22 17 
-0.0656117 -0.118674 1.43012 115 110 104 
0.0681679 0.0116744 1.41697 3 1 2 
-0.18308 -0.164736 1.54995 26 25 23 
-0.147252 -0.266316 1.53588 94 93 89 
0.0275584 0.20342 1.38604 92 91 89 
-0.0610161 -0.655511 1.60341 115 114 112 
-0.00766434 -0.130812 1.44263 97 96 94 
-0.224819 0.323751 1.49103 106 105 103 
-0.23538 0.517955 1.47823 95 95 107 
-0.0430867 -0.69508 1.63059 194 200 216 
-0.243017 0.483201 1.46718 20 16 15 
-0.157674 -0.0888506 1.44921 81 80 78 
-0.237995 0.516085 1.46846 14 16 28 
-0.0454722 -0.326842 1.4926 29 26 21 
-0.0316296 -0.659715 1.59808 42 40 41 
-0.245628 0.569628 1.52807 71 51 24 
-0.0707704 -0.174369 1.45137 43 40 35 
-0.231255 0.199043 1.5061 34 31 26 
-0.541789 0.677549 1.18678 116 113 98 
0.0536635 0.33954 1.39317 21 18 13 
-0.235297 0.170934 1.53811 8 5 0 
-0.217107 0.135925 1.4972 83 83 81 
-0.144635 -0.208182 1.48995 100 96 93 
0.0668991 0.0694197 1.41727 39 38 36 
-0.147862 -0.0329146 1.41291 127 126 121 
-0.0129499 -0.19263 1.45855 44 30 27 
-0.0353401 -0.430658 1.54536 81 80 76 
0.0649705 0.0401367 1.41827 0 0 0 
-0.0485785 -0.66516 1.61772 45 44 42 
0.00647623 -0.228292 1.4677 79 75 74 
-0.0383076 -0.417721 1.53516 120 116 115 
-0.0113216 0.10108 1.37973 31 30 28 
0.0183615 0.0512721 1.39549 72 71 69 
0.0419436 0.0400569 1.40228 96 95 91 
-0.101681 -0.054274 1.40464 83 79 68 
-0.1037 -0.0441145 1.41305 102 99 92 
0.0242204 0.516127 1.36603 87 86 84 
-0.236729 0.183988 1.52336 28 25 18 
-0.215848 0.644128 1.39167 96 96 96 
0.0415671 0.138815 1.39092 110 106 105 
-0.134755 -0.248727 1.52079 25 25 23 
-0.236789 0.0532299 1.52583 65 65 65 
-0.00854161 0.147635 1.37813 64 62 63 
0.0341541 0.663828 1.32795 90 87 82 
-0.0116575 0.437313 1.3546 123 120 113 
-0.0392701 -0.747695 1.63643 228 228 252 
-0.048555 -0.650841 1.57939 52 48 47 
-0.0701044 -0.603899 1.61952 197 197 209 
-0.0676805 -0.60426 1.6331 107 107 119 
-0.010211 -0.674058 1.61961 90 88 89 
-0.514277 0.630065 1.22602 28 24 25 
-0.236406 0.213157 1.54982 40 36 33 
-0.238273 0.321498 1.53154 2 2 0 
-0.237254 0.521644 1.46083 123 122 127 
-0.0530194 -0.66034 1.60539 35 34 32 
-0.0431391 0.0799765 1.37673 85 80 76 
-0.0949389 0.0624388 1.38951 76 76 76 
0.0241889 0.227498 1.37867 77 76 71 
-0.0278461 -0.325391 1.50763 66 66 64 
-0.131171 -0.250895 1.53085 47 47 45 
-0.295426 0.785087 3.14689 85 86 80 
-0.152275 -0.221068 1.49397 18 15 10 
-0.219101 -0.114959 1.61864 59 61 74 
-0.0427432 0.217024 1.37299 94 93 89 
-0.454792 0.687022 1.24657 105 103 91 
-0.504269 0.699085 2.04386 105 106 100 
-0.239541 0.488916 1.4846 15 11 10 
-0.191678 -0.272602 1.57842 39 39 51 
-0.230204 -0.0721327 1.60016 35 31 32 
-0.230378 -0.0724797 1.61603 53 51 62 
0.0102368 -0.0447522 1.41609 118 118 116 
-0.280678 0.688914 1.28208 73 71 56 
-0.235672 -0.0159258 1.5087 53 52 48 
-0.138707 0.641708 1.33198 118 115 110 
-0.104264 0.629733 1.33178 110 106 107 
-0.248257 0.609871 1.43343 24 23 18 
0.377853 0.756814 1.64524 102 100 85 
0.0211586 0.0299795 1.38788 69 67 68 
0.0332511 0.0306321 1.41206 83 82 80 
-0.0739724 -0.49788 1.58916 34 32 33 
-0.145031 -0.155437 1.49001 34 30 27 
0.0454468 0.0408477 1.41077 80 79 75 
-0.164627 -0.180264 1.51803 35 35 27 
-0.059627 -0.423445 1.54395 41 37 34 
-0.171735 0.0735897 1.45568 68 68 66 
-0.251998 0.504518 1.51922 40 40 40 
0.0312867 0.429266 1.37646 129 126 117 
0.00681219 0.0808996 1.38787 78 78 76 
0.0226033 -0.362642 1.55032 103 97 97 
-0.0547203 0.142402 1.36596 79 79 79 
0.00112277 -0.322292 1.52068 80 79 77 
0.0314703 0.204095 1.39473 80 79 77 
-0.239168 0.079344 1.56941 58 57 55 
-0.0342861 -0.655608 1.58998 44 42 43 
-0.0466693 -0.430326 1.52869 74 73 69 
-0.0654333 -0.418676 1.52884 45 41 38 
-0.12843 -0.349238 1.54472 60 57 52 
-0.0335913 -0.239975 1.45549 141 141 131 
-0.0857361 -0.229109 1.45708 67 64 55 
-0.059731 -0.229865 1.47249 41 37 34 
-8.01298e-05 -0.222024 1.46922 101 93 90 
-0.172563 -0.214952 1.50474 4 3 0 
-0.100132 -0.188861 1.45625 93 89 88 
-0.059563 -0.189395 1.45528 73 68 64 
-0.132119 -0.161266 1.48767 119 118 116 
-0.112937 -0.158955 1.45544 100 96 93 
-0.177672 -0.103099 1.46857 19 15 12 
-0.143012 -0.0672688 1.45258 51 47 44 
-0.000723958 0.016836 1.38506 50 49 47 
0.0270722 0.0336591 1.39739 69 67 70 
-0.243248 0.0802518 1.55943 79 75 74 
-0.0490362 0.121124 1.38548 76 76 76 
-0.03641 0.133195 1.38468 15 14 12 
0.0475215 0.13884 1.40795 75 71 70 
-0.237183 0.200602 1.53906 14 15 9 
-0.0598265 0.200678 1.38349 54 52 55 
0.033191 0.295486 1.37514 70 66 67 
0.0108374 0.313051 1.37585 60 59 57 
-0.0411151 0.328025 1.35035 71 70 68 
-0.257157 0.493834 1.50367 54 54 54 
-0.220239 0.49862 1.41673 100 99 97 
-0.237244 0.576201 1.44205 28 27 32 
0.0934107 0.674075 1.36536 30 29 25 
-0.0575757 -0.0807588 1.42101 102 100 101 
-0.164473 0.320652 1.41022 60 59 57 
0.00313207 0.47793 1.35836 112 111 107 
-0.0300238 -0.764622 1.64683 189 202 211 
-0.038556 -0.750488 1.64737 196 203 219 
-0.027611 -0.752046 1.64688 192 200 213 
-0.0340394 -0.695903 1.62266 187 192 211 
-0.017227 -0.596102 1.59505 41 39 44 
-0.0412093 -0.300928 1.50028 133 129 126 
-0.0397093 -0.237052 1.43977 76 76 66 
0.104596 -0.116195 1.52741 18 18 28 
-0.223228 -0.0225209 1.48949 54 53 49 
-0.159134 0.0630716 1.43319 55 54 52 
-0.0674167 0.0616 1.39663 60 58 59 
-0.0578293 0.0813103 1.39601 76 76 76 
-0.046601 0.110908 1.39421 74 74 74 
-0.0480499 0.327854 1.37056 64 60 57 
-0.216443 0.48069 1.43707 23 22 20 
-0.251208 0.693985 1.34148 81 81 69 
6.6885 2.63212 15.3993 131 134 139 
-0.231489 0.0748587 1.51046 82 82 82 
-0.123442 -0.0324413 1.40791 38 36 24 
-0.166123 -0.0723692 1.45042 123 120 115 
-0.0724806 -0.328004 1.50896 26 18 15 
-0.111444 -0.281558 1.51045 105 104 100 
6.72578 2.65086 15.5137 14 17 22 
-0.107258 0.102949 1.39845 81 81 81 
0.520253 0.708802 1.68005 110 108 95 
-0.131405 0.68279 1.312 96 95 90 
-0.123498 -0.0515883 1.42138 66 61 55 
-0.123716 -0.140681 1.45921 105 104 102 
6.86154 2.50932 15.7544 98 103 109 
-0.196336 0.112186 1.45648 28 27 25 
-0.00905186 0.439879 1.3617 123 120 113 
0.523988 0.737622 1.65725 58 57 53 
-0.0481023 0.0976504 1.3909 79 79 77 
-0.0909796 -0.439991 1.56264 105 101 98 
0.602233 0.718317 1.52539 76 76 68 
0.533444 0.732564 1.63263 48 47 42 
-0.102291 0.0354928 1.39464 32 31 29 
7.31075 2.57863 16.8256 57 62 66 
-0.116662 0.19987 1.3964 60 60 60 
-0.0477297 -0.749753 1.63914 224 225 255 
-0.034287 -0.738271 1.63565 214 221 239 
-0.158195 -0.0538769 1.42625 105 101 98 
-0.0402804 -0.718389 1.63075 211 211 235 
-0.0277276 0.256542 1.36425 1 0 0 
0.0906168 0.25242 1.43817 31 30 26 
-0.179256 -0.0733481 1.45964 44 43 39 
-0.00316104 -0.0952152 1.42749 22 18 17 
0.0815886 0.22877 1.43032 11 8 3 
-0.0020007 -0.597026 1.62427 117 118 136 
0.073508 0.0661125 1.42675 112 111 109 
0.106011 -0.0650001 1.49688 123 122 120 
0.105513 0.0820109 1.46577 94 93 91 
0.0392973 -0.114102 1.44501 14 12 13 
0.0385739 0.441998 1.37646 132 129 122 
-0.139007 -0.141391 1.4652 30 29 27 
0.0283767 -0.303308 1.5115 1 0 0 
0.0189942 -0.303878 1.5087 17 16 14 
-0.0482434 -0.305052 1.48937 12 9 4 
0.0258029 0.158976 1.38691 96 95 93 
-0.0456007 -0.396876 1.5231 32 28 25 
-0.00557459 -0.345883 1.51605 118 114 113 
-0.0111245 0.455749 1.35744 27 23 20 
-0.0236202 0.109831 1.37527 1 0 0 
-0.00427698 0.51392 1.35528 102 101 99 
0.047069 -0.21092 1.48323 118 117 113 
0.0551559 0.0671485 1.40938 12 11 9 
0.0167152 -0.200544 1.45745 99 87 87 
-0.0850232 -0.453667 1.5603 24 20 19 
0.0730728 0.0566205 1.42041 122 120 121 
0.0208214 -0.190269 1.46028 111 102 103 
0.0818666 0.0512167 1.42922 92 88 87 
0.0593099 -0.183121 1.48039 118 115 110 
-0.0344955 -0.343633 1.50571 39 35 34 
-0.114977 -0.178668 1.46755 36 32 31 
0.0543431 -0.174894 1.46992 130 127 122 
0.0193732 -0.158243 1.45222 19 18 14 
-0.0377544 -0.151801 1.43041 117 112 109 
-0.0228026 -0.352605 1.51722 139 135 132 
-0.134618 0.0270112 1.39983 103 103 103 
-0.0540185 -0.134649 1.42282 121 120 116 
-0.0195424 0.0164462 1.38146 1 0 0 
0.0991823 0.0121288 1.44784 98 96 97 
-0.161835 -0.113528 1.46396 121 120 118 
-0.0549111 -0.363782 1.51029 46 42 31 
-0.147754 -0.0413215 1.42064 129 125 124 
-0.120372 -0.0442006 1.40776 15 11 8 
-0.0147128 -0.380651 1.52957 108 104 103 
-0.152013 -0.22322 1.50416 87 86 84 
0.0659776 -0.0747224 1.43973 104 100 99 
-0.071868 -0.0782253 1.40673 116 115 113 
-0.0922073 -0.408637 1.54997 123 119 118 
0.00976999 0.634163 1.34469 127 125 126 
0.0855238 0.426326 1.42653 17 13 10 
-0.062824 -0.433083 1.54406 26 22 19 
0.0911721 0.209175 1.4431 129 128 123 
0.0320646 0.469633 1.37301 122 119 114 
0.0502519 0.254888 1.39073 114 113 109 
-0.0209743 0.0905158 1.37915 104 103 101 
-0.024625 -0.753169 1.62706 226 230 255 
-0.0434423 -0.736347 1.63232 90 97 115 
-0.100901 -0.256053 1.48512 132 128 125 
0.0513627 -0.190859 1.47822 159 158 154 
0.126239 0.0240188 1.47641 6 5 1 
-0.0706932 -0.318105 1.49836 61 57 54 
0.0328595 0.408608 1.37818 29 28 23 
0.034399 0.399506 1.37444 131 127 124 
0.102585 -0.085961 1.50765 13 12 10 
-0.00648625 -0.409975 1.54282 33 30 25 
0.0159894 -0.101645 1.43661 130 129 127 
0.131862 0.0611686 1.48492 127 126 122 
-0.0228667 -0.0764589 1.41207 95 94 92 
0.0897211 0.0136259 1.43444 60 58 59 
-0.0569918 -0.382423 1.51939 21 17 16 
0.0271361 -0.328111 1.51787 24 21 16 
-0.139829 -0.0589321 1.4212 29 26 21 
-0.110665 -0.339746 1.52902 30 26 23 
-0.0307298 -0.336422 1.49934 22 21 19 
0.0410672 -0.194639 1.46814 112 111 107 
0.0679228 -0.195284 1.50105 118 114 111 
-0.01424 -0.0337509 1.39004 29 28 24 
0.0519814 0.267977 1.39593 116 111 108 
0.0547643 -0.156713 1.46778 113 112 110 
-0.0627333 -0.13894 1.42337 118 115 110 
0.0925322 0.281998 1.44181 101 98 93 
-0.0396428 -0.533692 1.57309 116 115 113 
0.0115647 -0.183642 1.45237 88 80 78 
-0.000581914 -0.162863 1.44203 94 93 91 
0.0348046 0.422189 1.38078 107 104 99 
0.0546366 0.588734 1.38524 126 125 123 
0.0501346 -0.0491357 1.42681 17 16 12 
0.0282601 0.00945487 1.38903 1 0 0 
0.0393092 -0.133008 1.45198 133 132 130 
0.0337643 -0.100606 1.43896 3 1 2 
-0.0502676 -0.325244 1.4946 132 127 124 
-0.017715 0.329692 1.35742 95 93 96 
-0.109557 -0.178628 1.45504 121 117 116 
0.134012 0.0250701 1.49593 1 0 0 
-0.0424052 -0.660604 1.60003 26 25 21 
-0.0381543 -0.371845 1.51905 124 120 117 
-0.0395928 -0.418397 1.53766 120 116 115 
-0.021204 -0.0533775 1.3952 120 119 115 
-0.044638 -0.354831 1.51288 39 35 26 
0.0126177 -0.0276107 1.39736 106 102 99 
-0.197995 0.0202881 1.44772 19 17 18 
-0.100053 -0.289341 1.50831 114 114 112 
-0.111659 -0.298998 1.5132 124 120 119 
0.0167327 0.675405 1.32357 108 104 101 
0.0276056 0.507051 1.36929 80 79 77 
0.0756333 0.0413528 1.42045 8 4 1 
-0.0163852 -0.205282 1.45396 46 36 34 
-0.0251986 -0.0450744 1.39034 104 103 99 
-0.138867 -0.0059074 1.39977 99 98 96 
-0.00316801 -0.432785 1.54816 80 76 75 
0.019825 -0.163877 1.46033 94 93 89 
-0.00399371 -0.60484 1.61854 122 124 139 
0.0379468 -0.214637 1.46936 86 85 81 
-0.0145984 0.303663 1.36846 1 0 0 
0.0718193 0.133591 1.4173 86 82 81 
0.0389903 -0.4257 1.59835 92 91 86 
-0.0318825 -0.382921 1.52603 108 104 101 
0.143727 -0.0578413 1.57263 109 109 111 
0.0850506 0.437209 1.42158 109 108 104 
-0.447543 0.68769 2.01503 111 111 109 
-0.0577479 -0.336441 1.4979 42 39 32 
-0.0125027 -0.329278 1.5101 104 100 97 
0.00544626 -0.329793 1.51552 97 96 94 
0.0997397 0.116713 1.45341 107 101 101 
-0.0600152 -0.622405 1.62126 106 101 98 
0.12342 -0.12794 1.58186 111 110 108 
-0.048651 -0.17885 1.43632 91 89 90 
-0.153631 -0.209323 1.50415 99 97 98 
0.00342054 -0.404581 1.54543 129 125 124 
-1.25379 0.770493 4.50574 140 142 131 
0.0643684 -0.11011 1.45157 35 34 32 
0.103413 -0.152876 1.54697 77 76 72 
0.102433 0.0595575 1.44853 77 76 74 
-0.0505057 0.254927 1.37004 102 102 102 
0.0374884 0.455177 1.37639 80 79 75 
0.0990551 0.0748189 1.44987 85 84 82 
-0.0313937 -0.699817 1.63617 195 204 221 
0.066032 0.0691407 1.42059 39 39 39 
0.0491535 -0.217699 1.48951 151 149 150 
-0.0497282 0.143434 1.37147 89 87 88 
-0.0117994 -0.617709 1.61981 18 12 12 
-0.154229 -0.197501 1.49687 113 112 110 
-0.0127517 -0.390352 1.52826 118 114 113 
0.0649058 0.0403208 1.42162 6 2 0 
-0.0522738 0.130963 1.38525 48 48 48 
0.0368049 0.0587759 1.39055 89 89 89 
0.0852069 0.277483 1.43161 45 44 40 
0.0269659 0.47893 1.36446 99 98 94 
-0.0103635 0.234761 1.37506 89 87 88 
0.0272773 0.114378 1.38963 81 79 80 
0.0071724 -0.392895 1.54333 36 32 31 
-0.0390352 -0.328743 1.50451 100 96 93 
0.122102 0.0104702 1.46449 67 66 64 
0.0950304 0.433597 1.42772 57 56 52 
-0.0539596 0.4874 1.35615 67 66 64 
-0.038066 -0.550131 1.58217 83 78 74 
0.124417 -0.139964 1.58665 195 194 199 
0.0599237 -0.119728 1.45231 93 92 90 
-0.0921888 -0.328721 1.51249 50 46 43 
0.0709276 0.25688 1.41496 36 32 31 
-0.00728658 -0.38363 1.53429 110 106 105 
0.0309838 0.705404 1.28813 133 133 123 
-0.054187 -0.403243 1.52405 85 81 80 
-0.132339 -0.342423 1.58781 34 31 26 
0.00223832 -0.258272 1.46365 103 100 91 
-0.00355291 -0.218641 1.44163 106 102 99 
0.124722 -0.0964835 1.55367 36 35 33 
0.0621765 0.556367 1.38753 81 79 80 
0.0612675 0.0777847 1.4045 75 74 72 
0.0917457 0.0819832 1.45014 24 23 21 
0.0615866 0.147545 1.40217 101 100 98 
-0.048931 0.162488 1.37025 64 63 61 
0.055715 0.687321 1.33113 58 55 50 
-0.00281405 0.158519 1.37929 67 66 64 
0.0817291 0.0412031 1.42918 41 37 36 
0.0673819 -0.220263 1.51347 60 59 57 
0.0627799 -0.204709 1.49663 128 127 123 
0.0114044 -0.306762 1.50195 136 135 133 
-0.041314 -0.280326 1.48785 48 44 43 
0.081692 -0.199233 1.5342 70 68 69 
-0.138325 -0.159861 1.47654 62 61 59 
-0.0920738 0.0547952 1.37504 70 70 70 
0.0112417 0.144386 1.3846 64 63 61 
-0.048597 0.211922 1.36107 109 105 106 
0.0373748 0.296806 1.37731 71 67 64 
0.067497 0.329134 1.41125 37 33 30 
-0.12769 -0.221293 1.48978 26 22 21 
-0.0283739 -0.427215 1.53862 122 121 119 
-0.108443 0.685573 1.3112 29 25 26 
-0.030695 -0.359769 1.5135 114 110 107 
0.151241 0.0873101 1.55032 47 52 46 
-201.177 -43.6324 -3163.75 81 89 108 
-111.579 6.11891 -2064.13 186 195 210 
-83.304 36.8669 -1351.02 79 88 103 
-65.353 23.9486 -929.026 83 92 109 
-13.012 -7.73394 -160.992 255 253 255 
-10.3021 -3.34993 -88.8283 157 170 179 
-82.7818 -32.5473 -1179.65 178 186 199 
-66.2625 -7.16421 -969.541 167 174 190 
-87.7898 9.86907 -1284.46 66 73 91 
-89.4669 10.6225 -1322.46 197 204 222 
-90.9494 12.8927 -1365.52 192 199 217 
-65.1259 10.166 -1062.08 70 79 94 
-135.427 43.5356 -1991.29 198 207 224 
-74.4826 24.325 -1113.44 202 211 228 
-232.179 198.911 -4300.35 62 74 88 
-66.3829 21.7727 -934.299 194 203 220 
-47.5505 15.8335 -679.921 193 200 219 
-83.4597 32.3189 -1330.72 65 74 89 
-68.3176 24.9441 -995.677 186 195 212 
-78.6479 33.8324 -1247.35 79 88 103 
-60.5736 31.3694 -883.466 72 81 98 
-145.487 47.2448 -2172.46 202 211 228 
-73.2966 27.2517 -1153.63 194 203 218 
-74.3416 17.6465 -1118.09 181 190 207 
-61.4748 26.8681 -913.984 97 106 123 
-85.9706 1.67801 -1252.49 80 87 105 
-88.2033 17.8417 -1396.26 67 76 91 
-77062.8 5504.85 -1.29366e+06 188 197 212 
-76.2847 26.4871 -1208.43 181 190 205 
-65.8834 22.9548 -979.131 196 203 221 
-60.3508 4.25721 -1002.44 181 190 205 
-185.191 72.964 -2930.1 72 81 96 
-62.8523 23.0731 -917.165 186 195 212 
-64.5605 24.1285 -959.582 86 95 112 
-104.934 0.0555591 -1627.39 185 194 209 
-52.6519 40.61 -819.479 188 195 213 
-81.5868 -33.4803 -1281.2 182 192 204 
-88.658 -37.977 -1429.62 39 49 61 
-81.0757 -14.5918 -1176.39 97 102 121 
-43.4924 28.7552 -624.484 180 189 206 
-64.8739 2.9493 -928.838 55 60 80 
-85.8237 62.9385 -1346.24 196 203 221 
-97.6892 38.5483 -1419.06 59 67 86 
-113.004 44.7277 -1784.22 69 76 92 
-225.442 45.054 -3583.69 87 96 111 
-62.2592 9.46172 -918.119 171 178 196 
-65.0096 6.20648 -958.393 78 85 103 
-67.417 4.43562 -1001.12 191 198 216 
-1691.74 116.567 -28219.8 173 182 197 
-68.3002 2.40875 -1006.62 191 198 216 
-73.3862 0.0966601 -1105.88 163 170 188 
-74.9384 -6.3232 -1095.78 65 72 88 
-111.093 -43.4496 -1658.49 181 189 202 
-149.225 -38.9652 -2510.81 71 80 97 
-59.3947 26.0584 -962.068 79 88 103 
-103.408 38.0021 -1512.9 158 167 184 
-50.3527 12.3129 -619.689 75 87 101 
-84.6713 4.79209 -1382.47 90 99 114 
-1100.29 76.8552 -17418.5 188 197 212 
-223.649 10.6432 -4280.89 105 114 129 
-64.7822 3.28284 -930.182 108 113 133 
-69.8239 0.783996 -1029 58 65 83 
-88.8869 6.48191 -1480.47 173 182 197 
-216.228 32.94 -3210.8 176 183 201 
-93.7595 -8.56279 -1500.42 78 87 104 
-78.7197 -6.70425 -1180.41 160 167 183 
-195.636 37.8237 -2905.71 79 88 105 
-75.7221 -5.98233 -1115.45 76 83 99 
-59.5269 13.6929 -885.981 173 182 199 
401941 170614 2.51711e+06 55 63 74 
-483.115 413.828 -8951.3 62 74 88 
-46.1496 -18.8165 -722.574 181 191 203 
-85.8677 4.70403 -1407.5 59 68 83 
-61.459 22.4914 -985.64 51 60 75 
-69.1826 10.8071 -1083.4 148 157 172 
-108.727 16.3173 -1610.02 166 173 191 
-65.0819 6.81507 -964.614 105 112 130 
-178.892 12.3175 -3370.33 69 78 93 
-64.8733 3.17327 -931.482 60 65 85 
-221.36 9.22401 -4227.28 110 119 134 
-72.0064 -2.62157 -1055.3 157 164 182 
-74.8691 -5.95074 -1097.03 77 84 100 
-48.0242 29.8341 -737.102 54 63 80 
-58.0445 22.9082 -843.191 59 67 86 
-68.8241 1.3535 -903.763 161 170 185 
-51.5555 9.00153 -836.524 109 118 133 
-88.9111 -24.0254 -1288.03 76 81 100 
-11.0507 -2.64173 -104.78 151 158 174 
-57098.2 -14349.5 -920091 153 162 179 
-172.295 -5.90291 -2532.34 164 171 189 
-111758 7923.68 -2.12795e+06 182 191 206 
-149.913 10.5347 -2232.79 139 146 164 
-237.216 17.6921 -3775.98 156 165 180 
-141.959 14.6474 -2114.77 102 109 127 
-122.262 23.8678 -1822.13 142 151 168 
-153.272 40.5091 -2442.07 163 172 187 
-102.488 33.0407 -1528.25 186 195 212 
-101.05 3.95306 -1303.72 66 75 92 
-95306.1 45755.4 -1.94663e+06 63 75 89 
-43.4563 7.45089 -539.241 73 82 99 
-79961 -2553.81 -1.18574e+06 166 173 191 
-11.034 -2.66069 -104.792 58 65 81 
-9.32893 -2.19012 -87.6555 119 126 142 
-0.110223 0.0052376 1.39451 82 81 79 
-0.0381745 -0.67024 1.62461 118 117 115 
8.91406 2.87267 16.7679 9 13 24 
9.02547 3.06244 17.3306 1 5 16 
8.91822 2.87997 17.0402 5 9 21 
7.36018 2.81451 14.5675 126 125 130 
8.8195 2.8401 16.438 29 33 44 
8.93819 3.11056 16.9441 65 66 70 
-0.192713 0.649292 1.37542 108 104 101 
8.84808 2.85141 16.6643 15 19 30 
8.86616 2.86348 16.7457 15 22 32 
8.93585 2.88554 17.0721 5 9 21 
8.95912 2.89256 17.1823 23 27 38 
8.91724 2.78702 17.0575 40 46 58 
8.85955 2.77331 17.0044 18 27 36 
7.89063 2.96969 17.3973 19 22 31 
8.81912 2.7564 16.6249 25 29 40 
7.79943 2.74886 17.2138 141 146 152 
-0.203981 0.621575 1.39128 84 83 81 
9.00346 3.17082 17.2944 31 34 43 
7.94176 2.61012 14.4292 143 148 152 
8.49024 2.7778 14.3907 28 33 36 
8.48614 3.12801 17.5212 108 109 113 
8.56929 2.95768 17.4347 20 20 28 
8.3223 3.04451 17.0545 15 16 20 
8.08346 2.97136 17.0722 31 32 37 
9.02758 2.86967 17.4726 118 123 129 
7.91622 2.79569 17.4328 141 146 150 
-0.0861705 0.705097 1.26922 45 43 31 
8.88955 2.79004 17.0574 15 22 32 
8.43579 3.07672 17.5157 40 41 46 
8.288 3.05646 17.4911 30 31 36 
7.79759 2.56539 14.2149 147 152 158 
-0.156278 -0.12855 1.46899 93 92 90 
-0.213996 0.517888 1.42628 118 116 117 
-0.172861 0.0808497 1.43574 2 0 1 
-0.19487 0.0292833 1.44395 1 0 0 
-0.225607 -0.0039065 1.47758 101 100 98 
4.10585 2.04132 7.87383 103 103 105 
-0.232843 0.612657 1.47676 7 8 10 
-0.241208 0.50872 1.49587 0 0 15 
-0.239302 0.122185 1.59041 95 93 94 
-0.217833 0.0352789 1.47122 102 101 99 
-0.245658 0.507914 1.51037 0 0 7 
-0.23311 0.536157 1.46809 117 117 115 
-0.241162 0.542421 1.50038 2 0 3 
-0.234811 0.144494 1.5283 1 0 0 
-0.238828 0.0140245 1.51653 82 81 79 
-0.241095 0.114053 1.5536 85 85 85 
-0.0770105 0.654823 1.31341 4 0 0 
-0.231528 0.0318796 1.49958 1 0 0 
-0.193058 -0.160134 1.55536 4 3 1 
-0.171258 0.0493031 1.42292 81 79 80 
-0.248855 0.0274641 1.58801 17 16 14 
-0.233869 0.575807 1.47456 91 90 95 
-0.105759 -0.441769 1.58417 29 28 26 
-0.185953 -0.138256 1.51587 19 18 14 
-0.251637 0.487046 1.50522 5 1 0 
-0.0975165 0.00866758 1.39269 3 0 0 
-0.231538 0.503657 1.46797 137 136 142 
-0.0661485 0.654617 1.31292 127 126 122 
-0.182763 -0.256455 1.55485 87 84 79 
-0.201732 0.570459 1.40466 103 101 102 
-0.18485 -0.119402 1.48896 122 120 121 
-0.333909 0.699518 1.41343 131 128 123 
-0.208341 -0.0791611 1.52921 101 99 100 
-0.253145 0.0253114 1.55169 100 100 100 
-0.0578592 -0.582247 1.60111 35 32 27 
-0.0678343 -0.207923 1.45724 90 86 83 
-0.240893 0.0917792 1.58386 1 0 0 
-0.240458 0.120447 1.56969 92 91 89 
-0.231821 0.108776 1.51719 81 81 81 
-0.247096 0.0541365 1.54984 8 4 5 
-0.234964 0.590284 1.45687 81 82 86 
-0.235936 -0.0160619 1.5158 38 34 31 
-0.243808 0.0291797 1.52712 112 108 109 
-0.24984 0.0283802 1.57105 101 100 98 
-0.180436 -0.199525 1.5261 96 86 85 
-0.237207 0.606614 1.46938 18 19 23 
-0.230927 0.581984 1.46765 54 54 52 
-0.241739 0.0998371 1.56659 82 80 81 
-0.276986 0.675044 1.38607 16 16 8 
-0.246866 0.0604842 1.55861 14 13 11 
-0.210004 0.705531 1.29202 101 91 82 
-0.238234 0.610089 1.48506 24 23 29 
0.0099768 0.781649 2.55983 78 77 75 
-0.0494513 -0.753792 1.64869 89 80 109 
-0.137479 0.66286 1.32357 51 47 46 
0.577876 0.747344 1.41537 87 86 84 
-0.165253 0.25199 1.4141 64 62 63 
-0.216826 0.50395 1.42912 95 94 92 
-0.1928 0.636002 1.37968 41 40 38 
-0.360836 0.704995 1.4991 73 72 68 
-0.0639647 -0.363309 1.52051 37 33 30 
-0.251549 0.0585083 1.56915 57 57 57 
-0.249063 0.656828 1.40549 102 99 94 
-0.331512 0.684698 1.44256 70 69 67 
-0.230502 0.0762163 1.5148 44 44 46 
0.588798 0.705941 1.41609 32 30 33 
-0.295066 0.688062 1.36637 70 69 64 
0.0325645 -0.129483 1.4446 93 89 90 
0.105991 0.141632 1.45964 106 102 99 
0.0917014 0.0411426 1.431 7 1 1 
0.0397798 0.623784 1.35589 123 121 122 
0.0189578 0.0173322 1.38661 1 0 0 
0.119671 0.38656 1.47728 107 104 99 
-0.10861 0.635105 1.34844 137 133 134 
0.106579 0.0934166 1.46269 121 120 118 
-0.0616588 0.649726 1.33546 120 116 113 
0.0174801 0.129183 1.38168 100 99 97 
0.0585999 -0.0947623 1.43986 107 103 102 
0.116541 0.514893 1.44785 115 114 110 
0.0242991 -0.053082 1.41154 108 107 105 
0.122406 0.0320775 1.467 1 0 0 
0.0354035 0.103385 1.3895 76 74 75 
-0.0162609 -0.199255 1.44426 21 11 9 
0.103195 0.0336078 1.43851 94 93 91 
-0.136672 0.653281 1.3543 98 97 95 
0.0345871 0.61255 1.35639 89 87 88 
-0.0280872 0.226183 1.37099 77 76 74 
0.088838 0.228525 1.43565 20 17 8 
-0.00418276 0.0787274 1.38045 94 93 91 
0.0362428 -0.0526684 1.41632 105 104 102 
0.111719 0.0237395 1.45049 100 99 97 
0.0460891 -0.173403 1.46471 122 117 113 
-0.0184136 0.0507056 1.37749 84 82 83 
0.0680785 0.596878 1.38122 88 87 85 
-0.00542422 0.666782 1.31489 76 75 71 
-0.0356989 -0.718488 1.61797 185 193 206 
-0.0252745 -0.743353 1.63299 152 158 180 
-0.143785 0.0642645 1.60852 71 70 68 
-0.112055 0.064806 1.62667 70 69 65 
-0.0463921 -0.623759 1.62407 21 19 24 
-0.0350522 -0.666031 1.61213 101 96 93 
-0.0532545 -0.619604 1.63342 12 8 5 
-0.028102 -0.622399 1.61135 12 8 7 
-0.188906 0.0203496 1.43414 5 4 2 
-0.0275774 -0.6685 1.61265 41 39 40 
-0.0547137 -0.664803 1.63381 69 67 68 
-0.0384413 -0.642953 1.62386 211 212 230 
-0.0345171 -0.624947 1.62137 220 220 228 
0.100517 -0.00060855 1.42148 14 16 28 
-0.0438268 -0.669453 1.62958 32 31 29 
-0.200953 -0.197256 1.56327 1 0 0 
-0.235034 0.0225934 1.48812 81 80 78 
-0.194161 -0.179428 1.54729 76 66 67 
28967.8 7081.7 29401.2 168 171 160 
-0.234448 0.629152 1.47835 76 79 70 
-0.230304 0.0132028 1.47952 6 5 3 
-0.218267 -0.107425 1.55573 32 28 25 
-0.200069 0.200168 1.44576 77 73 72 
-0.278228 0.666506 1.41017 71 68 59 
0.200703 0.828463 2.33311 76 74 75 
-0.23151 -0.100266 1.56531 127 125 126 
-0.212426 -0.172064 1.57175 125 124 119 
-0.239542 0.5349 1.49336 139 138 143 
-0.248126 0.0990237 1.5695 93 93 93 
-0.258357 0.0353465 1.56849 1 0 0 
-0.230076 0.601972 1.47092 38 41 50 
-0.216707 -0.137332 1.55952 3 2 0 
-0.215466 -0.125916 1.54511 99 98 96 
-0.260273 0.0612446 1.57694 80 80 80 
-0.19193 0.221478 1.43404 80 78 79 
-0.218477 -0.107246 1.53822 42 38 35 
0.237845 0.827358 2.29061 70 65 59 
-0.225457 0.523082 1.44053 84 84 84 
-0.195003 -0.10577 1.46904 10 9 7 
-0.233586 0.558702 1.48093 80 80 80 
-0.239088 -0.0433493 1.52875 43 39 36 
0.198297 0.834618 2.31627 14 13 11 
0.185549 0.827545 2.32537 14 10 7 
0.258574 0.794019 2.31128 68 68 56 
-0.230672 -0.0458433 1.50153 44 41 36 
-0.199673 -0.0759104 1.46049 42 41 37 
0.164396 0.824815 2.32686 70 73 62 
0.244476 0.831601 2.30475 12 7 1 
0.221083 0.805357 2.37623 68 67 63 
-0.248213 0.107809 1.56424 10 8 9 
-0.236941 -0.0734965 1.55247 106 105 101 
0.212286 0.818674 2.34477 59 58 54 
-0.245346 0.351407 1.53339 25 24 22 
0.0661712 0.346147 1.40141 11 10 6 
0.0802554 0.491135 1.41597 131 130 125 
0.08994 0.144526 1.4456 13 9 6 
0.080871 0.331821 1.42914 144 140 137 
0.0542012 0.23514 1.40141 112 108 107 
0.0440362 0.104213 1.4024 88 86 87 
0.079844 0.593642 1.39726 23 18 15 
0.107526 0.70226 1.34977 109 111 100 
0.0479289 0.215036 1.39839 103 97 97 
0.0347201 0.322939 1.38633 77 73 72 
0.11475 0.1104 1.48302 110 106 103 
0.0898969 0.105397 1.45497 14 10 7 
0.0817682 0.519034 1.40675 109 109 107 
0.0522617 0.0930386 1.41641 8 8 10 
0.133423 0.39809 1.49623 96 93 84 
0.115975 0.052329 1.46857 6 6 6 
0.0916447 0.230835 1.44882 141 136 130 
0.11544 0.0405145 1.46579 8 7 5 
0.0962207 0.252737 1.45377 130 127 122 
0.127117 0.037631 1.48164 4 2 3 
0.130614 0.0466081 1.48641 36 35 31 
0.0692827 0.285918 1.42842 105 104 102 
0.0889299 0.691584 1.3582 95 94 90 
0.087567 0.0402057 1.44217 75 73 74 
0.168894 0.706939 1.40318 77 76 72 
0.1118 0.0207808 1.46475 101 99 100 
0.0509313 0.323475 1.39911 16 12 9 
0.129137 0.366335 1.48902 119 116 111 
0.0885169 0.368733 1.43664 23 22 18 
0.0154056 0.388258 1.38171 117 116 114 
0.131239 -0.0437715 1.52722 140 138 139 
0.101459 0.584733 1.42245 100 99 94 
0.104292 -0.0739909 1.50856 126 125 123 
0.101796 0.486369 1.44214 131 130 125 
0.154829 0.513184 1.55356 168 165 156 
0.0441523 -0.201539 1.48896 150 152 149 
0.201854 0.713498 1.45455 94 99 93 
0.152932 0.516713 1.53196 142 139 134 
0.0542981 0.0380911 1.42015 24 22 23 
0.0774226 0.210477 1.43806 122 121 117 
0.088108 0.241671 1.44393 11 6 2 
0.072284 0.255714 1.43163 116 115 113 
0.0871131 0.527956 1.40978 131 130 128 
0.0841261 0.67463 1.35903 81 80 78 
0.072906 0.119114 1.44024 117 116 114 
-0.00286764 0.123193 1.39589 26 26 28 
0.125762 0.416638 1.48119 110 109 105 
0.0719902 -0.125409 1.48109 121 118 113 
0.184548 0.710163 1.41762 106 107 102 
0.045333 -0.235774 1.50455 106 105 103 
0.0272693 0.00927689 1.4088 9 9 11 
0.112561 -0.0340043 1.4794 124 123 118 
0.15998 0.711313 1.38228 114 115 110 
-0.0174334 -0.683458 1.66568 85 83 84 
0.0539443 -0.280717 1.54857 100 99 97 
0.0410011 -0.257634 1.5105 113 112 107 
0.103656 0.695555 1.37124 72 71 69 
0.146996 0.431042 1.53754 136 133 126 
0.184349 0.680538 1.49249 76 75 73 
0.0751471 0.268974 1.43071 105 100 94 
0.125293 0.0618202 1.48072 76 75 71 
0.0866818 0.471392 1.42666 126 125 123 
0.120699 0.0320239 1.47355 19 19 19 
0.065889 0.147346 1.42932 74 73 71 
0.10435 0.528544 1.42506 83 82 80 
0.0724573 0.680486 1.35196 80 79 77 
0.0804941 -0.177651 1.5267 82 77 81 
0.0659334 -0.15929 1.49196 114 110 109 
0.0358679 0.654979 1.35945 80 76 75 
0.0427081 0.0264291 1.40582 94 93 91 
0.0556279 0.0177821 1.41322 105 103 104 
0.0555375 0.208641 1.40288 113 112 110 
0.0822145 0.0287017 1.43048 98 97 95 
0.0994468 0.0119015 1.44424 98 96 97 
0.0964687 0.635177 1.39649 108 106 107 
0.0648376 0.0553189 1.41789 1 0 0 
-0.0379242 -0.758511 1.62806 29 27 67 
0.0971259 0.300043 1.44695 112 109 104 
0.0412107 0.040808 1.40319 76 75 73 
0.0334294 0.680208 1.32926 91 87 84 
0.0591824 0.128947 1.41039 71 69 70 
-0.0188797 -0.677912 1.65788 47 43 44 
0.0535487 0.586515 1.3815 71 70 68 
0.0305498 0.655561 1.34176 97 97 87 
0.131725 0.0604736 1.48669 95 94 92 
0.0658432 0.0688076 1.41632 48 46 47 
0.0472436 0.0657397 1.40465 66 64 65 
-0.00853445 -0.184539 1.45912 98 94 91 
-0.0256339 -0.742433 1.60797 67 75 96 
0.0281028 0.307397 1.3827 72 68 65 
-0.0384326 -0.769622 1.64068 102 109 125 
0.125607 0.111352 1.4857 115 114 112 
0.0975569 0.211795 1.44927 94 90 87 
0.0995835 0.116717 1.45733 115 114 109 
-0.00455528 0.105586 1.39279 87 85 86 
0.0356693 0.150037 1.39864 90 88 89 
0.153696 0.518859 1.61287 40 36 35 
0.148917 0.324492 1.52686 94 90 78 
0.159229 0.515065 1.56219 62 57 54 
0.0645727 -0.102674 1.45731 92 92 92 
0.151961 0.431651 1.53523 67 63 54 
0.10921 0.141394 1.46158 102 101 99 
0.0146077 0.14451 1.39279 111 109 110 
0.155838 0.54077 1.62609 36 31 28 
-0.0144908 0.431591 1.37051 106 101 98 
0.153272 0.424035 1.56546 55 48 42 
0.136243 0.413526 1.49903 29 26 21 
0.0344289 0.659162 1.33782 114 112 100 
-0.0368323 0.084986 1.39092 19 15 12 
0.152548 0.174288 1.5552 11 6 3 
0.00161166 0.0793774 1.39542 110 105 111 
0.0717751 0.191387 1.42444 88 87 83 
0.0958513 0.202202 1.44499 13 9 6 
0.0211484 0.204067 1.39327 102 100 101 
0.110097 0.203895 1.46701 17 14 9 
0.0207968 0.0612597 1.39925 83 81 82 
0.103339 0.0583889 1.44655 95 93 94 
0.255986 0.740841 1.49928 123 117 105 
-0.0158922 0.235673 1.38305 88 86 89 
0.182509 0.797015 2.21564 65 63 68 
0.160518 0.0579631 1.53342 18 14 11 
-0.0163093 0.0952302 1.39174 100 100 98 
0.0688049 0.236022 1.41373 104 103 101 
0.192204 0.719487 1.40434 81 82 76 
0.162336 0.0570799 1.54758 74 73 71 
0.072463 0.240002 1.42517 8 7 3 
0.150261 0.244225 1.53183 109 104 98 
0.160298 0.52583 1.59611 43 39 36 
0.161155 0.514508 1.53808 22 17 13 
0.129213 0.260529 1.50121 127 112 105 
0.13343 0.509973 1.46496 102 101 97 
0.0847642 0.230865 1.43646 113 110 101 
0.211895 0.712157 1.49636 135 135 133 
0.0773589 0.594485 1.39425 117 116 114 
0.161132 0.0360204 1.54665 97 96 94 
0.15562 0.551805 1.62537 29 24 20 
0.0531089 -0.163652 1.47184 87 88 83 
-0.00144171 0.248491 1.38473 85 83 84 
0.101789 0.286481 1.45043 31 28 23 
-0.0275759 0.0244796 1.39276 28 28 28 
0.114204 0.290838 1.47365 148 133 128 
0.119 -0.155731 1.56089 24 23 18 
0.0725349 0.029522 1.42418 24 24 22 
0.152652 0.305191 1.56253 112 103 94 
0.162876 0.552486 1.55098 29 19 17 
0.165905 0.0182706 1.54443 1 0 0 
0.160168 0.570579 1.5838 141 137 128 
0.149388 0.333527 1.53889 108 101 93 
0.1608 0.564664 1.56345 140 135 132 
0.0916777 0.551152 1.41459 97 96 94 
0.190886 0.683157 1.50576 32 27 23 
0.16365 0.563219 1.55193 45 35 33 
0.0978177 0.672058 1.36172 98 97 93 
0.0859535 -0.146363 1.50483 39 35 32 
0.192378 0.68265 1.5186 125 120 117 
0.145354 -0.00211376 1.48719 128 126 127 
0.0705952 0.346908 1.41573 7 6 2 
0.172048 -0.00716399 1.60858 24 22 23 
0.187978 0.675642 1.49549 147 144 139 
0.0728666 -0.138369 1.47967 134 133 129 
0.157894 -0.013959 1.52162 13 12 10 
0.0475893 -0.0202914 1.40955 28 28 26 
0.0937317 -0.131504 1.5085 125 124 120 
-0.0352681 -0.0362248 1.39986 48 48 46 
0.161737 0.556973 1.59733 25 17 14 
0.113874 0.381869 1.45651 7 3 0 
0.15088 -0.030498 1.52391 107 108 103 
0.161954 0.549568 1.57651 159 154 150 
0.15599 0.576764 1.51566 110 105 101 
0.0708913 0.390321 1.41572 102 101 99 
0.147158 -0.042597 1.53416 132 131 127 
0.161924 0.534146 1.53882 123 118 114 
0.137964 -0.122455 1.57923 121 118 111 
0.105304 -0.121051 1.5214 42 38 35 
0.158259 0.549816 1.60819 128 123 119 
0.15003 0.428806 1.60975 124 119 113 
0.142382 0.437364 1.64706 142 139 130 
0.0547657 0.587564 1.38251 132 131 127 
0.129435 -0.116857 1.56176 119 118 114 
0.16279 0.539089 1.59939 134 129 125 
0.161973 0.530611 1.56636 148 143 139 
0.0492094 -0.0653804 1.43672 97 95 96 
0.0972196 0.635056 1.39571 110 109 107 
0.155351 0.433144 1.5525 120 110 109 
0.149696 0.443779 1.60326 132 124 113 
0.129248 -0.110628 1.54955 115 114 110 
0.155211 0.439115 1.57971 49 42 32 
0.0253485 0.431781 1.38114 134 133 128 
0.21217 0.716322 2.01598 173 173 171 
0.154369 0.441359 1.56727 64 59 56 
0.153451 0.446869 1.58728 28 23 17 
0.163317 0.530878 1.58456 19 14 8 
0.151513 0.443222 1.55109 124 115 108 
0.152148 -0.0706316 1.56727 92 86 86 
0.134344 0.441382 1.48587 86 85 80 
0.161879 0.522887 1.55553 33 28 25 
0.100867 0.440508 1.42815 108 109 104 
0.0368525 0.447919 1.38182 47 43 40 
-0.0137394 0.459375 1.37007 44 42 30 
0.140881 -0.105361 1.56541 143 142 138 
-0.0197629 -0.0925877 1.43315 21 20 18 
0.109843 -0.228364 1.58973 112 111 107 
0.148464 0.507716 1.62681 18 13 10 
0.045762 -0.226359 1.49203 145 147 146 
0.0884038 -0.0865515 1.47215 149 148 144 
0.153803 0.507345 1.60789 126 121 117 
0.112066 -0.218153 1.59981 100 100 98 
0.148339 0.523485 1.63709 29 24 21 
0.127144 0.600587 1.43429 126 125 123 
0.0733264 -0.0918791 1.456 108 104 101 
0.0664961 -0.208325 1.50489 25 21 20 
0.106095 -0.205528 1.56956 130 129 125 
0.157513 0.515149 1.58103 140 135 131 
0.160857 0.510818 1.5487 168 165 156 
0.0706662 0.203799 1.42988 88 84 81 
0.122278 0.128959 1.48362 17 16 14 
0.0856405 0.251406 1.43882 31 32 27 
1.8679e-05 0.0905185 1.39552 17 15 18 
0.0554307 -0.0427532 1.4238 115 114 112 
0.137662 0.024222 1.48896 15 14 12 
0.161075 0.0468767 1.53908 3 2 0 
0.222212 0.716708 1.5145 117 117 115 
0.108518 -0.247247 1.67393 165 168 175 
0.151658 0.421002 1.57857 21 17 6 
0.152296 0.423229 1.59921 103 100 95 
0.15957 0.565102 1.53494 154 149 145 
0.119896 -0.0648003 1.50381 111 110 108 
0.164044 0.537195 1.57603 108 104 103 
0.105032 -0.0469765 1.46883 118 117 112 
0.047563 0.598899 1.37548 131 130 125 
0.0899311 0.0116072 1.43839 1 1 1 
0.140042 0.627804 1.44336 102 101 99 
0.0750164 0.0414167 1.42456 1 0 0 
0.191336 0.679539 1.59132 85 82 75 
0.116347 -0.134446 1.55033 106 104 105 
0.0266159 0.676956 1.3315 125 121 118 
0.143871 0.436629 1.63185 117 112 106 
0.161117 0.424491 1.58712 30 22 19 
0.130217 0.400697 1.47423 97 94 87 
0.125339 0.384085 1.4712 90 89 85 
0.127886 0.0135662 1.47288 16 15 10 
0.0505776 0.267866 1.39832 113 109 110 
0.117646 -0.0859291 1.52369 128 127 125 
0.0907066 0.296915 1.44034 6 2 0 
0.0700435 -0.185451 1.50207 112 110 111 
0.100265 0.364118 1.44401 94 93 89 
0.151344 0.240058 1.54964 100 96 85 
0.143234 0.328868 1.51792 104 94 85 
0.0302965 0.616352 1.36304 107 105 106 
0.0977596 0.0743769 1.45071 84 83 81 
0.0221375 0.16056 1.39351 113 111 112 
0.167664 -0.00707405 1.6221 39 35 34 
0.0792477 0.137883 1.43848 116 111 107 
