ply                 
format ascii 1.0    
element vertex 1247
property float x    
property float y    
property float z    
property uchar red  
property uchar green
property uchar blue 
end_header          
-0.0797576 -0.23063 1.4741 55 50 46 
-0.15265 0.602613 1.36061 107 106 104 
-0.0693292 -0.226805 1.46775 19 18 14 
-0.10105 -0.126166 1.44566 27 26 24 
-0.099644 -0.290901 1.50958 120 119 117 
-0.122188 0.0262499 1.40165 1 0 0 
-0.092052 -0.135464 1.44396 103 102 100 
-0.133067 0.378467 1.3891 72 73 68 
-0.105786 0.501628 1.36399 101 100 96 
-0.11955 0.0919834 1.40694 73 73 73 
-0.149573 -0.148649 1.47667 15 11 10 
-0.112862 -0.0520883 1.41741 46 41 35 
-0.0771473 -0.0927749 1.42153 23 22 20 
-0.0902626 -0.104521 1.43377 26 25 23 
-0.117602 -0.146417 1.46219 23 22 20 
-0.0929318 -0.241482 1.4845 45 42 37 
-0.0735631 -0.291588 1.49654 14 10 7 
-0.104359 0.633695 1.33969 99 97 100 
-0.0195724 -0.322497 1.50885 54 50 49 
-0.131466 0.655392 1.32162 107 105 108 
-0.0981545 -0.145791 1.45132 21 20 18 
-0.103862 0.490792 1.3676 94 92 93 
-0.0771882 0.00862275 1.39046 97 96 94 
-0.0960543 0.0530831 1.39103 71 70 68 
-0.0112912 0.0894043 1.38523 7 3 0 
7.06908 3.78418 31.0541 35 45 46 
-0.0588733 -0.312577 1.49751 21 18 13 
-0.125119 0.0158445 1.40183 77 75 76 
-0.049294 0.688958 1.30302 8 7 5 
-0.162554 -0.0413649 1.43355 118 115 110 
-0.0603195 -0.264669 1.4774 40 35 32 
-0.0615152 -0.234217 1.46563 40 35 31 
-0.0870195 0.091768 1.39597 67 65 66 
-0.146945 0.0919804 1.41877 83 82 80 
-0.108169 0.63095 1.34072 137 133 134 
-0.0793936 0.501493 1.35846 92 92 92 
-0.0792059 -0.311838 1.50605 51 50 46 
-0.108481 -0.0860958 1.43525 40 39 37 
-0.132017 -0.103178 1.45104 28 27 25 
-0.0958858 0.053495 1.39172 72 71 69 
-0.0829983 -0.0908463 1.42383 102 100 101 
-0.0887911 -0.220073 1.47439 38 34 33 
-0.141366 0.0336729 1.4089 0 0 0 
-0.0857741 -0.0854761 1.42348 113 111 112 
-0.124816 0.0155634 1.40225 82 80 81 
-0.107972 0.630559 1.34124 124 120 121 
-0.100375 0.230337 1.38783 71 70 68 
-0.132878 0.379234 1.38958 57 58 53 
-0.0567676 0.0894112 1.39186 91 91 91 
-0.09577 0.0534372 1.39145 72 71 69 
-0.0499012 0.1194 1.38746 95 91 92 
-0.0322229 -0.680067 1.64141 42 40 41 
-0.111419 -0.196892 1.4783 86 82 83 
-0.0772052 -0.091549 1.42056 131 130 126 
-0.093885 0.220652 1.38858 69 68 66 
-0.153065 0.0275661 1.41711 9 9 9 
-0.159214 0.0355583 1.41822 72 71 67 
-0.0802361 -0.118 1.43257 40 37 30 
-0.1069 -0.115394 1.44569 116 115 113 
-0.0557358 0.0879181 1.39223 56 58 57 
6.09241 3.24671 24.3889 112 117 121 
-0.0957241 0.177142 1.39248 69 65 66 
-0.0510923 0.213615 1.37692 81 80 78 
-0.17162 0.244205 1.42094 69 67 68 
-0.106376 0.500873 1.36412 50 49 45 
-0.135206 0.652056 1.33554 148 145 138 
-0.14376 0.684755 1.32187 39 34 31 
-0.0376526 -0.754389 1.63765 39 36 67 
-0.0513534 0.120741 1.38573 81 79 80 
-0.0611442 0.199746 1.38542 57 55 56 
-0.0619374 0.200283 1.3844 59 57 58 
-0.101346 0.204826 1.38924 75 74 72 
-0.109359 -0.0710048 1.42837 142 141 139 
-0.115358 -0.0785394 1.4353 32 30 31 
0.0147119 -0.0223081 1.39807 27 25 12 
0.0055195 -0.319331 1.51354 126 124 125 
-0.127114 -0.172214 1.47422 24 23 21 
-0.0486008 -0.751871 1.63649 127 129 150 
-0.130938 -0.0916416 1.4485 17 16 14 
-0.0965488 -0.0573028 1.41435 46 39 33 
-0.148643 -0.0552669 1.43446 117 114 105 
-0.0900152 -0.426922 1.55703 49 45 42 
-0.0787879 0.680931 1.30539 82 78 79 
-0.106699 0.1386 1.39921 8 4 5 
-0.139584 -0.0998235 1.45507 35 34 30 
-0.0173064 -0.214197 1.45526 31 24 18 
-0.077928 -0.104083 1.42467 19 17 18 
-0.0603588 -0.427013 1.53881 46 42 39 
-0.0483598 -0.0218509 1.38454 30 29 27 
-0.129689 -0.077838 1.44114 5 3 4 
-0.0855042 -0.251306 1.48408 35 31 28 
0.00455232 -0.242571 1.4628 98 98 96 
-0.00340029 -0.223727 1.45988 1 0 0 
-0.0850706 0.0251785 1.39152 101 100 98 
-0.108827 -0.295255 1.51441 17 16 14 
-0.116158 -0.218818 1.48667 21 17 14 
-0.141512 -0.21866 1.50034 31 28 21 
-0.0754708 -0.14172 1.43892 22 19 14 
-0.108595 -0.368246 1.54306 18 14 11 
-0.0860904 -0.304313 1.50782 29 28 24 
-0.136524 -0.202728 1.49196 43 39 38 
-0.128247 -0.196782 1.48574 27 23 20 
-0.0166596 -0.192024 1.45432 123 107 107 
-0.148748 -0.195053 1.49608 98 97 95 
-0.150988 -0.15783 1.4802 52 48 45 
-0.0106539 0.0605313 1.38531 115 113 114 
-0.0913101 0.47062 1.3691 108 106 107 
-0.107588 -0.182675 1.46992 10 10 8 
-0.0487018 -0.33758 1.50376 129 129 127 
-0.00429014 -0.114735 1.43732 137 136 134 
-0.123372 -0.0212376 1.40635 14 10 1 
-0.0654228 -0.216589 1.46042 39 36 31 
-0.0432351 -0.300382 1.49138 50 46 43 
-0.00926685 -0.363406 1.52564 116 115 111 
-0.0828895 -0.127885 1.43701 133 130 125 
-0.130689 -0.0329346 1.41571 37 33 22 
-0.0326936 -0.135222 1.43603 31 27 24 
-0.102714 0.0171026 1.39519 83 82 80 
0.0150231 -0.239556 1.4654 86 85 83 
-0.0302667 -0.398061 1.53137 40 34 36 
-0.096338 -0.312141 1.51353 35 32 27 
-0.0419368 -0.66181 1.60076 26 25 21 
-0.0218439 -0.366927 1.52417 117 113 112 
-0.135374 -0.159333 1.47117 108 107 105 
0.0115486 -0.354832 1.52871 108 108 106 
0.0455857 0.0611676 1.40678 90 90 90 
-0.00493425 0.243394 1.37588 19 18 16 
0.0128099 -0.327346 1.51817 110 109 104 
-0.163211 -0.126539 1.47698 106 106 106 
-0.134434 0.646896 1.34364 112 109 104 
-0.0261844 -0.308467 1.49805 79 75 74 
-0.158815 0.0190472 1.4188 68 68 66 
-0.0633563 -0.0928406 1.41391 49 48 46 
-0.0448041 -0.286549 1.4844 87 83 82 
-0.0550881 -0.483332 1.56275 108 107 105 
-0.00526599 0.0378225 1.38812 73 71 72 
0.0499909 0.601131 1.36864 126 125 123 
-0.0673865 0.0258864 1.38826 73 72 70 
-0.0780797 0.250626 1.38138 87 83 82 
0.0290445 0.429717 1.37528 117 114 105 
-0.168641 0.0351256 1.42681 116 115 110 
-0.140464 -0.0302284 1.41799 44 41 34 
-0.0788937 -0.0615049 1.40376 43 42 40 
-0.0691709 -0.122246 1.42549 97 92 88 
-0.210479 0.483456 1.4421 76 75 73 
-0.0523715 -0.171062 1.44084 76 72 69 
-0.0292047 -0.378805 1.52545 57 53 52 
-0.0618233 -0.280996 1.48563 29 24 20 
-0.158574 -0.0746723 1.45215 45 44 40 
0.0322715 0.663538 1.32808 87 83 80 
-0.118498 -0.160869 1.46652 15 14 9 
-0.00269551 -0.182138 1.45916 106 96 94 
-0.124056 -0.180867 1.47973 99 98 94 
0.0318934 0.655867 1.34068 95 92 83 
-0.031966 -0.662081 1.60031 34 33 31 
-0.156294 -0.0895519 1.45815 87 86 84 
-0.0173555 0.211794 1.37334 89 85 84 
-0.140965 -0.0214133 1.41378 44 42 30 
-0.00735535 -0.383445 1.5337 109 103 105 
-0.0737061 -0.196749 1.4581 14 9 6 
-0.110026 -0.206031 1.48017 19 18 16 
0.0402799 0.682634 1.32941 90 90 82 
0.0103602 -0.218991 1.46396 106 95 93 
-0.0434738 -0.208648 1.45643 103 102 100 
-0.0110204 0.422162 1.36082 92 88 85 
-0.0402048 -0.0600408 1.40118 132 132 132 
-0.0769476 -0.0515619 1.40139 130 126 123 
-0.0878135 0.0692483 1.39233 61 59 60 
-0.101795 -0.203918 1.47292 118 112 112 
-0.0151113 -0.0635816 1.41342 90 86 85 
0.0151895 0.0505941 1.39264 67 65 66 
-0.0301 0.137324 1.37813 73 69 70 
-0.155691 0.679769 1.32715 62 61 59 
0.0248021 0.692544 1.31619 142 139 134 
-0.0598857 -0.20915 1.45434 33 29 26 
-0.0398664 0.147709 1.37708 76 75 73 
-0.0738388 0.199197 1.38478 61 59 60 
-0.236414 0.081918 1.59505 58 58 58 
-0.0522009 0.326384 1.36593 50 49 47 
-0.165695 0.66413 1.33418 83 82 78 
-0.029772 -0.746019 1.64089 104 109 131 
-0.243623 0.526365 1.50381 0 0 2 
-0.247294 0.517945 1.51869 25 23 28 
-0.0923338 -0.287181 1.50563 24 20 17 
-0.0263087 -0.0371536 1.39558 50 49 44 
-0.118014 -0.289348 1.51509 129 123 123 
-0.0221959 -0.296281 1.50024 13 12 10 
-0.0856995 -0.293858 1.50553 119 116 111 
-0.114236 -0.237408 1.49269 24 20 17 
-0.151738 -0.21138 1.50213 11 7 4 
-0.236006 0.593381 1.48191 89 88 93 
-0.23764 0.331909 1.52841 117 116 111 
-0.0890457 -0.170344 1.45509 33 29 28 
-0.224362 0.0786187 1.50666 77 75 76 
-0.127696 -0.0602805 1.42857 54 51 46 
-0.0648971 -0.153488 1.43711 8 4 1 
-0.144895 -0.0649445 1.44102 20 17 12 
-0.118961 -0.128705 1.45493 12 11 9 
-0.14837 -0.119112 1.46366 100 98 99 
-0.1344 -0.11591 1.45916 12 11 9 
-0.119148 -0.0954357 1.44436 16 14 15 
-0.0825504 -0.0775411 1.41796 39 38 34 
0.57149 0.735406 1.57821 81 82 77 
-0.118269 -0.33164 1.53844 19 14 10 
-0.0894663 -0.0465146 1.40386 8 5 0 
-0.12727 -0.24731 1.5061 2 0 1 
-0.0625413 -0.184645 1.44779 121 117 114 
-0.17319 0.100876 1.43747 119 117 118 
-0.195427 -0.209581 1.57528 104 100 99 
-0.0578264 -0.664238 1.62078 34 32 33 
-0.0738116 -0.186374 1.45531 14 10 7 
-0.16462 -0.173262 1.49437 102 99 94 
-0.0306421 0.127072 1.38228 88 86 87 
-0.0307642 -0.755292 1.64257 208 213 233 
-0.00523452 -0.327254 1.51718 150 146 145 
-0.0761622 -0.173337 1.45205 4 0 0 
-0.155284 -0.111937 1.46563 32 31 29 
-0.236856 0.584656 1.48975 9 10 14 
-0.0839759 -0.453595 1.56723 26 25 23 
-0.0576416 -0.438934 1.55098 45 42 37 
-0.0975625 -0.433307 1.56559 31 28 23 
-0.130493 -0.282667 1.52027 118 117 112 
-0.145712 -0.0789749 1.44954 31 28 23 
-0.177026 -0.0551207 1.44725 109 105 102 
-0.0913885 -0.0369177 1.40008 10 7 0 
-0.096783 -0.0854269 1.42826 114 113 111 
-0.157284 -0.195724 1.49788 22 18 15 
-0.214904 0.0294775 1.47065 3 0 0 
-0.229047 0.101458 1.516 1 0 0 
-0.0557054 -0.351772 1.51588 43 38 32 
-0.119472 -0.314889 1.52817 17 14 9 
0.0384047 0.687312 1.33287 114 111 104 
-0.178041 0.00989378 1.43197 128 124 121 
-0.127398 -0.112652 1.45374 27 26 24 
-0.169346 -0.0901461 1.46456 41 40 38 
-0.208437 0.0296009 1.46295 4 3 1 
-0.157157 -0.102218 1.4635 1 0 0 
-0.194446 -0.00507304 1.43722 114 109 106 
-0.164237 -0.15926 1.48899 77 73 74 
-0.141932 -0.308507 1.56171 11 7 4 
-0.168331 0.590241 1.37626 95 94 92 
-0.053704 -0.115611 1.42047 113 109 106 
-0.241914 0.487094 1.47499 110 109 107 
-0.231163 -0.0712053 1.58849 27 23 20 
-0.183898 -0.0912549 1.47055 37 36 32 
-0.203627 0.0193309 1.46077 93 91 92 
-0.159294 0.22567 1.41486 76 74 75 
-0.201028 -0.232842 1.59737 27 30 39 
0.0077187 -0.0437895 1.41237 107 105 106 
-0.0706574 -0.434396 1.55265 37 33 30 
-0.174778 -0.215741 1.5174 101 100 96 
-0.0583722 -0.293462 1.49256 45 42 37 
0.0598455 -0.0357181 1.42797 48 47 45 
-0.00779314 -0.413789 1.54977 57 53 52 
-0.072386 -0.160956 1.44374 90 86 83 
-0.131392 -0.302794 1.52746 47 44 37 
-0.0516789 -0.664565 1.61329 32 31 29 
-0.106732 -0.16964 1.46482 101 97 96 
-0.158355 0.0453773 1.41732 80 79 77 
-0.0803795 -0.50249 1.58589 108 104 101 
-0.00727411 0.148945 1.38362 69 67 68 
-0.135323 0.340647 1.39997 111 107 106 
-0.215524 0.650856 1.40539 95 94 92 
-0.18012 -0.0638829 1.45751 1 0 0 
0.00457917 0.106867 1.39145 12 10 11 
-0.0345198 -0.219196 1.45225 11 11 3 
-0.0362717 -0.734362 1.64463 194 197 212 
-0.0611107 -0.129992 1.42884 115 111 108 
-0.0757649 -0.283912 1.49721 45 41 38 
-0.244965 0.613518 1.51293 105 103 104 
-0.239906 0.517228 1.49502 116 115 133 
-0.0469919 -0.255709 1.47346 121 120 116 
-0.110032 -0.0636673 1.4205 106 103 98 
-0.0485807 -0.320555 1.50087 46 42 41 
-0.169451 -0.161396 1.49686 124 120 117 
-0.0536724 -0.381279 1.52665 96 92 89 
-0.138029 -0.128164 1.46451 85 84 82 
-0.0621358 -0.196181 1.4537 97 93 90 
-0.0102412 0.101089 1.38575 46 45 43 
0.557213 0.715416 1.60412 69 66 57 
-0.228295 0.192544 1.49652 38 35 30 
-0.135968 0.0837004 1.41626 5 4 2 
-0.252481 0.560796 1.51957 132 99 30 
-0.0964882 -0.409822 1.55639 110 105 101 
-0.240681 0.504735 1.47978 4 5 23 
-0.149493 -0.26302 1.52948 94 93 91 
-0.242308 0.519218 1.51017 130 131 149 
0.0188007 -0.219924 1.47433 80 76 75 
-0.068275 -0.341336 1.51484 98 95 90 
0.0312632 0.692434 1.32806 111 108 101 
-0.244469 0.535912 1.51545 5 3 6 
-0.238638 0.50292 1.4892 79 78 84 
-0.0516423 0.109297 1.38706 78 74 75 
0.0256545 -0.261632 1.47626 57 57 57 
-0.178407 0.0721587 1.44066 77 76 74 
-0.0325973 -0.0922272 1.42117 108 107 105 
-0.17147 -0.17405 1.50543 94 91 86 
-0.0515442 0.205964 1.38005 58 56 57 
-0.0316341 -0.299504 1.49775 45 41 38 
-0.137323 -0.24839 1.51307 38 34 31 
-0.309444 0.711705 1.31018 78 76 63 
-0.151631 -0.223187 1.5061 19 15 12 
-0.269837 0.667187 1.41882 73 73 65 
0.531969 0.735188 1.63582 64 63 58 
-0.24219 0.554502 1.50402 86 82 83 
-0.0392312 0.0504441 1.38503 40 39 37 
-0.231429 0.183143 1.50324 7 4 0 
-0.148735 0.200067 1.41296 50 48 51 
-0.22389 0.673085 1.38409 50 48 49 
-0.207509 0.0972931 1.46992 68 68 68 
-0.135603 -0.178746 1.48284 62 58 59 
-0.0694525 0.0611331 1.39596 56 54 55 
-0.0589896 0.0805627 1.39742 59 57 58 
-0.0507516 0.0990916 1.38494 71 70 68 
-0.172398 0.221603 1.42584 79 77 78 
-0.213603 0.483751 1.43551 61 61 59 
-0.0494232 0.692115 1.30761 97 96 92 
0.00839805 -0.13829 1.44939 93 92 88 
-0.0408884 -0.434355 1.5413 83 81 82 
-0.0563372 -0.223764 1.45789 105 101 98 
-0.0824686 -0.0669194 1.41313 27 26 21 
-0.173594 -0.0356653 1.43774 25 21 18 
-0.0487211 -0.493027 1.56422 102 97 93 
0.01366 0.655355 1.33709 115 112 103 
-0.0655864 -0.249192 1.47211 30 26 23 
-0.0378868 0.257332 1.37218 2 1 0 
-0.165929 0.282487 1.41674 100 100 100 
0.00588767 -0.393774 1.54032 30 26 23 
-0.102001 -0.30288 1.51313 27 26 22 
-0.0500017 -0.200908 1.45086 120 119 115 
-0.101857 -0.15291 1.45526 26 22 19 
-0.0748079 -0.345437 1.51702 124 120 117 
-0.0139025 0.463973 1.36001 97 94 85 
-0.0332778 0.0758986 1.38363 80 76 73 
-0.0370726 -0.328569 1.50302 122 118 115 
-0.170517 -0.117286 1.47719 31 30 28 
-0.00276467 -0.312304 1.50653 30 26 23 
0.0543943 0.0667481 1.40971 31 29 30 
0.0226195 0.67914 1.32562 104 99 96 
0.0026928 -0.362082 1.52806 99 98 96 
-0.0152525 -0.164837 1.45026 98 94 91 
-0.0393006 0.035812 1.38355 79 78 76 
-0.0759325 -0.219729 1.46572 30 29 25 
-0.145134 0.10185 1.41907 83 82 78 
0.0421539 -0.044295 1.42189 32 32 30 
-0.0164629 -0.0925599 1.42508 30 25 19 
0.0681246 0.0115869 1.42265 7 3 2 
0.0295542 -0.0213063 1.40325 20 19 15 
0.0297493 0.421736 1.37786 115 114 109 
-0.0158716 -0.40756 1.54025 34 31 26 
0.0404423 0.0395353 1.40422 75 74 72 
-0.0797887 -0.493524 1.57549 37 36 34 
-0.0392618 -0.0512362 1.39752 95 94 92 
-0.0656987 -0.0675974 1.40214 34 30 29 
-0.0457077 0.0840412 1.38081 3 0 0 
0.0143816 -0.25015 1.46628 101 100 96 
-0.169976 -0.0964297 1.46841 25 24 22 
0.0697195 0.0410009 1.42154 14 12 13 
0.0275128 -0.0896435 1.43944 109 108 104 
0.0196583 -0.0828957 1.43457 1 0 0 
0.0470949 0.613387 1.36478 93 91 92 
0.053051 0.587118 1.38191 118 116 117 
-0.0464477 -0.0681212 1.40443 27 22 18 
-0.166704 -0.0205481 1.42671 48 47 45 
-0.052848 -0.161856 1.43569 31 30 28 
0.0379352 -0.124535 1.45646 116 114 115 
0.0467168 0.596309 1.37126 9 8 6 
0.0181774 -0.339714 1.52437 123 118 115 
0.0438422 -0.0340464 1.41599 128 127 125 
-0.00952125 -0.130508 1.43882 110 109 107 
0.0646351 0.686318 1.34542 87 82 78 
-0.0372641 -0.124637 1.43031 111 107 104 
-0.0259596 -0.107382 1.42663 90 89 87 
-0.00944643 -0.0569962 1.40965 117 116 112 
-0.050833 0.144863 1.38881 81 81 81 
-0.0444572 -0.728693 1.63179 200 209 224 
-0.0394794 -0.711027 1.63748 35 36 66 
-0.0188191 0.146363 1.37935 70 68 69 
-0.0325679 -0.171365 1.44444 60 59 55 
0.0240276 0.0336757 1.39306 52 50 51 
-0.0111981 0.128213 1.37788 73 71 72 
-0.0719147 0.213294 1.38151 50 49 54 
0.0394928 0.534807 1.38028 56 56 56 
-0.0476952 -0.760669 1.64655 104 113 128 
-0.0259049 -0.749424 1.62561 228 232 255 
-0.0496664 -0.747183 1.63257 165 167 190 
-0.242872 0.51275 1.50616 3 1 22 
-0.0622675 -0.154099 1.44346 18 14 11 
-0.0402519 -0.312187 1.49619 20 17 12 
-0.13609 -0.302127 1.54286 18 14 5 
-0.187133 -0.294157 1.56293 29 31 46 
-0.192685 -0.256644 1.58705 206 207 211 
-0.102541 -0.19462 1.47213 116 115 111 
-0.24732 0.518805 1.52074 16 16 28 
-0.247107 0.521161 1.50882 104 105 110 
-0.0814064 -0.0874313 1.43178 1 0 0 
-0.240045 0.532936 1.48717 141 141 143 
-0.135444 -0.0331595 1.41071 25 23 11 
0.0592839 -0.0357623 1.42614 28 27 23 
0.0146891 -0.0233715 1.39919 25 25 13 
0.0478225 0.595395 1.36892 118 117 115 
-0.138171 -0.0500292 1.43123 39 38 33 
-0.0443731 -0.161577 1.44293 31 27 24 
0.0655228 -0.0610612 1.44235 26 23 18 
-0.241355 0.5493 1.4909 94 94 92 
-0.245896 0.547412 1.50821 116 116 116 
0.0306308 -0.0904884 1.44653 128 127 123 
0.0415522 0.00967788 1.40591 9 7 8 
-0.369898 0.724858 1.62122 139 131 120 
-0.0508487 -0.117712 1.42644 17 16 12 
0.0410464 -0.124797 1.46296 144 144 142 
0.0483769 0.0285796 1.40983 124 123 121 
-0.178147 -0.127409 1.49043 110 109 105 
-0.0222927 -0.433384 1.55182 17 16 14 
-0.00330039 -0.187706 1.46276 115 101 101 
-0.0941021 0.468087 1.36237 106 105 103 
-0.0492647 -0.228549 1.46645 17 13 12 
-0.0101585 -0.240985 1.45935 98 97 95 
-0.0866956 -0.408743 1.54653 126 123 118 
-0.114404 -0.291635 1.5254 118 112 112 
-0.035858 0.0531311 1.38778 0 0 0 
0.0553097 0.209198 1.40379 106 105 103 
-0.199706 0.118279 1.46965 1 0 0 
-0.0306042 -0.728965 1.63186 100 110 122 
0.017308 -0.331271 1.52828 11 12 6 
0.0121345 -0.342646 1.52912 8 7 5 
0.0192993 -0.347428 1.53454 110 110 108 
0.0146775 -0.35608 1.53523 117 113 112 
-0.0429542 -0.355705 1.51476 34 30 21 
-0.0950678 -0.37023 1.53953 15 11 8 
-0.0208621 -0.397117 1.53838 128 124 121 
-0.00482766 0.0379687 1.38902 83 79 78 
0.0152491 -0.239165 1.46836 12 12 10 
-0.213955 0.144202 1.48413 94 92 95 
-0.225689 0.14558 1.50646 1 0 2 
0.0430901 0.341888 1.38628 7 3 2 
-0.197906 -0.172777 1.60001 18 14 11 
0.00904107 0.134959 1.38531 97 96 94 
-0.0203804 0.211186 1.36893 88 87 85 
-0.0353995 -0.385618 1.52708 36 32 29 
-0.0924472 -0.0663168 1.42635 125 124 122 
-0.168098 0.658131 1.32541 109 104 101 
-0.170711 0.0807771 1.44769 91 91 91 
-0.0489265 0.183763 1.37322 100 99 97 
0.00706153 -0.0430832 1.41046 105 105 103 
-0.00381599 0.243881 1.37816 1 0 0 
-0.154769 0.0393595 1.42823 85 85 85 
-0.245969 0.61049 1.51087 114 112 113 
-0.0593092 -0.617954 1.61295 128 123 120 
-0.181586 -0.217135 1.55357 107 96 94 
0.0602554 -0.0477091 1.43174 37 36 34 
-0.00185543 -0.366646 1.53056 130 124 124 
-0.034669 -0.410464 1.53969 39 38 34 
0.0536908 0.0670795 1.40797 23 22 20 
-0.239956 0.579708 1.48519 0 0 7 
-0.00982536 0.242965 1.36908 109 109 107 
-0.00675123 0.0611185 1.39351 114 110 109 
-0.121148 -0.322071 1.53787 35 32 27 
-0.205116 0.165059 1.46909 85 84 82 
-0.244413 0.567586 1.49992 96 97 91 
-0.252932 0.563603 1.51271 118 98 74 
-0.228682 0.329931 1.50661 133 132 127 
-0.018467 -0.0649654 1.4232 111 112 107 
-0.0514536 -0.188608 1.44932 110 106 103 
-0.244429 0.555669 1.50047 76 76 74 
-0.0192048 -0.75475 1.63206 67 75 96 
-0.188787 -0.276084 1.57115 215 214 220 
-0.0251147 -0.701887 1.63789 70 77 96 
0.0837528 0.0211934 1.43567 1 0 0 
-0.0744196 -0.288201 1.50792 88 85 80 
-0.25055 0.560217 1.52081 112 88 62 
-0.00360329 -0.114552 1.44026 131 127 126 
0.0588543 0.115277 1.40931 105 103 104 
0.097027 0.0422516 1.45001 4 3 1 
-0.0757307 -0.300718 1.50147 33 31 19 
-0.0615507 -0.0802582 1.41164 128 126 127 
0.0207423 -0.083184 1.43749 10 9 7 
-0.06059 -0.130826 1.43504 36 33 28 
-0.0627862 -0.0681045 1.4114 29 27 28 
-0.0399837 -0.0641069 1.40776 34 31 26 
-0.0103612 -0.218599 1.463 36 31 27 
-0.00610914 0.091121 1.39165 127 126 122 
0.0142159 -0.219673 1.4745 102 93 94 
-0.243365 0.522998 1.493 143 146 155 
-0.177507 -0.212013 1.53826 14 4 2 
-0.238795 0.527756 1.47892 94 95 99 
-0.0197267 -0.368288 1.52921 126 125 121 
-0.138141 -0.375051 1.61956 205 203 216 
-0.526236 0.624997 1.24456 145 140 137 
-0.00567518 -0.057664 1.41387 91 90 88 
-0.0344039 -0.188303 1.45061 12 7 3 
0.0366297 0.0181256 1.40198 1 1 0 
0.0580135 0.0171093 1.4184 114 114 114 
-0.118212 0.0163724 1.41036 123 122 120 
0.0152501 -0.250628 1.46871 107 106 104 
-0.015894 0.448419 1.35369 15 12 7 
-0.0888213 -0.388252 1.54596 86 85 81 
-0.0322435 -0.0591693 1.40357 128 127 123 
-0.0378552 -0.319701 1.50773 135 131 128 
-0.201311 -0.149188 1.58365 90 89 85 
-0.118908 0.0949262 1.41405 104 102 103 
0.0571688 -0.0878624 1.45383 98 94 93 
0.0449892 -0.0337251 1.4213 104 102 103 
-0.108446 -0.246509 1.50013 36 33 26 
-0.0293432 -0.0934057 1.42874 82 81 79 
-0.00229265 -0.420914 1.55177 32 28 25 
-0.0522125 0.0813637 1.39132 77 75 76 
-0.0124834 -0.0929319 1.42763 28 27 23 
-0.0229117 -0.31027 1.5066 87 83 82 
-0.0511634 0.111819 1.38773 86 86 86 
-0.0563825 -0.457263 1.55488 12 11 7 
-0.152268 -0.179688 1.49078 83 82 80 
-0.0304413 -0.220966 1.4617 3 3 0 
-0.165831 -0.0329826 1.42936 109 104 100 
-0.0353531 -0.769144 1.63882 208 215 234 
-0.118584 -0.631921 1.39211 88 89 117 
-0.0650841 -0.669309 1.6363 102 101 109 
-0.0750464 -0.229147 1.48315 40 35 31 
-0.135585 0.340426 1.39924 132 128 125 
-0.228806 0.183317 1.5085 7 3 0 
-0.0813217 -0.116503 1.44151 108 105 100 
-0.2133 -0.142527 1.61452 124 133 142 
-0.134665 0.377541 1.3843 69 68 66 
-0.0395541 -0.376758 1.5193 122 118 115 
-0.0709753 -0.583825 1.62418 26 24 29 
0.001673 -0.369861 1.54227 125 119 119 
-0.0328938 -0.615515 1.59686 34 30 29 
-0.0453465 -0.341022 1.51006 35 36 31 
-0.17616 0.0724128 1.45022 64 64 62 
-0.00164096 -0.321048 1.51554 144 143 141 
-0.239588 0.212048 1.54324 6 2 0 
-0.0535201 -0.293169 1.50053 106 103 96 
0.00312032 -0.258745 1.4646 122 119 112 
-0.0160392 -0.667206 1.61655 48 47 45 
0.00397062 0.0995822 1.38715 13 12 10 
-0.00166572 -0.226676 1.46398 84 83 81 
-0.155667 -0.0502385 1.4397 41 38 33 
-0.137835 -0.0566928 1.44753 22 19 12 
-0.237146 0.188635 1.53587 25 22 17 
-0.0657275 -0.119459 1.43367 115 110 104 
0.0680559 0.0114361 1.42004 3 1 2 
-0.183766 -0.165822 1.5534 26 25 23 
-0.147594 -0.267734 1.53966 94 93 89 
0.0270324 0.203574 1.38879 92 91 89 
-0.0605043 -0.658649 1.60812 115 114 112 
-0.00766807 -0.131566 1.4461 97 96 94 
-0.226345 0.323781 1.49319 106 105 103 
-0.237236 0.518153 1.47989 95 95 107 
-0.0425172 -0.698416 1.63534 194 200 216 
-0.244782 0.483364 1.46898 20 16 15 
-0.158122 -0.0896517 1.45271 81 80 78 
-0.239818 0.516278 1.47017 14 16 28 
-0.045283 -0.328369 1.49654 29 26 21 
-0.0313146 -0.662415 1.60185 42 40 41 
-0.247756 0.569833 1.52935 71 51 24 
-0.0708445 -0.175348 1.45502 43 40 35 
-0.232609 0.198866 1.50855 34 31 26 
-0.543133 0.677042 1.18911 116 113 98 
0.0528348 0.339952 1.39553 21 18 13 
-0.236712 0.170698 1.54054 8 5 0 
-0.218284 0.135642 1.49989 83 83 81 
-0.144941 -0.209374 1.49367 100 96 93 
0.0666479 0.0693272 1.4202 39 38 36 
-0.148285 -0.0335352 1.41635 127 126 121 
-0.0128752 -0.193602 1.46216 44 30 27 
-0.0350612 -0.432626 1.54946 81 80 76 
0.064782 0.0399688 1.42127 0 0 0 
-0.0480519 -0.668335 1.62241 45 44 42 
0.00664569 -0.229367 1.47135 79 75 74 
-0.0380327 -0.419634 1.53926 120 116 115 
-0.0116583 0.100971 1.3828 31 30 28 
0.0181399 0.0510775 1.3986 72 71 69 
0.0417671 0.0398616 1.40536 96 95 91 
-0.101931 -0.0549016 1.40813 83 79 68 
-0.104003 -0.0447149 1.41649 102 99 92 
0.0230387 0.516693 1.36811 87 86 84 
-0.238122 0.183775 1.5258 28 25 18 
-0.217621 0.64441 1.39342 96 96 96 
0.0411955 0.138852 1.3938 110 106 105 
-0.135051 -0.250062 1.52454 25 25 23 
-0.237945 0.0527307 1.52866 65 65 65 
-0.00897259 0.147633 1.38109 64 62 63 
0.0327666 0.66447 1.32984 90 87 82 
-0.0126649 0.437764 1.35695 123 120 113 
-0.0385933 -0.751323 1.64132 228 228 252 
-0.0479418 -0.653923 1.58408 52 48 47 
-0.0697805 -0.606783 1.62407 197 197 209 
-0.0673907 -0.607147 1.63762 107 107 119 
-0.00955198 -0.677219 1.62425 90 88 89 
-0.515692 0.629646 1.22828 28 24 25 
-0.237942 0.212998 1.55206 40 36 33 
-0.239952 0.321505 1.53353 2 2 0 
-0.239061 0.521841 1.46255 123 122 127 
-0.0521677 -0.663911 1.61105 35 34 32 
-0.0434737 0.0797798 1.3799 85 80 76 
-0.0953736 0.0621373 1.39274 76 76 76 
0.0236243 0.227693 1.38139 77 76 71 
-0.0276623 -0.326892 1.5115 66 66 64 
-0.131486 -0.252234 1.53459 47 47 45 
-0.303422 0.785049 3.13876 85 86 80 
-0.152587 -0.222316 1.49772 18 15 10 
-0.220203 -0.11592 1.62173 59 61 74 
-0.0433653 0.217121 1.37583 94 93 89 
-0.45633 0.686764 1.24873 105 103 91 
-0.508512 0.69855 2.04126 105 106 100 
-0.24137 0.489088 1.4863 15 11 10 
-0.192267 -0.274099 1.58213 39 39 51 
-0.231354 -0.0729712 1.60316 35 31 32 
-0.23158 -0.07332 1.61898 53 51 62 
0.0101556 -0.0452172 1.41939 118 118 116 
-0.282221 0.689077 1.28424 73 71 56 
-0.236639 -0.0166048 1.51181 53 52 48 
-0.140201 0.642119 1.33402 118 115 110 
-0.1057 0.630192 1.33384 110 106 107 
-0.250141 0.610085 1.43505 24 23 18 
0.375396 0.75788 1.64507 102 100 85 
0.0210134 0.0297336 1.39106 69 67 68 
0.0330516 0.0304023 1.41516 83 82 80 
-0.0737925 -0.500228 1.59344 34 32 33 
-0.145446 -0.156443 1.49357 34 30 27 
0.0452476 0.0406587 1.41382 80 79 75 
-0.165132 -0.18138 1.5216 35 35 27 
-0.0594246 -0.425416 1.54808 41 37 34 
-0.172561 0.0732221 1.4587 68 68 66 
-0.253988 0.504677 1.52071 40 40 40 
0.0302771 0.429763 1.3787 129 126 117 
0.00652666 0.0807641 1.39094 78 78 76 
0.0228645 -0.364236 1.55413 103 97 97 
-0.0551778 0.142334 1.36902 79 79 79 
0.0013311 -0.323744 1.52448 80 79 77 
0.0309214 0.204256 1.39745 80 79 77 
-0.240523 0.0789046 1.57201 58 57 55 
-0.0336504 -0.658697 1.59465 44 42 43 
-0.0463698 -0.432305 1.53285 74 73 69 
-0.0652107 -0.420629 1.53299 45 41 38 
-0.128578 -0.350972 1.54872 60 57 52 
-0.0334491 -0.241143 1.45926 141 141 131 
-0.0857463 -0.230303 1.46088 67 64 55 
-0.0597256 -0.231031 1.47623 41 37 34 
5.49613e-05 -0.223084 1.47286 101 93 90 
-0.172974 -0.216201 1.50846 4 3 0 
-0.100259 -0.189927 1.45996 93 89 88 
-0.0595905 -0.190414 1.45895 73 68 64 
-0.132483 -0.162277 1.49125 119 118 116 
-0.113156 -0.159933 1.45908 100 96 93 
-0.178202 -0.103969 1.47206 19 15 12 
-0.143481 -0.0679864 1.456 51 47 44 
-0.000868773 0.0165297 1.38831 50 49 47 
0.0268993 0.0334297 1.40052 69 67 70 
-0.24458 0.0798095 1.56206 79 75 74 
-0.0494993 0.121017 1.38852 76 76 76 
-0.0368757 0.133129 1.38769 15 14 12 
0.0471065 0.138885 1.41076 75 71 70 
-0.238661 0.200419 1.54138 14 15 9 
-0.0604739 0.200724 1.38635 54 52 55 
0.0324937 0.295806 1.37769 70 66 67 
0.0100702 0.313374 1.37839 60 59 57 
-0.041905 0.328306 1.353 71 70 68 
-0.259082 0.493977 1.50526 54 54 54 
-0.221835 0.498833 1.41872 100 99 97 
-0.239086 0.576424 1.44372 28 27 32 
0.0919179 0.674791 1.367 30 29 25 
-0.0577272 -0.081414 1.42448 102 100 101 
-0.165626 0.320766 1.41272 60 59 57 
0.00203928 0.478439 1.36058 112 111 107 
-0.0293132 -0.768335 1.65174 189 202 211 
-0.0379044 -0.754136 1.65225 196 203 219 
-0.0269194 -0.755682 1.65174 192 200 213 
-0.0334148 -0.699226 1.62741 187 192 211 
-0.0166858 -0.598855 1.59951 41 39 44 
-0.0410912 -0.302347 1.50413 133 129 126 
-0.0395394 -0.238215 1.44358 76 76 66 
0.104523 -0.116767 1.53047 18 18 28 
-0.224091 -0.0232032 1.49268 54 53 49 
-0.15984 0.0626938 1.43631 55 54 52 
-0.0678194 0.0613295 1.39981 60 58 59 
-0.0582555 0.0810995 1.39913 76 76 76 
-0.0470646 0.11078 1.39726 74 74 74 
-0.0489131 0.328129 1.37314 64 60 57 
-0.218068 0.480896 1.43903 23 22 20 
-0.252934 0.694206 1.34335 81 81 69 
7.29711 2.88822 16.7292 131 134 139 
-0.23262 0.0744613 1.5133 82 82 82 
-0.123903 -0.0330244 1.41095 38 36 24 
-0.16669 -0.0730964 1.45359 123 120 115 
-0.072332 -0.329632 1.51318 26 18 15 
-0.111532 -0.283006 1.51448 105 104 100 
7.34295 2.91085 16.8653 14 17 22 
-0.10793 0.102694 1.40119 81 81 81 
0.520244 0.711749 1.68347 110 108 95 
-0.133108 0.682809 1.31333 96 95 90 
-0.123942 -0.0522219 1.4245 66 61 55 
-0.124045 -0.141587 1.46266 105 104 102 
7.50635 2.76154 17.1604 98 103 109 
-0.197337 0.11188 1.45917 28 27 25 
-0.0101625 0.44025 1.3638 123 120 113 
0.523846 0.740551 1.66044 58 57 53 
-0.0486114 0.0974508 1.39374 79 79 77 
-0.0907452 -0.442218 1.56736 105 101 98 
0.602008 0.720748 1.52786 76 76 68 
0.533288 0.735389 1.63568 48 47 42 
-0.102812 0.0350929 1.39753 32 31 29 
8.05492 2.85847 18.4572 57 62 66 
-0.117542 0.199786 1.39891 60 60 60 
-0.0473759 -0.752018 1.64112 224 225 255 
-0.0339132 -0.740496 1.63773 214 221 239 
-0.158802 -0.0546121 1.42888 105 101 98 
-0.0399437 -0.720576 1.63283 211 211 235 
-0.0284117 0.256949 1.36804 1 0 0 
0.0900756 0.252916 1.44159 31 30 26 
-0.179925 -0.0741618 1.46177 44 43 39 
-0.00331671 -0.0958028 1.43117 22 18 17 
0.0810899 0.229208 1.43383 11 8 3 
-0.0017659 -0.598803 1.62644 117 118 136 
0.0732922 0.0661271 1.43048 112 111 109 
0.105915 -0.065274 1.50003 123 122 120 
0.105239 0.0821005 1.46909 94 93 91 
0.0392558 -0.114659 1.44868 14 12 13 
0.0377231 0.44298 1.38021 132 129 122 
-0.13951 -0.14232 1.46771 30 29 27 
0.0284633 -0.304388 1.51466 1 0 0 
0.019063 -0.304982 1.51186 17 16 14 
-0.0483112 -0.306304 1.49244 12 9 4 
0.0253903 0.15919 1.39082 96 95 93 
-0.0455811 -0.398353 1.52594 32 28 25 
-0.00551874 -0.34715 1.51909 118 114 113 
-0.0120896 0.456717 1.36116 27 23 20 
-0.0240658 0.109822 1.37915 1 0 0 
-0.00531917 0.515046 1.35899 102 101 99 
0.0471193 -0.21172 1.48663 118 117 113 
0.0549339 0.0671419 1.41324 12 11 9 
0.0167274 -0.201397 1.46102 99 87 87 
-0.0850847 -0.455294 1.56257 24 20 19 
0.0728909 0.056611 1.4242 122 120 121 
0.0208202 -0.191081 1.46382 111 102 103 
0.0816942 0.0512044 1.43294 92 88 87 
0.0593527 -0.183817 1.48382 118 115 110 
-0.0344978 -0.344959 1.50873 39 35 34 
-0.115374 -0.179664 1.47027 36 32 31 
0.0543861 -0.175585 1.47343 130 127 122 
0.0193323 -0.158966 1.45581 19 18 14 
-0.0379206 -0.152622 1.43397 117 112 109 
-0.022785 -0.353921 1.52018 139 135 132 
-0.135262 0.0265382 1.40283 103 103 103 
-0.0542427 -0.135449 1.42634 121 120 116 
-0.0198293 0.0161641 1.3854 1 0 0 
0.0990737 0.0120381 1.45144 98 96 97 
-0.162422 -0.114416 1.46626 121 120 118 
-0.0549434 -0.365193 1.51318 46 42 31 
-0.148353 -0.0420059 1.42341 129 125 124 
-0.120885 -0.0448469 1.41087 15 11 8 
-0.0146546 -0.382017 1.53247 108 104 103 
-0.152479 -0.224356 1.50625 87 86 84 
0.0659578 -0.0751148 1.44347 104 100 99 
-0.0722016 -0.078889 1.41023 116 115 113 
-0.0923389 -0.410161 1.55226 123 119 118 
0.00858202 0.635622 1.34844 127 125 126 
0.0846865 0.427222 1.42988 17 13 10 
-0.0628332 -0.434655 1.54662 26 22 19 
0.0906968 0.209565 1.44651 129 128 123 
0.0311557 0.470679 1.37674 122 119 114 
0.0497302 0.255397 1.39457 114 113 109 
-0.0213878 0.0904537 1.38301 104 103 101 
-0.0241821 -0.755457 1.62931 226 230 255 
-0.0430858 -0.738588 1.63439 90 97 115 
-0.101174 -0.257237 1.48785 132 128 125 
0.051403 -0.191596 1.48166 159 158 154 
0.12609 0.0239999 1.47969 6 5 1 
-0.0708171 -0.319417 1.50122 61 57 54 
0.0320476 0.409498 1.38193 29 28 23 
0.0336175 0.400384 1.37824 131 127 124 
0.102486 -0.0862911 1.51071 13 12 10 
-0.00638735 -0.411391 1.54564 33 30 25 
0.0158789 -0.102213 1.44028 130 129 127 
0.13163 0.0612428 1.48806 127 126 122 
-0.0230761 -0.0770299 1.4158 95 94 92 
0.0896236 0.0135244 1.43817 60 58 59 
-0.0570179 -0.383879 1.52219 21 17 16 
0.0272465 -0.329258 1.52099 24 21 16 
-0.140385 -0.0596513 1.42404 29 26 21 
-0.110908 -0.341127 1.53132 30 26 23 
-0.0307194 -0.337729 1.50243 22 21 19 
0.0411121 -0.195417 1.47167 112 111 107 
0.0679535 -0.19598 1.50428 118 114 111 
-0.0144445 -0.0341783 1.39397 29 28 24 
0.051427 0.268515 1.3997 116 111 108 
0.0547818 -0.157351 1.4713 113 112 110 
-0.0629758 -0.139768 1.42684 118 115 110 
0.0919312 0.282558 1.44515 101 98 93 
-0.0394882 -0.535474 1.57559 116 115 113 
0.011545 -0.184457 1.45595 88 80 78 
-0.000647932 -0.163644 1.44565 94 93 91 
0.0339672 0.423109 1.38449 107 104 99 
0.0535426 0.590048 1.38879 126 125 123 
0.0500582 -0.0494867 1.43061 17 16 12 
0.028114 0.00923782 1.39309 1 0 0 
0.0392827 -0.133618 1.45559 133 132 130 
0.0336986 -0.101136 1.44265 3 1 2 
-0.0503183 -0.326554 1.49763 132 127 124 
-0.0184803 0.330326 1.36125 95 93 96 
-0.109917 -0.179625 1.45792 121 117 116 
0.133817 0.0250626 1.49898 1 0 0 
-0.0421018 -0.66271 1.60237 26 25 21 
-0.0381487 -0.373241 1.52194 124 120 117 
-0.039554 -0.419904 1.5404 120 116 115 
-0.021408 -0.0538778 1.39907 120 119 115 
-0.0446644 -0.356195 1.51579 39 35 26 
0.012467 -0.0279695 1.40132 106 102 99 
-0.198814 0.0196649 1.44968 19 17 18 
-0.100316 -0.290594 1.51084 114 114 112 
-0.111941 -0.300286 1.51561 124 120 119 
0.015545 0.67704 1.32752 108 104 101 
0.0266277 0.508187 1.373 80 79 77 
0.0754862 0.0413058 1.42427 8 4 1 
-0.0164529 -0.206214 1.45744 46 36 34 
-0.0254174 -0.0455568 1.39423 104 103 99 
-0.139466 -0.00647905 1.40277 99 98 96 
-0.00303365 -0.434254 1.55097 80 76 75 
0.0197743 -0.16461 1.46384 94 93 89 
-0.00373571 -0.606661 1.62078 122 124 139 
0.0380149 -0.215481 1.47288 86 85 81 
-0.0153363 0.304218 1.37222 1 0 0 
0.0715035 0.133788 1.42104 86 82 81 
0.0390918 -0.426962 1.60072 92 91 86 
-0.0318575 -0.384329 1.52889 108 104 101 
0.143463 -0.0580088 1.57488 109 109 111 
0.0842065 0.438139 1.42498 109 108 104 
-0.449549 0.685236 2.00551 111 111 109 
-0.0578064 -0.337791 1.50087 42 39 32 
-0.0124804 -0.330516 1.51315 104 100 97 
0.00550555 -0.330991 1.51859 97 96 94 
0.0994247 0.116884 1.45683 107 101 101 
-0.0598663 -0.624354 1.62321 106 101 98 
0.123219 -0.128292 1.58411 111 110 108 
-0.0488153 -0.179769 1.43979 91 89 90 
-0.154122 -0.210425 1.50621 99 97 98 
0.0035302 -0.405958 1.54826 129 125 124 
-1.24301 0.75559 4.41133 140 142 131 
0.0643745 -0.110604 1.45523 35 34 32 
0.103322 -0.153349 1.54966 77 76 72 
0.102244 0.0595944 1.45206 77 76 74 
-0.0512638 0.255275 1.37365 102 102 102 
0.0366113 0.456189 1.38012 80 79 75 
0.0988256 0.0748882 1.45336 85 84 82 
-0.0310804 -0.701917 1.63822 195 204 221 
0.0658069 0.0691533 1.42436 39 39 39 
0.0492048 -0.218509 1.49285 151 149 150 
-0.0502981 0.143474 1.37521 89 87 88 
-0.0115416 -0.619579 1.62202 18 12 12 
-0.154728 -0.198579 1.49899 113 112 110 
-0.0126681 -0.391747 1.5312 118 114 113 
0.0647264 0.0402519 1.42541 6 2 0 
-0.0528605 0.130952 1.38885 48 48 48 
0.0365936 0.0587207 1.39457 89 89 89 
0.0846252 0.278039 1.43506 45 44 40 
0.0260487 0.480011 1.36825 99 98 94 
-0.0109858 0.23513 1.37886 89 87 88 
0.0269409 0.114468 1.39357 81 79 80 
0.0072769 -0.394234 1.54619 36 32 31 
-0.0390723 -0.330032 1.5075 100 96 93 
0.122005 0.0104132 1.46792 67 66 64 
0.0941994 0.434514 1.43106 57 56 52 
-0.0550889 0.488341 1.3596 67 66 64 
-0.0379003 -0.551939 1.5846 83 78 74 
0.124226 -0.140337 1.58886 195 194 199 
0.0599324 -0.120258 1.45596 93 92 90 
-0.0923766 -0.330072 1.51508 50 46 43 
0.0703931 0.257391 1.41859 36 32 31 
-0.0072147 -0.384984 1.53718 110 106 105 
0.0298756 0.707257 1.29245 133 133 123 
-0.0541809 -0.40475 1.52684 85 81 80 
-0.132734 -0.343748 1.5893 34 31 26 
0.00229342 -0.259325 1.46717 103 100 91 
-0.00352968 -0.219603 1.44531 106 102 99 
0.124553 -0.0967767 1.55621 36 35 33 
0.061154 0.557613 1.39112 81 79 80 
0.0610578 0.0778206 1.40842 75 74 72 
0.0914833 0.0820586 1.45362 24 23 21 
0.0612589 0.147775 1.40604 101 100 98 
-0.0495281 0.162585 1.37397 64 63 61 
0.0545944 0.689023 1.33514 58 55 50 
-0.00329194 0.158687 1.38317 67 66 64 
0.0815745 0.0411635 1.43292 41 37 36 
0.0674213 -0.221018 1.51659 60 59 57 
0.0628258 -0.205446 1.49992 128 127 123 
0.0114744 -0.307899 1.50516 136 135 133 
-0.0414018 -0.281493 1.49095 48 44 43 
0.0816711 -0.199881 1.53708 70 68 69 
-0.138819 -0.160832 1.47896 62 61 59 
-0.0926163 0.0544914 1.37857 70 70 70 
0.0108172 0.144535 1.3885 64 63 61 
-0.0492565 0.212167 1.36483 109 105 106 
0.036777 0.297423 1.3812 71 67 64 
0.0668331 0.329821 1.41484 37 33 30 
-0.128164 -0.222438 1.49256 26 22 21 
-0.0283507 -0.428861 1.5418 122 121 119 
-0.109746 0.686448 1.31376 29 25 26 
-0.0307095 -0.361196 1.51668 114 110 107 
0.150784 0.0874273 1.55294 47 52 46 
-181.023 -41.7309 -2989.05 81 89 108 
-99.1241 5.66595 -1943.55 186 195 210 
-73.2015 34.152 -1247.23 79 88 103 
-59.026 22.6296 -875.445 83 92 109 
-12.5047 -7.78649 -160.695 255 253 255 
-10.0156 -3.37335 -88.5025 157 170 179 
-78.3936 -32.5171 -1167.25 178 186 199 
-61.5736 -7.09049 -942.156 167 174 190 
-79.4066 9.28175 -1214.46 66 73 91 
-80.7575 9.98139 -1248.47 197 204 222 
-81.7928 12.1013 -1285.37 192 199 217 
-59.2032 9.6988 -1015.19 70 79 94 
-116.01 39.0675 -1782.85 198 207 224 
-66.7815 22.8691 -1044.34 202 211 228 
-165.166 150.497 -3237.81 62 74 88 
-60.0837 20.5997 -881.91 194 203 220 
-43.6442 15.2046 -651.353 193 200 219 
-73.7084 30.051 -1233.61 65 74 89 
-61.4776 23.5137 -935.996 186 195 212 
-69.5331 31.4906 -1157.13 79 88 103 
-54.3753 29.5225 -828.285 72 81 98 
-123.537 42.0608 -1929.58 202 211 228 
-65.4035 25.5805 -1079.78 194 203 218 
-67.0698 16.6766 -1055.73 181 190 207 
-55.3422 25.3759 -860.329 97 106 123 
-78.471 1.50362 -1194.99 80 87 105 
-78.8401 16.7379 -1309.93 67 76 91 
-73370.4 5458.3 -1.29757e+06 188 197 212 
-68.0021 24.8421 -1130.41 181 190 205 
-59.4101 21.7026 -923.317 196 203 221 
-55.2528 4.05465 -966.199 181 190 205 
-150.515 62.4091 -2498.55 72 81 96 
-56.8062 21.8467 -866.008 186 195 212 
-58.1879 22.8057 -904.392 86 95 112 
-94.7763 -0.0760263 -1541.54 185 194 209 
-46.8739 38.0501 -764.246 188 195 213 
-77.0008 -33.5031 -1269.99 182 192 204 
-83.6669 -38.052 -1419.15 39 49 61 
-75.3927 -14.3789 -1143.62 97 102 121 
-39.4977 27.3647 -591.704 180 189 206 
-59.7934 2.77469 -894.034 55 60 80 
-73.6349 56.8547 -1210.55 196 203 221 
-85.6031 35.3858 -1298.71 59 67 86 
-97.3509 40.5475 -1612.48 69 76 92 
-184.475 38.6993 -3078.55 87 96 111 
-57.0031 9.03827 -879.019 171 178 196 
-59.6307 5.90972 -919.341 78 85 103 
-61.8519 4.19999 -960.943 191 198 216 
-1138.5 81.6502 -19998.9 173 182 197 
-62.7848 2.24453 -967.788 191 198 216 
-67.376 0.00147495 -1063.19 163 170 188 
-69.2908 -6.24747 -1059.47 65 72 88 
-104.673 -43.2926 -1636.65 181 189 202 
-136.688 -38.0488 -2424.45 71 80 97 
-53.3304 24.6643 -907.492 79 88 103 
-90.3871 34.8029 -1381.69 158 167 184 
-46.6741 11.8413 -595.455 75 87 101 
-76.6579 4.48815 -1316.36 90 99 114 
-673.619 48.8185 -11195.2 188 197 212 
-188.193 9.32486 -3826.75 105 114 129 
-59.6807 3.09685 -895.024 108 113 133 
-64.2449 0.671302 -990.258 58 65 83 
-80.1147 6.08229 -1404.97 173 182 197 
-180.152 28.6432 -2798.21 176 183 201 
-85.7235 -8.39517 -1441.49 78 87 104 
-72.5892 -6.61333 -1139.69 160 167 183 
-163.835 33.1178 -2545.22 79 88 105 
-69.9429 -5.91274 -1077.77 76 83 99 
-54.3231 13.0801 -845.766 173 182 199 
396360 172631 2.52291e+06 55 63 74 
-257.882 234.935 -5057.03 62 74 88 
-43.6536 -18.8699 -717.771 181 191 203 
-77.6897 4.40047 -1339.63 59 68 83 
-55.3485 21.3298 -932.09 51 60 75 
-62.8543 10.2802 -1032.59 148 157 172 
-96.7137 15.1447 -1497.85 166 173 191 
-59.6429 6.49302 -924.714 105 112 130 
-153.313 11.0692 -3065.03 69 78 93 
-59.7685 2.99084 -896.335 60 65 85 
-186.715 8.06881 -3787.36 110 119 134 
-66.4219 -2.63585 -1017.94 157 164 182 
-69.1961 -5.88293 -1060.32 77 84 100 
-43.3222 28.2996 -696.219 54 63 80 
-52.603 21.7487 -798.098 59 67 86 
-63.7063 1.22308 -870.034 161 170 185 
-47.2332 8.65977 -805.594 109 118 133 
-83.157 -23.7563 -1259.5 76 81 100 
-10.6968 -2.66003 -104.232 151 158 174 
-54536 -14576.9 -924078 153 162 179 
-152.015 -5.68925 -2336.65 164 171 189 
-105429 7849.9 -2.13192e+06 182 191 206 
-131.491 9.55019 -2049.19 139 146 164 
-197.853 15.326 -3307.28 156 165 180 
-124.507 13.3568 -1940.67 102 109 127 
-107.269 21.9001 -1672.47 142 151 168 
-130.114 36.1555 -2176.4 163 172 187 
-89.9511 30.4015 -1402.94 186 195 212 
-91.9897 3.63569 -1233.25 66 75 92 
-89531.3 46022.4 -1.9505e+06 63 75 89 
-40.5862 7.20644 -522.333 73 82 99 
-76674.4 -2682.9 -1.18975e+06 166 173 191 
-10.6803 -2.67903 -104.246 58 65 81 
-9.03431 -2.2061 -87.2163 119 126 142 
-0.110695 0.00475049 1.39746 82 81 79 
-0.0381674 -0.673081 1.62863 118 117 115 
10.3233 3.33865 19.2798 9 13 24 
10.5015 3.57547 20.0211 1 5 16 
10.3503 3.35435 19.6351 5 9 21 
8.32514 3.19337 16.3632 126 125 130 
10.1836 3.29106 18.8448 29 33 44 
10.364 3.61881 19.5073 65 66 70 
-0.194559 0.64928 1.3766 108 104 101 
10.2359 3.3104 19.1403 15 19 30 
10.264 3.32674 19.2473 15 22 32 
10.3741 3.36192 19.6782 5 9 21 
10.4111 3.37334 19.8242 23 27 38 
10.3516 3.24718 19.6593 40 46 58 
10.278 3.22909 19.5855 18 27 36 
9.14151 3.45149 20.0148 19 22 31 
10.199 3.19935 19.0884 25 29 40 
9.02157 3.19032 19.7717 141 146 152 
-0.205828 0.621572 1.39248 84 83 81 
10.4707 3.69979 19.9699 31 34 43 
8.99724 2.96728 16.2312 143 148 152 
9.63566 3.16349 16.2157 28 33 36 
9.86503 3.64801 20.225 108 109 113 
9.96042 3.4495 20.1216 20 20 28 
9.63332 3.53554 19.6024 15 16 20 
9.34916 3.44775 19.6071 31 32 37 
10.518 3.35556 20.2115 118 123 129 
9.17653 3.2517 20.0665 141 146 150 
-0.0878107 0.705067 1.27055 45 43 31 
10.3182 3.25025 19.6568 15 22 32 
9.80447 3.58756 20.2143 40 41 46 
9.62481 3.56094 20.1699 30 31 36 
8.81452 2.91002 15.9553 147 152 158 
-0.15713 -0.129287 1.47126 93 92 90 
-0.215841 0.517875 1.42755 118 116 117 
-0.174038 0.0804767 1.43759 2 0 1 
-0.196043 0.028811 1.44577 1 0 0 
-0.22684 -0.00445285 1.47942 101 100 98 
4.43628 2.20363 8.4194 103 103 105 
-0.234993 0.6128 1.47798 7 8 10 
-0.24337 0.508764 1.49709 0 0 15 
-0.24138 0.121908 1.5921 95 93 94 
-0.219826 0.0348123 1.4723 102 101 99 
-0.247837 0.508002 1.51165 0 0 7 
-0.235247 0.536149 1.46923 117 117 115 
-0.24333 0.542536 1.50165 2 0 3 
-0.23688 0.144171 1.52962 1 0 0 
-0.240886 0.0135435 1.51769 82 81 79 
-0.24318 0.113713 1.55502 85 85 85 
-0.0785581 0.655018 1.31494 4 0 0 
-0.233565 0.0314131 1.50071 1 0 0 
-0.194901 -0.160823 1.55704 4 3 1 
-0.173097 0.0488629 1.4241 81 79 80 
-0.250952 0.0270221 1.58956 17 16 14 
-0.236015 0.57588 1.47575 91 90 95 
-0.10711 -0.443113 1.5866 29 28 26 
-0.187784 -0.138881 1.51737 19 18 14 
-0.253833 0.487056 1.50641 5 1 0 
-0.0990544 0.00824249 1.39421 3 0 0 
-0.233663 0.503614 1.46911 137 136 142 
-0.0676415 0.654871 1.31452 127 126 122 
-0.184546 -0.25728 1.55656 87 84 79 
-0.203764 0.57034 1.40573 103 101 102 
-0.18669 -0.119988 1.49031 122 120 121 
-0.336319 0.69881 1.4137 131 128 123 
-0.210268 -0.0797258 1.53064 101 99 100 
-0.257271 0.0248578 1.54988 100 100 100 
-0.0588884 -0.584093 1.60399 35 32 27 
-0.0691369 -0.208646 1.45922 90 86 83 
-0.242972 0.0914414 1.58547 1 0 0 
-0.242542 0.120138 1.57123 92 91 89 
-0.233873 0.1084 1.51845 81 81 81 
-0.249192 0.0537088 1.55116 8 4 5 
-0.237116 0.590281 1.45796 81 82 86 
-0.237978 -0.0165688 1.51697 38 34 31 
-0.245886 0.0287139 1.52832 112 108 109 
-0.251941 0.0279302 1.57248 101 100 98 
-0.182232 -0.200235 1.52767 96 86 85 
-0.23937 0.606686 1.47053 18 19 23 
-0.233064 0.582046 1.46883 54 54 52 
-0.243823 0.0994919 1.56808 82 80 81 
-0.279257 0.674501 1.3866 16 16 8 
-0.248962 0.0600713 1.56 14 13 11 
-0.212076 0.704859 1.2927 101 91 82 
-0.240403 0.610244 1.48629 24 23 29 
0.0117349 0.79136 2.58163 78 77 75 
-0.0503489 -0.756312 1.65195 89 80 109 
-0.139295 0.662769 1.32477 51 47 46 
0.583576 0.752558 1.4219 87 86 84 
-0.1671 0.251719 1.41535 64 62 63 
-0.2189 0.503802 1.43017 95 94 92 
-0.194812 0.635872 1.38072 41 40 38 
-0.363374 0.704655 1.49955 73 72 68 
-0.065154 -0.364417 1.52284 37 33 30 
-0.253662 0.0580956 1.57056 57 57 57 
-0.251264 0.656543 1.40628 102 99 94 
-0.333938 0.684171 1.44295 70 69 67 
-0.232543 0.0758045 1.51604 44 44 46 
0.59466 0.710916 1.42269 32 30 33 
-0.297367 0.687303 1.36672 70 69 64 
0.0325047 -0.130042 1.44837 93 89 90 
0.105548 0.141974 1.46451 106 102 99 
0.0915498 0.0411195 1.43505 7 1 1 
0.038473 0.626048 1.36124 123 121 122 
0.0188144 0.0171916 1.39022 1 0 0 
0.118675 0.388186 1.48352 107 104 99 
-0.110742 0.637703 1.35411 137 133 134 
0.106228 0.0935786 1.4674 121 120 118 
-0.0634391 0.652184 1.34086 120 116 113 
0.0171029 0.129347 1.38562 100 99 97 
0.0585857 -0.0951834 1.44361 107 103 102 
0.115379 0.517143 1.45415 115 114 110 
0.024203 -0.0534099 1.4152 108 107 105 
0.122228 0.0320441 1.47147 1 0 0 
0.0351122 0.103488 1.39339 76 74 75 
-0.0163741 -0.200078 1.44799 21 11 9 
0.103066 0.0335719 1.4426 94 93 91 
-0.139097 0.656131 1.36021 98 97 95 
0.0332798 0.61476 1.36172 89 87 88 
-0.0288347 0.226654 1.37527 77 76 74 
0.08842 0.229128 1.4402 20 17 8 
-0.00453903 0.0787281 1.38428 94 93 91 
0.0361417 -0.0529939 1.42003 105 104 102 
0.111661 0.0236749 1.45455 100 99 97 
0.0461151 -0.174093 1.46848 122 117 113 
-0.0187586 0.0506156 1.38126 84 82 83 
0.0670959 0.598938 1.3863 88 87 85 
-0.00663862 0.668849 1.31966 76 75 71 
-0.0354401 -0.721305 1.62185 185 193 206 
-0.0251327 -0.746447 1.63725 152 158 180 
-0.144674 0.0638958 1.60815 71 70 68 
-0.113082 0.0644774 1.6262 70 69 65 
-0.0462547 -0.625857 1.62619 21 19 24 
-0.0348162 -0.668312 1.6144 101 96 93 
-0.0536365 -0.621489 1.63524 12 8 5 
-0.0284346 -0.624322 1.61314 12 8 7 
-0.190415 0.0196859 1.43356 5 4 2 
-0.0277955 -0.67062 1.61465 41 39 40 
-0.0549829 -0.666879 1.63583 69 67 68 
-0.0390481 -0.644811 1.62559 211 212 230 
-0.0351692 -0.626736 1.62301 220 220 228 
0.09802 -0.00120791 1.42007 14 16 28 
-0.0443702 -0.671418 1.63144 32 31 29 
-0.204278 -0.197483 1.56233 1 0 0 
-0.238576 0.0220635 1.48654 81 80 78 
-0.1975 -0.179687 1.54631 76 66 67 
28861.6 7152.03 29343.1 168 171 160 
-0.23973 0.626328 1.47417 76 79 70 
-0.233807 0.0126741 1.47802 6 5 3 
-0.221771 -0.107695 1.55443 32 28 25 
-0.204156 0.199172 1.4435 77 73 72 
-0.283053 0.663336 1.40635 71 68 59 
0.169039 0.815603 2.30324 76 74 75 
-0.237038 -0.100296 1.56281 127 125 126 
-0.21777 -0.171938 1.56957 125 124 119 
-0.248378 0.53087 1.48756 139 138 143 
-0.2548 0.0982944 1.56569 93 93 93 
-0.264479 0.0348988 1.56518 1 0 0 
-0.23929 0.597225 1.46493 38 41 50 
-0.222107 -0.137294 1.55724 3 2 0 
-0.220808 -0.125931 1.54288 99 98 96 
-0.266631 0.0607004 1.57337 80 80 80 
-0.198921 0.219934 1.43047 80 78 79 
-0.223838 -0.107313 1.53594 42 38 35 
0.206151 0.814775 2.26207 70 65 59 
-0.233961 0.519183 1.43534 84 84 84 
-0.200027 -0.105963 1.46716 10 9 7 
-0.242554 0.554423 1.4751 80 80 80 
-0.244521 -0.0435962 1.52626 43 39 36 
0.166943 0.821736 2.28692 14 13 11 
0.154369 0.814762 2.29583 14 10 7 
0.226357 0.782016 2.28238 68 68 56 
-0.235925 -0.0461293 1.49924 44 41 36 
-0.204762 -0.0761828 1.45852 42 41 37 
0.13367 0.812086 2.29734 70 73 62 
0.212335 0.818831 2.27567 12 7 1 
0.188374 0.792719 2.34509 68 67 63 
-0.254886 0.107032 1.56043 10 8 9 
-0.242445 -0.0736193 1.54994 106 105 101 
0.180241 0.80595 2.31459 59 58 54 
-0.253309 0.349038 1.5283 25 24 22 
0.065275 0.347494 1.40745 11 10 6 
0.0790555 0.493328 1.42248 131 130 125 
0.0894051 0.144952 1.45139 13 9 6 
0.0799585 0.333154 1.43535 144 140 137 
0.0534834 0.235954 1.40723 112 108 107 
0.0437872 0.104444 1.40781 88 86 87 
0.0789319 0.596225 1.40357 23 18 15 
0.106622 0.705109 1.35571 109 111 100 
0.0475188 0.215727 1.404 103 97 97 
0.0340993 0.324121 1.39218 77 73 72 
0.113783 0.110592 1.48932 110 106 103 
0.0887463 0.105584 1.4612 14 10 7 
0.080036 0.521521 1.41356 109 109 107 
0.0508265 0.0931945 1.4226 8 8 10 
0.132245 0.399916 1.50322 96 93 84 
0.115108 0.0522444 1.47455 6 6 6 
0.0903485 0.231676 1.45528 141 136 130 
0.114587 0.0403779 1.47172 8 7 5 
0.0949315 0.253698 1.46029 130 127 122 
0.126349 0.0374663 1.48761 4 2 3 
0.12986 0.0464808 1.49242 36 35 31 
0.067722 0.287087 1.43502 105 104 102 
0.0870913 0.694915 1.36486 95 94 90 
0.0864991 0.0400881 1.44813 75 73 74 
0.167714 0.710144 1.40957 77 76 72 
0.110943 0.0205549 1.47066 101 99 100 
0.0491738 0.324853 1.40569 16 12 9 
0.127966 0.367955 1.49588 119 116 111 
0.087019 0.370355 1.44334 23 22 18 
0.013199 0.390099 1.38862 117 116 114 
0.130564 -0.0443814 1.53345 140 138 139 
0.0998138 0.587627 1.42939 100 99 94 
0.103445 -0.0747289 1.51477 126 125 123 
0.100263 0.488697 1.44905 131 130 125 
0.15366 0.515933 1.56136 168 165 156 
0.0429598 -0.2029 1.49523 150 152 149 
0.200911 0.716883 1.46121 94 99 93 
0.151759 0.519401 1.5395 142 139 134 
0.0529555 0.0379808 1.42622 24 22 23 
0.0760329 0.21122 1.4445 122 121 117 
0.0867699 0.242573 1.4504 11 6 2 
0.0707904 0.25671 1.43817 116 115 113 
0.085418 0.530488 1.41659 131 130 128 
0.0822624 0.677884 1.3657 81 80 78 
0.0715981 0.119383 1.44652 117 116 114 
-0.00488884 0.12354 1.4025 26 26 28 
0.124504 0.418562 1.48814 110 109 105 
0.0709616 -0.126355 1.48719 121 118 113 
0.183484 0.713388 1.42403 106 107 102 
0.0441758 -0.23734 1.51089 106 105 103 
0.0257239 0.00903638 1.41496 9 9 11 
0.111765 -0.0344958 1.48531 124 123 118 
0.158733 0.714468 1.38856 114 115 110 
-0.0188654 -0.688342 1.67345 85 83 84 
0.0528642 -0.282643 1.55521 100 99 97 
0.0398256 -0.259332 1.51689 113 112 107 
0.10194 0.698897 1.37789 72 71 69 
0.145867 0.433173 1.54499 136 133 126 
0.183285 0.684039 1.49967 76 75 73 
0.0736646 0.270037 1.43724 105 100 94 
0.12448 0.0617699 1.48676 76 75 71 
0.0850389 0.473628 1.43351 126 125 123 
0.119892 0.031841 1.47949 19 19 19 
0.0644661 0.147777 1.43573 74 73 71 
