ply                 
format ascii 1.0    
element vertex 1251
property float x    
property float y    
property float z    
property uchar red  
property uchar green
property uchar blue 
end_header          
-0.118747 -0.0959288 1.44724 16 14 15 
-0.0820933 -0.0779807 1.42086 39 38 34 
0.57246 0.736999 1.58293 81 82 77 
-0.117738 -0.33239 1.54149 19 14 10 
-0.0890342 -0.0469286 1.40672 8 5 0 
-0.126798 -0.247975 1.50907 2 0 1 
-0.0619869 -0.18518 1.45078 121 117 114 
-0.17303 0.10054 1.44026 119 117 118 
-0.195139 -0.210274 1.57828 104 100 99 
-0.0569856 -0.665316 1.62408 34 32 33 
-0.0732777 -0.186921 1.45829 14 10 7 
-0.164253 -0.173882 1.49726 102 99 94 
-0.0302632 0.126906 1.38523 88 86 87 
-0.0298219 -0.756456 1.64596 208 213 233 
-0.00452909 -0.3279 1.5204 150 146 145 
-0.0756404 -0.173873 1.45502 4 0 0 
-0.154934 -0.112482 1.46849 32 31 29 
-0.237266 0.584849 1.49259 9 10 14 
-0.0833138 -0.454452 1.57039 26 25 23 
-0.0569417 -0.439751 1.55416 45 42 37 
-0.0969358 -0.434154 1.56872 31 28 23 
-0.130006 -0.283373 1.52326 118 117 112 
-0.145365 -0.079476 1.45238 31 28 23 
-0.176738 -0.0556272 1.45004 109 105 102 
-0.0909642 -0.0373237 1.40293 10 7 0 
-0.0963472 -0.0858883 1.43116 114 113 111 
-0.15689 -0.196361 1.50079 22 18 15 
-0.214761 0.0290261 1.47342 3 0 0 
-0.22903 0.101079 1.51885 1 0 0 
-0.0550506 -0.352487 1.519 43 38 32 
-0.118949 -0.315621 1.5312 17 14 9 
0.0384414 0.6879 1.3359 114 111 104 
-0.1778 0.00945404 1.43473 128 124 121 
-0.127001 -0.113172 1.45662 27 26 24 
-0.169033 -0.0906816 1.46739 41 40 38 
-0.208279 0.0291552 1.46572 4 3 1 
-0.156816 -0.102755 1.46635 1 0 0 
-0.194217 -0.00554461 1.43996 114 109 106 
-0.163877 -0.159864 1.49187 77 73 74 
-0.141474 -0.309258 1.56476 11 7 4 
-0.168552 0.590455 1.37898 95 94 92 
-0.0531752 -0.116064 1.42343 113 109 106 
-0.242228 0.487149 1.47778 110 109 107 
-0.231058 -0.0717769 1.59148 27 23 20 
-0.183608 -0.0918056 1.47337 37 36 32 
-0.203452 0.0188787 1.46354 93 91 92 
-0.159208 0.225484 1.41764 76 74 75 
-0.200746 -0.233569 1.60041 27 30 39 
0.0082802 -0.0441049 1.41544 107 105 106 
-0.0699814 -0.435219 1.55581 37 33 30 
-0.174406 -0.216417 1.52032 101 100 96 
-0.0577532 -0.294113 1.49564 45 42 37 
0.0604683 -0.0359723 1.43117 48 47 45 
-0.00704198 -0.414538 1.55305 57 53 52 
-0.0718629 -0.161474 1.4467 90 86 83 
-0.130894 -0.303524 1.53047 47 44 37 
-0.0508229 -0.665635 1.61659 32 31 29 
-0.106266 -0.1702 1.46776 101 97 96 
-0.158107 0.0449936 1.42009 80 79 77 
-0.0796849 -0.503401 1.58909 108 104 101 
-0.00688101 0.148829 1.38662 69 67 68 
-0.135296 0.340615 1.40278 111 107 106 
-0.215889 0.651105 1.40809 95 94 92 
-0.179837 -0.0644012 1.46031 1 0 0 
0.00502065 0.106716 1.39448 12 10 11 
-0.0338988 -0.219743 1.4553 11 11 3 
-0.0353578 -0.735509 1.64801 194 197 212 
-0.0605866 -0.130467 1.43179 115 111 108 
-0.0751827 -0.284569 1.50026 45 41 38 
-0.245434 0.613754 1.51581 105 103 104 
-0.240263 0.517335 1.49786 116 115 133 
-0.0463742 -0.256308 1.47652 121 120 116 
-0.109626 -0.0641186 1.42336 106 103 98 
-0.0479831 -0.321207 1.5039 46 42 41 
-0.169102 -0.162007 1.49975 124 120 117 
-0.0529977 -0.382025 1.52979 96 92 89 
-0.137641 -0.128709 1.46739 85 84 82 
-0.0615757 -0.196729 1.4567 97 93 90 
-0.0098121 0.100916 1.38874 46 45 43 
0.558143 0.716962 1.60886 69 66 57 
-0.228342 0.192268 1.49935 38 35 30 
-0.135726 0.0833812 1.41907 5 4 2 
-0.252918 0.560959 1.52245 132 99 30 
-0.0958731 -0.410641 1.55951 110 105 101 
-0.241013 0.504816 1.48258 4 5 23 
-0.149057 -0.263724 1.53246 94 93 91 
-0.242684 0.519333 1.51304 130 131 149 
0.019483 -0.220426 1.47752 80 76 75 
-0.0676463 -0.34205 1.51794 98 95 90 
0.0312878 0.693016 1.33108 111 108 101 
-0.244869 0.536049 1.51833 5 3 6 
-0.238975 0.503006 1.49202 79 78 84 
-0.0512819 0.10909 1.38997 78 74 75 
0.0263825 -0.262175 1.47947 57 57 57 
-0.178231 0.0717869 1.44345 77 76 74 
-0.0320599 -0.0926346 1.42417 108 107 105 
-0.171121 -0.174677 1.50833 94 91 86 
-0.0513045 0.205852 1.3829 58 56 57 
-0.0309759 -0.30014 1.50088 45 41 38 
-0.136869 -0.249065 1.51604 38 34 31 
-0.309886 0.711846 1.31254 78 76 63 
-0.151212 -0.223848 1.50903 19 15 12 
-0.270298 0.6674 1.42146 73 73 65 
0.532795 0.736748 1.64058 64 63 58 
-0.242593 0.554659 1.50688 86 82 83 
-0.0387992 0.0501836 1.38797 40 39 37 
-0.231477 0.182855 1.50607 7 4 0 
-0.14861 0.199863 1.41575 50 48 51 
-0.224266 0.673336 1.38674 50 48 49 
-0.20739 0.0969287 1.47279 68 68 68 
-0.135183 -0.179344 1.48576 62 58 59 
-0.0690821 0.0608548 1.39886 56 54 55 
-0.058623 0.080317 1.40034 59 57 58 
-0.0503792 0.0988731 1.38786 71 70 68 
-0.172335 0.2214 1.42862 79 77 78 
-0.213841 0.483814 1.43826 61 61 59 
-0.0495069 0.692571 1.31043 97 96 92 
0.00883515 -0.13868 1.45214 93 92 88 
-0.0403308 -0.43502 1.54409 83 81 82 
-0.0558895 -0.22428 1.46058 105 101 98 
-0.0821328 -0.0673345 1.41574 27 26 21 
-0.173388 -0.0361337 1.44029 25 21 18 
-0.0481425 -0.493744 1.56702 102 97 93 
0.0135375 0.655717 1.33983 115 112 103 
-0.0651388 -0.249736 1.4748 30 26 23 
-0.0377518 0.257241 1.37484 2 1 0 
-0.165978 0.282315 1.41933 100 100 100 
0.00645018 -0.394367 1.54316 30 26 23 
-0.101579 -0.303499 1.51583 27 26 22 
-0.0495614 -0.201401 1.45354 120 119 115 
-0.101506 -0.15341 1.4579 26 22 19 
-0.0743304 -0.346064 1.51975 124 120 117 
-0.013911 0.464109 1.36271 97 94 85 
-0.032994 0.0756468 1.38628 80 76 73 
-0.0365699 -0.329142 1.50575 122 118 115 
-0.170278 -0.117817 1.47979 31 30 28 
-0.00224533 -0.312841 1.50932 30 26 23 
0.054737 0.0665721 1.4125 31 29 30 
0.0224969 0.679533 1.32834 104 99 96 
0.00323777 -0.362654 1.53089 99 98 96 
-0.0148136 -0.16527 1.45299 98 94 91 
-0.0389874 0.0355196 1.38619 79 78 76 
-0.0755124 -0.22026 1.46839 30 29 25 
-0.145006 0.101526 1.42166 83 82 78 
0.0425674 -0.0445781 1.42467 32 32 30 
-0.0160618 -0.092936 1.42778 30 25 19 
0.0685135 0.011376 1.42547 7 3 2 
0.0299556 -0.0215832 1.40599 20 19 15 
0.0298006 0.421875 1.38064 115 114 109 
-0.0153154 -0.408183 1.54307 34 31 26 
0.0408008 0.0393214 1.40699 75 74 72 
-0.0792467 -0.494271 1.57827 37 36 34 
-0.0388875 -0.051601 1.40016 95 94 92 
-0.0653371 -0.0679991 1.40476 34 30 29 
-0.0454387 0.0837849 1.38345 3 0 0 
0.0149022 -0.250624 1.46905 101 100 96 
-0.169746 -0.0969436 1.47101 25 24 22 
0.0700862 0.0408174 1.42437 14 12 13 
0.0279348 -0.0899765 1.44221 109 108 104 
0.0200726 -0.0832305 1.43733 1 0 0 
0.047014 0.613746 1.36759 93 91 92 
0.0529816 0.58746 1.38475 118 116 117 
-0.0460719 -0.0685057 1.40708 27 22 18 
-0.166494 -0.0209985 1.42926 48 47 45 
-0.0524283 -0.16232 1.43835 31 30 28 
0.0383791 -0.124887 1.45927 116 114 115 
0.0466436 0.596651 1.37408 9 8 6 
0.01872 -0.340255 1.52721 123 118 115 
0.0442543 -0.0343199 1.41877 128 127 125 
-0.00909722 -0.130907 1.44154 110 109 107 
0.0645293 0.686769 1.34823 87 82 78 
-0.0368582 -0.125058 1.43299 111 107 104 
-0.0255553 -0.107779 1.42932 90 89 87 
-0.00905438 -0.0573377 1.41234 117 116 112 
-0.0506293 0.144658 1.39146 81 81 81 
-0.0437402 -0.72958 1.63465 200 209 224 
-0.0387795 -0.711899 1.64035 35 36 66 
-0.0185791 0.146187 1.38202 70 68 69 
-0.0321321 -0.171819 1.44714 60 59 55 
0.0243876 0.0334401 1.39579 52 50 51 
-0.0109337 0.128026 1.38056 73 71 72 
-0.0717814 0.213132 1.38414 50 49 54 
0.0394555 0.535077 1.38308 56 56 56 
-0.0469963 -0.761542 1.64931 104 113 128 
-0.0251746 -0.75027 1.62838 228 232 255 
-0.0489645 -0.748049 1.63532 165 167 190 
-0.243323 0.512724 1.5087 3 1 22 
-0.0618815 -0.154563 1.44609 18 14 11 
-0.039769 -0.312749 1.49888 20 17 12 
-0.135749 -0.302769 1.54547 18 14 5 
-0.186864 -0.294841 1.56551 29 31 46 
-0.192484 -0.257301 1.58964 206 207 211 
-0.102186 -0.195152 1.47474 116 115 111 
-0.247798 0.518784 1.52328 16 16 28 
-0.247573 0.52114 1.51136 104 105 110 
-0.0810822 -0.0878611 1.43438 1 0 0 
-0.24049 0.53293 1.48969 141 141 143 
-0.135189 -0.0335987 1.41323 25 23 11 
0.0596865 -0.036014 1.42891 28 27 23 
0.0150748 -0.0236589 1.40189 25 25 13 
0.0477229 0.595705 1.37166 118 117 115 
-0.137927 -0.0504829 1.43377 39 38 33 
-0.043965 -0.16203 1.44558 31 27 24 
0.0659339 -0.0613263 1.44514 26 23 18 
-0.24182 0.54931 1.49343 94 94 92 
-0.246384 0.547419 1.51074 116 116 116 
0.0310336 -0.0908111 1.44928 128 127 123 
0.0419234 0.00944507 1.40864 9 7 8 
-0.370804 0.724955 1.62375 139 131 120 
-0.0504657 -0.118137 1.42908 17 16 12 
0.041469 -0.125136 1.46573 144 144 142 
0.0487325 0.02837 1.41257 124 123 121 
-0.177937 -0.127959 1.49297 110 109 105 
-0.0217531 -0.434015 1.55457 17 16 14 
-0.00285855 -0.188139 1.46547 115 101 101 
-0.0942075 0.468135 1.36492 106 105 103 
-0.0488286 -0.229058 1.46911 17 13 12 
-0.00967097 -0.241466 1.46205 98 97 95 
-0.0862232 -0.409418 1.54919 126 123 118 
-0.114034 -0.292249 1.52802 118 112 112 
-0.0355696 0.0528585 1.39041 0 0 0 
0.0555187 0.209153 1.40655 106 105 103 
-0.199713 0.117915 1.47216 1 0 0 
-0.0299031 -0.729802 1.63463 100 110 122 
0.0178167 -0.33179 1.53107 11 12 6 
0.0126481 -0.343178 1.5319 8 7 5 
0.0198164 -0.347956 1.53733 110 110 108 
0.0151978 -0.356619 1.53802 117 113 112 
-0.0424566 -0.356301 1.51746 34 30 21 
-0.0946284 -0.370885 1.54218 15 11 8 
-0.0203378 -0.397721 1.54112 128 124 121 
-0.00450092 0.0377132 1.39169 83 79 78 
0.0157452 -0.23962 1.4711 12 12 10 
-0.214015 0.14385 1.48665 94 92 95 
-0.225788 0.145221 1.50898 1 0 2 
0.0431913 0.341951 1.38902 7 3 2 
-0.197801 -0.173372 1.60261 18 14 11 
0.00929766 0.134801 1.38799 97 96 94 
-0.0201979 0.211065 1.37157 88 87 85 
-0.0348837 -0.386228 1.5298 36 32 29 
-0.0921447 -0.0667404 1.42894 125 124 122 
-0.1684 0.658291 1.32786 109 104 101 
-0.170633 0.0804056 1.45022 91 91 91 
-0.048749 0.18359 1.37582 100 99 97 
0.00744511 -0.0433932 1.41315 105 105 103 
-0.00365912 0.243807 1.38082 1 0 0 
-0.154616 0.0389651 1.43076 85 85 85 
-0.246519 0.610562 1.51341 114 112 113 
-0.0587068 -0.618746 1.61568 128 123 120 
-0.181372 -0.217754 1.55615 107 96 94 
0.0606628 -0.0479693 1.43451 37 36 34 
-0.00133365 -0.367209 1.53332 130 124 124 
-0.0341454 -0.41109 1.54241 39 38 34 
0.0540191 0.0669079 1.41072 23 22 20 
-0.240441 0.579749 1.48771 0 0 7 
-0.00966222 0.242884 1.37173 109 109 107 
-0.00645203 0.0608816 1.39618 114 110 109 
-0.120771 -0.322714 1.5405 35 32 27 
-0.20517 0.164732 1.4716 85 84 82 
-0.244908 0.567613 1.50245 96 97 91 
-0.253447 0.56362 1.51524 118 98 74 
-0.228952 0.32974 1.50915 133 132 127 
-0.0181004 -0.0653168 1.42587 111 112 107 
-0.0510347 -0.189089 1.45197 110 106 103 
-0.244915 0.555685 1.503 76 76 74 
-0.0184723 -0.755593 1.63485 67 75 96 
-0.188546 -0.276754 1.57373 215 214 220 
-0.0244407 -0.702701 1.64068 70 77 96 
0.0841148 0.0210147 1.43848 1 0 0 
-0.0739996 -0.288776 1.51058 88 85 80 
-0.251069 0.560234 1.52335 112 88 62 
-0.00320024 -0.114928 1.44296 131 127 126 
0.0591429 0.115153 1.41207 105 103 104 
0.097365 0.0421054 1.45285 4 3 1 
-0.0752929 -0.301305 1.50413 33 31 19 
-0.0611926 -0.0806651 1.41425 128 126 127 
0.0211411 -0.0835112 1.44022 10 9 7 
-0.0602134 -0.131271 1.43766 36 33 28 
-0.0624397 -0.0685026 1.414 29 27 28 
-0.0396175 -0.0644801 1.41039 34 31 26 
-0.00989806 -0.219063 1.46571 36 31 27 
-0.00583393 0.0909105 1.39432 127 126 122 
0.0146866 -0.220113 1.47725 102 93 94 
-0.24381 0.52298 1.49553 143 146 155 
-0.177276 -0.212625 1.54084 14 4 2 
-0.239224 0.527745 1.48143 94 95 99 
-0.0192163 -0.36887 1.53194 126 125 121 
-0.137827 -0.375744 1.62224 205 203 216 
-0.526737 0.624775 1.24652 145 140 137 
-0.00529331 -0.0579981 1.41655 91 90 88 
-0.0339728 -0.188767 1.45328 12 7 3 
0.0369939 0.0178947 1.4047 1 1 0 
0.0583774 0.0169001 1.42116 114 114 114 
-0.117986 0.0159915 1.41291 123 122 120 
0.015756 -0.251092 1.47145 107 106 104 
-0.0159019 0.448521 1.35633 15 12 7 
-0.0883684 -0.388913 1.54863 86 85 81 
-0.0318703 -0.0595314 1.40621 128 127 123 
-0.0373772 -0.320265 1.51043 135 131 128 
-0.201211 -0.149769 1.58624 90 89 85 
-0.118759 0.0946129 1.41661 104 102 103 
0.057583 -0.0881565 1.45662 98 94 93 
0.0453836 -0.0339895 1.42405 104 102 103 
-0.108082 -0.247085 1.50275 36 33 26 
-0.0289668 -0.0937905 1.43141 82 81 79 
-0.00174809 -0.421517 1.55454 32 28 25 
-0.0519674 0.0811001 1.39394 77 75 76 
-0.012092 -0.0933002 1.43031 28 27 23 
-0.0224287 -0.310813 1.50932 87 83 82 
-0.0509404 0.111583 1.39034 86 86 86 
-0.0558525 -0.457944 1.55759 12 11 7 
-0.151989 -0.180255 1.49334 83 82 80 
-0.0299909 -0.221451 1.46438 3 3 0 
-0.165623 -0.0334489 1.43187 109 104 100 
-0.0346282 -0.770011 1.64159 208 215 234 
-0.117752 -0.632792 1.3946 88 89 117 
-0.0644681 -0.670139 1.63904 102 101 109 
-0.0746506 -0.229679 1.4858 40 35 31 
-0.135654 0.340318 1.40177 132 128 125 
-0.228944 0.182989 1.51102 7 3 0 
-0.0809828 -0.116956 1.44412 108 105 100 
-0.213253 -0.14311 1.61712 124 133 142 
-0.134751 0.377467 1.38683 69 68 66 
-0.0390403 -0.377366 1.522 122 118 115 
-0.0704258 -0.584604 1.62692 26 24 29 
0.00218661 -0.370422 1.54504 125 119 119 
-0.0322539 -0.616281 1.59962 34 30 29 
-0.0448583 -0.34161 1.51276 35 36 31 
-0.176082 0.0720291 1.45274 64 64 62 
-0.00114171 -0.321578 1.51829 144 143 141 
-0.239804 0.21174 1.54579 6 2 0 
-0.05307 -0.293729 1.50321 106 103 96 
0.00362831 -0.259227 1.46732 122 119 112 
-0.0153636 -0.66799 1.61934 48 47 45 
0.00425218 0.0993883 1.38983 13 12 10 
-0.00118939 -0.227137 1.46669 84 83 81 
-0.155447 -0.0507083 1.44222 41 38 33 
-0.137604 -0.0571499 1.45009 22 19 12 
-0.237328 0.188308 1.53841 25 22 17 
-0.0653638 -0.119899 1.43629 115 110 104 
0.0684315 0.011232 1.42282 3 1 2 
-0.1836 -0.166402 1.55598 26 25 23 
-0.14729 -0.268361 1.54226 94 93 89 
0.0272394 0.203495 1.3915 92 91 89 
-0.0598607 -0.65947 1.61084 115 114 112 
-0.00726015 -0.131959 1.4488 97 96 94 
-0.226592 0.323584 1.49571 106 105 103 
-0.237655 0.518134 1.4824 95 95 107 
-0.0418566 -0.699244 1.6381 194 200 216 
-0.245164 0.483301 1.47147 20 16 15 
-0.157884 -0.0901552 1.45524 81 80 78 
-0.240227 0.516253 1.47267 14 16 28 
-0.04479 -0.328948 1.49922 29 26 21 
-0.0306147 -0.663237 1.60467 42 40 41 
-0.248292 0.569865 1.53191 71 51 24 
-0.0704601 -0.175837 1.45765 43 40 35 
-0.232764 0.198548 1.51108 34 31 26 
-0.543631 0.676847 1.19101 116 113 98 
0.0529355 0.340024 1.39829 21 18 13 
-0.236883 0.170355 1.54308 8 5 0 
-0.218359 0.13528 1.50241 83 83 81 
-0.144633 -0.209957 1.49624 100 96 93 
0.066971 0.0691716 1.42298 39 38 36 
-0.148046 -0.0339865 1.41886 127 126 121 
-0.0124354 -0.194048 1.46487 44 30 27 
-0.0345298 -0.433269 1.55219 81 80 76 
0.0651281 0.0397861 1.42405 0 0 0 
-0.0474071 -0.669149 1.62516 45 44 42 
0.00712251 -0.229822 1.47408 79 75 74 
-0.037503 -0.420271 1.54198 120 116 115 
-0.0113862 0.100762 1.38545 31 30 28 
0.0184632 0.0508566 1.4013 72 71 69 
0.0421124 0.0396547 1.4081 96 95 91 
-0.101625 -0.0553269 1.41069 83 79 68 
-0.103718 -0.0451328 1.41905 102 99 92 
0.0229877 0.516902 1.37081 87 86 84 
-0.238289 0.183441 1.52833 28 25 18 
-0.218036 0.644522 1.39588 96 96 96 
0.0414663 0.13873 1.39652 110 106 105 
-0.134734 -0.250664 1.52715 25 25 23 
-0.237995 0.0522797 1.53118 65 65 65 
-0.00873778 0.147468 1.38375 64 62 63 
0.0326371 0.664829 1.33253 90 87 82 
-0.0126642 0.43786 1.35959 123 120 113 
-0.0378897 -0.752181 1.64409 228 228 252 
-0.0472644 -0.654729 1.5868 52 48 47 
-0.0692094 -0.607576 1.6268 197 197 209 
-0.0668335 -0.607937 1.64037 107 107 119 
-0.00887162 -0.678003 1.62705 90 88 89 
-0.516167 0.629435 1.23024 28 24 25 
-0.238167 0.212694 1.55462 40 36 33 
-0.240256 0.321299 1.53607 2 2 0 
-0.239465 0.52182 1.46505 123 122 127 
-0.0513735 -0.664925 1.61424 35 34 32 
-0.0432063 0.079522 1.38251 85 80 76 
-0.0951494 0.0618156 1.3953 76 76 76 
0.0238156 0.227631 1.38409 77 76 71 
-0.0271742 -0.327451 1.51422 66 66 64 
-0.131176 -0.252834 1.53721 47 47 45 
-0.306142 0.785573 3.14324 85 86 80 
-0.152278 -0.222916 1.50028 18 15 10 
-0.220194 -0.116488 1.62434 59 61 74 
-0.043216 0.216985 1.37845 94 93 89 
-0.45683 0.68667 1.25078 105 103 91 
-0.51004 0.698572 2.04411 105 106 100 
-0.241775 0.489037 1.48882 15 11 10 
-0.192044 -0.27477 1.58472 39 39 51 
-0.231372 -0.0735152 1.60574 35 31 32 
-0.231617 -0.0738628 1.62158 53 51 62 
0.0105331 -0.045525 1.4221 118 118 116 
-0.282606 0.689153 1.28651 73 71 56 
-0.236604 -0.0171163 1.51431 53 52 48 
-0.140473 0.642291 1.33651 118 115 110 
-0.10593 0.630385 1.33636 110 106 107 
-0.250604 0.610139 1.43751 24 23 18 
0.375143 0.758724 1.64848 102 100 85 
0.0213669 0.0294963 1.39375 69 67 68 
0.0333864 0.03018 1.41789 83 82 80 
-0.0732835 -0.500953 1.59616 34 32 33 
-0.145186 -0.156985 1.49615 34 30 27 
0.0455852 0.0404568 1.41656 80 79 75 
-0.164899 -0.181958 1.52418 35 35 27 
-0.0589173 -0.426076 1.55078 41 37 34 
-0.172491 0.0728435 1.46123 68 68 66 
-0.254459 0.504636 1.52325 40 40 40 
0.0302977 0.429896 1.38141 129 126 117 
0.00682268 0.0805568 1.39363 78 78 76 
0.0233763 -0.364772 1.55694 103 97 97 
-0.0549636 0.142119 1.37161 79 79 79 
0.00182465 -0.324273 1.52724 80 79 77 
0.031121 0.204183 1.40017 80 79 77 
-0.240651 0.0784794 1.57457 58 57 55 
-0.03297 -0.659493 1.5974 44 42 43 
-0.045828 -0.43296 1.53555 74 73 69 
-0.0646945 -0.421293 1.53567 45 41 38 
-0.128194 -0.351644 1.55134 60 57 52 
-0.0329804 -0.241647 1.46193 141 141 131 
-0.0853317 -0.230849 1.46349 67 64 55 
-0.0593074 -0.231551 1.47888 41 37 34 
0.000518931 -0.223541 1.47559 101 93 90 
-0.1727 -0.216816 1.51101 4 3 0 
-0.0998916 -0.190455 1.46256 93 89 88 
-0.0591881 -0.190903 1.4616 73 68 64 
-0.132204 -0.162811 1.49384 119 118 116 
-0.112825 -0.160449 1.46167 100 96 93 
-0.177991 -0.104502 1.47458 19 15 12 
-0.143254 -0.0684574 1.45855 51 47 44 
-0.000518757 0.0162597 1.39098 50 49 47 
0.0272434 0.0332024 1.40323 69 67 70 
-0.2447 0.07938 1.5646 79 75 74 
-0.0492841 0.12079 1.39114 76 76 76 
-0.0366596 0.132925 1.39032 15 14 12 
0.0473625 0.13877 1.41351 75 71 70 
-0.238862 0.200102 1.54393 14 15 9 
-0.060337 0.200558 1.38896 54 52 55 
0.0326365 0.295815 1.38041 70 66 67 
0.0101769 0.313378 1.38108 60 59 57 
-0.0418273 0.32827 1.3556 71 70 68 
-0.25953 0.493917 1.50777 54 54 54 
-0.222149 0.498799 1.42119 100 99 97 
-0.239518 0.576455 1.4462 28 27 32 
0.0917902 0.675224 1.36979 30 29 25 
-0.05738 -0.0818168 1.42711 102 100 101 
-0.165721 0.320612 1.41524 60 59 57 
0.00201242 0.478589 1.36325 112 111 107 
-0.0285998 -0.769194 1.65453 189 202 211 
-0.0372108 -0.754995 1.65503 196 203 219 
-0.0262154 -0.756532 1.65453 192 200 213 
-0.0327369 -0.700046 1.63018 187 192 211 
-0.0160512 -0.599594 1.60229 41 39 44 
-0.0406272 -0.302901 1.50682 133 129 126 
-0.0390597 -0.238724 1.44623 76 76 66 
0.104913 -0.117032 1.53338 18 18 28 
-0.224016 -0.0237104 1.49518 54 53 49 
-0.159723 0.0623157 1.43884 55 54 52 
-0.0675796 0.0610346 1.40241 60 58 59 
-0.0580245 0.0808309 1.40174 76 76 76 
-0.0468484 0.110548 1.39988 74 74 74 
-0.0488651 0.328089 1.37576 64 60 57 
-0.218387 0.480851 1.44152 23 22 20 
-0.253368 0.694326 1.34572 81 81 69 
7.3789 2.93541 16.9598 131 134 139 
-0.232624 0.0740442 1.51606 82 82 82 
-0.123581 -0.0334552 1.4137 38 36 24 
-0.166425 -0.0736061 1.45634 123 120 115 
-0.0717881 -0.330308 1.51616 26 18 15 
-0.111077 -0.283672 1.5174 105 104 100 
7.426 2.95871 17.0996 14 17 22 
-0.107702 0.102416 1.40396 81 81 81 
0.520711 0.713105 1.68803 110 108 95 
-0.133343 0.68311 1.31596 96 95 90 
-0.123618 -0.0526708 1.42727 66 61 55 
-0.123679 -0.142123 1.46549 105 104 102 
7.59306 2.80817 17.4024 98 103 109 
-0.197279 0.111529 1.46189 28 27 25 
-0.0100785 0.440438 1.3667 123 120 113 
0.524316 0.741948 1.66496 58 57 53 
-0.0483014 0.0972266 1.3966 79 79 77 
-0.0901766 -0.443026 1.5704 105 101 98 
0.602774 0.722167 1.53227 76 76 68 
0.533802 0.73678 1.64017 48 47 42 
-0.102515 0.03475 1.4003 32 31 29 
8.1561 2.91004 18.7362 57 62 66 
-0.117411 0.199599 1.40167 60 60 60 
-0.046642 -0.752777 1.6437 224 225 255 
-0.0331778 -0.741239 1.64032 214 221 239 
-0.15855 -0.0550769 1.43138 105 101 98 
-0.0392243 -0.721316 1.63542 211 211 235 
-0.0282636 0.256859 1.37069 1 0 0 
0.0902507 0.252906 1.4443 31 30 26 
-0.179698 -0.0746536 1.46422 44 43 39 
-0.00290771 -0.096168 1.43387 22 18 17 
0.0812868 0.229174 1.43654 11 8 3 
-0.00112046 -0.599437 1.62906 117 118 136 
0.0736266 0.0659592 1.43322 112 111 109 
0.106311 -0.0655057 1.50276 123 122 120 
0.105542 0.0819725 1.47182 94 93 91 
0.0396982 -0.114998 1.45141 14 12 13 
0.0377576 0.443098 1.38288 132 129 122 
-0.139202 -0.142829 1.47022 30 29 27 
0.0289911 -0.30486 1.51736 1 0 0 
0.0195873 -0.305465 1.51456 17 16 14 
-0.0478178 -0.306855 1.49508 12 9 4 
0.0256465 0.159059 1.39353 96 95 93 
-0.0450388 -0.398954 1.52857 32 28 25 
-0.00498405 -0.347682 1.52177 118 114 113 
-0.0120912 0.456813 1.36379 27 23 20 
-0.0237991 0.109608 1.38182 1 0 0 
-0.00536253 0.515199 1.36163 102 101 99 
0.0476112 -0.212117 1.48936 118 117 113 
0.0552708 0.0669588 1.41598 12 11 9 
0.017213 -0.201822 1.46374 99 87 87 
-0.0845551 -0.455946 1.56513 24 20 19 
0.07324 0.0564348 1.42695 122 120 121 
0.0212975 -0.191493 1.46655 111 102 103 
0.0820456 0.0510318 1.43569 92 88 87 
0.0598331 -0.184183 1.48655 118 115 110 
-0.0339765 -0.34552 1.51139 39 35 34 
-0.115019 -0.180182 1.47282 36 32 31 
0.0548666 -0.175952 1.47617 130 127 122 
0.0197891 -0.159357 1.45853 19 18 14 
-0.0374946 -0.153064 1.43664 117 112 109 
-0.0222584 -0.354473 1.52284 139 135 132 
-0.13504 0.0261568 1.40536 103 103 103 
-0.0538376 -0.135892 1.429 121 120 116 
-0.0194851 0.0158722 1.38809 1 0 0 
0.0994521 0.011851 1.45419 98 96 97 
-0.162152 -0.114923 1.46873 121 120 118 
-0.0544242 -0.365785 1.51581 46 42 31 
-0.1481 -0.0424525 1.42593 129 125 124 
-0.120597 -0.0452745 1.41344 15 11 8 
-0.01411 -0.382576 1.53513 108 104 103 
-0.152143 -0.224925 1.50873 87 86 84 
0.0663935 -0.0754003 1.44622 104 100 99 
-0.0718446 -0.0793038 1.41287 116 115 113 
-0.0918432 -0.410793 1.5548 123 119 118 
0.00845815 0.635895 1.35108 127 125 126 
0.0847202 0.427343 1.43255 17 13 10 
-0.0622915 -0.435285 1.54922 26 22 19 
0.0909042 0.209521 1.44922 129 128 123 
0.0311644 0.470816 1.37941 122 119 114 
0.0499209 0.255365 1.39728 114 113 109 
-0.0211059 0.0902245 1.3857 104 103 101 
-0.02342 -0.756212 1.63193 226 230 255 
-0.0423545 -0.739342 1.63698 90 97 115 
-0.100758 -0.257796 1.49042 132 128 125 
0.0518863 -0.191976 1.48439 159 158 154 
0.126446 0.0238474 1.48244 6 5 1 
-0.0703375 -0.319993 1.50383 61 57 54 
0.0321042 0.409583 1.3846 29 28 23 
0.0336871 0.400464 1.38092 131 127 124 
0.102886 -0.0865387 1.51343 13 12 10 
-0.00582481 -0.411957 1.5483 33 30 25 
0.0163 -0.102565 1.443 130 129 127 
0.131948 0.0611222 1.49079 127 126 122 
-0.0226847 -0.0773999 1.41849 95 94 92 
0.090008 0.0133291 1.44093 60 58 59 
-0.0564926 -0.384481 1.52481 21 17 16 
0.0277882 -0.329747 1.52369 24 21 16 
-0.140111 -0.0601054 1.42658 29 26 21 
-0.110466 -0.341737 1.53385 30 26 23 
-0.0301954 -0.338285 1.50509 22 21 19 
0.041601 -0.195812 1.4744 112 111 107 
0.068429 -0.19634 1.507 118 114 111 
-0.014061 -0.0345081 1.39668 29 28 24 
0.0516025 0.268495 1.40241 116 111 108 
0.0552493 -0.157705 1.47404 113 112 110 
-0.0625747 -0.140222 1.42949 118 115 110 
0.0920782 0.282571 1.44785 101 98 93 
-0.0388719 -0.536137 1.5782 116 115 113 
0.0120172 -0.184875 1.45867 88 80 78 
-0.000193191 -0.164059 1.44836 94 93 91 
0.0340111 0.423206 1.38716 107 104 99 
0.0534552 0.590293 1.39145 126 125 123 
0.0504725 -0.0497677 1.43336 17 16 12 
0.0284985 0.00898186 1.39583 1 0 0 
0.0397341 -0.133971 1.45833 133 132 130 
0.0341311 -0.101471 1.44539 3 1 2 
-0.0498141 -0.32712 1.50027 132 127 124 
-0.0183795 0.330309 1.3639 95 93 96 
-0.109547 -0.180142 1.46049 121 117 116 
0.134156 0.024919 1.50171 1 0 0 
-0.0414042 -0.663442 1.60498 26 25 21 
-0.0376186 -0.373819 1.52458 124 120 117 
-0.0390027 -0.420508 1.54303 120 116 115 
-0.0210187 -0.0542298 1.40177 120 119 115 
-0.0441476 -0.35677 1.51842 39 35 26 
0.0128614 -0.0282697 1.40405 106 102 99 
-0.19867 0.0192268 1.45208 19 17 18 
-0.0998905 -0.291168 1.5134 114 114 112 
-0.111519 -0.300874 1.51815 124 120 119 
0.0154129 0.677369 1.33016 108 104 101 
0.0266041 0.508353 1.37566 80 79 77 
0.0758504 0.0411196 1.42703 8 4 1 
-0.0159863 -0.206673 1.46013 46 36 34 
-0.025034 -0.0459059 1.39693 104 103 99 
-0.139219 -0.00689165 1.40531 99 98 96 
-0.00245448 -0.43483 1.55363 80 76 75 
0.0202281 -0.165003 1.46656 94 93 89 
-0.00307907 -0.607306 1.6234 122 124 139 
0.0385173 -0.215894 1.47562 86 85 81 
-0.0152212 0.304178 1.37487 1 0 0 
0.0717886 0.133672 1.42377 86 82 81 
0.0396428 -0.427464 1.60336 92 91 86 
-0.03132 -0.384907 1.53153 108 104 101 
0.143792 -0.0581887 1.57755 109 109 111 
0.0842359 0.43827 1.42765 109 108 104 
-0.450371 0.68463 2.00649 111 111 109 
-0.0573011 -0.338371 1.5035 42 39 32 
-0.0119593 -0.331045 1.51582 104 100 97 
0.00603506 -0.331502 1.52127 97 96 94 
0.0997072 0.116777 1.45955 107 101 101 
-0.0592319 -0.625055 1.62576 106 101 98 
0.123585 -0.128531 1.58677 111 110 108 
-0.0483806 -0.18024 1.44245 91 89 90 
-0.153798 -0.210985 1.50868 99 97 98 
0.00409263 -0.40651 1.55093 129 125 124 
-1.24245 0.752262 4.3981 140 142 131 
0.0648267 -0.110916 1.45798 35 34 32 
0.103736 -0.153633 1.55235 77 76 72 
0.102583 0.0594466 1.45481 77 76 74 
-0.0511397 0.255162 1.37627 102 102 102 
0.0366336 0.456317 1.38279 80 79 75 
0.0991476 0.0747491 1.4561 85 84 82 
-0.0303766 -0.702632 1.6408 195 204 221 
0.0661393 0.0689812 1.4271 39 39 39 
0.0496975 -0.218907 1.49558 151 149 150 
-0.0500794 0.143266 1.37785 89 87 88 
-0.0108802 -0.620238 1.62463 18 12 12 
-0.154408 -0.199133 1.50146 113 112 110 
-0.0121125 -0.392312 1.53386 118 114 113 
0.0650815 0.0400557 1.42816 6 2 0 
-0.052646 0.130731 1.39148 48 48 48 
0.0369417 0.0585142 1.39731 89 89 89 
0.0847816 0.278045 1.43776 45 44 40 
0.0260536 0.480155 1.37092 99 98 94 
-0.0108143 0.235034 1.38153 89 87 88 
0.0272338 0.1143 1.39629 81 79 80 
0.00783404 -0.394775 1.54886 36 32 31 
-0.0385659 -0.330586 1.51014 100 96 93 
0.122384 0.0102462 1.47067 67 66 64 
0.0942329 0.434646 1.43374 57 56 52 
-0.0551538 0.488428 1.36219 67 66 64 
-0.0372774 -0.552605 1.58721 83 78 74 
0.124597 -0.140581 1.59152 195 194 199 
0.0603885 -0.120582 1.45871 93 92 90 
-0.0919161 -0.330667 1.51765 50 46 43 
0.0705738 0.257373 1.4213 36 32 31 
-0.00666692 -0.385536 1.53984 110 106 105 
0.0297669 0.70765 1.29513 133 133 123 
-0.0536402 -0.405362 1.52946 85 81 80 
-0.132352 -0.344346 1.59174 34 31 26 
0.00281077 -0.259807 1.46988 103 100 91 
-0.00302927 -0.220066 1.44803 106 102 99 
0.124925 -0.0970017 1.5589 36 35 33 
0.0610984 0.557836 1.39378 81 79 80 
0.0613958 0.0776513 1.41116 75 74 72 
0.0917931 0.0819189 1.45635 24 23 21 
0.0615396 0.147663 1.40877 101 100 98 
-0.0493238 0.162394 1.37661 64 63 61 
0.0544797 0.689387 1.33782 58 55 50 
-0.00305262 0.158532 1.38585 67 66 64 
0.0819344 0.0409828 1.43567 41 37 36 
0.0679045 -0.221393 1.51931 60 59 57 
0.0633102 -0.205819 1.50264 128 127 123 
0.0120023 -0.308394 1.50786 136 135 133 
-0.0409228 -0.28202 1.49359 48 44 43 
0.0821242 -0.200219 1.53979 70 68 69 
-0.138504 -0.161351 1.48146 62 61 59 
-0.0923616 0.0541693 1.38117 70 70 70 
0.0110756 0.14438 1.3912 64 63 61 
-0.0490856 0.21202 1.36747 109 105 106 
0.0369346 0.297419 1.3839 71 67 64 
0.0669526 0.329858 1.41753 37 33 30 
-0.127823 -0.223012 1.49517 26 22 21 
-0.0278022 -0.429495 1.54455 122 121 119 
-0.109996 0.686704 1.3163 29 25 26 
-0.0301927 -0.361785 1.51941 114 110 107 
0.151009 0.087372 1.55594 47 52 46 
-171.853 -40.9368 -2896.81 81 89 108 
-95.2459 5.26864 -1913.34 186 195 210 
-71.2937 33.7475 -1240.1 79 88 103 
-57.74 22.3845 -871.943 83 92 109 
-12.2781 -7.80356 -160.423 255 253 255 
-9.89779 -3.39162 -88.4668 157 170 179 
-75.8543 -32.2641 -1150.87 178 186 199 
-59.8916 -7.19293 -934.044 167 174 190 
-77.2374 8.98902 -1203.73 66 73 91 
-78.5198 9.67541 -1237.19 197 204 222 
-79.5001 11.7706 -1273.71 192 199 217 
-57.5643 9.46143 -1008.13 70 79 94 
-112.735 38.373 -1765.25 198 207 224 
-65.163 22.5635 -1038.63 202 211 228 
-160.124 148.847 -3213.47 62 74 88 
-58.7638 20.354 -878.084 194 203 220 
-42.73 15.0442 -649.407 193 200 219 
-71.7789 29.6579 -1226.03 65 74 89 
-60.0838 23.2462 -931.862 186 195 212 
-67.7832 31.1285 -1151.03 79 88 103 
-53.2448 29.2996 -826.107 72 81 98 
-119.905 41.2762 -1908.81 202 211 228 
-63.7564 25.2591 -1073.95 194 203 218 
-65.3686 16.3879 -1048.97 181 190 207 
-54.1206 25.1381 -857.339 97 106 123 
-76.2593 1.28159 -1183.38 80 87 105 
-76.5827 16.3724 -1298.62 67 76 91 
-71867.1 5248.49 -1.29906e+06 188 197 212 
-66.2422 24.503 -1123.68 181 190 205 
-58.0322 21.4438 -919.123 196 203 221 
-53.6789 3.86448 -959.174 181 190 205 
-145.592 61.1777 -2466.06 72 81 96 
-55.5394 21.6076 -862.532 186 195 212 
-56.8578 22.5524 -900.574 86 95 112 
-91.6844 -0.335768 -1521.58 185 194 209 
-45.9303 37.886 -763.585 188 195 213 
-74.2829 -33.2138 -1250.93 182 192 204 
-80.5106 -37.645 -1395.17 39 49 61 
-73.1355 -14.4136 -1130.6 97 102 121 
-38.765 27.2385 -591.24 180 189 206 
-58.2963 2.59892 -887.9 55 60 80 
-72.0339 56.5161 -1207.74 196 203 221 
-83.5323 34.9442 -1290.83 59 67 86 
-94.6373 39.946 -1599.4 69 76 92 
-176.91 37.3673 -3013.32 87 96 111 
-55.6047 8.83257 -873.861 171 178 196 
-58.1194 5.71093 -913.231 78 85 103 
-60.2374 4.00339 -953.978 191 198 216 
-885.725 62.2274 -15898.9 173 182 197 
-61.1332 2.0598 -960.456 191 198 216 
-65.496 -0.181074 -1053.92 163 170 188 
-67.3375 -6.37154 -1049.36 65 72 88 
-100.624 -42.7253 -1604.67 181 189 202 
-130.275 -37.4719 -2362.6 71 80 97 
-52.0325 24.4138 -903.895 79 88 103 
-88.1134 34.3228 -1372.18 158 167 184 
-45.8163 11.6947 -593.689 75 87 101 
-74.2749 4.22248 -1302.79 90 99 114 
-574.186 40.7986 -9739.99 188 197 212 
-177.828 8.44264 -3708.09 105 114 129 
-58.1859 2.91897 -888.919 108 113 133 
-62.5271 0.494403 -982.34 58 65 83 
-77.546 5.7837 -1389.69 173 182 197 
-173.188 27.5889 -2741.83 176 183 201 
-82.8457 -8.52591 -1422.53 78 87 104 
-70.4536 -6.74092 -1127.96 160 167 183 
-157.953 32.1069 -2500.99 79 88 105 
-67.9531 -6.04193 -1067.36 76 83 99 
-53.0297 12.8679 -841.522 173 182 199 
393523 173467 2.52586e+06 55 63 74 
-248.11 230.59 -4980.88 62 74 88 
-42.4067 -18.8374 -711.901 181 191 203 
-75.2515 4.13124 -1325.52 59 68 83 
-53.9728 21.0733 -927.762 51 60 75 
-61.1638 10.0326 -1025.32 148 157 172 
-93.8897 14.7265 -1482.04 166 173 191 
-58.1275 6.28993 -918.598 105 112 130 
-145.92 10.3185 -2990.2 69 78 93 
-58.2699 2.81338 -890.198 60 65 85 
-176.47 7.23238 -3670.52 110 119 134 
-64.6053 -2.78949 -1009.1 157 164 182 
-67.2458 -6.01074 -1050.24 77 84 100 
-42.4255 28.1347 -695.113 54 63 80 
-51.4666 21.5345 -795.371 59 67 86 
-62.2081 1.05708 -864.043 161 170 185 
-46.0114 8.47916 -801.386 109 118 133 
-80.4769 -23.6497 -1242.29 76 81 100 
-10.5596 -2.68092 -104.185 151 158 174 
-53458.1 -14751.5 -925259 153 162 179 
-146.063 -5.9711 -2288.33 164 171 189 
-102907 7515.39 -2.13365e+06 182 191 206 
-126.906 9.04556 -2016.1 139 146 164 
-188.747 14.3782 -3220.76 156 165 180 
-120.344 12.828 -1912.12 102 109 127 
-104.059 21.3671 -1653.73 142 151 168 
-125.737 35.2966 -2146.64 163 172 187 
-87.583 29.9267 -1392.21 186 195 212 
-89.5911 3.37586 -1221.14 66 75 92 
-87260 45757.6 -1.95221e+06 63 75 89 
-39.8333 7.08788 -520.802 73 82 99 
-75304.7 -2892.96 -1.1912e+06 166 173 191 
-10.543 -2.6999 -104.198 58 65 81 
-8.92108 -2.22423 -87.1953 119 126 142 
-0.110448 0.00437201 1.40012 82 81 79 
-0.0375654 -0.674031 1.63176 118 117 115 
10.3426 3.36417 19.3709 9 13 24 
10.5216 3.60262 20.1177 1 5 16 
10.3698 3.38017 19.7287 5 9 21 
8.33534 3.21436 16.4318 126 125 130 
10.2022 3.31597 18.9328 29 33 44 
10.3832 3.64566 19.6 65 66 70 
-0.194896 0.649515 1.37925 108 104 101 
10.2548 3.33561 19.2303 15 19 30 
10.283 3.35211 19.3381 15 22 32 
10.3937 3.38782 19.7722 5 9 21 
10.4309 3.39942 19.9192 23 27 38 
10.3712 3.27256 19.7531 40 46 58 
10.2972 3.25428 19.6786 18 27 36 
9.15522 3.47653 20.1081 19 22 31 
10.2178 3.22404 19.178 25 29 40 
9.03496 3.21401 19.8631 141 146 152 
-0.20617 0.621769 1.39514 84 83 81 
10.4905 3.7274 20.066 31 34 43 
9.01048 2.98815 16.3005 143 148 152 
9.65143 3.1858 16.2863 28 33 36 
9.88201 3.67484 20.3214 108 109 113 
9.97805 3.47555 20.2176 20 20 28 
9.64919 3.56125 19.6941 15 16 20 
9.36379 3.47277 19.6982 31 32 37 
10.5385 3.38191 20.3094 118 123 129 
9.19061 3.27599 20.1603 141 146 150 
-0.0879605 0.705445 1.27321 45 43 31 
10.3376 3.27561 19.7505 15 22 32 
9.82122 3.61406 20.3105 40 41 46 
9.64072 3.58709 20.2654 30 31 36 
8.82704 2.93034 16.0226 147 152 158 
-0.156736 -0.129868 1.47423 93 92 90 
-0.216104 0.517975 1.43029 118 116 117 
-0.173832 0.0801211 1.44047 2 0 1 
-0.195821 0.0283753 1.44863 1 0 0 
-0.22666 -0.00495301 1.4823 101 100 98 
4.43733 2.21373 8.44533 103 103 105 
-0.235475 0.612972 1.4807 7 8 10 
-0.24377 0.508825 1.49985 0 0 15 
-0.241496 0.12155 1.59506 95 93 94 
-0.219595 0.0343634 1.47524 102 101 99 
-0.248267 0.508056 1.51441 0 0 7 
-0.235621 0.536249 1.47197 117 117 115 
-0.24378 0.542629 1.5044 2 0 3 
-0.236901 0.143841 1.53254 1 0 0 
-0.240732 0.0130518 1.52066 82 81 79 
-0.243217 0.113343 1.55796 85 85 85 
-0.078692 0.655365 1.31768 4 0 0 
-0.233395 0.0309491 1.50366 1 0 0 
-0.19457 -0.161484 1.56013 4 3 1 
-0.172755 0.0484727 1.42704 81 79 80 
-0.250958 0.0265441 1.59255 17 16 14 
-0.23645 0.576017 1.47848 91 90 95 
-0.106419 -0.444046 1.5899 29 28 26 
-0.1874 -0.139514 1.52043 19 18 14 
-0.254233 0.487085 1.50917 5 1 0 
-0.0985537 0.0078714 1.39721 3 0 0 
-0.233998 0.503682 1.47187 137 136 142 
-0.0677688 0.655225 1.31726 127 126 122 
-0.184089 -0.258057 1.55971 87 84 79 
-0.204039 0.570509 1.40845 103 101 102 
-0.186278 -0.120599 1.49336 122 120 121 
-0.336869 0.699006 1.41625 131 128 123 
-0.209999 -0.0803027 1.53367 101 99 100 
-0.256864 0.0243716 1.55337 100 100 100 
-0.0580195 -0.585158 1.60739 35 32 27 
-0.0684684 -0.209252 1.46237 90 86 83 
-0.24304 0.091047 1.58844 1 0 0 
-0.242617 0.119776 1.57417 92 91 89 
-0.233828 0.108031 1.52138 81 81 81 
-0.249156 0.0532614 1.55412 8 4 5 
-0.237536 0.590434 1.46068 81 82 86 
-0.237784 -0.0170954 1.51995 38 34 31 
-0.245775 0.0282372 1.53128 112 108 109 
-0.251917 0.0274508 1.57546 101 100 98 
-0.181788 -0.200939 1.53077 96 86 85 
-0.239834 0.606851 1.47324 18 19 23 
-0.233491 0.582192 1.47155 54 54 52 
-0.243869 0.0991052 1.57103 82 80 81 
-0.27968 0.674722 1.3892 16 16 8 
-0.24895 0.0596324 1.56296 14 13 11 
-0.212315 0.705176 1.29529 101 91 82 
-0.240902 0.610407 1.48901 24 23 29 
0.00888943 0.791402 2.584 78 77 75 
-0.0493518 -0.757597 1.65547 89 80 109 
-0.139491 0.663085 1.32746 51 47 46 
0.583107 0.753304 1.42516 87 86 84 
-0.166981 0.251575 1.41822 64 62 63 
-0.219151 0.503889 1.43292 95 94 92 
-0.195113 0.636116 1.38341 41 40 38 
-0.364112 0.704808 1.50212 73 72 68 
-0.0644084 -0.36521 1.5261 37 33 30 
-0.253672 0.0576506 1.57353 57 57 57 
-0.251678 0.656762 1.40892 102 99 94 
-0.334522 0.684346 1.44552 70 69 67 
-0.232453 0.0753973 1.51899 44 44 46 
0.594239 0.71165 1.42597 32 30 33 
-0.297784 0.68753 1.36929 70 69 64 
0.0330284 -0.130344 1.45049 93 89 90 
0.105813 0.141835 1.46727 106 102 99 
0.0919749 0.0408769 1.43712 7 1 1 
0.0383264 0.62653 1.36426 123 121 122 
0.0192938 0.0169452 1.39209 1 0 0 
0.118647 0.388634 1.48739 107 104 99 
-0.111344 0.638547 1.3581 137 133 134 
0.106543 0.0933835 1.47004 121 120 118 
-0.0638264 0.652836 1.34433 120 116 113 
0.01746 0.12913 1.38773 100 99 97 
0.0591148 -0.0954631 1.44558 107 103 102 
0.115266 0.517847 1.45796 115 114 110 
0.0247066 -0.053672 1.41716 108 107 105 
0.122621 0.0317935 1.47388 1 0 0 
0.0355032 0.103261 1.39542 76 74 75 
-0.0158599 -0.200422 1.45029 21 11 9 
0.103495 0.033326 1.44469 94 93 91 
-0.139888 0.657178 1.36457 98 97 95 
0.0331352 0.615224 1.36474 89 87 88 
-0.0286555 0.226525 1.37784 77 76 74 
0.0886211 0.229078 1.44294 20 17 8 
-0.00423595 0.078497 1.38653 94 93 91 
0.0365415 -0.0532747 1.42216 105 104 102 
0.112015 0.0234167 1.4569 100 99 97 
0.0465873 -0.174455 1.47078 122 117 113 
-0.0184386 0.0503717 1.38351 84 82 83 
0.0670374 0.599422 1.38933 88 87 85 
-0.00678045 0.669216 1.32245 76 75 71 
-0.0346496 -0.722233 1.6249 185 193 206 
-0.0243606 -0.747514 1.6405 152 158 180 
-0.144903 0.0635816 1.61154 71 70 68 
-0.113156 0.0642014 1.62974 70 69 65 
-0.045637 -0.62693 1.62976 21 19 24 
-0.0341334 -0.669423 1.61797 101 96 93 
-0.0527925 -0.622665 1.63895 12 8 5 
-0.0275241 -0.625477 1.61686 12 8 7 
-0.190118 0.0192565 1.4368 5 4 2 
-0.0268444 -0.671834 1.61837 41 39 40 
-0.0541011 -0.668115 1.63954 69 67 68 
-0.0380416 -0.646055 1.62937 211 212 230 
-0.0341696 -0.627951 1.6268 220 220 228 
0.0989189 -0.00137692 1.42377 14 16 28 
-0.0433553 -0.672704 1.63522 32 31 29 
-0.203658 -0.198287 1.56591 1 0 0 
-0.238104 0.021587 1.48996 81 80 78 
-0.196861 -0.180455 1.54987 76 66 67 
28823.6 7187.07 29399.6 168 171 160 
-0.239811 0.626914 1.47759 76 79 70 
-0.233304 0.0121864 1.48142 6 5 3 
-0.221252 -0.10837 1.55798 32 28 25 
-0.203729 0.199033 1.4469 77 73 72 
-0.283142 0.663942 1.4096 71 68 59 
0.169866 0.817845 2.31024 76 74 75 
-0.236206 -0.101011 1.56655 127 125 126 
-0.216858 -0.172772 1.57334 125 124 119 
-0.247885 0.531514 1.49126 139 138 143 
-0.254134 0.0979654 1.56946 93 93 93 
-0.263796 0.0344281 1.56892 1 0 0 
-0.238792 0.598036 1.4686 38 41 50 
-0.221213 -0.138065 1.56099 3 2 0 
-0.219903 -0.126679 1.5466 99 98 96 
-0.265976 0.0602813 1.57713 80 80 80 
-0.198057 0.219909 1.43405 80 78 79 
-0.222944 -0.108029 1.53964 42 38 35 
0.207124 0.817041 2.26898 70 65 59 
-0.233371 0.519802 1.43893 84 84 84 
-0.199009 -0.106654 1.47075 10 9 7 
-0.242048 0.555127 1.47878 80 80 80 
-0.243704 -0.044207 1.52992 43 39 36 
0.167773 0.823987 2.29385 14 13 11 
0.155156 0.816981 2.30277 14 10 7 
0.227394 0.784212 2.28938 68 68 56 
-0.23506 -0.0467376 1.50286 44 41 36 
-0.203764 -0.0768207 1.46209 42 41 37 
0.134393 0.814272 2.30425 70 73 62 
0.213316 0.821123 2.28265 12 7 1 
0.189243 0.794931 2.35226 68 67 63 
-0.25422 0.106721 1.56419 10 8 9 
-0.241629 -0.0742867 1.55365 106 105 101 
0.1811 0.80818 2.32164 59 58 54 
-0.252756 0.349256 1.53205 25 24 22 
0.0654596 0.347362 1.40939 11 10 6 
0.0790855 0.493354 1.42463 131 130 125 
0.0897347 0.144744 1.45311 13 9 6 
0.0801229 0.333045 1.43733 144 140 137 
0.0537684 0.235769 1.4091 112 108 107 
0.0440584 0.104238 1.40965 88 86 87 
0.0788329 0.596367 1.40579 23 18 15 
0.106479 0.705185 1.35763 109 111 100 
0.0477048 0.215556 1.40594 103 97 97 
0.0342074 0.324012 1.3943 77 73 72 
0.114873 0.110331 1.4905 110 106 103 
0.089698 0.105341 1.46252 14 10 7 
0.0807868 0.521324 1.4152 109 109 107 
0.0515721 0.0929802 1.42415 8 8 10 
0.133413 0.399677 1.50454 96 93 84 
0.116147 0.0519953 1.47564 6 6 6 
0.0912784 0.231426 1.45668 141 136 130 
0.115616 0.0401328 1.47279 8 7 5 
0.0958866 0.253446 1.46168 130 127 122 
0.127449 0.0372123 1.48862 4 2 3 
0.130982 0.0462215 1.49342 36 35 31 
0.0685348 0.286859 1.43662 105 104 102 
0.0876736 0.694722 1.36647 95 94 90 
0.0874024 0.0398621 1.44939 75 73 74 
0.168603 0.709845 1.41062 77 76 72 
0.111963 0.0203175 1.47174 101 99 100 
0.0498391 0.324641 1.40742 16 12 9 
0.129102 0.367705 1.4972 119 116 111 
0.0878962 0.370123 1.44486 23 22 18 
0.0137098 0.389948 1.39068 117 116 114 
0.13183 -0.0446349 1.53447 140 138 139 
0.10066 0.587441 1.43096 100 99 94 
0.104611 -0.0749565 1.51594 126 125 123 
0.101183 0.488488 1.45058 131 130 125 
0.15507 0.515785 1.5628 168 165 156 
0.0439681 -0.203067 1.49675 150 152 149 
0.202033 0.716616 1.46214 94 99 93 
0.153088 0.51923 1.54089 142 139 134 
0.0537218 0.0377756 1.42771 24 22 23 
0.0768991 0.21098 1.44598 122 121 117 
0.0876756 0.242325 1.45183 11 6 2 
0.071622 0.256476 1.43972 116 115 113 
0.0861907 0.530288 1.4182 131 130 128 
0.082838 0.677695 1.36734 81 80 78 
0.0724674 0.119151 1.44796 117 116 114 
-0.00434532 0.123361 1.40453 26 26 28 
0.125607 0.418327 1.4895 110 109 105 
0.0719845 -0.126542 1.48852 121 118 113 
0.184448 0.713083 1.42499 106 107 102 
0.0452419 -0.237508 1.51241 106 105 103 
0.0263976 0.00885139 1.41664 9 9 11 
0.112838 -0.0347217 1.48637 124 123 118 
0.159531 0.714153 1.38964 114 115 110 
-0.0173473 -0.688652 1.67556 85 83 84 
0.0540971 -0.282842 1.55673 100 99 97 
0.0409064 -0.259499 1.51844 113 112 107 
0.102601 0.698689 1.37941 72 71 69 
0.147205 0.432968 1.54636 136 133 126 
0.184524 0.683858 1.50082 76 75 73 
0.0744978 0.269801 1.43878 105 100 94 
0.125575 0.0615111 1.4878 76 75 71 
0.0858737 0.473424 1.43512 126 125 123 
0.120956 0.0315937 1.48053 19 19 19 
0.0652583 0.147552 1.43735 74 73 71 
0.103665 0.53085 1.43336 83 82 80 
0.0710007 0.683646 1.36042 80 79 77 
0.0807473 -0.17916 1.53442 82 77 81 
0.0659333 -0.160611 1.49953 114 110 109 
0.03399 0.658329 1.36859 80 76 75 
0.0428354 0.0261407 1.41296 94 93 91 
0.0558162 0.0174573 1.42026 105 103 104 
0.0551597 0.209171 1.41076 113 112 110 
0.0824114 0.0284042 1.43753 98 97 95 
0.0997062 0.0115257 1.45124 98 96 97 
0.0950143 0.638625 1.40606 108 106 107 
0.0649274 0.0551358 1.42509 1 0 0 
-0.0374467 -0.763559 1.63713 29 27 67 
0.0964243 0.301225 1.45576 112 109 104 
0.0412985 0.0405763 1.41038 76 75 73 
0.0317949 0.683591 1.33846 91 87 84 
0.0590433 0.129086 1.41794 71 69 70 
-0.0186839 -0.683087 1.66794 47 43 44 
0.0520267 0.589589 1.39104 71 70 68 
0.0288853 0.658911 1.35113 97 97 87 
0.131991 0.0602587 1.49429 95 94 92 
0.0659965 0.0686773 1.42347 48 46 47 
0.0473663 0.0656041 1.41183 66 64 65 
-0.00822605 -0.185806 1.46682 98 94 91 
-0.0242521 -0.746445 1.6156 67 75 96 
0.0283748 0.308273 1.39027 72 68 65 
-0.037274 -0.774255 1.64913 102 109 125 
0.127666 0.111174 1.49168 115 114 112 
0.0991787 0.212027 1.45567 94 90 87 
0.101149 0.116638 1.46361 115 114 109 
-0.0045428 0.105752 1.40051 87 85 86 
0.0361534 0.150262 1.40577 90 88 89 
0.158154 0.520038 1.61961 40 36 35 
0.151984 0.324915 1.53292 94 90 78 
0.163117 0.516119 1.5685 62 57 54 
0.0655212 -0.103423 1.46391 92 92 92 
0.155335 0.432422 1.54142 67 63 54 
0.110935 0.141367 1.46775 102 101 99 
0.0148437 0.144771 1.40024 111 109 110 
0.160506 0.542044 1.6329 36 31 28 
-0.0142455 0.432982 1.37869 106 101 98 
0.157001 0.424804 1.57178 55 48 42 
0.13906 0.414273 1.50526 29 26 21 
0.0351423 0.66097 1.3453 114 112 100 
-0.0371593 0.0851392 1.39915 19 15 12 
0.155711 0.174197 1.56117 11 6 3 
0.00166224 0.0794334 1.40302 110 105 111 
0.0728957 0.191638 1.43113 88 87 83 
0.0973955 0.202411 1.45139 13 9 6 
0.0215482 0.204516 1.40068 102 100 101 
0.111995 0.20406 1.47328 17 14 9 
0.0210189 0.061214 1.40652 83 81 82 
0.104706 0.0581347 1.45265 95 93 94 
0.260053 0.741806 1.50385 123 117 105 
-0.0158645 0.236351 1.39108 88 86 89 
0.195005 0.801044 2.22828 65 63 68 
0.163273 0.0574977 1.53897 18 14 11 
-0.0164241 0.095382 1.39964 100 100 98 
0.069859 0.236428 1.42048 104 103 101 
0.194791 0.72055 1.40955 81 82 76 
0.165271 0.0565899 1.55318 74 73 71 
0.0736809 0.240407 1.43192 8 7 3 
0.153253 0.244382 1.53779 109 104 98 
0.164613 0.526973 1.60263 43 39 36 
0.164769 0.515512 1.54422 22 17 13 
0.13174 0.260809 1.50739 127 112 105 
0.136006 0.510991 1.47119 102 101 97 
0.0861849 0.2312 1.44304 113 110 101 
0.215663 0.713346 1.50163 135 135 133 
0.0788973 0.595951 1.40119 117 116 114 
0.164009 0.0354661 1.55223 97 96 94 
0.160299 0.553122 1.63219 29 24 20 
0.0540357 -0.164644 1.47863 87 88 83 
-0.00124625 0.249169 1.39254 85 83 84 
0.103586 0.286936 1.45686 31 28 23 
-0.0278996 0.0243838 1.40077 28 28 28 
0.116361 0.291265 1.47998 148 133 128 
0.12146 -0.156924 1.56704 24 23 18 
0.0733775 0.0292573 1.43066 24 24 22 
0.156132 0.305546 1.5687 112 103 94 
0.166722 0.55363 1.55721 29 19 17 
0.168756 0.0176568 1.5499 1 0 0 
0.164418 0.571863 1.59029 141 137 128 
0.152617 0.333983 1.54501 108 101 93 
0.164802 0.565884 1.56981 140 135 132 
0.0934671 0.552442 1.42133 97 96 94 
0.1946 0.684433 1.5114 32 27 23 
0.167532 0.564396 1.55817 45 35 33 
0.0992762 0.673534 1.36827 98 97 93 
0.0875361 -0.147379 1.51126 39 35 32 
0.196252 0.683951 1.52429 125 120 117 
0.147365 -0.00266921 1.49269 128 126 127 
0.0718814 0.347662 1.42259 7 6 2 
0.175666 -0.00797559 1.61428 24 22 23 
0.19154 0.676887 1.50112 147 144 139 
0.0740753 -0.139293 1.48619 134 133 129 
0.160374 -0.0146236 1.52705 13 12 10 
0.0479999 -0.0206602 1.41632 28 28 26 
0.0954352 -0.132479 1.51483 125 124 120 
-0.0356746 -0.0365551 1.40795 48 48 46 
0.166133 0.558225 1.60387 25 17 14 
0.115991 0.382578 1.46288 7 3 0 
0.153309 -0.0312111 1.52947 107 108 103 
0.166092 0.550752 1.5829 159 154 150 
0.15942 0.577957 1.52184 110 105 101 
0.0722545 0.391213 1.42263 102 101 99 
0.149668 -0.0433642 1.53982 132 131 127 
0.165588 0.535211 1.54498 123 118 114 
0.140823 -0.123582 1.5852 121 118 111 
0.107251 -0.122026 1.52762 42 38 35 
0.162748 0.55108 1.61485 128 123 119 
0.154268 0.429653 1.61641 124 119 113 
0.147022 0.438319 1.65413 142 139 130 
0.0559928 0.589124 1.38977 132 131 127 
0.132036 -0.11792 1.56778 119 118 114 
0.167187 0.540272 1.60589 134 129 125 
0.165956 0.531711 1.57267 148 143 139 
0.0498722 -0.065951 1.44353 97 95 96 
0.0989872 0.636522 1.40237 110 109 107 
0.158954 0.433922 1.55873 120 110 109 
0.153882 0.444677 1.60991 132 124 113 
0.131711 -0.111641 1.55551 115 114 110 
0.159144 0.439945 1.5861 49 42 32 
0.0260489 0.432989 1.3887 134 133 128 
0.222314 0.719003 2.0254 173 173 171 
0.158154 0.442188 1.57361 64 59 56 
0.157478 0.447743 1.59377 28 23 17 
0.167526 0.532003 1.59096 19 14 8 
0.155092 0.444051 1.55739 124 115 108 
0.155036 -0.0715617 1.57299 92 86 86 
0.137042 0.442214 1.4921 86 85 80 
0.16572 0.523943 1.56177 33 28 25 
0.102675 0.441431 1.43467 108 109 104 
0.0376816 0.449126 1.38922 47 43 40 
-0.0134411 0.460862 1.37826 44 42 30 
0.143616 -0.106398 1.57128 143 142 138 
-0.0197538 -0.093214 1.44108 21 20 18 
0.112461 -0.229904 1.59611 112 111 107 
0.153031 0.5089 1.63372 18 13 10 
0.0467675 -0.227633 1.49897 145 147 146 
0.0897212 -0.0872906 1.47844 149 148 144 
0.158183 0.508471 1.61457 126 121 117 
0.114833 -0.219685 1.60623 100 100 98 
0.153053 0.524751 1.64409 29 24 21 
0.129487 0.601854 1.44058 126 125 123 
0.0743381 -0.0925931 1.46246 108 104 101 
0.0678363 -0.209562 1.51157 25 21 20 
0.108484 -0.206926 1.57591 130 129 125 
0.161614 0.516243 1.58749 140 135 131 
0.164588 0.511828 1.5549 168 165 156 
0.0718598 0.204091 1.43663 88 84 81 
0.124324 0.128846 1.48966 17 16 14 
0.0871278 0.251804 1.44542 31 32 27 
7.59504e-05 0.0906173 1.40316 17 15 18 
0.056032 -0.0432276 1.43047 115 114 112 
0.139691 0.0237516 1.49463 15 14 12 
0.163882 0.0463679 1.54464 3 2 0 
0.22626 0.717892 1.51969 117 117 115 
0.112085 -0.249128 1.68088 165 168 175 
0.155524 0.421781 1.585 21 17 6 
0.156415 0.424033 1.60576 103 100 95 
0.163229 0.566276 1.54115 154 149 145 
0.121835 -0.0655558 1.50975 111 110 108 
0.168166 0.538325 1.58237 108 104 103 
0.10649 -0.0475938 1.47487 118 117 112 
0.0486776 0.600525 1.38284 131 130 125 
0.0910297 0.0112413 1.44462 1 1 1 
0.142622 0.629089 1.4495 102 101 99 
0.0759041 0.0411852 1.43101 1 0 0 
0.196068 0.681034 1.59744 85 82 75 
0.118697 -0.135538 1.55649 106 104 105 
0.0272316 0.678856 1.3391 125 121 118 
0.14834 0.437559 1.63879 117 112 106 
0.165155 0.425248 1.59344 30 22 19 
0.13268 0.401408 1.48043 97 94 87 
0.127708 0.384762 1.47744 90 89 85 
0.129641 0.0131021 1.47863 16 15 10 
0.0513756 0.268436 1.40534 113 109 110 
0.119764 -0.0867956 1.52975 128 127 125 
0.0923293 0.297441 1.44692 6 2 0 
0.0714142 -0.186597 1.5087 112 110 111 
0.102115 0.364821 1.45053 94 93 89 
0.154549 0.240194 1.55568 100 96 85 
0.146168 0.329324 1.52403 104 94 85 
0.0311723 0.618115 1.37065 107 105 106 
0.0991599 0.0741761 1.45694 84 83 81 
0.0224742 0.160858 1.40086 113 111 112 
0.171421 -0.00790333 1.62796 39 35 34 
0.0804884 0.137934 1.44504 116 111 107 
0.130462 -0.159739 1.58142 110 105 101 
0.115483 0.399455 1.45696 109 105 102 
0.0883353 -0.0778207 1.4742 102 101 99 
0.0648622 0.113003 1.42193 16 16 16 
0.00223367 -0.137564 1.46277 106 104 107 
0.0490609 0.031366 1.41799 118 117 113 
0.0711459 0.416553 1.42006 91 90 88 
0.0237619 0.0958206 1.40601 115 113 114 
0.0694801 -0.290471 1.56914 92 91 89 
0.0722938 0.181381 1.43196 93 89 86 
0.141716 0.583809 1.47152 98 95 90 
0.0946675 -0.168585 1.53425 122 118 119 
0.0594573 0.299744 1.40769 90 86 85 
0.147824 0.0955316 1.53472 101 97 94 
0.0434008 0.341355 1.39926 8 7 3 
