ply                 
format ascii 1.0    
element vertex 324
property float x    
property float y    
property float z    
property uchar red  
property uchar green
property uchar blue 
end_header          
-0.088618 -0.258213 1.48856 36 33 28 
-0.114487 -0.054836 1.41886 32 28 25 
-0.106776 -0.0420027 1.40649 116 113 106 
-0.0935669 -0.315863 1.51518 15 14 10 
-0.133588 0.00746097 1.4067 4 2 3 
-0.147619 0.0302218 1.41292 91 91 91 
-0.0731978 0.0103327 1.38881 112 111 109 
-0.0749162 -0.246812 1.47755 55 50 46 
-0.155827 0.648178 1.35794 107 106 104 
-0.0637822 -0.242677 1.47061 19 18 14 
-0.0982585 -0.134557 1.44754 27 26 24 
-0.0958255 -0.311644 1.51567 120 119 117 
-0.121678 0.0292593 1.40094 1 0 0 
-0.0885902 -0.144531 1.44559 103 102 100 
-0.134116 0.407512 1.38793 72 73 68 
-0.105277 0.539826 1.36083 101 100 96 
-0.118908 0.0998584 1.40661 73 73 73 
-0.150051 -0.158831 1.48132 15 11 10 
-0.111361 -0.0549287 1.4176 46 41 35 
-0.0728717 -0.0986032 1.42145 23 22 20 
-0.0868226 -0.111265 1.4347 26 25 23 
-0.115844 -0.156366 1.46541 23 22 20 
-0.0889487 -0.258505 1.48883 45 42 37 
-0.0679344 -0.312327 1.50137 14 10 7 
-0.10422 0.681663 1.33496 99 97 100 
-0.00977561 -0.345446 1.5137 54 50 49 
-0.133554 0.705041 1.31605 107 105 108 
-0.0950561 -0.155649 1.45354 21 20 18 
-0.103156 0.528181 1.36465 94 92 93 
-0.0735602 0.0104528 1.38854 97 96 94 
-0.0936692 0.0581494 1.38937 70 69 65 
-0.00281993 0.0972643 1.38183 7 3 0 
6.73414 3.42596 28.3977 35 45 46 
-0.0521077 -0.334856 1.50219 21 18 13 
-0.124808 0.0180767 1.40117 77 75 76 
-0.0455489 0.741164 1.29506 8 7 5 
-0.164623 -0.0435039 1.43552 118 115 110 
-0.0539419 -0.283359 1.48076 40 35 32 
-0.0553951 -0.250626 1.46824 40 35 31 
-0.0840625 0.0996929 1.39442 67 65 66 
-0.148203 0.099723 1.41999 83 82 80 
-0.108298 0.678711 1.33611 137 133 134 
-0.0769856 0.539719 1.35455 92 92 92 
-0.0738667 -0.334105 1.5116 51 50 46 
-0.106416 -0.091496 1.43656 40 39 37 
-0.131521 -0.10991 1.45374 28 27 25 
-0.0932496 0.0586269 1.39049 56 55 51 
-0.0791391 -0.0965436 1.424 102 100 101 
-0.0846374 -0.235482 1.47799 38 34 33 
-0.142229 0.0371932 1.40896 0 0 0 
-0.0821349 -0.0907768 1.42367 113 111 112 
-0.124477 0.017774 1.40162 82 80 81 
-0.10808 0.678289 1.33666 124 120 121 
-0.0987303 0.248388 1.38606 74 73 71 
-0.133909 0.408333 1.38845 57 58 53 
-0.0515989 0.0972053 1.38959 91 91 91 
-0.093222 0.0583876 1.39005 64 63 59 
-0.0443212 0.129434 1.38482 95 91 92 
-0.0214433 -0.729712 1.65517 42 40 41 
-0.108951 -0.210614 1.48249 86 82 83 
-0.0729456 -0.0972843 1.42042 131 130 126 
-0.0917451 0.23812 1.38672 69 68 66 
-0.15471 0.0305988 1.41789 9 9 9 
-0.161322 0.0391745 1.41917 72 71 67 
-0.0760377 -0.125731 1.43327 40 37 30 
-0.104563 -0.122991 1.44766 116 115 113 
-0.0504842 0.0956016 1.38997 56 58 57 
5.97265 3.04049 23.0044 112 117 121 
-0.0936036 0.191384 1.39088 69 65 66 
-0.0458774 0.230641 1.37364 81 80 78 
-0.174957 0.263223 1.42283 69 67 68 
-0.105908 0.539016 1.36097 50 49 45 
-0.137501 0.70138 1.33145 148 145 138 
-0.146808 0.736538 1.31652 39 34 31 
-0.0273717 -0.809803 1.65151 39 36 67 
-0.046071 0.130936 1.38322 81 79 80 
-0.0565668 0.215711 1.38286 57 55 56 
-0.0574297 0.216291 1.38178 59 57 58 
-0.0997259 0.221119 1.38752 75 74 72 
-0.107554 -0.0752701 1.43063 142 141 139 
-0.113925 -0.0833995 1.43811 32 30 31 
0.0254745 -0.0226304 1.39689 27 25 12 
0.0172429 -0.342342 1.52043 126 124 125 
-0.126021 -0.184251 1.47985 24 23 21 
-0.0389755 -0.80805 1.65239 127 129 150 
-0.130528 -0.0975467 1.45241 17 16 14 
-0.0939387 -0.0604798 1.41547 46 39 33 
-0.149768 -0.058424 1.43758 117 114 105 
-0.0848666 -0.458338 1.56798 49 45 42 
-0.0772553 0.733289 1.29948 82 78 79 
-0.105362 0.150173 1.3996 8 4 5 
-0.139746 -0.106375 1.45953 35 34 30 
-0.00804677 -0.229178 1.4583 31 24 18 
-0.0737683 -0.110777 1.42648 19 17 18 
-0.0531489 -0.458349 1.54812 46 42 39 
-0.0424698 -0.0222036 1.38305 30 29 27 
-0.12928 -0.0826825 1.44452 5 3 4 
-0.0810362 -0.269271 1.4899 35 31 28 
0.015582 -0.259676 1.46612 98 98 96 
0.00698086 -0.239408 1.46314 12 7 4 
-0.0819679 0.0282894 1.39097 101 100 98 
-0.105745 -0.316648 1.52262 17 16 14 
-0.114035 -0.234385 1.49304 21 17 14 
-0.141168 -0.234287 1.50796 31 28 21 
-0.0708816 -0.151289 1.44149 22 19 14 
-0.105088 -0.395222 1.55326 18 14 11 
-0.0813417 -0.326339 1.5153 29 28 24 
-0.135914 -0.217125 1.49894 43 39 38 
-0.127084 -0.210703 1.49219 27 23 20 
-0.00744989 -0.205358 1.45765 123 107 107 
-0.14898 -0.208732 1.50329 98 97 95 
-0.151662 -0.168834 1.48653 52 48 45 
-0.00207707 0.0664335 1.3836 115 113 114 
-0.0897203 0.507104 1.36761 108 106 107 
-0.105046 -0.195461 1.47503 10 10 8 
-0.0411137 -0.36205 1.5105 129 129 127 
0.00558941 -0.122148 1.43906 137 136 134 
-0.122927 -0.0217195 1.40721 14 10 1 
-0.0597318 -0.231844 1.46435 39 36 31 
-0.0354224 -0.322002 1.49722 50 46 43 
0.00154313 -0.389803 1.53352 116 115 111 
-0.0789026 -0.136418 1.43954 133 130 125 
-0.130683 -0.0343333 1.41731 37 33 22 
-0.0249232 -0.144224 1.43795 31 27 24 
-0.10089 0.0195685 1.39508 83 82 80 
0.0268585 -0.25642 1.4688 86 85 83 
-0.0209162 -0.427133 1.53984 40 34 36 
-0.0922922 -0.334789 1.52152 35 32 27 
-0.0322926 -0.710894 1.61427 40 38 39 
-0.0119871 -0.393611 1.53207 117 113 112 
-0.134956 -0.170405 1.47668 108 107 105 
0.0239349 -0.380547 1.53659 108 108 106 
0.0585846 0.0671448 1.40603 90 90 90 
0.0036313 0.263044 1.37369 19 18 16 
0.0251397 -0.350959 1.5253 110 109 104 
-0.164893 -0.135196 1.48325 106 106 106 
-0.136641 0.696471 1.34096 112 109 104 
-0.0170102 -0.330682 1.50418 79 75 74 
-0.160992 0.0215076 1.42097 68 68 66 
-0.0581832 -0.0986423 1.4146 49 48 46 
-0.0372012 -0.307111 1.48977 87 83 82 
-0.0471498 -0.518973 1.57367 108 107 105 
0.00378611 0.0420185 1.38652 73 71 72 
0.0619106 0.647531 1.36591 126 125 123 
-0.0629845 0.0290871 1.3873 73 72 70 
-0.0749699 0.270687 1.38035 87 83 82 
0.0397916 0.463325 1.37298 117 114 105 
-0.17151 0.0387572 1.42969 116 115 110 
-0.141177 -0.0314446 1.41986 44 41 34 
-0.0750464 -0.0649436 1.40392 43 42 40 
-0.064271 -0.130303 1.42705 97 92 88 
-0.21713 0.520409 1.44701 76 75 73 
-0.0459687 -0.182812 1.44327 76 72 69 
-0.0198671 -0.406404 1.53351 57 53 52 
-0.0555007 -0.30117 1.49128 29 24 20 
-0.160241 -0.0793515 1.45663 45 44 40 
0.0423696 0.714702 1.32269 87 83 80 
-0.116851 -0.172018 1.47152 15 14 9 
0.00763787 -0.194683 1.46238 106 96 94 
-0.122703 -0.19357 1.4859 99 98 94 
0.0420949 0.70641 1.3362 95 92 83 
-0.021175 -0.711825 1.61491 46 44 45 
-0.157705 -0.0953633 1.46301 87 86 84 
-0.00968597 0.229068 1.37105 89 85 84 
-0.141772 -0.0219556 1.41536 44 42 30 
0.00371271 -0.411371 1.54212 109 103 105 
-0.0686981 -0.210515 1.46198 14 9 6 
-0.107527 -0.220607 1.48601 19 18 16 
0.0509522 0.735219 1.32407 90 90 82 
0.021792 -0.234307 1.46733 106 95 93 
-0.0361825 -0.223258 1.45985 103 102 100 
-0.00339627 0.455199 1.35787 92 88 85 
-0.0334718 -0.0633006 1.40075 132 132 132 
-0.0729949 -0.0542421 1.40138 130 126 123 
-0.0849918 0.0756658 1.39193 61 59 60 
-0.0987481 -0.218305 1.47816 118 112 112 
-0.00636741 -0.067099 1.41361 90 86 85 
0.0257955 0.0557693 1.39117 67 65 66 
-0.0234302 0.148475 1.37532 59 58 56 
-0.159708 0.7318 1.32352 62 61 59 
0.0341748 0.745896 1.31006 142 139 134 
-0.0540149 -0.224076 1.45796 30 27 22 
-0.0337303 0.160134 1.3752 76 75 73 
-0.0702823 0.215405 1.38387 61 59 60 
-0.242808 0.0884748 1.61077 58 58 58 
-0.0474364 0.352197 1.36363 50 49 47 
-0.170365 0.714957 1.33113 83 82 78 
-0.0208111 -0.799012 1.65144 104 109 131 
-0.2533 0.564451 1.50946 0 0 2 
-0.257108 0.555322 1.52525 25 23 28 
-0.0896276 -0.307063 1.50908 24 20 17 
-0.0203603 -0.0386055 1.39096 50 49 44 
-0.117028 -0.309442 1.51959 129 123 123 
-0.0146949 -0.316654 1.50201 13 12 10 
-0.0825197 -0.314212 1.50885 119 116 111 
-0.113248 -0.253702 1.49576 24 20 17 
-0.153372 -0.225846 1.50643 11 7 4 
-0.245438 0.636321 1.48616 89 88 93 
-0.246332 0.356208 1.53544 117 116 111 
-0.0867027 -0.181674 1.45538 33 29 28 
-0.231728 0.0850466 1.51233 77 75 76 
-0.128463 -0.0636035 1.42795 54 51 46 
-0.061039 -0.163526 1.43584 8 4 1 
-0.146776 -0.0686521 1.44147 20 17 12 
-0.118551 -0.137266 1.45629 12 11 9 
-0.150227 -0.126809 1.46556 100 98 99 
-0.135315 -0.123348 1.46053 12 11 9 
-0.11914 -0.101338 1.44455 16 14 15 
-0.0802129 -0.082044 1.41583 39 38 34 
0.611151 0.783675 1.57031 81 82 77 
-0.117057 -0.354812 1.54435 19 14 10 
-0.0877659 -0.0487382 1.40099 8 5 0 
-0.127085 -0.264354 1.51021 2 0 1 
-0.05838 -0.196962 1.44713 121 117 114 
-0.17746 0.109181 1.43816 119 117 118 
-0.19967 -0.224009 1.58461 104 100 99 
-0.0511148 -0.711414 1.63063 34 32 33 
-0.0703773 -0.198844 1.45533 14 10 7 
-0.167295 -0.184965 1.49842 102 99 94 
-0.0254949 0.137508 1.37691 88 86 87 
-0.0218351 -0.808967 1.65325 208 213 233 
0.00358745 -0.349824 1.51964 150 146 145 
-0.072941 -0.184858 1.45191 4 0 0 
-0.157629 -0.119123 1.46777 32 31 29 
-0.246277 0.626917 1.49447 9 10 14 
-0.0799157 -0.485555 1.57428 26 25 23 
-0.0519006 -0.46977 1.55656 45 42 37 
-0.0945018 -0.463825 1.57278 31 28 23 
-0.130361 -0.302298 1.5253 118 117 112 
-0.147563 -0.0837215 1.45052 31 28 23 
-0.181146 -0.0581616 1.44865 109 105 102 
-0.0898684 -0.038436 1.39701 10 7 0 
-0.0953448 -0.0905422 1.42705 114 113 111 
-0.15937 -0.209056 1.50202 22 18 15 
-0.221734 0.0324873 1.47407 3 0 0 
-0.236734 0.109485 1.52228 1 0 0 
-0.0502546 -0.376274 1.51928 43 38 32 
-0.118447 -0.336847 1.53349 17 14 9 
0.0462664 0.73732 1.32294 114 111 104 
-0.182478 0.0116212 1.43244 128 124 121 
-0.127867 -0.119835 1.45465 27 26 24 
-0.172736 -0.0957615 1.46687 41 40 38 
-0.214863 0.032647 1.4658 4 3 1 
-0.159668 -0.108696 1.46554 1 0 0 
-0.199974 -0.00446268 1.4383 114 109 106 
-0.166952 -0.169936 1.49271 77 73 74 
-0.142286 -0.330024 1.56939 11 7 4 
-0.173768 0.633805 1.37308 95 94 92 
-0.0492733 -0.122848 1.41795 113 109 106 
-0.251584 0.522677 1.47897 110 109 107 
-0.238142 -0.0757332 1.59906 27 23 20 
-0.18827 -0.096979 1.47348 37 36 32 
-0.209704 0.0216431 1.46341 93 91 92 
-0.163022 0.243055 1.41391 76 74 75 
-0.205471 -0.248963 1.60807 27 30 39 
0.0160743 -0.0457192 1.40811 107 105 106 
-0.0658138 -0.464936 1.55857 37 33 30 
-0.177923 -0.23057 1.52301 101 100 96 
-0.0533894 -0.313724 1.49458 45 42 37 
0.0717198 -0.0370412 1.42358 48 47 45 
0.00126657 -0.442631 1.55428 57 53 52 
-0.0689848 -0.171559 1.44302 90 86 83 
-0.131229 -0.323895 1.53295 47 44 37 
-0.044583 -0.711774 1.62259 32 31 29 
-0.105556 -0.180958 1.46604 101 97 96 
-0.161586 0.0497404 1.41655 80 79 77 
-0.0758377 -0.537979 1.594 108 104 101 
-0.000607854 0.160943 1.37785 69 67 68 
-0.137752 0.36632 1.39766 111 107 106 
-0.224169 0.698502 1.4048 95 94 92 
-0.184371 -0.067586 1.45959 1 0 0 
0.0121975 0.115823 1.38593 12 10 11 
-0.0283274 -0.233976 1.45133 11 11 3 
-0.0277643 -0.786509 1.65551 194 197 212 
-0.0571041 -0.1383 1.42697 115 111 108 
-0.0719749 -0.303517 1.49984 45 41 38 
-0.25485 0.65757 1.51909 105 103 104 
-0.249363 0.554752 1.50011 116 115 133 
-0.041437 -0.273188 1.47409 121 120 116 
-0.109612 -0.0671997 1.41905 106 103 98 
-0.042064 -0.343028 1.50432 45 42 37 
-0.172478 -0.172242 1.50113 124 120 117 
-0.0479443 -0.407921 1.53067 96 92 89 
-0.139136 -0.136507 1.46627 85 84 82 
-0.0578817 -0.209343 1.45341 97 93 90 
-0.00363336 0.109649 1.38018 46 45 43 
0.596353 0.762359 1.59805 69 66 57 
-0.236252 0.207158 1.50162 38 35 30 
-0.137733 0.0908568 1.415 5 4 2 
-0.262735 0.601144 1.52625 132 99 30 
-0.0934657 -0.438633 1.56301 110 105 101 
-0.250271 0.541512 1.48401 4 5 23 
-0.15068 -0.281251 1.53538 94 93 91 
-0.251834 0.556753 1.51616 130 131 149 
0.0287145 -0.234647 1.47367 80 76 75 
-0.0637226 -0.365109 1.51841 98 95 90 
0.0386197 0.742867 1.31799 111 108 101 
-0.254145 0.574562 1.52177 5 3 6 
-0.248017 0.539491 1.49394 79 78 84 
-0.0478457 0.118434 1.38239 78 74 75 
0.0361514 -0.27936 1.47559 57 57 57 
-0.182957 0.0783748 1.44165 77 76 74 
-0.0267837 -0.0977333 1.41827 108 107 105 
-0.174558 -0.185827 1.51025 94 91 86 
-0.0457765 0.222572 1.37796 60 59 57 
-0.0247806 -0.320136 1.49956 45 41 38 
-0.137795 -0.265532 1.51778 38 34 31 
-0.325503 0.764781 1.30544 78 76 63 
-0.153206 -0.238515 1.51064 19 15 12 
-0.282211 0.715932 1.41995 73 73 65 
0.569849 0.783279 1.63213 64 63 58 
-0.251823 0.594543 1.50965 86 82 83 
-0.0344494 0.0553482 1.38001 40 39 37 
-0.239541 0.197054 1.50878 7 4 0 
-0.151682 0.215621 1.41171 50 48 51 
-0.233309 0.722513 1.38238 50 48 49 
-0.214143 0.105153 1.47274 68 68 68 
-0.136309 -0.190792 1.48567 62 58 59 
-0.0666938 0.0667584 1.39221 56 54 55 
-0.0555563 0.0875906 1.39354 59 57 58 
-0.046878 0.107501 1.38014 71 70 68 
-0.176961 0.238643 1.42579 79 77 78 
-0.221557 0.51939 1.4367 61 61 59 
-0.0474848 0.743053 1.29792 97 96 92 
