ply                 
format ascii 1.0    
element vertex 711
property float x    
property float y    
property float z    
property uchar red  
property uchar green
property uchar blue 
end_header          
-0.0872101 -0.258633 1.49297 36 33 28 
-0.113051 -0.0545058 1.42302 32 28 25 
-0.105305 -0.0416422 1.4106 116 113 106 
-0.0922131 -0.316439 1.5197 15 14 10 
-0.132188 0.00807733 1.41083 4 2 3 
-0.146252 0.0309664 1.41708 91 91 91 
-0.0715318 0.0108679 1.3927 112 111 109 
-0.0734503 -0.247223 1.48189 55 50 46 
-0.153886 0.65185 1.36121 107 106 104 
-0.0622722 -0.243097 1.4749 19 18 14 
-0.0968019 -0.134543 1.45179 27 26 24 
-0.0944756 -0.3122 1.52019 120 119 117 
-0.120205 0.029954 1.40499 1 0 0 
-0.0871042 -0.144573 1.44982 103 102 100 
-0.132294 0.409964 1.3915 72 73 68 
-0.103202 0.542871 1.36409 101 100 96 
-0.117335 0.100877 1.41056 73 73 73 
-0.148807 -0.158804 1.48581 15 11 10 
-0.109912 -0.0546043 1.42175 46 41 35 
-0.0712912 -0.0985063 1.42553 23 22 20 
-0.085304 -0.111185 1.43887 26 25 23 
-0.114467 -0.156393 1.46977 23 22 20 
-0.0875422 -0.258925 1.49324 45 42 37 
-0.0664877 -0.312944 1.50579 14 10 7 
-0.102012 0.685428 1.33797 99 97 100 
-0.00812675 -0.346192 1.51795 54 50 49 
-0.131495 0.709032 1.31909 107 105 108 
-0.0936018 -0.155716 1.45781 21 20 18 
-0.101078 0.53116 1.36792 94 92 93 
-0.0719118 0.0109798 1.39245 97 96 94 
-0.0920449 0.058929 1.39327 70 69 65 
-0.00074286 0.098095 1.38535 7 3 0 
5.91356 3.02108 24.9271 35 45 46 
-0.0506218 -0.33557 1.50658 21 18 13 
-0.123362 0.0187243 1.40525 77 75 76 
-0.0430237 0.745174 1.29771 8 7 5 
-0.163386 -0.0430424 1.43986 118 115 110 
-0.0524266 -0.283927 1.48508 40 35 32 
-0.0538613 -0.251091 1.4725 40 35 31 
-0.0823402 0.100654 1.39824 67 65 66 
-0.146751 0.10079 1.42407 83 82 80 
-0.106112 0.682469 1.33914 137 133 134 
-0.07478 0.542713 1.3577 92 92 92 
-0.0724576 -0.334775 1.51607 51 50 46 
-0.104962 -0.0913072 1.44076 40 39 37 
-0.130179 -0.109745 1.45808 28 27 25 
-0.0916214 0.0594093 1.39439 56 55 51 
-0.0775816 -0.0964268 1.4281 102 100 101 
-0.0831993 -0.235838 1.48235 38 34 33 
-0.140835 0.0379586 1.41308 0 0 0 
-0.0805848 -0.0906322 1.42778 113 111 112 
-0.123029 0.0184204 1.4057 82 80 81 
-0.105893 0.682043 1.33969 124 120 121 
-0.09692 0.250046 1.38972 74 73 71 
-0.132086 0.410789 1.39202 57 58 53 
-0.0497346 0.0981076 1.39329 91 91 91 
-0.0915945 0.0591684 1.39395 64 63 59 
-0.042392 0.130468 1.38845 95 91 92 
-0.0201574 -0.731234 1.65991 42 40 41 
-0.107584 -0.210837 1.48691 86 82 83 
-0.071365 -0.0971834 1.4245 131 130 126 
-0.0899123 0.23972 1.39037 69 68 66 
-0.153369 0.0313594 1.42207 9 9 9 
-0.160002 0.0399837 1.42336 72 71 67 
-0.0744889 -0.125728 1.43742 40 37 30 
-0.103122 -0.122921 1.45192 116 115 113 
-0.0486162 0.0964954 1.39367 56 58 57 
5.37748 2.74699 20.7067 112 117 121 
-0.0918273 0.192774 1.39461 69 65 66 
-0.0438522 0.232133 1.37712 81 80 78 
-0.173445 0.26507 1.42678 69 67 68 
-0.103837 0.542057 1.36423 50 49 45 
-0.135448 0.7053 1.33454 148 145 138 
-0.144783 0.740716 1.31955 39 34 31 
-0.0263038 -0.811612 1.65654 39 36 67 
-0.0441788 0.131966 1.3869 81 79 80 
-0.0545988 0.217153 1.38641 57 55 56 
-0.0554661 0.217737 1.38533 59 57 58 
-0.0979493 0.222654 1.39123 75 74 72 
-0.106106 -0.0750432 1.43497 142 141 139 
-0.112507 -0.083191 1.4425 32 30 31 
0.0275606 -0.022349 1.40103 27 25 12 
0.0190163 -0.343215 1.52551 126 124 125 
-0.124725 -0.184401 1.48458 24 23 21 
-0.0378512 -0.810296 1.65846 127 129 150 
-0.129185 -0.0973627 1.45691 17 16 14 
-0.0924274 -0.0602229 1.41971 46 39 33 
-0.148482 -0.0580717 1.44196 117 114 105 
-0.0836129 -0.459471 1.57338 49 45 42 
-0.0748934 0.737296 1.30235 82 78 79 
-0.103687 0.151378 1.40359 8 4 5 
-0.138446 -0.10621 1.46408 35 34 30 
-0.00630265 -0.229671 1.46294 31 24 18 
-0.0722006 -0.110744 1.43077 19 17 18 
-0.0517816 -0.459554 1.55341 46 42 39 
-0.0407102 -0.0218719 1.38707 30 29 27 
-0.127923 -0.0824465 1.44895 5 3 4 
-0.0796293 -0.269803 1.49474 35 31 28 
0.0174027 -0.260308 1.47084 98 98 96 
0.00878395 -0.239952 1.46782 12 7 4 
-0.0803272 0.0289001 1.395 101 100 98 
-0.104466 -0.317291 1.52768 17 16 14 
-0.112729 -0.234735 1.49787 21 17 14 
-0.139963 -0.234585 1.51289 31 28 21 
-0.0693436 -0.151413 1.44596 22 19 14 
-0.103862 -0.39612 1.55854 18 14 11 
-0.0799761 -0.327057 1.52032 29 28 24 
-0.134677 -0.217372 1.5038 43 39 38 
-0.125809 -0.210942 1.497 27 23 20 
-0.00564665 -0.205732 1.46205 123 107 107 
-0.147867 -0.209092 1.5085 98 97 95 
-0.150453 -0.168884 1.49129 52 48 45 
-2.93232e-05 0.0671314 1.38757 115 113 114 
-0.0876098 0.509987 1.37112 108 106 107 
-0.103676 -0.195686 1.47972 10 10 8 
-0.0396206 -0.362962 1.51552 129 129 127 
0.00750087 -0.122227 1.44351 137 136 134 
-0.121511 -0.0212728 1.41137 14 10 1 
-0.0582137 -0.232285 1.46902 39 36 31 
-0.0338713 -0.322782 1.50214 50 46 43 
0.00320509 -0.390824 1.5387 116 115 111 
-0.0773857 -0.136473 1.44398 133 130 125 
-0.129307 -0.0339214 1.42155 37 33 22 
-0.0231753 -0.144369 1.4424 31 27 24 
-0.0993417 0.0201635 1.39914 83 82 80 
0.0287352 -0.257046 1.47353 86 85 83 
-0.0193864 -0.428265 1.54508 40 34 36 
-0.0909765 -0.335519 1.52658 35 32 27 
-0.0310655 -0.712906 1.62008 40 38 39 
-0.010388 -0.394636 1.53724 117 113 112 
-0.133687 -0.170492 1.48138 108 107 105 
0.0257054 -0.381549 1.54179 108 108 106 
0.0609369 0.0678155 1.41018 90 90 90 
0.00592178 0.26465 1.37745 19 18 16 
0.026941 -0.351867 1.53042 110 109 104 
-0.16371 -0.135095 1.48797 106 106 106 
-0.134577 0.700359 1.34414 112 109 104 
-0.0153839 -0.331503 1.50915 79 75 74 
-0.159688 0.0222051 1.4252 68 68 66 
-0.0565537 -0.0985909 1.41887 49 48 46 
-0.0356474 -0.307842 1.49463 87 83 82 
-0.0458033 -0.520361 1.57915 108 107 105 
0.00583602 0.042602 1.39053 73 71 72 
0.0649279 0.650993 1.36934 126 125 123 
-0.061259 0.0296779 1.3913 73 72 70 
-0.073039 0.27241 1.38412 87 83 82 
0.0424881 0.465877 1.3766 117 114 105 
-0.170225 0.0395545 1.43396 116 115 110 
-0.139842 -0.031006 1.42412 44 41 34 
-0.0734652 -0.0647419 1.4081 43 42 40 
-0.062693 -0.130365 1.43141 97 92 88 
-0.215529 0.523551 1.45107 76 75 73 
-0.0443536 -0.183094 1.44777 76 72 69 
-0.0183146 -0.407468 1.53869 57 53 52 
-0.054018 -0.301856 1.49614 29 24 20 
-0.159005 -0.0790534 1.46115 45 44 40 
0.0453376 0.718518 1.32578 87 83 80 
-0.11551 -0.172138 1.47618 15 14 9 
0.00949383 -0.195039 1.46702 106 96 94 
-0.121385 -0.193748 1.49061 99 98 94 
0.0450605 0.710184 1.33938 95 92 83 
-0.0199044 -0.713851 1.62073 46 44 45 
-0.156468 -0.095128 1.46758 87 86 84 
-0.00749992 0.230522 1.37482 89 85 84 
-0.140434 -0.0214802 1.41958 44 42 30 
0.00536591 -0.412462 1.54736 109 103 105 
-0.0671978 -0.210861 1.46661 14 9 6 
-0.106184 -0.220917 1.49079 19 18 16 
0.0539895 0.739137 1.32715 90 90 82 
0.02367 -0.234837 1.47204 106 95 93 
-0.0345553 -0.223694 1.46448 103 102 100 
-0.000933113 0.457737 1.36137 92 88 85 
-0.031702 -0.0631376 1.40491 132 132 132 
-0.0713948 -0.0539984 1.40553 130 126 123 
-0.083312 0.0764974 1.39593 61 59 60 
-0.0973727 -0.218627 1.48289 118 112 112 
-0.00446762 -0.0669613 1.41787 90 86 85 
0.0279686 0.0564006 1.39521 67 65 66 
-0.0213971 0.149565 1.37917 59 58 56 
-0.157737 0.735897 1.32657 62 61 59 
0.0371282 0.749879 1.31303 142 139 134 
-0.0524093 -0.224271 1.46226 30 27 22 
-0.0317329 0.161289 1.37903 76 75 73 
-0.0683874 0.216864 1.38771 61 59 60 
-0.241588 0.0897926 1.61615 58 58 58 
-0.0452986 0.354272 1.36724 50 49 47 
-0.168457 0.71898 1.33425 83 82 78 
-0.0207665 -0.799756 1.65459 104 109 131 
-0.252112 0.567343 1.51258 0 0 2 
-0.255972 0.558122 1.52829 25 23 28 
-0.0887119 -0.307458 1.51294 24 20 17 
-0.0188441 -0.0383287 1.39435 50 49 44 
-0.116162 -0.30982 1.5236 129 123 123 
-0.0137762 -0.317048 1.5053 13 12 10 
-0.0816054 -0.314628 1.51266 119 116 111 
-0.112269 -0.253968 1.49978 24 20 17 
-0.152452 -0.225977 1.51063 11 7 4 
-0.244133 0.639542 1.48924 89 88 93 
-0.24532 0.358307 1.53878 117 116 111 
-0.0855262 -0.181793 1.45928 33 29 28 
-0.230786 0.0861855 1.51637 77 75 76 
-0.127172 -0.0632879 1.43207 54 51 46 
-0.0597696 -0.163631 1.43959 8 4 1 
-0.145558 -0.0683196 1.44568 20 17 12 
-0.11738 -0.137201 1.46034 12 11 9 
-0.149121 -0.126666 1.46978 100 98 99 
-0.13417 -0.123209 1.46466 12 11 9 
-0.117911 -0.101153 1.44859 16 14 15 
-0.0788365 -0.0818605 1.41968 39 38 34 
0.608196 0.781793 1.56472 81 82 77 
-0.1163 -0.355236 1.54829 19 14 10 
-0.0863267 -0.0484365 1.4049 8 5 0 
-0.126171 -0.26461 1.51426 2 0 1 
-0.0571701 -0.197164 1.45088 121 117 114 
-0.176188 0.110312 1.44223 119 117 118 
-0.199036 -0.223852 1.58857 104 100 99 
-0.0508929 -0.712227 1.63406 34 32 33 
-0.0692018 -0.199029 1.45913 14 10 7 
-0.166347 -0.184961 1.5027 102 99 94 
-0.0238276 0.138484 1.38004 88 86 87 
-0.0218015 -0.809722 1.65641 208 213 233 
0.0043967 -0.350222 1.52272 150 146 145 
-0.0717465 -0.185 1.45572 4 0 0 
-0.156537 -0.11894 1.47202 32 31 29 
-0.244998 0.630065 1.49752 9 10 14 
-0.0793338 -0.486195 1.57796 26 25 23 
-0.0512567 -0.470419 1.5601 45 42 37 
-0.0938993 -0.46443 1.57654 31 28 23 
-0.12952 -0.302633 1.52936 118 117 112 
-0.146383 -0.0834342 1.45472 31 28 23 
-0.180007 -0.0577457 1.45305 109 105 102 
-0.0884117 -0.0380946 1.40093 10 7 0 
-0.0940259 -0.0903625 1.43097 114 113 111 
-0.158435 -0.209137 1.50626 22 18 15 
-0.220702 0.0333736 1.47842 3 0 0 
-0.235811 0.110726 1.52622 1 0 0 
-0.0494168 -0.376823 1.52288 43 38 32 
-0.117644 -0.337262 1.53747 17 14 9 
0.0484399 0.74036 1.32454 114 111 104 
-0.181257 0.0123252 1.43679 128 124 121 
-0.126692 -0.119699 1.45874 27 26 24 
-0.171653 -0.0954755 1.47119 41 40 38 
-0.213793 0.0335176 1.47015 4 3 1 
-0.158567 -0.108474 1.4698 1 0 0 
-0.198818 -0.00380587 1.44278 114 109 106 
-0.165978 -0.16989 1.49698 77 73 74 
-0.141611 -0.330264 1.57328 11 7 4 
-0.172001 0.637324 1.37634 95 94 92 
-0.047911 -0.12284 1.42162 113 109 106 
-0.25035 0.525556 1.48239 110 109 107 
-0.237519 -0.0750371 1.60281 27 23 20 
-0.187238 -0.0966748 1.47788 37 36 32 
-0.208622 0.0224577 1.46776 93 91 92 
-0.161574 0.244744 1.41772 76 74 75 
-0.204922 -0.248797 1.61193 27 30 39 
0.0175048 -0.0454665 1.41112 107 105 106 
-0.0651676 -0.465582 1.5622 37 33 30 
-0.177088 -0.230663 1.5273 101 100 96 
-0.0524217 -0.314176 1.49824 45 42 37 
0.0730219 -0.0367735 1.42602 48 47 45 
0.00188133 -0.44312 1.55732 57 53 52 
-0.0677492 -0.171675 1.44682 90 86 83 
-0.130425 -0.324276 1.53701 47 44 37 
-0.044338 -0.712634 1.62604 32 31 29 
-0.10443 -0.181042 1.47003 101 97 96 
-0.160252 0.0505753 1.42074 80 79 77 
-0.0753589 -0.538645 1.59759 108 104 101 
0.00106793 0.161961 1.38074 69 67 68 
-0.136139 0.368488 1.40111 111 107 106 
-0.222574 0.702336 1.40811 95 94 92 
-0.183275 -0.0671876 1.46397 1 0 0 
0.0138105 0.116649 1.38876 12 10 11 
-0.0271546 -0.234295 1.45487 11 11 3 
-0.0277164 -0.787213 1.65866 194 197 212 
-0.0557857 -0.138329 1.43069 115 111 108 
-0.0710203 -0.303926 1.5036 45 41 38 
-0.25363 0.660708 1.52194 105 103 104 
-0.248152 0.55764 1.5033 116 115 133 
-0.0403706 -0.273572 1.47769 121 120 116 
-0.108269 -0.0669294 1.42308 106 103 98 
-0.0413605 -0.343481 1.50757 46 42 41 
-0.171539 -0.172179 1.5054 124 120 117 
-0.0471688 -0.408513 1.53424 96 92 89 
-0.138021 -0.136406 1.47042 85 84 82 
-0.0567021 -0.209572 1.45714 97 93 90 
-0.00199391 0.110478 1.38318 46 45 43 
0.593347 0.760499 1.59236 69 66 57 
-0.235221 0.208771 1.5055 38 35 30 
-0.136328 0.091839 1.41894 5 4 2 
-0.261585 0.604099 1.52922 132 99 30 
-0.0928147 -0.439213 1.56679 110 105 101 
-0.249031 0.544434 1.48735 4 5 23 
-0.149877 -0.281478 1.53948 94 93 91 
-0.250665 0.559581 1.51924 130 131 149 
0.0297516 -0.23486 1.4766 80 76 75 
-0.0628712 -0.365641 1.52211 98 95 90 
0.0408229 0.746 1.31965 111 108 101 
-0.252983 0.577429 1.52478 5 3 6 
-0.246798 0.542352 1.49719 79 78 84 
-0.0462154 0.119375 1.38572 78 74 75 
0.0371443 -0.279701 1.47853 57 57 57 
-0.181724 0.0793827 1.44581 77 76 74 
-0.0254058 -0.0976319 1.4217 108 107 105 
-0.173655 -0.185789 1.51451 94 91 86 
-0.0459169 0.223562 1.37863 58 56 57 
-0.0238467 -0.320562 1.50296 45 41 38 
-0.136915 -0.265766 1.52187 38 34 31 
-0.324054 0.770032 1.30962 78 76 63 
-0.152305 -0.23868 1.51484 19 15 12 
-0.280816 0.719996 1.4235 73 73 65 
0.566902 0.781367 1.62631 64 63 58 
-0.250615 0.597525 1.5127 86 82 83 
-0.0328409 0.0560083 1.38337 40 39 37 
-0.238542 0.19863 1.51265 7 4 0 
-0.150221 0.217169 1.4155 50 48 51 
-0.23167 0.726628 1.3858 50 48 49 
-0.213047 0.106333 1.47687 68 68 68 
-0.135283 -0.190853 1.4898 62 58 59 
-0.0651401 0.0675199 1.39575 56 54 55 
-0.0539891 0.0884222 1.39695 59 57 58 
-0.0452464 0.108395 1.38349 71 70 68 
-0.175579 0.240332 1.42964 79 77 78 
-0.220144 0.522333 1.4402 61 61 59 
-0.0452113 0.746801 1.30031 97 96 92 
0.0213502 -0.147715 1.45676 93 92 88 
-0.0307343 -0.467588 1.55623 83 81 82 
-0.0484373 -0.24011 1.46665 105 101 98 
-0.0772514 -0.070624 1.41876 27 26 21 
-0.175468 -0.0369216 1.44626 25 21 18 
-0.038914 -0.530956 1.58099 102 97 93 
0.0253187 0.709776 1.33588 115 112 103 
-0.058263 -0.26759 1.48206 30 26 23 
-0.0297309 0.27979 1.37421 2 1 0 
-0.167611 0.306777 1.42354 100 100 100 
0.0197428 -0.423704 1.55462 30 26 23 
-0.0971279 -0.325611 1.52662 27 26 22 
-0.041682 -0.215408 1.45901 120 119 115 
-0.0976921 -0.163576 1.46433 26 22 19 
-0.0676851 -0.371568 1.5305 124 120 117 
-0.00408796 0.503021 1.36086 97 94 85 
-0.0245041 0.0837553 1.38647 80 76 73 
-0.0268856 -0.353628 1.5158 113 108 105 
-0.171653 -0.125134 1.4887 31 30 28 
0.00999706 -0.335722 1.51837 30 26 23 
0.0704942 0.0738626 1.41358 31 29 30 
0.0348665 0.735522 1.32343 104 99 96 
0.0161457 -0.389481 1.54147 99 98 96 
-0.00417069 -0.176412 1.45798 98 94 91 
-0.0309852 0.0404388 1.38644 79 78 76 
-0.0695279 -0.235762 1.47529 30 29 25 
-0.145008 0.111681 1.42585 83 82 78 
0.057473 -0.0461246 1.42681 32 32 30 
-0.00578835 -0.0983055 1.43089 30 25 19 
0.0854943 0.0142588 1.42734 7 3 2 
0.0436586 -0.0212729 1.40689 20 19 15 
0.0432855 0.457357 1.37962 115 114 109 
-0.00374599 -0.438617 1.55481 34 31 26 
0.0553865 0.044466 1.40782 75 74 72 
-0.0723459 -0.531506 1.59348 37 36 34 
-0.0307372 -0.0536412 1.40147 95 94 92 
-0.0592455 -0.0713389 1.40675 34 30 29 
-0.0379708 0.092553 1.38357 3 0 0 
0.0280659 -0.268573 1.47487 101 100 96 
-0.17118 -0.102596 1.47925 25 24 22 
0.0871847 0.0460362 1.42614 14 12 13 
0.0418636 -0.0951412 1.44585 109 108 104 
0.0333251 -0.0878516 1.4407 1 0 0 
0.0617484 0.664341 1.36535 93 91 92 
0.0683711 0.635901 1.38372 118 116 117 
-0.0384189 -0.0718971 1.409 27 22 18 
-0.168156 -0.0205728 1.43432 48 47 45 
-0.0449425 -0.173208 1.44271 31 30 28 
0.0533172 -0.132841 1.46404 116 114 115 
0.0614171 0.645873 1.37233 9 8 6 
0.0328144 -0.365307 1.53732 123 118 115 
0.0592317 -0.0350451 1.42044 128 127 125 
0.00198972 -0.13946 1.44601 102 101 99 
0.0804516 0.743181 1.34432 87 82 78 
-0.0281864 -0.13298 1.43675 111 107 104 
-0.0160231 -0.114327 1.43266 90 89 87 
0.00160975 -0.0598621 1.4142 117 116 112 
-0.0434677 0.158247 1.39225 81 81 81 
-0.0334451 -0.785437 1.65365 200 209 224 
-0.0280234 -0.766325 1.6597 35 36 66 
-0.00897376 0.159901 1.38171 70 68 69 
-0.0229332 -0.183475 1.45191 60 59 55 
0.0375444 0.0381445 1.39599 52 50 51 
-0.000834536 0.139926 1.37976 70 69 67 
-0.0663721 0.23218 1.38462 50 49 54 
0.0537492 0.579432 1.38211 56 56 56 
-0.0370033 -0.81959 1.66865 104 113 128 
-0.0137522 -0.807407 1.64576 228 232 255 
-0.039338 -0.804976 1.65348 165 167 190 
-0.249803 0.554923 1.52054 3 1 22 
-0.0556984 -0.164555 1.44914 18 14 11 
-0.0311532 -0.335222 1.50598 20 17 12 
-0.134014 -0.324456 1.55744 18 14 5 
-0.188847 -0.315904 1.57971 29 31 46 
-0.194496 -0.2755 1.60612 206 207 211 
-0.0987938 -0.20832 1.4805 116 115 111 
-0.254399 0.56147 1.53647 16 16 28 
-0.254339 0.564004 1.5235 104 105 110 
-0.0765391 -0.0926178 1.43673 1 0 0 
-0.247017 0.576707 1.49989 141 141 143 
-0.135202 -0.0340484 1.41433 25 23 11 
0.0754487 -0.0368505 1.42983 28 27 23 
0.0268391 -0.0234436 1.40083 25 25 13 
0.0623489 0.644476 1.36927 118 117 115 
-0.137852 -0.0522795 1.43663 39 38 33 
-0.0363724 -0.172623 1.44843 31 27 24 
0.0824327 -0.0641786 1.44736 26 23 18 
-0.248379 0.594375 1.50401 94 94 92 
-0.253039 0.592346 1.52288 116 116 116 
0.0447589 -0.0959418 1.45205 128 127 123 
0.0559845 0.0122116 1.40805 9 7 8 
-0.385406 0.784087 1.64772 139 131 120 
-0.0436046 -0.125271 1.43065 17 16 12 
0.0562594 -0.132995 1.46977 144 144 142 
0.0634241 0.0326043 1.41231 124 123 121 
-0.180172 -0.135861 1.50116 110 109 105 
-0.0109341 -0.466148 1.5661 17 16 14 
0.00830247 -0.200863 1.46966 115 101 101 
-0.0911823 0.506806 1.36276 106 105 103 
-0.0413216 -0.244919 1.47387 17 13 12 
0.000837019 -0.258332 1.46588 98 97 95 
-0.0806079 -0.439499 1.56082 126 123 118 
-0.110843 -0.313096 1.5383 118 112 112 
-0.0279507 0.0590944 1.38893 0 0 0 
0.070861 0.227542 1.40614 106 105 103 
-0.20373 0.129211 1.47936 1 0 0 
-0.018743 -0.785349 1.65263 100 110 122 
0.031535 -0.355933 1.54048 11 12 6 
0.0259525 -0.368205 1.54139 8 7 5 
0.0337798 -0.373385 1.54725 110 110 108 
0.0287919 -0.38272 1.548 117 113 112 
-0.0338046 -0.382218 1.52609 34 30 21 
-0.0897535 -0.397927 1.55335 15 11 8 
-0.00958308 -0.42698 1.55155 128 124 121 
0.00560044 0.0427464 1.39004 83 79 78 
0.0284352 -0.256402 1.47553 12 12 10 
-0.218904 0.157162 1.49532 94 92 95 
-0.231256 0.158624 1.51973 1 0 2 
0.0574206 0.370767 1.38751 7 3 2 
-0.199945 -0.185046 1.6205 18 14 11 
0.0205531 0.147408 1.38615 97 96 94 
-0.0114731 0.229654 1.36873 88 87 85 
-0.0254613 -0.414529 1.53938 36 32 29 
-0.0885416 -0.0698331 1.43095 125 124 122 
-0.171608 0.711793 1.32363 109 104 101 
-0.172744 0.0887873 1.45512 91 91 91 
-0.0422646 0.200038 1.37351 100 99 97 
0.0187549 -0.0447305 1.41308 105 105 103 
0.00656788 0.264941 1.37873 1 0 0 
-0.15581 0.0441399 1.43372 85 85 85 
-0.253085 0.660445 1.52592 114 112 113 
-0.0500506 -0.665454 1.63246 128 123 120 
-0.182988 -0.232792 1.56967 107 96 94 
0.076581 -0.0497519 1.43588 37 36 34 
0.0108489 -0.394095 1.543 130 124 124 
-0.0244883 -0.441371 1.55303 39 38 34 
0.0691458 0.0741552 1.41034 23 22 20 
-0.24695 0.627196 1.49784 0 0 7 
-5.83748e-05 0.263955 1.3689 109 109 107 
0.00359025 0.067716 1.39499 114 110 109 
-0.117948 -0.34596 1.55185 35 32 27 
-0.209574 0.179684 1.47892 85 84 82 
-0.251554 0.614121 1.5139 96 97 91 
-0.260574 0.609826 1.52789 118 98 74 
-0.234479 0.357579 1.52042 133 132 127 
-0.00865388 -0.0683633 1.42704 111 112 107 
-0.0439331 -0.201794 1.45536 110 106 103 
-0.251564 0.601257 1.51446 76 76 74 
-0.00641424 -0.813193 1.65273 67 75 96 
-0.190514 -0.29643 1.58873 215 214 220 
-0.0127223 -0.756162 1.65921 70 77 96 
0.102061 0.0246065 1.44018 1 0 0 
-0.067902 -0.30936 1.51901 88 85 80 
-0.257889 0.606176 1.53668 112 88 62 
0.00765486 -0.121892 1.44538 131 127 126 
0.0747592 0.126171 1.41189 105 103 104 
0.116635 0.0473191 1.45574 4 3 1 
-0.0694121 -0.322846 1.51198 33 31 19 
-0.0553804 -0.0848419 1.41472 128 126 127 
0.0339345 -0.0880434 1.44229 10 9 7 
-0.0540074 -0.139433 1.44002 36 33 28 
-0.0567163 -0.0717319 1.41449 29 27 28 
-0.032132 -0.0674113 1.41039 34 31 26 
0.000672921 -0.23419 1.4699 36 31 27 
0.00426188 0.10009 1.39304 127 126 122 
0.0274094 -0.235385 1.48226 102 93 94 
-0.250521 0.565978 1.50624 143 146 155 
-0.178802 -0.22723 1.55299 14 4 2 
-0.245784 0.57111 1.49088 94 95 99 
-0.00848948 -0.39585 1.54163 126 125 121 
-0.135126 -0.403349 1.64079 205 203 216 
-0.559129 0.675789 1.23905 145 140 137 
0.0050353 -0.0604686 1.41683 91 90 88 
-0.0254903 -0.201472 1.45665 12 7 3 
0.0506041 0.0213315 1.40382 1 1 0 
0.0739672 0.0202167 1.42154 114 114 114 
-0.116591 0.0193814 1.41396 123 122 120 
0.0284407 -0.26877 1.47589 107 106 104 
-0.00679778 0.48569 1.35275 15 12 7 
-0.0829123 -0.41739 1.56027 86 85 81 
-0.0238286 -0.0620768 1.4058 128 127 123 
-0.0283956 -0.343359 1.51849 135 131 128 
-0.203853 -0.159557 1.60279 90 89 85 
-0.117281 0.104114 1.41818 104 102 103 
0.0735649 -0.0931222 1.45983 98 94 93 
0.0599212 -0.0346463 1.42466 104 102 103 
-0.10477 -0.264356 1.51087 36 33 26 
-0.0203311 -0.0990556 1.43307 82 81 79 
0.0106853 -0.45271 1.56596 32 28 25 
-0.0455656 0.0895409 1.39296 77 75 76 
-0.00212832 -0.098542 1.43174 28 27 23 
-0.0122601 -0.333192 1.51719 87 83 82 
-0.0444835 0.122402 1.38912 86 86 86 
-0.0477335 -0.49189 1.5696 12 11 7 
-0.152227 -0.192251 1.50119 83 82 80 
-0.0210497 -0.236733 1.46861 3 3 0 
-0.167741 -0.033895 1.43486 109 104 100 
-0.0237737 -0.828723 1.66015 208 215 234 
-0.117262 -0.679615 1.39266 88 89 117 
-0.0559514 -0.720946 1.6578 102 101 109 
-0.0689342 -0.245595 1.49222 40 35 31 
-0.13548 0.36899 1.40282 132 128 125 
-0.234592 0.199342 1.52208 7 3 0 
-0.0763085 -0.123996 1.44724 108 105 100 
-0.216357 -0.152439 1.63654 124 133 142 
-0.134696 0.409045 1.38667 69 68 66 
-0.0300648 -0.404945 1.53096 122 118 115 
-0.0624953 -0.62866 1.64484 26 24 29 
0.0148357 -0.3976 1.55571 125 119 119 
-0.0217334 -0.662797 1.61479 34 30 29 
-0.036458 -0.366363 1.52103 35 36 31 
-0.178588 0.0797595 1.4579 64 64 62 
0.0108621 -0.344856 1.52676 144 143 141 
-0.245739 0.230323 1.5601 6 2 0 
-0.0454266 -0.314711 1.51082 106 103 96 
0.0152668 -0.277511 1.47146 122 119 112 
-0.00322334 -0.71867 1.636 48 47 45 
0.0150939 0.109231 1.3881 13 12 10 
0.0100858 -0.242909 1.47089 84 83 81 
-0.156623 -0.0525227 1.44597 41 38 33 
-0.137256 -0.0594955 1.45434 22 19 12 
-0.243207 0.205059 1.55199 25 22 17 
-0.0595757 -0.127169 1.4386 115 110 104 
0.0848524 0.014095 1.42326 3 1 2 
-0.185342 -0.177434 1.56964 26 25 23 
-0.146482 -0.287344 1.55413 94 93 89 
0.0400609 0.221461 1.38998 92 91 89 
-0.0514114 -0.70934 1.62711 115 114 112 
0.00334449 -0.140259 1.45172 97 96 94 
-0.232144 0.350946 1.50577 106 105 103 
-0.24409 0.56074 1.49188 95 95 107 
-0.0315723 -0.75238 1.65655 194 200 216 
-0.252392 0.523176 1.47998 20 16 15 
-0.159091 -0.0950576 1.46004 81 80 78 
-0.247015 0.558708 1.48132 14 16 28 
-0.0365856 -0.352677 1.50635 29 26 21 
-0.0162964 -0.717725 1.63032 41 39 40 
-0.254755 0.616561 1.54597 71 51 24 
-0.0647991 -0.1875 1.46172 43 40 35 
-0.238695 0.216122 1.52222 34 31 26 
-0.578076 0.731835 1.17906 116 113 98 
0.0680891 0.368683 1.39749 21 18 13 
-0.242675 0.185695 1.55701 8 5 0 
-0.223357 0.147907 1.51248 83 83 81 
-0.144275 -0.224279 1.50421 100 96 93 
0.0833419 0.0765709 1.42357 39 38 36 
-0.148982 -0.0344658 1.42057 127 126 121 
-0.00205499 -0.207219 1.46907 44 30 27 
-0.024769 -0.465312 1.56363 81 80 76 
0.0813359 0.0448843 1.42469 0 0 0 
-0.0377445 -0.719863 1.64257 45 44 42 
0.0191786 -0.245833 1.47886 79 75 74 
-0.0281302 -0.451261 1.55257 120 116 115 
-0.00186084 0.110726 1.38348 31 30 28 
0.0305683 0.0568853 1.40034 72 71 69 
0.0562093 0.0447825 1.40751 96 95 91 
-0.0990479 -0.0574891 1.41123 83 79 68 
-0.101163 -0.0465166 1.42037 102 99 92 
0.0355141 0.559451 1.36833 87 86 84 
-0.244406 0.19982 1.541 28 25 18 
-0.224123 0.69698 1.39794 96 96 96 
0.0554381 0.15162 1.39518 110 106 105 
-0.133154 -0.268243 1.53762 25 25 23 
-0.244177 0.0584037 1.54377 65 65 65 
0.00102206 0.161077 1.38172 64 62 63 
0.0455176 0.719023 1.32707 90 87 82 
-0.00326247 0.474194 1.35624 123 120 113 
-0.027241 -0.809498 1.66292 228 228 252 
-0.0381834 -0.704166 1.60089 52 48 47 
-0.0612058 -0.65343 1.64465 197 197 209 
-0.0584258 -0.653877 1.65939 107 107 119 
0.00390341 -0.729514 1.64433 90 88 89 
-0.547968 0.680766 1.22123 28 24 25 
-0.243836 0.231344 1.5697 40 36 33 
-0.246265 0.348476 1.54982 2 2 0 
-0.246301 0.564715 1.47305 123 122 127 
-0.0441286 -0.712622 1.62489 35 34 32 
-0.0362936 0.0878503 1.38047 85 80 76 
-0.0921755 0.0687796 1.39474 76 76 76 
0.0362795 0.247496 1.38204 77 76 71 
-0.0173246 -0.351133 1.52252 66 66 64 
-0.129158 -0.270614 1.54853 47 47 45 
-0.292215 0.852528 3.31432 85 86 80 
-0.152474 -0.238247 1.50864 18 15 10 
-0.223708 -0.123743 1.64453 59 61 74 
-0.0362158 0.236032 1.37639 94 93 89 
-0.483685 0.742385 1.24295 105 103 91 
-0.529654 0.756618 2.10881 105 106 100 
-0.248462 0.529368 1.49884 15 11 10 
-0.194115 -0.294319 1.60072 39 39 51 
-0.236012 -0.0773587 1.62451 35 31 32 
-0.236032 -0.0777646 1.64175 53 51 62 
0.0222304 -0.0470478 1.42277 118 118 116 
-0.295377 0.745002 1.27988 73 71 56 
-0.243009 -0.0163803 1.52522 53 52 48 
-0.141361 0.694558 1.33273 118 115 110 
-0.104099 0.681739 1.33224 110 106 107 
-0.258658 0.659925 1.4434 24 23 18 
0.421341 0.820965 1.66835 102 100 85 
0.0335631 0.0338676 1.39207 69 67 68 
0.0469293 0.0345579 1.4182 83 82 80 
-0.0659866 -0.538354 1.61158 34 32 33 
-0.144819 -0.167185 1.50424 34 30 27 
0.0601004 0.045632 1.4167 80 79 75 
-0.165675 -0.194147 1.53484 35 35 27 
-0.05112 -0.457508 1.56229 41 37 34 
-0.174582 0.0806228 1.46709 68 68 66 
-0.261603 0.54621 1.53646 40 40 40 
0.0434719 0.465611 1.37957 129 126 117 
0.0179086 0.0889224 1.39216 78 78 76 
0.037922 -0.391579 1.5685 103 97 97 
-0.0490864 0.155342 1.36888 79 79 79 
0.0142048 -0.34779 1.53646 80 79 77 
0.0443936 0.222192 1.39938 80 79 77 
-0.246348 0.086593 1.59108 58 57 55 
-0.0225816 -0.709379 1.6123 44 42 43 
-0.0372335 -0.464905 1.54562 74 73 69 
-0.057591 -0.452294 1.54592 45 41 38 
-0.125819 -0.377164 1.56364 60 57 52 
-0.0243355 -0.258493 1.46593 141 141 131 
-0.0808165 -0.246786 1.46806 67 64 55 
-0.0524817 -0.247617 1.48457 41 37 34 
0.0120788 -0.239057 1.48056 101 93 90 
-0.174335 -0.231675 1.5205 4 3 0 
-0.0965055 -0.203231 1.46725 93 89 88 
-0.0525854 -0.203761 1.46588 73 68 64 
-0.130854 -0.173473 1.5016 119 118 116 
-0.110444 -0.170876 1.46647 100 96 93 
-0.180493 -0.110541 1.48122 19 15 12 
-0.143233 -0.0716932 1.46356 51 47 44 
0.00986608 0.0196187 1.38919 50 49 47 
0.0400666 0.037844 1.40234 69 67 70 
-0.250871 0.0875798 1.58026 79 75 74 
-0.0426711 0.132325 1.38999 76 76 76 
-0.0290391 0.145402 1.38904 15 14 12 
0.0620802 0.151641 1.4136 75 71 70 
-0.244765 0.217773 1.55803 14 15 9 
-0.0545519 0.218317 1.3879 54 52 55 
0.0458278 0.32102 1.37813 70 66 67 
0.0215908 0.339951 1.37906 60 59 57 
-0.0349512 0.35602 1.35183 71 70 68 
-0.26732 0.534648 1.51966 54 54 54 
-0.228326 0.539861 1.42511 100 99 97 
-0.246593 0.62362 1.45268 28 27 32 
0.110041 0.730313 1.3671 30 29 25 
-0.0510637 -0.0861121 1.42865 102 100 101 
-0.167733 0.347745 1.41766 60 59 57 
0.0126908 0.518118 1.36018 112 111 107 
-0.0170564 -0.827913 1.67417 189 202 211 
-0.0263371 -0.81258 1.67481 196 203 219 
-0.0144688 -0.814265 1.67419 192 200 213 
-0.0218477 -0.753236 1.64786 187 192 211 
-0.004174 -0.644852 1.61761 41 39 44 
-0.0319421 -0.324628 1.51464 133 129 126 
-0.0311438 -0.255295 1.44893 76 76 66 
0.125918 -0.124467 1.54284 18 18 28 
-0.229734 -0.0234644 1.50427 54 53 49 
-0.161168 0.0692984 1.44261 55 54 52 
-0.062309 0.0679097 1.40224 60 58 59 
-0.0519806 0.0892433 1.40149 76 76 76 
-0.0399175 0.121272 1.39944 74 74 74 
-0.0422333 0.355811 1.37378 64 60 57 
-0.223969 0.520521 1.44715 23 22 20 
-0.262951 0.750626 1.34389 81 81 69 
6.23659 2.43029 14.0756 131 134 139 
-0.239147 0.0817643 1.52435 82 82 82 
-0.123 -0.0339135 1.41357 38 36 24 
-0.168624 -0.0771275 1.45988 123 120 115 
-0.0665318 -0.35336 1.5214 26 18 15 
-0.108658 -0.303191 1.5236 105 104 100 
6.26447 2.44485 14.1652 14 17 22 
-0.106044 0.112361 1.40266 81 81 81 
0.562964 0.760322 1.68409 110 108 95 
-0.134372 0.737792 1.30901 96 95 90 
-0.122917 -0.0546153 1.42801 66 61 55 
-0.122641 -0.150923 1.46868 105 104 102 
6.37907 2.30942 14.3585 98 103 109 
-0.201699 0.122177 1.46618 28 27 25 
-0.00178104 0.47571 1.3602 123 120 113 
0.566646 0.791195 1.65968 58 57 53 
-0.0423989 0.10667 1.39338 79 79 77 
-0.0857752 -0.474441 1.57944 105 101 98 
0.648725 0.77066 1.51751 76 76 68 
0.576562 0.785862 1.63332 48 47 42 
-0.100506 0.0395191 1.39874 32 31 29 
6.72766 2.34854 15.1847 57 62 66 
-0.116487 0.216976 1.40032 60 60 60 
