ply                 
format ascii 1.0    
element vertex 1010
property float x    
property float y    
property float z    
property uchar red  
property uchar green
property uchar blue 
end_header          
-0.0903085 -0.255423 1.4921 36 33 28 
-0.115438 -0.0536417 1.42269 32 28 25 
-0.107717 -0.0409364 1.41042 116 113 106 
-0.0954052 -0.312538 1.51854 15 14 10 
-0.134274 0.00825 1.41051 4 2 3 
-0.148194 0.0308999 1.41661 91 91 91 
-0.0742072 0.0109583 1.39282 112 111 109 
-0.0766482 -0.244162 1.48119 55 50 46 
-0.155132 0.644941 1.36078 107 106 104 
-0.0655624 -0.240097 1.47433 19 18 14 
-0.0995409 -0.132768 1.45126 27 26 24 
-0.0976417 -0.308345 1.51902 120 119 117 
-0.122384 0.0298732 1.40476 1 0 0 
-0.0899488 -0.142694 1.44935 103 102 100 
-0.13405 0.405689 1.39103 72 73 68 
-0.105081 0.537101 1.36391 101 100 96 
-0.119525 0.100014 1.41021 73 73 73 
-0.151125 -0.156695 1.4847 15 11 10 
-0.112328 -0.0537421 1.42144 46 41 35 
-0.0741786 -0.0971744 1.42537 23 22 20 
-0.0881011 -0.109691 1.43851 26 25 23 
-0.117099 -0.154346 1.46898 23 22 20 
-0.0906383 -0.255712 1.49237 45 42 37 
-0.0699072 -0.309113 1.5049 14 10 7 
-0.103708 0.678099 1.33796 99 97 100 
-0.0122786 -0.341987 1.51717 54 50 49 
-0.132775 0.701495 1.31916 107 105 108 
-0.0964152 -0.1537 1.45724 21 20 18 
-0.103004 0.525517 1.36772 94 92 93 
-0.074594 0.0110483 1.39258 97 96 94 
-0.0944832 0.0584833 1.39323 71 70 68 
-0.0041163 0.0971686 1.38575 7 3 0 
5.4124 2.83253 23.3482 35 45 46 
-0.054237 -0.331489 1.50576 21 18 13 
-0.125515 0.0187696 1.40501 77 75 76 
-0.0451537 0.737145 1.29833 8 7 5 
-0.165281 -0.0422614 1.43914 118 115 110 
-0.0558962 -0.280458 1.48446 40 35 32 
-0.0572401 -0.248008 1.472 40 35 31 
-0.0848652 0.099762 1.39817 67 65 66 
-0.148673 0.099957 1.42345 83 82 80 
-0.107769 0.675176 1.33911 137 133 134 
-0.0769445 0.536917 1.3577 92 92 92 
-0.0758677 -0.33068 1.51505 51 50 46 
-0.107536 -0.0900217 1.44029 40 39 37 
-0.132558 -0.108223 1.45732 28 27 25 
-0.0942966 0.0589225 1.39397 72 71 69 
-0.080409 -0.0951119 1.42788 102 100 101 
-0.0862831 -0.232901 1.4816 38 34 33 
-0.142816 0.0378085 1.41267 0 0 0 
-0.0833738 -0.0893805 1.42755 113 111 112 
-0.125188 0.0184692 1.40546 82 80 81 
-0.107555 0.674755 1.33966 124 120 121 
-0.0991076 0.247618 1.3896 71 70 68 
-0.133845 0.406504 1.39154 57 58 53 
-0.0526003 0.0972187 1.39341 91 91 91 
-0.0941757 0.0588608 1.39368 72 71 69 
-0.045298 0.129213 1.38861 95 91 92 
-0.0250311 -0.722326 1.65768 42 40 41 
-0.110399 -0.208163 1.48599 86 82 83 
-0.0742462 -0.0958672 1.42435 131 130 126 
-0.0922344 0.237291 1.39023 69 68 66 
-0.155254 0.0312969 1.42152 9 9 9 
-0.161813 0.0398311 1.42276 72 71 67 
-0.0774087 -0.124079 1.43713 40 37 30 
-0.105784 -0.121273 1.45135 116 115 113 
-0.051497 0.095624 1.39379 56 58 57 
4.97877 2.59914 19.5894 112 117 121 
-0.0941752 0.190867 1.39445 69 65 66 
-0.0466305 0.229747 1.37732 81 80 78 
-0.174982 0.26244 1.42588 69 67 68 
-0.10571 0.536298 1.36405 50 49 45 
-0.136708 0.697814 1.33438 148 145 138 
-0.145902 0.73285 1.31954 39 34 31 
-0.0311996 -0.801758 1.6545 39 36 67 
-0.0470585 0.130676 1.38707 81 79 80 
-0.057308 0.214944 1.38647 57 55 56 
-0.0581607 0.215522 1.3854 59 57 58 
-0.100197 0.22042 1.39106 75 74 72 
-0.108645 -0.0739657 1.4347 142 141 139 
-0.115013 -0.0820108 1.44213 32 30 31 
0.0237316 -0.0219777 1.40159 27 25 12 
0.0145263 -0.339124 1.52507 126 124 125 
-0.127341 -0.182043 1.48381 24 23 21 
-0.0425765 -0.800709 1.6569 127 129 150 
-0.131577 -0.0959979 1.45632 17 16 14 
-0.095042 -0.0593349 1.41965 46 39 33 
-0.150574 -0.0571443 1.44142 117 114 105 
-0.0872406 -0.453942 1.57213 49 45 42 
-0.0766791 0.729228 1.30243 82 78 79 
-0.105968 0.149926 1.40332 8 4 5 
-0.140772 -0.104733 1.46338 35 34 30 
-0.0101612 -0.226922 1.46299 31 24 18 
-0.0751226 -0.109303 1.43077 19 17 18 
-0.055678 -0.454087 1.55254 46 42 39 
-0.0437253 -0.0214741 1.38753 30 29 27 
-0.130286 -0.0812565 1.44844 5 3 4 
-0.0828426 -0.266518 1.49417 35 31 28 
0.0132278 -0.257225 1.47093 98 98 96 
0.00482143 -0.23718 1.46813 1 0 0 
-0.0829098 0.0287769 1.39513 101 100 98 
-0.107575 -0.31341 1.52667 17 16 14 
-0.115566 -0.23181 1.49707 21 17 14 
-0.142562 -0.231621 1.51179 31 28 21 
-0.0723837 -0.149508 1.44582 22 19 14 
-0.10716 -0.39131 1.55729 18 14 11 
-0.0833323 -0.323097 1.51952 29 28 24 
-0.137285 -0.214615 1.50281 43 39 38 
-0.128483 -0.208273 1.49612 27 23 20 
-0.0095003 -0.203252 1.46211 123 107 107 
-0.150351 -0.206408 1.50742 98 97 95 
-0.152802 -0.166671 1.49031 52 48 45 
-0.00343946 0.0665227 1.38803 115 113 114 
-0.0896941 0.504482 1.3707 108 106 107 
-0.106511 -0.193224 1.47912 10 10 8 
-0.0434259 -0.358641 1.51501 129 129 127 
0.00364138 -0.120693 1.44366 137 136 134 
-0.123746 -0.020801 1.41124 14 10 1 
-0.0615283 -0.229467 1.46878 39 36 31 
-0.0376566 -0.31893 1.50175 50 46 43 
-0.00119633 -0.386174 1.53812 116 115 111 
-0.0803195 -0.134729 1.44382 133 130 125 
-0.131508 -0.0332948 1.42129 37 33 22 
-0.026704 -0.142574 1.44248 31 27 24 
-0.10174 0.0201536 1.39916 83 82 80 
0.0244242 -0.254 1.47363 86 85 83 
-0.0235872 -0.423178 1.54439 40 34 36 
-0.094243 -0.331448 1.52568 35 32 27 
-0.0352198 -0.705366 1.62016 26 25 21 
-0.0146335 -0.389939 1.53663 117 113 112 
-0.136181 -0.168287 1.48059 108 107 105 
0.0210442 -0.377008 1.54124 108 108 106 
0.0567454 0.0671727 1.41059 90 90 90 
0.00260942 0.261827 1.3777 19 18 16 
0.0223351 -0.347675 1.52997 110 109 104 
-0.165875 -0.133251 1.48692 106 106 106 
-0.135898 0.692766 1.3436 112 109 104 
-0.0194106 -0.327552 1.50876 79 75 74 
-0.161532 0.0222401 1.42469 68 68 66 
-0.0595833 -0.0973075 1.41903 49 48 46 
-0.0393709 -0.304166 1.4943 87 83 82 
-0.049916 -0.514171 1.57808 108 107 105 
0.00233289 0.0422625 1.39102 73 71 72 
0.0611998 0.643667 1.36922 126 125 123 
-0.0640344 0.0295293 1.39155 73 72 70 
-0.075496 0.269573 1.38399 87 83 82 
0.0388828 0.460727 1.37663 117 114 105 
-0.171977 0.0394139 1.43327 116 115 110 
-0.141936 -0.0304014 1.42378 44 41 34 
-0.0762409 -0.0638305 1.40826 43 42 40 
-0.0657298 -0.128714 1.43145 97 92 88 
-0.216503 0.518017 1.44925 76 75 73 
-0.0476969 -0.180855 1.44777 76 72 69 
-0.022486 -0.402624 1.53805 57 53 52 
-0.0575413 -0.298232 1.49571 29 24 20 
-0.161074 -0.0778655 1.46036 45 44 40 
0.0420743 0.710465 1.326 87 83 80 
-0.118184 -0.169934 1.47553 15 14 9 
0.00546267 -0.192672 1.46701 106 96 94 
-0.124077 -0.191278 1.48983 99 98 94 
0.0417328 0.702217 1.33945 95 92 83 
-0.0245692 -0.705664 1.61962 34 33 31 
-0.158602 -0.0937567 1.46676 87 86 84 
-0.0106708 0.228093 1.37511 89 85 84 
-0.142496 -0.0209845 1.41928 44 42 30 
0.000888219 -0.407557 1.54671 109 103 105 
-0.0703893 -0.208275 1.46634 14 9 6 
-0.109055 -0.21816 1.49008 19 18 16 
0.050632 0.730831 1.32735 90 90 82 
0.0194348 -0.232034 1.4721 106 95 93 
-0.0381056 -0.220991 1.46438 103 102 100 
-0.00398108 0.452732 1.36146 92 88 85 
-0.0349201 -0.062275 1.40527 132 132 132 
-0.0741751 -0.0532087 1.40571 130 126 123 
-0.0858347 0.0758533 1.39596 61 59 60 
-0.100306 -0.215913 1.48231 118 112 112 
-0.00804604 -0.0660594 1.41818 90 86 85 
0.0242075 0.0558966 1.3957 67 65 66 
-0.0243978 0.148286 1.37971 73 69 70 
-0.158704 0.727951 1.3261 62 61 59 
0.034035 0.741486 1.31332 142 139 134 
-0.0555852 -0.221604 1.46271 33 29 26 
-0.0346964 0.159655 1.37931 76 75 73 
-0.070947 0.214646 1.38766 61 59 60 
-0.243223 0.0892894 1.61282 58 58 58 
-0.0479383 0.350486 1.36728 50 49 47 
-0.169349 0.711236 1.33368 83 82 78 
-0.0262935 -0.789431 1.65156 104 109 131 
-0.252663 0.561719 1.51059 0 0 2 
-0.256546 0.552601 1.52612 25 23 28 
-0.0921912 -0.303566 1.51147 24 20 17 
-0.0222791 -0.0377621 1.39454 50 49 44 
-0.119365 -0.305872 1.52191 129 123 123 
-0.0181082 -0.313089 1.50421 13 12 10 
-0.0851755 -0.310655 1.51123 119 116 111 
-0.115355 -0.250719 1.49838 24 20 17 
-0.155078 -0.223021 1.50897 11 7 4 
-0.244602 0.633173 1.48752 89 88 93 
-0.246281 0.354859 1.53652 117 116 111 
-0.0886686 -0.179461 1.45845 33 29 28 
-0.232155 0.085652 1.5144 77 75 76 
-0.129587 -0.0623206 1.4314 54 51 46 
-0.063103 -0.161552 1.4391 8 4 1 
-0.147823 -0.0672668 1.44478 20 17 12 
-0.120106 -0.135362 1.45938 12 11 9 
-0.151508 -0.124917 1.4686 100 98 99 
-0.136704 -0.121515 1.46359 12 11 9 
-0.12054 -0.0997413 1.44777 16 14 15 
-0.0817668 -0.0807307 1.41933 39 38 34 
0.598879 0.773235 1.56614 81 82 77 
-0.119653 -0.350704 1.5463 19 14 10 
-0.0890729 -0.047697 1.40469 8 5 0 
-0.129163 -0.261207 1.51265 2 0 1 
-0.0606228 -0.194682 1.45026 121 117 114 
-0.177873 0.109397 1.44126 119 117 118 
-0.201397 -0.220785 1.58585 104 100 99 
-0.0558428 -0.703091 1.6312 34 32 33 
-0.0725522 -0.196506 1.45837 14 10 7 
-0.168732 -0.182487 1.50108 102 99 94 
-0.0269004 0.137083 1.38037 88 86 87 
-0.0273377 -0.799262 1.65335 208 213 233 
-0.000263173 -0.345843 1.52149 150 146 145 
-0.0750361 -0.182643 1.455 4 0 0 
-0.158839 -0.117272 1.47079 32 31 29 
-0.245498 0.623793 1.49571 9 10 14 
-0.0834114 -0.480025 1.57573 26 25 23 
-0.055579 -0.464485 1.55819 45 42 37 
-0.0977683 -0.458527 1.57429 31 28 23 
-0.132579 -0.298756 1.52756 118 117 112 
-0.148691 -0.0821985 1.45371 31 28 23 
-0.181899 -0.0567808 1.45195 109 105 102 
-0.0911052 -0.0374746 1.40076 10 7 0 
-0.0968425 -0.0891118 1.43044 114 113 111 
-0.160954 -0.206381 1.50463 22 18 15 
-0.222116 0.033378 1.47689 3 0 0 
-0.237127 0.109936 1.52413 1 0 0 
-0.0534871 -0.3721 1.52144 43 38 32 
-0.120917 -0.332963 1.53561 17 14 9 
0.0457552 0.732707 1.32581 114 111 104 
-0.18299 0.0124891 1.43586 128 124 121 
-0.129283 -0.118057 1.45777 27 26 24 
-0.173752 -0.0940667 1.46991 41 40 38 
-0.215254 0.0335065 1.46874 4 3 1 
-0.160825 -0.106927 1.46858 1 0 0 
-0.200397 -0.00344351 1.44172 114 109 106 
-0.168328 -0.167599 1.49543 77 73 74 
-0.144724 -0.325981 1.57092 11 7 4 
-0.172824 0.63088 1.37607 95 94 92 
-0.0512506 -0.121261 1.42137 113 109 106 
-0.250867 0.520348 1.48071 110 109 107 
-0.239301 -0.0736569 1.59983 27 23 20 
-0.189185 -0.0952344 1.47647 37 36 32 
-0.210146 0.0225629 1.46639 93 91 92 
-0.163161 0.242343 1.41707 76 74 75 
-0.207326 -0.2454 1.60892 27 30 39 
0.0135903 -0.0448245 1.41128 107 105 106 
-0.0693253 -0.459701 1.56022 37 33 30 
-0.179496 -0.227616 1.52536 101 100 96 
-0.0562738 -0.310246 1.49709 45 42 37 
0.0684481 -0.036251 1.42626 48 47 45 
-0.0030223 -0.437545 1.55565 57 53 52 
-0.0710316 -0.169488 1.44621 90 86 83 
-0.133531 -0.320128 1.53511 47 44 37 
-0.0493393 -0.70351 1.6233 32 31 29 
-0.107397 -0.178692 1.46901 101 97 96 
-0.162111 0.0502834 1.42006 80 79 77 
-0.079631 -0.531786 1.59513 108 104 101 
-0.00224069 0.160286 1.38117 69 67 68 
-0.137777 0.364746 1.40073 111 107 106 
-0.222911 0.695313 1.40731 95 94 92 
-0.185182 -0.0661007 1.46273 1 0 0 
0.0102652 0.115465 1.38916 12 10 11 
-0.0310156 -0.231391 1.45433 11 11 3 
-0.0331553 -0.777042 1.65556 194 197 212 
-0.0590929 -0.136556 1.43031 115 111 108 
-0.0746636 -0.3001 1.50231 45 41 38 
-0.254087 0.654142 1.51985 105 103 104 
-0.248726 0.552107 1.50141 116 115 133 
-0.0442247 -0.270163 1.47683 121 120 116 
-0.110865 -0.0659446 1.42258 106 103 98 
-0.0454017 -0.339197 1.50637 46 42 41 
-0.173858 -0.169846 1.50373 124 120 117 
-0.051354 -0.403386 1.53266 96 92 89 
-0.140549 -0.134551 1.46928 85 84 82 
-0.0602021 -0.206937 1.45645 97 93 90 
-0.00535387 0.109368 1.38357 46 45 43 
0.58395 0.752133 1.59334 69 66 57 
-0.236357 0.206892 1.50363 38 35 30 
-0.13839 0.0910728 1.41837 5 4 2 
-0.262049 0.598117 1.52701 132 99 30 
-0.096626 -0.433637 1.56466 110 105 101 
-0.249554 0.539035 1.48563 4 5 23 
-0.152708 -0.277827 1.53749 94 93 91 
-0.251264 0.554036 1.51718 130 131 149 
0.025155 -0.231948 1.47604 80 76 75 
-0.0667646 -0.361049 1.52063 98 95 90 
0.0382434 0.738301 1.32094 111 108 101 
-0.253554 0.571706 1.52266 5 3 6 
-0.247383 0.536972 1.49538 79 78 84 
-0.049095 0.118205 1.3859 78 74 75 
0.0323894 -0.27626 1.47797 57 57 57 
-0.1834 0.0788155 1.44478 77 76 74 
-0.028962 -0.0963552 1.42155 108 107 105 
-0.175999 -0.183285 1.51273 94 91 86 
-0.0486584 0.22125 1.37884 58 56 57 
-0.0280572 -0.316561 1.50186 45 41 38 
-0.139812 -0.262334 1.52013 38 34 31 
-0.32295 0.76251 1.30942 78 76 63 
-0.154964 -0.235569 1.51313 19 15 12 
-0.280586 0.712881 1.42233 73 73 65 
0.557607 0.772775 1.62674 64 63 58 
-0.251146 0.591592 1.51071 86 82 83 
-0.0359458 0.0555216 1.38362 40 39 37 
-0.239677 0.196869 1.51069 7 4 0 
-0.151956 0.215051 1.41492 50 48 51 
-0.231805 0.719383 1.3852 50 48 49 
-0.214452 0.105525 1.47539 68 68 68 
-0.137983 -0.188346 1.48844 62 58 59 
-0.0679259 0.0669431 1.39573 56 54 55 
-0.0568729 0.0876078 1.39696 59 57 58 
-0.0481444 0.107342 1.38369 71 70 68 
-0.177063 0.237999 1.42881 79 77 78 
-0.220839 0.517109 1.43909 61 61 59 
-0.0468651 0.739177 1.30139 97 96 92 
0.0172639 -0.145894 1.457 93 92 88 
-0.0348883 -0.462111 1.55567 83 81 82 
-0.0518589 -0.237225 1.46664 105 101 98 
-0.0800394 -0.0696196 1.41887 27 26 21 
-0.177273 -0.0361887 1.44559 25 21 18 
-0.0431273 -0.524742 1.5802 102 97 93 
0.022237 0.701809 1.33593 115 112 103 
-0.0616622 -0.26438 1.48187 30 26 23 
-0.0326227 0.27684 1.37437 2 1 0 
-0.16916 0.303661 1.42257 100 100 100 
0.0150671 -0.418735 1.55422 30 26 23 
-0.100331 -0.321676 1.52585 27 26 22 
-0.0451281 -0.212806 1.45907 120 119 115 
-0.100514 -0.161492 1.46399 26 22 19 
-0.0712593 -0.367149 1.52989 124 120 117 
-0.007071 0.497492 1.36087 97 94 85 
-0.0276301 0.0829983 1.38688 80 76 73 
-0.0308586 -0.349349 1.51543 122 118 115 
-0.173738 -0.123391 1.48771 31 30 28 
0.00564524 -0.331761 1.51819 30 26 23 
0.0661883 0.0731642 1.41411 31 29 30 
0.0317471 0.727247 1.32361 104 99 96 
0.0115896 -0.384903 1.54115 99 98 96 
-0.0079994 -0.174259 1.45814 98 94 91 
-0.0340668 0.0401642 1.38691 79 78 76 
-0.0727537 -0.232898 1.47508 30 29 25 
-0.146956 0.110734 1.42527 83 82 78 
0.0531847 -0.0454742 1.42736 32 32 30 
-0.00943021 -0.0970351 1.43121 30 25 19 
0.0809265 0.0142233 1.42789 7 3 2 
0.0396284 -0.0209052 1.40756 20 19 15 
0.0396536 0.452307 1.37969 115 114 109 
-0.00817273 -0.433471 1.55432 34 31 26 
0.0512592 0.0441012 1.40841 75 74 72 
-0.076246 -0.525238 1.5924 37 36 34 
-0.0339469 -0.0528724 1.40194 95 94 92 
-0.0621785 -0.070352 1.40707 34 30 29 
-0.0409304 0.0917068 1.38394 3 0 0 
0.0237534 -0.26542 1.47516 101 100 96 
-0.173215 -0.101112 1.47833 25 24 22 
0.08262 0.0456453 1.42665 14 12 13 
0.0376318 -0.0939217 1.4462 109 108 104 
0.0292151 -0.0867117 1.44106 1 0 0 
0.0580868 0.656848 1.36527 93 91 92 
0.0645317 0.628727 1.38351 118 116 117 
-0.0415893 -0.0709162 1.40938 27 22 18 
-0.169981 -0.020036 1.43378 48 47 45 
-0.0482546 -0.171083 1.44287 31 30 28 
0.0488539 -0.131195 1.46431 116 114 115 
0.0577164 0.638595 1.3722 9 8 6 
0.0281077 -0.361008 1.53707 123 118 115 
0.0549595 -0.034524 1.42105 128 127 125 
-0.0019233 -0.137613 1.44591 110 109 107 
0.076715 0.734741 1.34442 87 82 78 
-0.0316302 -0.13131 1.43697 111 107 104 
-0.0195702 -0.112873 1.43294 90 89 87 
-0.00201504 -0.0590348 1.41468 117 116 112 
-0.0463635 0.15668 1.39237 81 81 81 
-0.0381985 -0.776334 1.65249 200 209 224 
-0.0328516 -0.757412 1.65845 35 36 66 
-0.0122035 0.158283 1.3821 70 68 69 
-0.0265333 -0.181241 1.45207 60 59 55 
0.0336652 0.0378531 1.39664 52 50 51 
-0.0041963 0.138846 1.38003 73 71 72 
-0.0689327 0.229801 1.38461 50 49 54 
0.0500548 0.572944 1.38196 56 56 56 
-0.0422663 -0.809158 1.66576 104 113 128 
-0.0191717 -0.797226 1.64329 228 232 255 
-0.0444806 -0.79479 1.6508 165 167 190 
-0.250645 0.54912 1.51763 3 1 22 
-0.0590721 -0.162475 1.44866 18 14 11 
-0.0352618 -0.331074 1.50493 20 17 12 
-0.137155 -0.320253 1.55527 18 14 5 
-0.191442 -0.311715 1.577 29 31 46 
-0.197119 -0.271714 1.6029 206 207 211 
-0.101862 -0.205656 1.47948 116 115 111 
-0.255254 0.555582 1.53331 16 16 28 
-0.255134 0.558101 1.52052 104 105 110 
-0.0795451 -0.0913569 1.43628 1 0 0 
-0.24778 0.57068 1.49728 141 141 143 
-0.13737 -0.0334293 1.41396 25 23 11 
0.070683 -0.0363429 1.42975 28 27 23 
0.0228455 -0.0230894 1.40105 25 25 13 
0.0585236 0.63712 1.36889 118 117 115 
-0.140112 -0.051425 1.43596 39 38 33 
-0.039979 -0.170464 1.44801 31 27 24 
0.0774657 -0.063337 1.44709 26 23 18 
-0.249129 0.588146 1.5013 94 94 92 
-0.253823 0.586121 1.51988 116 116 116 
0.0402132 -0.0947015 1.45168 128 127 123 
0.0516198 0.0121467 1.40817 9 7 8 
-0.385024 0.775675 1.64218 139 131 120 
-0.0469917 -0.123675 1.43042 17 16 12 
0.0514474 -0.131306 1.46922 144 144 142 
0.0589585 0.0323052 1.41236 124 123 121 
-0.182334 -0.133931 1.4995 110 109 105 
-0.0157113 -0.460308 1.56438 17 16 14 
0.00401829 -0.198363 1.46908 115 101 101 
-0.0931614 0.501392 1.3625 106 105 103 
-0.0450656 -0.241882 1.47316 17 13 12 
-0.00338149 -0.255178 1.46542 98 97 95 
-0.0844917 -0.433969 1.55894 126 123 118 
-0.114152 -0.309086 1.53649 118 112 112 
-0.0311581 0.0585577 1.38908 0 0 0 
0.0664731 0.224996 1.40599 106 105 103 
-0.205283 0.128141 1.47767 1 0 0 
-0.0241243 -0.775396 1.64999 100 110 122 
0.0264628 -0.351478 1.53912 11 12 6 
0.0209307 -0.363599 1.54001 8 7 5 
0.0286316 -0.368708 1.54582 110 110 108 
0.0236908 -0.377927 1.54656 117 113 112 
-0.0380259 -0.37747 1.5248 34 30 21 
-0.0934579 -0.3929 1.55149 15 11 8 
-0.0142643 -0.421648 1.55001 128 124 121 
0.00197114 0.0423618 1.39027 83 79 78 
0.0238338 -0.253261 1.475 12 12 10 
-0.220333 0.155804 1.49333 94 92 95 
-0.232654 0.157275 1.51733 1 0 2 
0.0534022 0.366595 1.38737 7 3 2 
-0.202494 -0.182297 1.61692 18 14 11 
0.0168448 0.145829 1.38632 97 96 94 
-0.0146386 0.227185 1.36896 88 87 85 
-0.0298807 -0.409369 1.53795 36 32 29 
-0.0913578 -0.0688281 1.43053 125 124 122 
-0.172322 0.704349 1.32342 109 104 101 
-0.174575 0.0881197 1.45392 91 91 91 
-0.0451101 0.19794 1.37364 100 99 97 
0.0147763 -0.0441132 1.41314 105 105 103 
0.00315472 0.262053 1.37879 1 0 0 
-0.157768 0.0439338 1.43294 85 85 85 
-0.253827 0.65344 1.52278 114 112 113 
-0.0548549 -0.657009 1.62985 128 123 120 
-0.185533 -0.229603 1.56704 107 96 94 
0.0717601 -0.0490887 1.43574 37 36 34 
0.00598826 -0.389178 1.5416 130 124 124 
-0.0290137 -0.435857 1.55143 39 38 34 
0.0646453 0.0733733 1.41036 23 22 20 
-0.247663 0.620601 1.49519 0 0 7 
-0.00333873 0.261086 1.36909 109 109 107 
-2.04316e-05 0.0670583 1.39511 114 110 109 
-0.121268 -0.34153 1.54986 35 32 27 
-0.211012 0.178056 1.47718 85 84 82 
-0.252297 0.607661 1.51101 96 97 91 
-0.261279 0.603411 1.52478 118 98 74 
-0.235668 0.353982 1.51778 133 132 127 
-0.0123915 -0.0674389 1.42687 111 112 107 
-0.0475132 -0.199286 1.45485 110 106 103 
-0.252319 0.594942 1.51159 76 76 74 
-0.0119642 -0.802914 1.65018 67 75 96 
-0.193116 -0.292446 1.58585 215 214 220 
-0.018183 -0.746543 1.65647 70 77 96 
0.0969438 0.0243953 1.43991 1 0 0 
-0.071621 -0.305462 1.51762 88 85 80 
-0.258667 0.599784 1.53344 112 88 62 
0.00357861 -0.120342 1.44506 131 127 126 
0.0702203 0.124789 1.41182 105 103 104 
0.111262 0.0468467 1.45524 4 3 1 
-0.0730854 -0.318809 1.51072 33 31 19 
-0.0585166 -0.0837173 1.41462 128 126 127 
0.0295779 -0.0869012 1.44202 10 9 7 
-0.0573355 -0.137655 1.43964 36 33 28 
-0.0598215 -0.0707537 1.41438 29 27 28 
-0.0355041 -0.066505 1.4104 34 31 26 
-0.00354377 -0.231305 1.46935 36 31 27 
0.000678967 0.0990662 1.39314 127 126 122 
0.0228014 -0.232472 1.4816 102 93 94 
-0.251281 0.560069 1.50353 143 146 155 
-0.181308 -0.224147 1.55065 14 4 2 
-0.246525 0.565154 1.48841 94 95 99 
-0.0131083 -0.39091 1.5402 126 125 121 
-0.138737 -0.397976 1.63737 205 203 216 
-0.555571 0.669782 1.23917 145 140 137 
0.00119003 -0.059658 1.41682 91 90 88 
-0.0292953 -0.198975 1.45618 12 7 3 
0.0463333 0.0211626 1.40397 1 1 0 
0.0693067 0.02006 1.42149 114 114 114 
-0.118919 0.0193935 1.4136 123 122 120 
0.0238266 -0.265486 1.47536 107 106 104 
-0.0097565 0.480344 1.3528 15 12 7 
-0.0867491 -0.412118 1.55835 86 85 81 
-0.0272716 -0.0612431 1.40588 128 127 123 
-0.0326115 -0.339085 1.51727 135 131 128 
-0.206245 -0.157146 1.59947 90 89 85 
-0.11955 0.103192 1.41766 104 102 103 
0.0686228 -0.0919215 1.45941 98 94 93 
0.0553828 -0.0341592 1.42463 104 102 103 
-0.107971 -0.26098 1.50944 36 33 26 
-0.0239876 -0.0977666 1.43282 82 81 79 
0.00565182 -0.447033 1.56427 32 28 25 
-0.048558 0.0886869 1.39298 77 75 76 
-0.00600123 -0.0972723 1.43155 28 27 23 
-0.0166515 -0.329047 1.51604 87 83 82 
-0.0474472 0.121177 1.38913 86 86 86 
-0.0521012 -0.485728 1.56775 12 11 7 
-0.154761 -0.189697 1.49969 83 82 80 
-0.0250036 -0.23381 1.46801 3 3 0 
-0.169634 -0.0332243 1.43412 109 104 100 
-0.0291532 -0.818234 1.65747 208 215 234 
-0.120054 -0.671979 1.3935 88 89 117 
-0.0608512 -0.711741 1.65487 102 101 109 
-0.0724436 -0.242497 1.49116 40 35 31 
-0.137245 0.365157 1.40212 132 128 125 
-0.235929 0.197535 1.51958 7 3 0 
-0.0793956 -0.122365 1.44668 108 105 100 
-0.218752 -0.150039 1.63263 124 133 142 
-0.136359 0.404776 1.38615 69 68 66 
-0.0343769 -0.399919 1.52963 122 118 115 
-0.0671817 -0.620606 1.64194 26 24 29 
0.00985865 -0.39261 1.55414 125 119 119 
-0.0267893 -0.654458 1.61255 34 30 29 
-0.0406089 -0.361812 1.51978 35 36 31 
-0.180369 0.0792016 1.45666 64 64 62 
0.00612643 -0.340558 1.52553 144 143 141 
-0.247092 0.228186 1.55695 6 2 0 
-0.0493699 -0.310784 1.50965 106 103 96 
0.0108295 -0.274131 1.47098 122 119 112 
-0.00866002 -0.709585 1.63358 48 47 45 
0.0114137 0.108089 1.38829 13 12 10 
0.00574257 -0.239926 1.47036 84 83 81 
-0.158716 -0.0516376 1.44512 41 38 33 
-0.13962 -0.0585347 1.45342 22 19 12 
-0.244574 0.203207 1.549 25 22 17 
-0.0628177 -0.125528 1.43822 115 110 104 
0.0800422 0.014001 1.42321 3 1 2 
-0.187812 -0.17489 1.56693 26 25 23 
-0.149426 -0.283577 1.55194 94 93 89 
0.0361397 0.219019 1.39001 92 91 89 
-0.0562031 -0.700396 1.62466 115 114 112 
-0.000729328 -0.138485 1.45131 97 96 94 
-0.233298 0.347426 1.50337 106 105 103 
-0.244865 0.554894 1.4894 95 95 107 
-0.0367905 -0.742805 1.65376 194 200 216 
-0.253051 0.517778 1.47771 20 16 15 
-0.161264 -0.0936727 1.45901 81 80 78 
-0.247712 0.552902 1.47899 14 16 28 
-0.0406452 -0.348325 1.50531 29 26 21 
-0.0243409 -0.70541 1.61998 42 40 41 
-0.255604 0.610028 1.54257 71 51 24 
-0.0681511 -0.18513 1.46106 43 40 35 
-0.239969 0.21413 1.5197 34 31 26 
-0.574112 0.725483 1.17981 116 113 98 
0.0638767 0.364512 1.39723 21 18 13 
-0.244091 0.184065 1.55395 8 5 0 
-0.224826 0.146666 1.51021 83 83 81 
-0.146941 -0.221358 1.50274 100 96 93 
0.0785971 0.07576 1.42343 39 38 36 
-0.151017 -0.0338232 1.4201 127 126 121 
-0.00621227 -0.204644 1.46848 44 30 27 
-0.0293586 -0.459491 1.56191 81 80 76 
0.0765887 0.0444413 1.42458 0 0 0 
-0.0427833 -0.710743 1.63995 45 44 42 
0.0146811 -0.242803 1.47824 79 75 74 
-0.0326178 -0.44563 1.55097 120 116 115 
-0.00530764 0.109582 1.3837 31 30 28 
0.0265899 0.0563284 1.40044 72 71 69 
0.051863 0.0443457 1.40758 96 95 91 
-0.101633 -0.056643 1.41105 83 79 68 
-0.103758 -0.0457779 1.42004 102 99 92 
0.0319907 0.553156 1.3681 87 86 84 
-0.245717 0.198024 1.53818 28 25 18 
-0.224591 0.689716 1.39667 96 96 96 
0.0512482 0.149957 1.39527 110 106 105 
-0.136162 -0.264742 1.53569 25 25 23 
-0.245628 0.0582265 1.54105 65 65 65 
-0.00241489 0.159364 1.38188 64 62 63 
0.0421617 0.71088 1.32708 90 87 82 
-0.00628996 0.468969 1.35626 123 120 113 
-0.0325826 -0.79922 1.66015 228 228 252 
-0.0429836 -0.695407 1.59892 52 48 47 
-0.065933 -0.645072 1.64178 197 197 209 
-0.0632624 -0.645459 1.65629 107 107 119 
-0.00166996 -0.720271 1.64182 90 88 89 
-0.54445 0.674726 1.22159 28 24 25 
-0.245253 0.229194 1.5664 40 36 33 
-0.24746 0.344988 1.5467 2 2 0 
-0.246961 0.558854 1.47085 123 122 127 
-0.0490892 -0.703544 1.62223 35 34 32 
-0.039339 0.0869936 1.38067 85 80 76 
-0.0946503 0.0682031 1.39465 76 76 76 
0.0324733 0.244764 1.38214 77 76 71 
-0.0217014 -0.346762 1.52128 66 66 64 
-0.132266 -0.267063 1.54645 47 47 45 
-0.300204 0.838327 3.26731 85 86 80 
-0.15508 -0.235152 1.50708 18 15 10 
-0.226028 -0.121665 1.64043 59 61 74 
-0.0391238 0.233526 1.37644 94 93 89 
-0.480788 0.735568 1.24313 105 103 91 
-0.52917 0.74756 2.09388 105 106 100 
-0.249244 0.523875 1.49629 15 11 10 
-0.196726 -0.290329 1.59764 39 39 51 
-0.238051 -0.0758585 1.62065 35 31 32 
-0.238155 -0.0762317 1.63759 53 51 62 
0.0181575 -0.0463934 1.4227 118 118 116 
-0.294513 0.737604 1.27997 73 71 56 
-0.244456 -0.0157254 1.52287 53 52 48 
-0.142478 0.68721 1.33248 118 115 110 
-0.105659 0.674436 1.33208 110 106 107 
-0.25897 0.65307 1.44147 24 23 18 
0.410659 0.809929 1.66341 102 100 85 
0.0295763 0.0335592 1.39234 69 67 68 
0.042636 0.0342579 1.41812 83 82 80 
-0.0703911 -0.531494 1.60907 34 32 33 
-0.147431 -0.164915 1.50269 34 30 27 
0.0556626 0.045192 1.41666 80 79 75 
-0.168214 -0.191495 1.53279 35 35 27 
-0.0553869 -0.451766 1.56048 41 37 34 
-0.176455 0.0800591 1.46572 68 68 66 
-0.262388 0.540505 1.53329 40 40 40 
0.0397308 0.460375 1.37935 129 126 117 
0.0141561 0.0880093 1.39232 78 78 76 
0.0325908 -0.38663 1.56678 103 97 97 
-0.0518636 0.153744 1.36913 79 79 79 
0.00936807 -0.343431 1.53508 80 79 77 
0.0403702 0.219741 1.39928 80 79 77 
-0.247967 0.0861332 1.58755 58 57 55 
-0.0276461 -0.700501 1.61017 44 42 43 
-0.0415808 -0.459137 1.54413 74 73 69 
-0.0616849 -0.446667 1.54436 45 41 38 
-0.129134 -0.372331 1.56146 60 57 52 
-0.0282486 -0.255328 1.4654 141 141 131 
-0.084064 -0.243722 1.46733 67 64 55 
-0.0561472 -0.244521 1.48369 41 37 34 
0.00767262 -0.236102 1.47991 101 93 90 
-0.176745 -0.228613 1.51867 4 3 0 
-0.0995328 -0.200652 1.46642 93 89 88 
-0.0561203 -0.201204 1.4652 73 68 64 
-0.133621 -0.171145 1.50014 119 118 116 
-0.11327 -0.168659 1.46559 100 96 93 
-0.182533 -0.108932 1.47984 19 15 12 
-0.145588 -0.0705766 1.46249 51 47 44 
0.00617105 0.0194885 1.38947 50 49 47 
0.0359504 0.037496 1.40247 69 67 70 
-0.252392 0.0871027 1.57688 79 75 74 
-0.0456505 0.130989 1.38999 76 76 76 
-0.0321633 0.143905 1.38907 15 14 12 
0.0577103 0.149982 1.41344 75 71 70 
-0.246132 0.215778 1.55492 14 15 9 
-0.0573146 0.216037 1.38778 54 52 55 
0.041973 0.317437 1.37818 70 66 67 
0.0180402 0.33619 1.37901 60 59 57 
-0.0376592 0.352175 1.35204 71 70 68 
-0.267975 0.529104 1.51674 54 54 54 
-0.228997 0.534292 1.42367 100 99 97 
-0.24711 0.617132 1.4507 28 27 32 
0.105635 0.721796 1.36662 30 29 25 
-0.0543242 -0.0849545 1.42836 102 100 101 
-0.169217 0.344191 1.41671 60 59 57 
0.00947114 0.512356 1.3601 112 111 107 
-0.0225859 -0.817381 1.67131 189 202 211 
-0.0317527 -0.802215 1.67186 196 203 219 
-0.020026 -0.803888 1.6713 192 200 213 
-0.0271463 -0.743682 1.64523 187 192 211 
-0.00944382 -0.636722 1.61537 41 39 44 
-0.0360683 -0.320586 1.51347 133 129 126 
-0.0348805 -0.252203 1.44863 76 76 66 
0.119816 -0.122795 1.54134 18 18 28 
-0.231242 -0.0227674 1.50229 54 53 49 
-0.163085 0.0688265 1.44165 55 54 52 
-0.0651719 0.0673209 1.40211 60 58 59 
-0.0549396 0.0884068 1.40138 76 76 76 
-0.0429905 0.120062 1.39932 74 74 74 
-0.0449664 0.351978 1.37368 64 60 57 
-0.224803 0.515138 1.44543 23 22 20 
-0.262706 0.742966 1.3432 81 81 69 
5.89945 2.32985 13.5218 131 134 139 
-0.240501 0.0812994 1.52217 82 82 82 
-0.125333 -0.0332847 1.41315 38 36 24 
-0.170683 -0.0759298 1.45875 123 120 115 
-0.070341 -0.348923 1.51994 26 18 15 
-0.111925 -0.299327 1.52196 105 104 100 
5.92435 2.34329 13.6047 14 17 22 
-0.108358 0.111345 1.40238 81 81 81 
0.552158 0.751236 1.68271 110 108 95 
-0.135285 0.730226 1.30948 96 95 90 
-0.125335 -0.0537383 1.42742 66 61 55 
-0.125342 -0.148903 1.46763 105 104 102 
6.02893 2.21267 13.7818 98 103 109 
-0.203198 0.121185 1.46482 28 27 25 
-0.0046495 0.470642 1.36069 123 120 113 
0.555991 0.781771 1.65864 58 57 53 
-0.0453931 0.105654 1.39345 79 79 77 
-0.0897473 -0.468433 1.5772 105 101 98 
0.637932 0.761492 1.51868 76 76 68 
0.565938 0.776509 1.63267 48 47 42 
-0.102946 0.0392989 1.39855 32 31 29 
6.34381 2.24558 14.5417 57 62 66 
-0.118558 0.214824 1.4 60 60 60 
-0.0414932 -0.805889 1.67209 224 225 255 
-0.0270483 -0.793434 1.66814 214 221 239 
-0.161642 -0.0565548 1.43712 105 101 98 
-0.033549 -0.771953 1.66272 211 211 235 
-0.0224835 0.275987 1.36768 1 0 0 
0.104467 0.27219 1.44821 31 30 26 
-0.184221 -0.0775229 1.47396 44 43 39 
0.00464945 -0.100529 1.43754 22 18 17 
0.0948108 0.246803 1.43967 11 8 3 
0.00740079 -0.641031 1.65513 117 118 136 
0.0864777 0.0725347 1.43617 112 111 109 
0.12191 -0.0680013 1.51342 123 122 120 
0.120917 0.0897037 1.47889 94 93 91 
0.0502489 -0.120726 1.45666 14 12 13 
0.0481265 0.47451 1.38033 132 129 122 
-0.140897 -0.15044 1.47983 30 29 27 
0.039134 -0.324083 1.53012 1 0 0 
0.0290539 -0.324696 1.52707 17 16 14 
-0.0431628 -0.325988 1.50609 12 9 4 
0.0350567 0.171791 1.39244 96 95 93 
-0.0400899 -0.424842 1.54335 32 28 25 
0.00277996 -0.369912 1.53532 118 114 113 
-0.00511555 0.488953 1.35973 27 23 20 
-0.0177851 0.119057 1.38003 1 0 0 
0.00209078 0.551104 1.35722 102 101 99 
0.0589129 -0.224705 1.49881 118 117 113 
0.0667486 0.0735817 1.41716 12 11 9 
0.0262487 -0.21353 1.47056 99 87 87 
-0.0822888 -0.486288 1.58464 24 20 19 
0.0860058 0.0623565 1.42924 122 120 121 
0.0306404 -0.202508 1.47363 111 102 103 
0.0954755 0.0565951 1.4389 92 88 87 
0.0719788 -0.194834 1.49561 118 115 110 
-0.0283001 -0.367491 1.52407 39 35 34 
-0.11504 -0.190387 1.48229 36 32 31 
0.0665948 -0.18598 1.48409 130 127 122 
0.0289991 -0.168127 1.46472 19 18 14 
-0.0323134 -0.161277 1.44102 117 112 109 
-0.015703 -0.377178 1.53669 139 135 132 
-0.1365 0.0301886 1.40782 103 103 103 
-0.0497935 -0.142903 1.43275 121 120 116 
-0.0132274 0.0191007 1.38697 1 0 0 
0.114198 0.0147473 1.4594 98 96 97 
-0.165451 -0.120597 1.47861 121 120 118 
-0.050174 -0.389214 1.52925 46 42 31 
-0.150464 -0.0430671 1.43086 129 125 124 
-0.1211 -0.0460828 1.41652 15 11 8 
-0.00693182 -0.407383 1.5503 108 104 103 
-0.154719 -0.238445 1.52288 87 86 84 
0.0787503 -0.0784378 1.45073 104 100 99 
-0.0690529 -0.0824354 1.41511 116 115 113 
-0.0901046 -0.437798 1.57322 123 119 118 
0.0168488 0.679448 1.34532 127 125 126 
0.0985972 0.458269 1.43502 17 13 10 
-0.0584893 -0.463964 1.56659 26 22 19 
0.105174 0.225892 1.45372 129 128 123 
0.0410969 0.504006 1.37652 122 119 114 
0.0610485 0.274507 1.39634 114 113 109 
-0.014907 0.0983953 1.38429 104 103 101 
-0.0166363 -0.809357 1.65865 226 230 255 
-0.0369154 -0.791336 1.66451 90 97 115 
-0.0997814 -0.273483 1.50164 132 128 125 
0.0634605 -0.203147 1.49325 159 158 154 
0.143325 0.0275683 1.49073 6 5 1 
-0.067223 -0.34011 1.51612 61 57 54 
0.0420851 0.438812 1.3823 29 28 23 
0.0437381 0.429057 1.37823 131 127 124 
0.118327 -0.0905237 1.5253 13 12 10 
0.00199549 -0.438985 1.56491 33 30 25 
0.0252125 -0.107399 1.44748 130 129 127 
0.149318 0.0674398 1.49999 127 126 122 
-0.0165404 -0.0804435 1.42069 95 94 92 
0.103994 0.0163282 1.44471 60 58 59 
-0.0523582 -0.409311 1.5393 21 17 16 
0.0378723 -0.350769 1.53719 24 21 16 
-0.141933 -0.0619275 1.43143 29 26 21 
-0.110082 -0.363648 1.55014 30 26 23 
-0.0242845 -0.359698 1.51703 22 21 19 
0.0523887 -0.207186 1.48222 112 111 107 
0.0813256 -0.207948 1.51832 118 114 111 
-0.00743281 -0.0346473 1.39644 29 28 24 
0.0628918 0.288542 1.40198 116 111 108 
0.0670015 -0.166463 1.48171 113 112 110 
-0.0591262 -0.147525 1.43341 118 115 110 
0.106472 0.303889 1.45212 101 98 93 
-0.0333311 -0.572388 1.59867 116 115 113 
0.0206772 -0.195389 1.46495 88 80 78 
0.00758427 -0.173093 1.45361 94 93 91 
0.0441477 0.453357 1.3851 107 104 99 
0.0650452 0.631463 1.38951 126 125 123 
0.0616693 -0.0510249 1.43653 17 16 12 
0.0379916 0.0117169 1.39508 1 0 0 
0.0503235 -0.14102 1.46434 133 132 130 
0.0442703 -0.106254 1.45 3 1 2 
-0.0452882 -0.347707 1.51189 132 127 124 
-0.0119248 0.354195 1.36002 95 93 96 
-0.109233 -0.19029 1.46852 121 117 116 
0.151761 0.0287228 1.51217 1 0 0 
-0.0360068 -0.709316 1.62868 26 25 21 
-0.0321478 -0.397896 1.53881 124 120 117 
-0.0335673 -0.44807 1.55939 120 116 115 
-0.0148417 -0.0556897 1.40216 120 119 115 
-0.0391547 -0.379589 1.53202 39 35 26 
0.0213388 -0.0280176 1.40433 106 102 99 
-0.204489 0.0228781 1.46089 19 17 18 
-0.0987897 -0.309343 1.52718 114 114 112 
-0.111234 -0.319774 1.53266 124 120 119 
0.0241488 0.723236 1.32215 108 104 101 
0.0362415 0.543954 1.37238 80 79 77 
0.088781 0.0460038 1.42932 8 4 1 
-0.00924805 -0.218667 1.46686 46 36 34 
-0.0191469 -0.0467995 1.39685 104 103 99 
-0.140998 -0.0050872 1.40786 99 98 96 
0.0056193 -0.463546 1.57084 80 76 75 
0.0295193 -0.174193 1.47363 94 93 89 
0.00525628 -0.649389 1.64883 122 124 139 
0.0490864 -0.228659 1.4836 86 85 81 
-0.00851459 0.32643 1.37212 1 0 0 
0.084491 0.144801 1.42566 86 82 81 
0.0510735 -0.456248 1.62602 92 91 86 
-0.0253765 -0.409834 1.54648 108 104 101 
0.162779 -0.0603229 1.59678 109 109 111 
0.0980471 0.469874 1.42958 109 108 104 
-0.476512 0.745077 2.08997 111 111 109 
-0.0532917 -0.359771 1.51558 42 39 32 
-0.00470594 -0.35205 1.52876 104 100 97 
0.0145801 -0.352601 1.53466 97 96 94 
0.114598 0.126868 1.46525 107 101 101 
-0.0549909 -0.668457 1.6521 106 101 98 
0.141151 -0.135733 1.6071 111 110 108 
-0.0439331 -0.190324 1.44761 91 89 90 
-0.15648 -0.223524 1.52285 99 97 98 
0.0126351 -0.433187 1.56775 129 125 124 
-1.40519 0.871389 5.01014 140 142 131 
0.0771439 -0.116411 1.4638 35 34 32 
0.119539 -0.162481 1.56871 77 76 72 
0.117585 0.0656018 1.46004 77 76 74 
-0.0468458 0.274246 1.37415 102 102 102 
0.0469387 0.488595 1.38022 80 79 75 
0.113937 0.0819551 1.46147 85 84 82 
-0.0240065 -0.751986 1.66862 195 204 221 
0.0784375 0.0757546 1.42942 39 39 39 
0.0611858 -0.232004 1.50571 151 149 150 
-0.0458042 0.154961 1.37595 89 87 88 
-0.0031145 -0.663279 1.65029 18 12 12 
-0.157143 -0.210804 1.51484 113 112 110 
-0.00480983 -0.417797 1.54888 118 114 113 
0.0772942 0.0448751 1.43062 6 2 0 
-0.0484821 0.141642 1.39105 48 48 48 
0.0470474 0.0645527 1.39662 89 89 89 
0.0985904 0.298983 1.44096 45 44 40 
0.0355977 0.513858 1.36717 99 98 94 
-0.0038348 0.252769 1.37947 89 87 88 
0.0367322 0.124062 1.39551 81 79 80 
0.0166369 -0.420601 1.5654 36 32 31 
-0.0332046 -0.351498 1.52273 100 96 93 
0.138858 0.0130226 1.47768 67 66 64 
0.108768 0.466089 1.4363 57 56 52 
-0.0509957 0.522708 1.35852 67 66 64 
-0.031586 -0.590166 1.60872 83 78 74 
0.142273 -0.148672 1.61242 195 194 199 
0.0724009 -0.126737 1.46464 93 92 90 
-0.0902687 -0.351651 1.53181 50 46 43 
0.0832717 0.276805 1.4228 36 32 31 
0.00106226 -0.410603 1.55547 110 106 105 
0.0392034 0.754825 1.2834 133 133 123 
-0.0492988 -0.431713 1.54446 85 81 80 
-0.133347 -0.366943 1.61502 34 31 26 
0.0108537 -0.275531 1.47753 103 100 91 
0.00450681 -0.232925 1.45331 106 102 99 
0.142342 -0.101861 1.57598 36 35 33 
0.0731854 0.596918 1.39209 81 79 80 
0.0732546 0.0849813 1.41178 75 74 72 
0.106088 0.0896174 1.46175 24 23 21 
0.0734444 0.15968 1.40908 101 100 98 
-0.0449884 0.17535 1.37456 64 63 61 
0.065803 0.736123 1.3302 58 55 50 
0.00440302 0.171219 1.38422 67 66 64 
0.0953489 0.0458639 1.43888 41 37 36 
0.0808455 -0.234822 1.53203 60 59 57 
0.0758084 -0.218061 1.51349 128 127 123 
0.0208923 -0.327771 1.51967 136 135 133 
-0.0357751 -0.299413 1.50433 48 44 43 
0.096251 -0.212286 1.55478 70 68 69 
-0.140131 -0.170289 1.4923 62 61 59 
-0.0909797 0.060009 1.38031 70 70 70 
0.0194909 0.156137 1.39 64 63 61 
-0.0447393 0.228208 1.36443 109 105 106 
0.0471365 0.319255 1.3816 71 67 64 
0.0794348 0.35411 1.41857 37 33 30 
-0.128166 -0.235879 1.50491 26 22 21 
-0.0210688 -0.456677 1.55741 122 121 119 
-0.110018 0.734628 1.31096 29 25 26 
-0.0238244 -0.38429 1.53027 114 110 107 
0.170476 0.0952304 1.56741 47 52 46 
-228.989 -45.6203 -3319.52 81 89 108 
-121.184 6.1679 -2037.56 186 195 210 
-86.4583 35.2196 -1288.05 79 88 103 
-69.7288 23.752 -919.801 83 92 109 
-15.0124 -8.3646 -174.308 255 253 255 
-11.5881 -3.60218 -95.5657 157 170 179 
-98.0819 -35.7704 -1298.33 178 186 199 
-75.179 -7.48744 -1019.41 167 174 190 
-95.3187 9.98508 -1291.94 66 73 91 
-96.9492 10.7165 -1326.54 197 204 222 
-98.0997 12.9221 -1361.77 192 199 217 
-71.7747 10.3508 -1075.28 70 79 94 
-135.136 40.3013 -1839.38 198 207 224 
-79.2268 23.9765 -1095.06 202 211 228 
-174.297 135.717 -2929.99 62 74 88 
-71.0596 21.6842 -928.764 194 203 220 
-51.9732 16.0847 -689.38 193 200 219 
-87.2783 31.1603 -1280.19 65 74 89 
-72.7263 24.642 -981.787 186 195 212 
-82.1996 32.6048 -1199.73 79 88 103 
-63.9474 30.7073 -863.659 72 81 98 
-143.592 43.2118 -1982.59 202 211 228 
-77.7468 26.6792 -1126.89 194 203 218 
-80.1111 17.6307 -1113.67 181 190 207 
-65.4727 26.5078 -900.24 97 106 123 
-94.9188 1.77384 -1281.65 80 87 105 
-94.5247 17.6766 -1377.71 67 76 91 
-44749.2 2968.37 -688589 188 197 212 
-80.9306 25.928 -1180.07 181 190 205 
-70.538 22.7794 -969.659 196 203 221 
-67.5106 4.42613 -1028.74 181 190 205 
-171.807 62.4396 -2502.1 72 81 96 
-67.324 22.9332 -909.909 186 195 212 
-69.0123 23.902 -948.749 86 95 112 
-115.318 0.137615 -1649.82 185 194 209 
-55.0208 39.1322 -788.811 188 195 213 
-97.1846 -36.7109 -1407.46 182 192 204 
-106.272 -41.815 -1577.12 39 49 61 
-92.6744 -15.415 -1247.04 97 102 121 
-46.4798 28.5116 -618.572 180 189 206 
-72.1285 3.08438 -958.307 55 60 80 
-84.813 57.3255 -1224.75 196 203 221 
-100.029 36.6306 -1346.14 59 67 86 
-113.84 41.5696 -1654.73 69 76 92 
-215.044 39.7189 -3146.3 87 96 111 
-68.5099 9.68268 -935.341 171 178 196 
-71.8881 6.39993 -981.278 78 85 103 
-74.7432 4.59885 -1027.17 191 198 216 
-866.689 55.4875 -13257.3 173 182 197 
-75.9703 2.52842 -1036.83 191 198 216 
-81.873 0.153675 -1140.67 163 170 188 
-84.5153 -6.55816 -1145.26 65 72 88 
-132.877 -48.0311 -1836.41 181 189 202 
-173.091 -41.295 -2670.25 71 80 97 
-63.6705 25.716 -947.507 79 88 103 
-105.735 36.0489 -1432.45 158 167 184 
-54.9741 12.6169 -634.003 75 87 101 
-93.2948 4.92619 -1399.39 90 99 114 
-681.958 44.3655 -9941.56 188 197 212 
-225.07 9.95592 -3903.27 105 114 129 
-71.9827 3.426 -958.899 108 113 133 
-77.8678 0.858056 -1062.69 58 65 83 
-97.4785 6.60215 -1489.08 173 182 197 
-211.817 29.9915 -2910.27 176 183 201 
-105.479 -8.78608 -1553.57 78 87 104 
-88.7552 -6.93502 -1231.08 160 167 183 
-191.906 34.4506 -2637.1 79 88 105 
-85.3426 -6.19271 -1164.41 76 83 99 
-65.0808 13.8913 -896.056 173 182 199 
234587 96482 1.42083e+06 55 63 74 
-248.84 193.712 -4184.23 62 74 88 
-54.342 -20.3995 -784.893 181 191 203 
-94.5802 4.83561 -1423.79 59 68 83 
-66.2297 22.3405 -976.715 51 60 75 
-75.8453 10.975 -1094.61 148 157 172 
-115.478 16.1127 -1582.58 166 173 191 
-71.8953 7.01384 -986.243 105 112 130 
-184.526 11.7289 -3154.35 69 78 93 
-72.0963 3.31367 -960.409 60 65 85 
-223.687 8.69587 -3871.19 110 119 134 
-80.7323 -2.67419 -1096.22 157 164 182 
-84.3829 -6.16363 -1145.66 77 84 100 
-51.2819 29.4215 -725.986 54 63 80 
-62.3241 22.8275 -838.784 59 67 86 
-76.3813 1.43505 -936.326 161 170 185 
-57.3448 9.24778 -855.096 109 118 133 
-103.212 -25.8132 -1386.99 76 81 100 
-12.4617 -2.83366 -112.487 151 158 174 
-33659 -7758 -499023 153 162 179 
-185.144 -5.76471 -2520.53 164 171 189 
-79285.3 5184.46 -1.36859e+06 182 191 206 
-157.826 10.3614 -2174.83 139 146 164 
-235.701 16.3581 -3453.53 156 165 180 
-148.931 14.3117 -2052.56 102 109 127 
-127.259 23.0624 -1754.32 142 151 168 
-152.607 37.2309 -2237.31 163 172 187 
-105.837 31.6236 -1459.44 186 195 212 
-109.977 4.06436 -1326.01 66 75 92 
-64930.8 28141.4 -1.19366e+06 63 75 89 
-48.0526 7.73526 -558.558 73 82 99 
-44171.2 -1279.07 -606343 166 173 191 
-12.4444 -2.8541 -112.505 58 65 81 
-10.5118 -2.34822 -94.0836 119 126 142 
-0.109998 0.00689505 1.40041 82 81 79 
