ply                 
format ascii 1.0    
element vertex 1109
property float x    
property float y    
property float z    
property uchar red  
property uchar green
property uchar blue 
end_header          
-0.0911013 -0.251504 1.48755 36 33 28 
-0.115863 -0.0529321 1.41924 32 28 25 
-0.108267 -0.0404254 1.40717 116 113 106 
-0.096108 -0.307715 1.51357 15 14 10 
-0.134409 0.00796939 1.40725 4 2 3 
-0.148113 0.030253 1.41326 91 91 91 
-0.0753022 0.0106505 1.38987 112 111 109 
-0.0776602 -0.240417 1.47682 55 50 46 
-0.155067 0.634462 1.3584 107 106 104 
-0.0667513 -0.236412 1.47007 19 18 14 
-0.100207 -0.130798 1.44736 27 26 24 
-0.0983097 -0.30359 1.51404 120 119 117 
-0.122714 0.0292505 1.40161 1 0 0 
-0.0907661 -0.140563 1.44549 103 102 100 
-0.134274 0.399048 1.38814 72 73 68 
-0.105794 0.528364 1.36149 101 100 96 
-0.119918 0.0982683 1.40698 73 73 73 
-0.150966 -0.154361 1.48026 15 11 10 
-0.112803 -0.0530299 1.41802 46 41 35 
-0.0752546 -0.0957616 1.4219 23 22 20 
-0.0889537 -0.108084 1.43482 26 25 23 
-0.117483 -0.152039 1.46479 23 22 20 
-0.0914258 -0.251788 1.48782 45 42 37 
-0.0710159 -0.304337 1.50015 14 10 7 
-0.10447 0.667103 1.33596 99 97 100 
-0.0143013 -0.336679 1.51226 54 50 49 
-0.133073 0.69012 1.31744 107 105 108 
-0.0971278 -0.151397 1.45325 21 20 18 
-0.103749 0.516966 1.36523 94 92 93 
-0.0756538 0.010739 1.3896 97 96 94 
-0.0952658 0.0574115 1.39027 71 70 68 
-0.00634938 0.0954983 1.38297 7 3 0 
5.32992 2.78852 23.0492 35 45 46 
-0.055591 -0.326353 1.501 21 18 13 
-0.125792 0.0183238 1.40185 77 75 76 
-0.0468583 0.725224 1.29699 8 7 5 
-0.164913 -0.0417474 1.43541 118 115 110 
-0.057232 -0.276131 1.48005 40 35 32 
-0.0585598 -0.244196 1.46778 40 35 31 
-0.0858105 0.0980305 1.39514 67 65 66 
-0.148607 0.0982321 1.41991 83 82 80 
-0.108466 0.664227 1.33709 137 133 134 
-0.0781073 0.528191 1.35539 92 92 92 
-0.0768779 -0.325563 1.51014 51 50 46 
-0.108083 -0.0887333 1.43657 40 39 37 
-0.132702 -0.106653 1.45332 28 27 25 
-0.0950823 0.0578435 1.391 72 71 69 
-0.0813863 -0.0937339 1.42437 102 100 101 
-0.0871438 -0.229337 1.47723 38 34 33 
-0.142822 0.037053 1.40939 0 0 0 
-0.084305 -0.0880945 1.42403 113 111 112 
-0.12547 0.0180282 1.40229 82 80 81 
-0.108255 0.663811 1.33763 124 120 121 
-0.0998561 0.243516 1.38673 71 70 68 
-0.134073 0.399851 1.38864 57 58 53 
-0.0540602 0.0955356 1.39047 91 91 91 
-0.0949632 0.057783 1.39071 72 71 69 
-0.0468812 0.12702 1.38576 95 91 92 
-0.0267865 -0.711005 1.65052 42 40 41 
-0.11088 -0.205 1.48154 86 82 83 
-0.0753213 -0.0944751 1.42089 131 130 126 
-0.0930913 0.233358 1.38735 69 68 66 
-0.155061 0.0306411 1.41809 9 9 9 
-0.161517 0.0390372 1.41931 72 71 67 
-0.0784289 -0.12224 1.43346 40 37 30 
-0.106353 -0.119487 1.44745 116 115 113 
-0.0529743 0.0939665 1.39085 56 58 57 
4.90129 2.55828 19.3348 112 117 121 
-0.0949913 0.187677 1.3915 69 65 66 
-0.0482132 0.225948 1.37466 81 80 78 
-0.174537 0.258111 1.42224 69 67 68 
-0.106413 0.527574 1.36162 50 49 45 
-0.137022 0.68647 1.33184 148 145 138 
-0.145997 0.720967 1.31782 39 34 31 
-0.0328329 -0.789179 1.64737 39 36 67 
-0.0485773 0.128455 1.3842 81 79 80 
-0.0587181 0.211378 1.38367 57 55 56 
-0.0595571 0.211946 1.38261 59 57 58 
-0.100923 0.216755 1.38816 75 74 72 
-0.109159 -0.0729179 1.43084 142 141 139 
-0.115423 -0.0808353 1.43815 32 30 31 
0.0210739 -0.0217489 1.39825 27 25 12 
0.0120716 -0.333823 1.51981 126 124 125 
-0.127539 -0.179268 1.47918 24 23 21 
-0.0440328 -0.788124 1.64968 127 129 150 
-0.13172 -0.0946012 1.45211 17 16 14 
-0.0957768 -0.0585188 1.41604 46 39 33 
-0.150415 -0.0563725 1.43744 117 114 105 
-0.0880414 -0.44683 1.56615 49 45 42 
-0.0778511 0.717147 1.30047 82 78 79 
-0.106563 0.147357 1.3999 8 4 5 
-0.140765 -0.103197 1.45906 35 34 30 
-0.0122346 -0.223413 1.45871 31 24 18 
-0.0761687 -0.107686 1.42698 19 17 18 
-0.056983 -0.446969 1.54689 46 42 39 
-0.0452916 -0.0212571 1.38443 30 29 27 
-0.130451 -0.0800957 1.44436 5 3 4 
-0.0837419 -0.262387 1.4894 35 31 28 
0.0107836 -0.253229 1.46654 98 98 96 
0.00252425 -0.233505 1.46381 1 0 0 
-0.0838546 0.0281774 1.39189 101 100 98 
-0.108071 -0.308535 1.52139 17 16 14 
-0.115946 -0.228238 1.49224 21 17 14 
-0.142508 -0.228056 1.50672 31 28 21 
-0.073469 -0.147244 1.44181 22 19 14 
-0.107651 -0.385196 1.55153 18 14 11 
-0.0842155 -0.318065 1.51436 29 28 24 
-0.137319 -0.211321 1.49788 43 39 38 
-0.128659 -0.205078 1.4913 27 23 20 
-0.0115888 -0.200124 1.45783 123 107 107 
-0.150175 -0.203246 1.50241 98 97 95 
-0.152593 -0.164145 1.48557 52 48 45 
-0.00567589 0.0653204 1.38488 115 113 114 
-0.0906169 0.496103 1.36769 108 106 107 
-0.107042 -0.190267 1.47457 10 10 8 
-0.0449428 -0.353037 1.50993 129 129 127 
0.00132452 -0.118884 1.43966 137 136 134 
-0.124025 -0.0206069 1.40775 14 10 1 
-0.062775 -0.225924 1.46442 39 36 31 
-0.0392728 -0.313958 1.49687 50 46 43 
-0.00338925 -0.380126 1.53266 116 115 111 
-0.0812796 -0.132702 1.43983 133 130 125 
-0.131659 -0.0329019 1.41763 37 33 22 
-0.0285264 -0.140416 1.43851 31 27 24 
-0.102379 0.0196909 1.39586 83 82 80 
0.0217985 -0.250054 1.46919 86 85 83 
-0.0254129 -0.416545 1.53885 40 34 36 
-0.0949498 -0.326284 1.52042 35 32 27 
-0.0367819 -0.694309 1.6136 26 25 21 
-0.0166093 -0.383834 1.5312 117 113 112 
-0.136238 -0.165733 1.47601 108 107 105 
0.0184908 -0.371102 1.53573 108 108 106 
0.0535297 0.0659591 1.40706 90 90 90 
0.000232081 0.257446 1.37465 19 18 16 
0.0197558 -0.342237 1.52463 110 109 104 
-0.165461 -0.131263 1.48222 106 106 106 
-0.136096 0.681267 1.34097 112 109 104 
-0.0213193 -0.32244 1.50377 79 75 74 
-0.161209 0.0217329 1.42096 68 68 66 
-0.0608821 -0.0958768 1.41543 49 48 46 
-0.0409616 -0.299428 1.48954 87 83 82 
-0.0513043 -0.506099 1.57203 108 107 105 
8.10675e-06 0.041453 1.38783 73 71 72 
0.0577737 0.632973 1.36616 126 125 123 
-0.0652837 0.0289201 1.38836 73 72 70 
-0.0766062 0.265059 1.38084 87 83 82 
0.0358669 0.453072 1.37352 117 114 105 
-0.171489 0.038626 1.42939 116 115 110 
-0.14192 -0.0300566 1.42008 44 41 34 
-0.0772767 -0.0629381 1.40483 43 42 40 
-0.0669248 -0.126782 1.42766 97 92 88 
-0.21536 0.509368 1.44491 76 75 73 
-0.0491736 -0.178086 1.44373 76 72 69 
-0.0243331 -0.396318 1.53261 57 53 52 
-0.0588413 -0.293592 1.49093 29 24 20 
-0.160744 -0.0767641 1.45608 45 44 40 
0.0389539 0.698681 1.32364 87 83 80 
-0.118531 -0.16735 1.47104 15 14 9 
0.00312927 -0.18971 1.46265 106 96 94 
-0.124324 -0.188355 1.4851 99 98 94 
0.0386177 0.690562 1.33687 95 92 83 
-0.026301 -0.6946 1.61306 34 33 31 
-0.15831 -0.0924003 1.46238 87 86 84 
-0.0128243 0.224265 1.37211 89 85 84 
-0.142473 -0.0207907 1.41566 44 42 30 
-0.00133461 -0.401169 1.54113 109 103 105 
-0.0714974 -0.205072 1.462 14 9 6 
-0.109541 -0.214805 1.48537 19 18 16 
0.0473655 0.718704 1.32496 90 90 82 
0.0168846 -0.22844 1.46767 106 95 93 
-0.0397304 -0.21758 1.46008 103 102 100 
-0.00629188 0.445217 1.35861 92 88 85 
-0.0366222 -0.0614031 1.40189 132 132 132 
-0.0752461 -0.0524867 1.40232 130 126 123 
-0.0867413 0.0744912 1.39268 61 59 60 
-0.100933 -0.212592 1.47772 118 112 112 
-0.0101827 -0.0651261 1.41458 90 86 85 
0.0215247 0.0548669 1.39243 67 65 66 
-0.026298 0.145762 1.37671 73 69 70 
-0.158534 0.715876 1.32376 62 61 59 
0.0310415 0.72919 1.31117 142 139 134 
-0.0569125 -0.218189 1.45848 33 29 26 
-0.0364457 0.15694 1.37627 76 75 73 
-0.0721208 0.211029 1.38446 61 59 60 
-0.241591 0.0876393 1.60592 58 58 58 
-0.049511 0.344652 1.36437 50 49 47 
-0.169002 0.699435 1.33122 83 82 78 
-0.027947 -0.77711 1.64458 104 109 131 
-0.250528 0.552939 1.5067 0 0 2 
-0.254343 0.543965 1.52202 25 23 28 
-0.0927749 -0.298941 1.50686 24 20 17 
-0.0239151 -0.0373006 1.39191 50 49 44 
-0.119526 -0.301212 1.51711 129 123 123 
-0.0198246 -0.308319 1.49978 13 12 10 
-0.0858689 -0.305917 1.50662 119 116 111 
-0.115576 -0.246926 1.49398 24 20 17 
-0.154673 -0.219671 1.5044 11 7 4 
-0.242588 0.623311 1.48402 89 88 93 
-0.24428 0.349213 1.53209 117 116 111 
-0.0893031 -0.176782 1.45471 33 29 28 
-0.230463 0.0841441 1.50999 77 75 76 
-0.129577 -0.0614851 1.42809 54 51 46 
-0.0641342 -0.159151 1.43567 8 4 1 
-0.147526 -0.0663578 1.44126 20 17 12 
-0.119678 -0.133467 1.4568 12 11 9 
-0.151156 -0.123105 1.46469 100 98 99 
-0.136581 -0.119755 1.45977 12 11 9 
-0.120669 -0.0983201 1.44421 16 14 15 
-0.0825016 -0.0796002 1.41624 39 38 34 
0.589175 0.761891 1.56294 81 82 77 
-0.119806 -0.345343 1.54112 19 14 10 
-0.089696 -0.0470835 1.40182 8 5 0 
-0.129166 -0.257253 1.50802 2 0 1 
-0.0616949 -0.191761 1.44665 121 117 114 
-0.177062 0.107533 1.43793 119 117 118 
-0.200221 -0.217508 1.58018 104 100 99 
-0.0570308 -0.692139 1.62456 34 32 33 
-0.0734379 -0.193559 1.45463 14 10 7 
-0.16811 -0.179776 1.49664 102 99 94 
-0.0284141 0.134814 1.37809 88 86 87 
-0.0289773 -0.786782 1.64633 208 213 233 
-0.00224709 -0.340566 1.51682 150 146 145 
-0.0758817 -0.179914 1.45131 4 0 0 
-0.15837 -0.115582 1.46685 32 31 29 
-0.243467 0.614077 1.49209 9 10 14 
-0.0841419 -0.472619 1.57005 26 25 23 
-0.0567416 -0.457323 1.55281 45 42 37 
-0.0982729 -0.451462 1.56863 31 28 23 
-0.132531 -0.294211 1.52267 118 117 112 
-0.148379 -0.0810567 1.45006 31 28 23 
-0.18107 -0.0560406 1.44831 109 105 102 
-0.0916969 -0.0370212 1.39795 10 7 0 
-0.0973423 -0.0878526 1.42716 114 113 111 
-0.160457 -0.203293 1.50013 22 18 15 
-0.220621 0.0326924 1.47295 3 0 0 
-0.235346 0.108049 1.51961 1 0 0 
-0.0546764 -0.366392 1.51667 43 38 32 
-0.121053 -0.327879 1.5306 17 14 9 
0.0433537 0.721387 1.32489 114 111 104 
-0.182134 0.0121426 1.43251 128 124 121 
-0.129277 -0.11635 1.45404 27 26 24 
-0.173047 -0.0927433 1.46599 41 40 38 
-0.213871 0.032821 1.46492 4 3 1 
-0.160324 -0.1054 1.46468 1 0 0 
-0.199273 -0.00354198 1.43826 114 109 106 
-0.167711 -0.165121 1.49109 77 73 74 
-0.144466 -0.321027 1.56539 11 7 4 
-0.17198 0.621005 1.37413 95 94 92 
-0.0524603 -0.119492 1.41825 113 109 106 
-0.248791 0.512176 1.47719 110 109 107 
-0.237485 -0.072701 1.5941 27 23 20 
-0.188238 -0.0938952 1.47244 37 36 32 
-0.208847 0.0220498 1.4626 93 91 92 
-0.162551 0.238416 1.41421 76 74 75 
-0.20605 -0.241745 1.6029 27 30 39 
0.011428 -0.0442559 1.40845 107 105 106 
-0.0702756 -0.452613 1.5548 37 33 30 
-0.178704 -0.2242 1.52054 101 100 96 
-0.0574175 -0.305511 1.49271 45 42 37 
0.0654871 -0.0358196 1.42331 48 47 45 
-0.00497219 -0.430826 1.5504 57 53 52 
-0.0719399 -0.166964 1.44266 90 86 83 
-0.133469 -0.315247 1.5301 47 44 37 
-0.0506322 -0.692547 1.61678 32 31 29 
-0.107738 -0.17603 1.46509 101 97 96 
-0.161575 0.0493481 1.41699 80 79 77 
-0.0804224 -0.523563 1.58914 108 104 101 
-0.00411338 0.15766 1.37892 69 67 68 
-0.137527 0.358937 1.39824 111 107 106 
-0.221267 0.684475 1.40496 95 94 92 
-0.184297 -0.0652169 1.45893 1 0 0 
0.00819597 0.113536 1.38678 12 10 11 
-0.0325455 -0.227892 1.45066 11 11 3 
-0.0346966 -0.764923 1.64853 194 197 212 
-0.060183 -0.134547 1.42704 115 111 108 
-0.0755204 -0.295527 1.49785 45 41 38 
-0.251899 0.643987 1.51593 105 103 104 
-0.24666 0.543468 1.49765 116 115 133 
-0.0455523 -0.266058 1.47279 121 120 116 
-0.111149 -0.0650489 1.41942 106 103 98 
-0.0467614 -0.333987 1.50178 46 42 41 
-0.17315 -0.167337 1.49927 124 120 117 
-0.0525782 -0.397186 1.52771 96 92 89 
-0.140368 -0.132587 1.46536 85 84 82 
-0.06128 -0.203824 1.45274 97 93 90 
-0.00719737 0.107533 1.38125 46 45 43 
0.574444 0.741078 1.58973 69 66 57 
-0.234573 0.203507 1.49949 38 35 30 
-0.138205 0.0895015 1.41538 5 4 2 
-0.25975 0.588801 1.52295 132 99 30 
-0.0971468 -0.426965 1.55916 110 105 101 
-0.247491 0.530583 1.48206 4 5 23 
-0.152336 -0.27362 1.53247 94 93 91 
-0.249148 0.545375 1.5132 130 131 149 
0.0227981 -0.228458 1.47214 80 76 75 
-0.0677492 -0.355515 1.51586 98 95 90 
0.0359493 0.72689 1.32008 111 108 101 
-0.251394 0.562783 1.51863 5 3 6 
-0.245345 0.528557 1.49168 79 78 84 
-0.0502789 0.116225 1.38349 78 74 75 
0.0299092 -0.27207 1.47402 57 57 57 
-0.182511 0.0774277 1.44136 77 76 74 
-0.0304986 -0.0949795 1.41848 108 107 105 
-0.175257 -0.180567 1.50813 94 91 86 
-0.0499148 0.217641 1.37649 58 56 57 
-0.0296267 -0.311733 1.49745 45 41 38 
-0.139646 -0.258365 1.51538 38 34 31 
-0.319827 0.750574 1.30839 78 76 63 
-0.154562 -0.232022 1.50849 19 15 12 
-0.278049 0.70178 1.41975 73 73 65 
0.548476 0.761408 1.62265 64 63 58 
-0.249026 0.582365 1.50685 86 82 83 
-0.037351 0.0545223 1.38121 40 39 37 
-0.23784 0.193639 1.50645 7 4 0 
-0.151528 0.211549 1.41208 50 48 51 
-0.230036 0.708167 1.38316 50 48 49 
-0.212069 0.103878 1.47396 68 68 68 
-0.137845 -0.185537 1.48421 62 58 59 
-0.0688365 0.0657599 1.39312 56 54 55 
-0.0579418 0.0861028 1.39436 59 57 58 
-0.0493476 0.105532 1.38131 71 70 68 
-0.176233 0.234138 1.42577 79 77 78 
-0.219252 0.508972 1.43614 61 61 59 
-0.0479263 0.727689 1.3007 97 96 92 
0.0147308 -0.143678 1.45278 93 92 88 
-0.0365253 -0.454853 1.54996 83 81 82 
-0.0532587 -0.233555 1.4623 105 101 98 
-0.0810125 -0.0686413 1.41524 27 26 21 
-0.176684 -0.035767 1.44151 25 21 18 
-0.0446221 -0.516491 1.57412 102 97 93 
0.0194417 0.690144 1.33336 115 112 103 
-0.0629006 -0.260277 1.47729 30 26 23 
-0.0344293 0.2722 1.37134 2 1 0 
-0.168753 0.298554 1.41873 100 100 100 
0.0126181 -0.412159 1.54851 30 26 23 
-0.100941 -0.316665 1.52056 27 26 22 
-0.0466404 -0.209526 1.45484 120 119 115 
-0.101144 -0.159043 1.45966 26 22 19 
-0.0723283 -0.361408 1.52456 124 120 117 
-0.00934135 0.48922 1.35797 97 94 85 
-0.029478 0.0815199 1.38372 80 76 73 
-0.0325591 -0.3439 1.51042 122 118 115 
-0.173195 -0.121568 1.48296 31 30 28 
0.00333323 -0.326573 1.51304 30 26 23 
0.062816 0.0718512 1.41049 31 29 30 
0.0287909 0.715162 1.32124 104 99 96 
0.00919065 -0.378866 1.53564 99 98 96 
-0.0101184 -0.171591 1.45391 98 94 91 
-0.0358014 0.0393799 1.38376 79 78 76 
-0.0738189 -0.229301 1.4706 30 29 25 
-0.14688 0.108781 1.42146 83 82 78 
0.0500514 -0.0448684 1.42358 32 32 30 
-0.0115394 -0.0956068 1.42739 30 25 19 
0.0773278 0.0138665 1.42408 7 3 2 
0.0367118 -0.0206951 1.4041 20 19 15 
0.0366248 0.444777 1.37648 115 114 109 
-0.0102449 -0.426665 1.54862 34 31 26 
0.0481378 0.0432596 1.4049 75 74 72 
-0.077211 -0.516983 1.58611 37 36 34 
-0.0356657 -0.0521553 1.39858 95 94 92 
-0.0634386 -0.0693577 1.40363 34 30 29 
-0.0425643 0.090086 1.38082 3 0 0 
0.0211412 -0.261288 1.47069 101 100 96 
-0.172684 -0.0996462 1.47373 25 24 22 
0.0789856 0.0447789 1.42284 14 12 13 
0.0347589 -0.0925387 1.44213 109 108 104 
0.0264773 -0.0854456 1.43707 1 0 0 
0.0547063 0.645919 1.36222 93 91 92 
0.0610487 0.618259 1.38016 118 116 117 
-0.0431818 -0.0699104 1.40591 27 22 18 
-0.169511 -0.0198723 1.42988 48 47 45 
-0.0497231 -0.168471 1.43889 31 30 28 
0.0458056 -0.129212 1.45995 116 114 115 
0.0543453 0.627968 1.36904 9 8 6 
0.025438 -0.35535 1.53163 123 118 115 
0.0517957 -0.0340938 1.41737 128 127 125 
-0.00413117 -0.135532 1.44193 110 109 107 
0.0730105 0.722517 1.34168 87 82 78 
-0.0333744 -0.129334 1.43307 111 107 104 
-0.0215124 -0.111191 1.4291 90 89 87 
-0.0042502 -0.0582157 1.41111 117 116 112 
-0.0479238 0.153999 1.38909 81 81 81 
-0.0397286 -0.764108 1.64533 200 209 224 
-0.0344719 -0.74548 1.65119 35 36 66 
-0.0143175 0.155583 1.37898 70 68 69 
-0.028351 -0.178463 1.44794 60 59 55 
0.0308327 0.037113 1.39333 52 50 51 
-0.00642098 0.136473 1.37701 73 71 72 
-0.07014 0.225926 1.38142 50 49 54 
0.0468248 0.563408 1.37867 56 56 56 
-0.043761 -0.796376 1.65829 104 113 128 
-0.0210412 -0.784629 1.63618 228 232 255 
-0.0459382 -0.782242 1.64359 165 167 190 
-0.248922 0.539976 1.51222 3 1 22 
-0.0603419 -0.160016 1.44467 18 14 11 
-0.0369008 -0.32592 1.50004 20 17 12 
-0.13715 -0.315282 1.5496 18 14 5 
-0.190565 -0.306883 1.57098 29 31 46 
-0.196158 -0.26752 1.59643 206 207 211 
-0.102435 -0.20251 1.47502 116 115 111 
-0.253458 0.54632 1.52761 16 16 28 
-0.253339 0.548807 1.51505 104 105 110 
-0.0804915 -0.0900365 1.43248 1 0 0 
-0.246104 0.561191 1.4922 141 141 143 
-0.137386 -0.0330352 1.41054 25 23 11 
0.0672839 -0.0359058 1.42597 28 27 23 
0.0202303 -0.022861 1.39777 25 25 13 
0.0552425 0.626622 1.36603 118 117 115 
-0.140085 -0.0507453 1.43218 39 38 33 
-0.0415571 -0.167876 1.44402 31 27 24 
0.0739536 -0.0624668 1.44302 26 23 18 
-0.247433 0.578366 1.49616 94 94 92 
-0.252052 0.576363 1.51442 116 116 116 
0.0373137 -0.0933268 1.44756 128 127 123 
0.0485285 0.0118056 1.40475 9 7 8 
-0.381122 0.762641 1.63446 139 131 120 
-0.0484609 -0.121835 1.42671 17 16 12 
0.0483651 -0.129343 1.46481 144 144 142 
0.0557432 0.0316376 1.40886 124 123 121 
-0.181621 -0.131936 1.4947 110 109 105 
-0.0176623 -0.453084 1.55851 17 16 14 
0.00172608 -0.195327 1.46472 115 101 101 
-0.0939653 0.493127 1.35977 106 105 103 
-0.0465529 -0.238153 1.46878 17 13 12 
-0.00554353 -0.251233 1.46114 98 97 95 
-0.085326 -0.427179 1.5532 126 123 118 
-0.114519 -0.304292 1.53111 118 112 112 
-0.032905 0.0574746 1.386 0 0 0 
0.0631076 0.221208 1.40256 106 105 103 
-0.204237 0.125919 1.47312 1 0 0 
-0.0259156 -0.763147 1.64277 100 110 122 
0.0238104 -0.345985 1.53362 11 12 6 
0.0183721 -0.357914 1.5345 8 7 5 
0.0259438 -0.362939 1.5402 110 110 108 
0.0210865 -0.372012 1.54094 117 113 112 
-0.0396167 -0.371576 1.51959 34 30 21 
-0.0941507 -0.386766 1.54588 15 11 8 
-0.0162429 -0.415041 1.54437 128 124 121 
-0.000311204 0.0415384 1.38716 83 79 78 
0.0212238 -0.249344 1.47054 12 12 10 
-0.21905 0.153128 1.4885 94 92 95 
-0.231175 0.154568 1.51209 1 0 2 
0.050232 0.360509 1.38423 7 3 2 
-0.20146 -0.179534 1.61017 18 14 11 
0.0143033 0.143334 1.38325 97 96 94 
-0.0166775 0.223379 1.36617 88 87 85 
-0.0316016 -0.402964 1.53252 36 32 29 
-0.092116 -0.0678685 1.42682 125 124 122 
-0.17186 0.692784 1.3213 109 104 101 
-0.174014 0.0865507 1.44979 91 91 91 
-0.0466501 0.19461 1.37079 100 99 97 
0.0122939 -0.0435481 1.40966 105 105 103 
0.000820589 0.257677 1.37583 1 0 0 
-0.15747 0.0430815 1.42917 85 85 85 
-0.25206 0.642567 1.51725 114 112 113 
-0.0561535 -0.646657 1.62297 128 123 120 
-0.184762 -0.226081 1.56115 107 96 94 
0.0683428 -0.0484468 1.43186 37 36 34 
0.00367615 -0.383087 1.53607 130 124 124 
-0.0307475 -0.429028 1.54579 39 38 34 
0.0613337 0.0720425 1.40689 23 22 20 
-0.245993 0.61029 1.49014 0 0 7 
-0.00556572 0.25673 1.36629 109 109 107 
-0.00227617 0.0658354 1.39191 114 110 109 
-0.121517 -0.336219 1.54427 35 32 27 
-0.209882 0.175023 1.47261 85 84 82 
-0.250552 0.597551 1.50569 96 97 91 
-0.259388 0.593362 1.51922 118 98 74 
-0.234165 0.348059 1.51244 133 132 127 
-0.0144322 -0.0665005 1.42319 111 112 107 
-0.0489641 -0.196238 1.45077 110 106 103 
-0.250573 0.585042 1.50626 76 76 74 
-0.0139529 -0.79022 1.64295 67 75 96 
-0.192216 -0.28792 1.57967 215 214 220 
-0.0200788 -0.734742 1.64912 70 77 96 
0.0931035 0.0238493 1.43594 1 0 0 
-0.072674 -0.300721 1.51253 88 85 80 
-0.256819 0.58979 1.52773 112 88 62 
0.00128313 -0.118555 1.44107 131 127 126 
0.0668073 0.122625 1.40831 105 103 104 
0.107178 0.0459336 1.451 4 3 1 
-0.0741122 -0.313856 1.50575 33 31 19 
-0.0598003 -0.0825169 1.41117 128 126 127 
0.0268549 -0.0856514 1.43807 10 9 7 
-0.0586346 -0.135592 1.43579 36 33 28 
-0.0610877 -0.069761 1.41093 29 27 28 
-0.0371641 -0.0655799 1.407 34 31 26 
-0.00570868 -0.227741 1.465 36 31 27 
-0.00159327 0.0973267 1.38998 127 126 122 
0.020203 -0.228888 1.47703 102 93 94 
-0.249547 0.550753 1.49836 143 146 155 
-0.180605 -0.220711 1.54502 14 4 2 
-0.244868 0.555763 1.48349 94 95 99 
-0.0151076 -0.384794 1.53471 126 125 121 
-0.138707 -0.39176 1.63034 205 203 216 
-0.54892 0.658764 1.23829 145 140 137 
-0.00106921 -0.0588434 1.4133 91 90 88 
-0.0310433 -0.19593 1.45206 12 7 3 
0.0433292 0.020677 1.40062 1 1 0 
0.0659238 0.0195883 1.41784 114 114 114 
-0.119244 0.0189389 1.41016 123 122 120 
0.021219 -0.261372 1.4709 107 106 104 
-0.011908 0.472422 1.35022 15 12 7 
-0.0875493 -0.405677 1.55262 86 85 81 
-0.029065 -0.0604018 1.40255 128 127 123 
-0.0342944 -0.333803 1.51217 135 131 128 
-0.205155 -0.154785 1.593 90 89 85 
-0.119879 0.101386 1.41411 104 102 103 
0.0652549 -0.0905917 1.45515 98 94 93 
0.0522329 -0.0337564 1.42094 104 102 103 
-0.108441 -0.256952 1.5045 36 33 26 
-0.0258348 -0.096342 1.42905 82 81 79 
0.00335049 -0.440017 1.55839 32 28 25 
-0.0500297 0.0871173 1.38983 77 75 76 
-0.00813837 -0.0958555 1.4278 28 27 23 
-0.0185977 -0.323922 1.51094 87 83 82 
-0.0489386 0.119085 1.38605 86 86 86 
-0.053456 -0.478108 1.56186 12 11 7 
-0.154485 -0.186809 1.4949 83 82 80 
-0.0268166 -0.230209 1.4637 3 3 0 
-0.169135 -0.0328359 1.43037 109 104 100 
-0.0308621 -0.805301 1.65013 208 215 234 
-0.120263 -0.661478 1.39058 88 89 117 
-0.0620519 -0.700514 1.64758 102 101 109 
-0.0734906 -0.238761 1.48649 40 35 31 
-0.137323 0.359102 1.39876 132 128 125 
-0.234401 0.194173 1.51429 7 3 0 
-0.0803421 -0.120549 1.44272 108 105 100 
-0.217465 -0.147794 1.62559 124 133 142 
-0.136455 0.398081 1.38304 69 68 66 
-0.036024 -0.393667 1.52434 122 118 115 
-0.068287 -0.610832 1.63486 26 24 29 
0.00747926 -0.38646 1.5484 125 119 119 
-0.0285429 -0.644141 1.60594 34 30 29 
-0.0421586 -0.356168 1.51465 35 36 31 
-0.179716 0.0777757 1.45248 64 64 62 
0.00380873 -0.335245 1.52027 144 143 141 
-0.245392 0.224309 1.551 6 2 0 
-0.0507846 -0.305955 1.50467 106 103 96 
0.00843688 -0.269881 1.46661 122 119 112 
-0.0107085 -0.698378 1.6266 48 47 45 
0.00896578 0.106204 1.38519 13 12 10 
0.00342744 -0.236224 1.46599 84 83 81 
-0.158389 -0.0509556 1.44119 41 38 33 
-0.139601 -0.0577434 1.44935 22 19 12 
-0.242911 0.199742 1.54319 25 22 17 
-0.0640309 -0.12366 1.43439 115 110 104 
0.0764837 0.0136265 1.41953 3 1 2 
-0.187012 -0.172243 1.56102 26 25 23 
-0.149229 -0.279191 1.54631 94 93 89 
0.0332756 0.215337 1.38686 92 91 89 
-0.0574737 -0.689359 1.61788 115 114 112 
-0.00295243 -0.136408 1.44724 97 96 94 
-0.231833 0.341617 1.49828 106 105 103 
-0.243232 0.545675 1.48448 95 95 107 
-0.0383796 -0.731077 1.64648 194 200 216 
-0.25128 0.509179 1.473 20 16 15 
-0.16089 -0.0923189 1.45487 81 80 78 
-0.246031 0.543723 1.47425 14 16 28 
-0.0421939 -0.342897 1.50042 29 26 21 
-0.0261041 -0.694311 1.61333 42 40 41 
-0.253805 0.599862 1.53671 71 51 24 
-0.0692715 -0.18231 1.45687 43 40 35 
-0.238379 0.210497 1.51439 34 31 26 
-0.56717 0.713582 1.17991 116 113 98 
0.0605362 0.358457 1.39393 21 18 13 
-0.242432 0.180911 1.54808 8 5 0 
-0.223469 0.144135 1.50511 83 83 81 
-0.146788 -0.217965 1.4979 100 96 93 
0.0750506 0.0743866 1.41973 39 38 36 
-0.150817 -0.0334233 1.41657 127 126 121 
-0.00833792 -0.201507 1.46414 44 30 27 
-0.0310882 -0.452282 1.55609 81 80 76 
0.0730791 0.0435745 1.42086 0 0 0 
-0.0442772 -0.699528 1.6329 45 44 42 
0.012218 -0.239054 1.47373 79 75 74 
-0.0342909 -0.438647 1.54534 120 116 115 
-0.0074841 0.107675 1.38068 31 30 28 
0.0239028 0.0552766 1.39716 72 71 69 
0.0487659 0.0434851 1.40417 96 95 91 
-0.102223 -0.0558763 1.40767 83 79 68 
-0.104318 -0.0451865 1.4165 102 99 92 
0.0291502 0.544035 1.36526 87 86 84 
-0.244032 0.194648 1.53257 28 25 18 
-0.223291 0.678333 1.3933 96 96 96 
0.0481466 0.147391 1.39204 110 106 105 
-0.136178 -0.260657 1.53032 25 25 23 
-0.243928 0.0571223 1.53546 65 65 65 
-0.00464418 0.156653 1.37889 64 62 63 
0.0391538 0.699206 1.32492 90 87 82 
-0.00849724 0.461231 1.35363 123 120 113 
-0.0342369 -0.786591 1.65276 228 228 252 
-0.0444689 -0.684447 1.59254 52 48 47 
-0.0670533 -0.634912 1.63471 197 197 209 
-0.0644295 -0.635287 1.64898 107 107 119 
-0.00383469 -0.708887 1.6347 90 88 89 
-0.537983 0.663646 1.22102 28 24 25 
-0.243585 0.225298 1.56029 40 36 33 
-0.245768 0.339199 1.54087 2 2 0 
-0.245295 0.549578 1.46624 123 122 127 
-0.0504131 -0.692546 1.61568 35 34 32 
-0.0409536 0.0854545 1.37773 85 80 76 
-0.0953709 0.0669657 1.3915 76 76 76 
0.029662 0.240665 1.37911 77 76 71 
-0.023562 -0.341355 1.51611 66 66 64 
-0.132347 -0.26294 1.5409 47 47 45 
-0.2978 0.822784 3.2287 85 86 80 
-0.154793 -0.231539 1.50218 18 15 10 
-0.224628 -0.119878 1.63324 59 61 74 
-0.0407647 0.229618 1.37353 94 93 89 
-0.475349 0.723488 1.24222 105 103 91 
-0.522826 0.734578 2.0779 105 106 100 
-0.247539 0.515163 1.49125 15 11 10 
-0.195771 -0.285836 1.59126 39 39 51 
-0.236461 -0.074808 1.61378 35 31 32 
-0.236563 -0.0751774 1.63043 53 51 62 
0.0156172 -0.045793 1.41906 118 118 116 
-0.292077 0.725514 1.27855 73 71 56 
-0.242762 -0.0156311 1.51763 53 52 48 
-0.142497 0.675922 1.33022 118 115 110 
-0.106271 0.663359 1.32983 110 106 107 
-0.257111 0.642264 1.43734 24 23 18 
0.401452 0.796339 1.65547 102 100 85 
0.0268454 0.0328763 1.38919 69 67 68 
0.0396865 0.0335583 1.41454 83 82 80 
-0.0714489 -0.523145 1.60252 34 32 33 
-0.147278 -0.162424 1.49783 34 30 27 
0.0524976 0.0443154 1.41309 80 79 75 
-0.167727 -0.18858 1.52745 35 35 27 
-0.0566897 -0.44469 1.55471 41 37 34 
-0.175865 0.0786172 1.4614 68 68 66 
-0.260473 0.531495 1.52761 40 40 40 
0.0367741 0.452764 1.37634 129 126 117 
0.0116665 0.086448 1.38917 78 78 76 
0.0298361 -0.380571 1.56081 103 97 97 
-0.0532855 0.151131 1.36637 79 79 79 
0.00699767 -0.338072 1.52966 80 79 77 
0.0374336 0.216043 1.39598 80 79 77 
-0.246235 0.0845657 1.58116 58 57 55 
-0.0293805 -0.689453 1.60361 44 42 43 
-0.0431061 -0.451941 1.53863 74 73 69 
-0.0628849 -0.439674 1.53885 45 41 38 
-0.129252 -0.366531 1.5557 60 57 52 
-0.0300069 -0.251382 1.46114 141 141 131 
-0.0849175 -0.239967 1.46307 67 64 55 
-0.0574576 -0.240751 1.47913 41 37 34 
0.00531886 -0.232459 1.47537 101 93 90 
-0.176109 -0.225107 1.51359 4 3 0 
-0.10014 -0.197587 1.46217 93 89 88 
-0.0574328 -0.198127 1.46095 73 68 64 
-0.13369 -0.168553 1.49532 119 118 116 
-0.113663 -0.166104 1.46135 100 96 93 
-0.181819 -0.107336 1.47536 19 15 12 
-0.14547 -0.0695935 1.45828 51 47 44 
0.0038247 0.0190337 1.38638 50 49 47 
0.0331111 0.0367473 1.39915 69 67 70 
-0.250585 0.0855229 1.57069 79 75 74 
-0.0471743 0.128737 1.38689 76 76 76 
-0.0339093 0.141443 1.38597 15 14 12 
0.0544967 0.14741 1.40991 75 71 70 
-0.244445 0.212105 1.54902 14 15 9 
-0.0586601 0.21241 1.3847 54 52 55 
0.0389981 0.312157 1.37521 70 66 67 
0.0154561 0.330608 1.37603 60 59 57 
-0.0393354 0.34635 1.34952 71 70 68 
-0.265967 0.520292 1.51135 54 54 54 
-0.227612 0.525457 1.41989 100 99 97 
-0.245445 0.606907 1.44642 28 27 32 
0.101586 0.709914 1.3638 30 29 25 
-0.0556782 -0.0837357 1.42469 102 100 101 
-0.168776 0.338475 1.41311 60 59 57 
0.00700378 0.503908 1.3574 112 111 107 
-0.024407 -0.80445 1.66372 189 202 211 
-0.0334231 -0.789532 1.66428 196 203 219 
-0.0218891 -0.791172 1.66371 192 200 213 
-0.0288896 -0.73194 1.63808 187 192 211 
-0.0114851 -0.626678 1.60868 41 39 44 
-0.0377015 -0.315597 1.50843 133 129 126 
-0.0365294 -0.248307 1.44465 76 76 66 
0.11559 -0.120973 1.53568 18 18 28 
-0.229758 -0.0225566 1.4974 54 53 49 
-0.162707 0.0675711 1.43773 55 54 52 
-0.0663708 0.0660949 1.39883 60 58 59 
-0.0563104 0.0868399 1.39809 76 76 76 
-0.0445556 0.117984 1.39607 74 74 74 
-0.0465287 0.346147 1.3708 64 60 57 
-0.223488 0.506601 1.44127 23 22 20 
-0.260787 0.730745 1.34072 81 81 69 
5.87101 2.3148 13.4703 131 134 139 
-0.238777 0.0798374 1.51749 82 82 82 
-0.125458 -0.0329078 1.41004 38 36 24 
-0.170088 -0.0748919 1.45492 123 120 115 
-0.0713283 -0.343555 1.51511 26 18 15 
-0.112255 -0.294753 1.51709 105 104 100 
5.8962 2.3283 13.5536 14 17 22 
-0.108735 0.109441 1.39954 81 81 81 
0.542215 0.73976 1.67699 110 108 95 
-0.135205 0.718674 1.30835 96 95 90 
-0.125458 -0.0530405 1.42409 66 61 55 
-0.125463 -0.146706 1.46365 105 104 102 
6.00085 2.19859 13.7312 98 103 109 
-0.202072 0.119108 1.461 28 27 25 
-0.00659084 0.463148 1.35877 123 120 113 
0.545996 0.769845 1.65329 58 57 53 
-0.0467504 0.103849 1.39079 79 79 77 
-0.0904273 -0.461179 1.57143 105 101 98 
0.626747 0.749922 1.51547 76 76 68 
0.555793 0.764666 1.62771 48 47 42 
-0.103417 0.0385326 1.39572 32 31 29 
6.31817 2.23253 14.4958 57 62 66 
-0.118764 0.211294 1.39725 60 60 60 
-0.0429845 -0.793523 1.6653 224 225 255 
-0.0287661 -0.781249 1.6614 214 221 239 
-0.16135 -0.055814 1.43361 105 101 98 
-0.0351695 -0.760098 1.65605 211 211 235 
-0.0244592 0.271432 1.36506 1 0 0 
0.100452 0.267748 1.44452 31 30 26 
-0.183588 -0.0764677 1.47 44 43 39 
0.00231358 -0.0990445 1.43386 22 18 17 
0.0909559 0.24276 1.43608 11 8 3 
0.00511385 -0.631198 1.64859 117 118 136 
0.0827942 0.0712706 1.43256 112 111 109 
0.117698 -0.0670372 1.50879 123 122 120 
0.116683 0.0881725 1.47475 94 93 91 
0.0471871 -0.118917 1.45272 14 12 13 
0.0449697 0.466787 1.37758 132 129 122 
-0.140927 -0.148219 1.47571 30 29 27 
0.0362899 -0.319088 1.5252 1 0 0 
0.0263698 -0.319691 1.52218 17 16 14 
-0.0446997 -0.320965 1.5015 12 9 4 
0.032177 0.168925 1.38943 96 95 93 
-0.0416612 -0.418287 1.53826 32 28 25 
0.000520911 -0.364205 1.53032 118 114 113 
-0.00741799 0.480978 1.35728 27 23 20 
-0.0198023 0.117027 1.37718 1 0 0 
-0.000341354 0.542131 1.35481 102 101 99 
0.0557345 -0.22126 1.4943 118 117 113 
0.0633809 0.0722975 1.41379 12 11 9 
0.0235897 -0.210251 1.46642 99 87 87 
-0.0831948 -0.478825 1.57905 24 20 19 
0.082332 0.0612554 1.42571 122 120 121 
0.0279086 -0.199406 1.46945 111 102 103 
0.0916516 0.0555875 1.43524 92 88 87 
0.0685861 -0.191858 1.49115 118 115 110 
-0.0300664 -0.361821 1.51923 39 35 34 
-0.115467 -0.187525 1.4781 36 32 31 
0.0632859 -0.183139 1.47979 130 127 122 
0.0262866 -0.165569 1.46067 19 18 14 
-0.0340459 -0.158831 1.4373 117 112 109 
-0.0176686 -0.371362 1.53168 139 135 132 
-0.136612 0.0295595 1.40469 103 103 103 
-0.0512496 -0.140752 1.42916 121 120 116 
-0.0152961 0.0186771 1.384 1 0 0 
0.110086 0.0144089 1.45548 98 96 97 
-0.165102 -0.118857 1.47456 121 120 118 
-0.0515912 -0.383212 1.52435 46 42 31 
-0.150348 -0.0425362 1.42742 129 125 124 
-0.121441 -0.0454925 1.41324 15 11 8 
-0.00903132 -0.4011 1.54511 108 104 103 
-0.154529 -0.234862 1.51821 87 86 84 
0.0752239 -0.0772946 1.44688 104 100 99 
-0.0702115 -0.0812502 1.41178 116 115 113 
-0.0908961 -0.431089 1.56779 123 119 118 
0.0141515 0.668405 1.34312 127 125 126 
0.0946353 0.450857 1.43156 17 13 10 
-0.059768 -0.456822 1.56121 26 22 19 
0.101159 0.222189 1.44994 129 128 123 
0.0380467 0.495807 1.37383 122 119 114 
0.0577281 0.27 1.3933 114 113 109 
-0.0169665 0.0966974 1.38138 104 103 101 
-0.0185108 -0.796902 1.65201 226 230 255 
-0.0384796 -0.779182 1.65781 90 97 115 
-0.100436 -0.26931 1.49716 132 128 125 
0.0602052 -0.200039 1.48882 159 158 154 
0.13875 0.0270277 1.48643 6 5 1 
-0.0683793 -0.334881 1.51142 61 57 54 
0.0390333 0.431662 1.37952 29 28 23 
0.0406621 0.42206 1.37549 131 127 124 
0.114177 -0.0892081 1.52052 13 12 10 
-0.000239849 -0.432215 1.55953 33 30 25 
0.0225484 -0.105804 1.44368 130 129 127 
0.144641 0.0662677 1.49558 127 126 122 
-0.0185393 -0.0792792 1.41725 95 94 92 
0.100043 0.0159649 1.44097 60 58 59 
-0.0537388 -0.403001 1.53428 21 17 16 
0.0350537 -0.345357 1.53217 24 21 16 
-0.141947 -0.0610943 1.42797 29 26 21 
-0.110571 -0.358093 1.54504 30 26 23 
-0.0261147 -0.354143 1.51228 22 21 19 
0.0493109 -0.20401 1.47793 112 111 107 
0.0777874 -0.204776 1.51358 118 114 111 
-0.00958384 -0.0342079 1.39332 29 28 24 
0.0595386 0.283812 1.39888 116 111 108 
0.0636818 -0.163932 1.47744 113 112 110 
-0.0604328 -0.145303 1.42981 118 115 110 
0.102419 0.298945 1.44838 101 98 93 
-0.0349871 -0.563567 1.59285 116 115 113 
0.0181034 -0.192398 1.46089 88 80 78 
0.00521576 -0.170455 1.44971 94 93 91 
0.0410593 0.445976 1.38229 107 104 99 
0.0615815 0.62124 1.3867 126 125 123 
0.0584102 -0.050319 1.43287 17 16 12 
0.0351005 0.0114215 1.39198 1 0 0 
0.0472646 -0.138889 1.4603 133 132 130 
0.0413011 -0.104673 1.44615 3 1 2 
-0.0467879 -0.342346 1.50722 132 127 124 
-0.0140868 0.348382 1.35751 95 93 96 
-0.109746 -0.187421 1.46451 121 117 116 
0.147055 0.0281629 1.50761 1 0 0 
-0.037596 -0.698387 1.62244 26 25 21 
-0.0338495 -0.39176 1.53378 124 120 117 
-0.0352396 -0.441162 1.55409 120 116 115 
-0.0168701 -0.0549157 1.39897 120 119 115 
-0.0407485 -0.373738 1.52709 39 35 26 
0.0187233 -0.0276803 1.4011 106 102 99 
-0.203558 0.0223441 1.45716 19 17 18 
-0.0994599 -0.304622 1.52237 114 114 112 
-0.111708 -0.314897 1.5278 124 120 119 
0.0213264 0.711463 1.32026 108 104 101 
0.0332606 0.535111 1.36976 80 79 77 
0.0850663 0.0451649 1.42579 8 4 1 
-0.0113399 -0.215314 1.46278 46 36 34 
-0.0211073 -0.0461677 1.39373 104 103 99 
-0.141031 -0.00515406 1.40472 99 98 96 
0.00333162 -0.456393 1.56537 80 76 75 
0.026799 -0.171543 1.46946 94 93 89 
0.00300561 -0.639415 1.64235 122 124 139 
0.0460658 -0.225142 1.47928 86 85 81 
-0.010727 0.321069 1.36944 1 0 0 
0.0808232 0.142381 1.4222 86 82 81 
0.0480652 -0.44926 1.61988 92 91 86 
-0.0271839 -0.403514 1.54135 108 104 101 
0.157933 -0.0594991 1.59116 109 109 111 
0.0940912 0.462272 1.42619 109 108 104 
-0.472284 0.734074 2.0799 111 111 109 
-0.0546631 -0.354224 1.51087 42 39 32 
-0.00684971 -0.346622 1.52386 104 100 97 
0.0121306 -0.347164 1.52967 97 96 94 
0.110455 0.124744 1.4613 107 101 101 
-0.0562993 -0.658213 1.64561 106 101 98 
0.136661 -0.133737 1.60132 111 110 108 
-0.0454753 -0.187422 1.44381 91 89 90 
-0.156266 -0.220177 1.51819 99 97 98 
0.0102305 -0.426508 1.56233 129 125 124 
-1.39713 0.863319 4.99136 140 142 131 
0.0736516 -0.114667 1.45977 35 34 32 
0.11539 -0.160049 1.56337 77 76 72 
0.113407 0.0644539 1.45613 77 76 74 
-0.048432 0.269719 1.37146 102 102 102 
0.0437978 0.480646 1.37748 80 79 75 
0.109815 0.0805459 1.45754 85 84 82 
-0.0257812 -0.74045 1.66189 195 204 221 
0.0748819 0.0744375 1.4259 39 39 39 
0.0579727 -0.228446 1.50112 151 149 150 
-0.0473795 0.152349 1.37318 89 87 88 
-0.00523167 -0.653094 1.6438 18 12 12 
-0.156919 -0.207653 1.51029 113 112 110 
-0.0069402 -0.411346 1.5437 118 114 113 
0.0737637 0.0440515 1.42707 6 2 0 
-0.0500152 0.139245 1.3881 48 48 48 
0.0439988 0.0634103 1.39352 89 89 89 
0.0946638 0.29411 1.43737 45 44 40 
0.0326343 0.505492 1.36461 99 98 94 
-0.00610662 0.248593 1.37667 89 87 88 
0.0338361 0.121962 1.39245 81 79 80 
0.0141666 -0.414117 1.56001 36 32 31 
-0.0348968 -0.346081 1.51791 100 96 93 
0.134355 0.0127141 1.47353 67 66 64 
0.104642 0.458556 1.43282 57 56 52 
-0.0525703 0.514191 1.35613 67 66 64 
-0.0332673 -0.581078 1.60276 83 78 74 
0.137769 -0.146476 1.60657 195 194 199 
0.0689865 -0.12483 1.4606 93 92 90 
-0.0910643 -0.346261 1.52693 50 46 43 
0.0795943 0.272275 1.41943 36 32 31 
-0.00116341 -0.404272 1.55022 110 106 105 
0.0361337 0.742494 1.28202 133 133 123 
-0.0507238 -0.425053 1.53936 85 81 80 
-0.133498 -0.361406 1.60915 34 31 26 
0.00845309 -0.271272 1.47328 103 100 91 
0.00220103 -0.229332 1.44939 106 102 99 
0.137822 -0.100382 1.57058 36 35 33 
0.0695988 0.587252 1.38922 81 79 80 
0.06978 0.083516 1.40849 75 74 72 
0.102088 0.0880843 1.45782 24 23 21 
0.0699503 0.157018 1.40584 101 100 98 
-0.0465812 0.17241 1.37183 64 63 61 
0.0623049 0.724155 1.32818 58 55 50 
0.00201685 0.168355 1.38133 67 66 64 
0.0915294 0.0450276 1.43523 41 37 36 
0.0773211 -0.231234 1.52711 60 59 57 
0.0723599 -0.214727 1.50881 128 127 123 
0.018339 -0.322712 1.51488 136 135 133 
-0.0374346 -0.294809 1.49977 48 44 43 
0.0924787 -0.209066 1.54958 70 68 69 
-0.140173 -0.16776 1.48802 62 61 59 
-0.0918118 0.0589141 1.3775 70 70 70 
0.0168651 0.153518 1.38702 64 63 61 
-0.0463461 0.224418 1.36184 109 105 106 
0.0440303 0.314022 1.37878 71 67 64 
0.0758017 0.348343 1.41528 37 33 30 
-0.128304 -0.232255 1.50007 26 22 21 
-0.0228896 -0.449533 1.5518 122 121 119 
-0.110602 0.722486 1.30897 29 25 26 
-0.025617 -0.378289 1.52505 114 110 107 
0.165481 0.0935538 1.56149 47 52 46 
-227.785 -44.5126 -3291.61 81 89 108 
-118.822 6.45149 -1990.28 186 195 210 
-84.1417 34.4159 -1249.28 79 88 103 
-68.1632 23.3335 -896.466 83 92 109 
-14.8499 -8.21277 -171.961 255 253 255 
-11.4382 -3.52765 -94.1365 157 170 179 
-97.694 -35.2375 -1289.5 178 186 199 
-74.2309 -7.15293 -1003.54 167 174 190 
-93.5236 10.035 -1263.79 66 73 91 
-95.0937 10.7539 -1297.19 197 204 222 
-96.1458 12.9064 -1330.51 192 199 217 
-70.4556 10.3488 -1051.95 70 79 94 
-131.133 39.3558 -1779.46 198 207 224 
-77.416 23.576 -1066.69 202 211 228 
-163.603 127.438 -2739.49 62 74 88 
-69.5087 21.3351 -905.815 194 203 220 
-50.9599 15.8626 -673.9 193 200 219 
-85.0517 30.5205 -1243.37 65 74 89 
-71.0652 24.2023 -956.431 186 195 212 
-80.0804 31.8977 -1164.91 79 88 103 
-62.3809 30.0323 -839.9 72 81 98 
-139.164 42.1452 -1915.5 202 211 228 
-75.9016 26.1866 -1096.52 194 203 218 
-78.4391 17.4359 -1087.02 181 190 207 
-63.9519 25.9901 -876.575 97 106 123 
-93.3841 2.00893 -1257.15 80 87 105 
-92.4963 17.5231 -1343.73 67 76 91 
-45260.9 3140.38 -694106 188 197 212 
-79.0195 25.4698 -1148.4 181 190 205 
-68.9721 22.3993 -945.18 196 203 221 
-66.4068 4.5542 -1008.45 181 190 205 
-165.279 60.3633 -2399.13 72 81 96 
-65.8336 22.5392 -887.04 186 195 212 
-67.4589 23.4812 -924.501 86 95 112 
-113.421 0.482244 -1617.53 185 194 209 
-53.5419 38.1046 -765.046 188 195 213 
-96.8076 -36.1392 -1397.57 182 192 204 
-105.996 -41.2189 -1567.94 39 49 61 
-91.6986 -14.9383 -1230.27 97 102 121 
-45.398 27.8819 -602.309 180 189 206 
-70.9811 3.22688 -940.276 55 60 80 
-81.9652 55.4501 -1179.68 196 203 221 
-97.2858 35.7853 -1305.26 59 67 86 
-110.465 40.5337 -1600.39 69 76 92 
-208.096 38.9478 -3034.69 87 96 111 
-67.2803 9.6729 -915.741 171 178 196 
-70.6657 6.476 -961.649 78 85 103 
-73.5084 4.72351 -1007.11 191 198 216 
-829.06 55.5978 -12638.7 173 182 197 
-74.7638 2.69808 -1017.27 191 198 216 
-80.6189 0.391154 -1119.72 163 170 188 
-83.4008 -6.20828 -1126.78 65 72 88 
-132.735 -47.4262 -1828.97 181 189 202 
-172.144 -40.345 -2646.63 71 80 97 
-62.2076 25.2291 -922.583 79 88 103 
-102.836 35.2389 -1388.93 158 167 184 
-53.9554 12.4795 -620.647 75 87 101 
-91.6683 5.11695 -1370.38 90 99 114 
-654.43 44.465 -9509.53 188 197 212 
-219.3 10.4761 -3788.37 105 114 129 
-70.829 3.56162 -940.736 108 113 133 
-76.6696 1.0658 -1043.17 58 65 83 
-95.7074 6.77103 -1457.02 173 182 197 
-205.761 29.6391 -2818.45 176 183 201 
-104.069 -8.30877 -1527.8 78 87 104 
-87.58 -6.55981 -1211.06 160 167 183 
-186.26 33.8701 -2551.71 79 88 105 
-84.2051 -5.84381 -1145.43 76 83 99 
-63.8315 13.7656 -876.127 173 182 199 
237105 97077.7 1.43452e+06 55 63 74 
-228.745 178.137 -3831.37 62 74 88 
-53.9184 -20.0019 -776.298 181 191 203 
-92.9286 5.03322 -1394.22 59 68 83 
-64.7737 21.9728 -952.033 51 60 75 
-74.4289 10.9613 -1070.68 148 157 172 
-113.005 16.045 -1543.96 166 173 191 
-70.6581 7.07691 -966.299 105 112 130 
-180.061 12.0577 -3066.18 69 78 93 
-70.9433 3.4519 -942.248 60 65 85 
-218.065 9.25171 -3759.22 110 119 134 
-79.5748 -2.39588 -1077.26 157 164 182 
-83.2594 -5.81937 -1127.01 77 84 100 
-50.0668 28.7723 -706.463 54 63 80 
-60.956 22.4258 -817.862 59 67 86 
-75.2031 1.6053 -919.394 161 170 185 
-56.341 9.23204 -837.288 109 118 133 
-102.445 -25.2428 -1372.66 76 81 100 
-12.2994 -2.7664 -110.777 151 158 174 
-34172.8 -7739.49 -505009 153 162 179 
-182.113 -5.12121 -2471.87 164 171 189 
-80130.1 5514.8 -1.37787e+06 182 191 206 
-154.534 10.5661 -2122.97 139 146 164 
-229.65 16.601 -3353.93 156 165 180 
-145.68 14.3808 -2001.62 102 109 127 
-124.207 22.7981 -1706.98 142 151 168 
-148.092 36.4622 -2163.97 163 172 187 
-103.076 30.9962 -1416.96 186 195 212 
-108.101 4.26097 -1299.96 66 75 92 
-65630.2 28575.7 -1.20152e+06 63 75 89 
-47.2453 7.69999 -547.743 73 82 99 
-44721.9 -1159.33 -612076 166 173 191 
-12.2824 -2.78653 -110.796 58 65 81 
-10.3737 -2.29198 -92.6384 119 126 142 
-0.110519 0.00664511 1.39732 82 81 79 
-0.0317029 -0.70485 1.63883 118 117 115 
7.40929 2.39693 13.9166 9 13 24 
7.45047 2.53786 14.2889 1 5 16 
7.39142 2.39613 14.1038 5 9 21 
6.30587 2.42086 12.4573 126 125 130 
7.35965 2.3791 13.6949 29 33 44 
7.41001 2.58878 14.0282 65 66 70 
-0.199194 0.683471 1.37551 108 104 101 
7.36495 2.38258 13.85 15 19 30 
7.37291 2.39038 13.9048 15 22 32 
7.40289 2.39975 14.1243 5 9 21 
7.41275 2.40254 14.1981 23 27 38 
7.39123 2.31896 14.1191 40 46 58 
7.34956 2.30949 14.0869 18 27 36 
6.53718 2.47041 14.4052 19 22 31 
7.34677 2.30502 13.8279 25 29 40 
6.48072 2.29341 14.2939 141 146 152 
-0.210904 0.654334 1.39231 84 83 81 
7.43355 2.62817 14.2618 31 34 43 
6.79999 2.24345 12.3255 143 148 152 
7.24803 2.38053 12.2531 28 33 36 
7.00424 2.59211 14.4498 108 109 113 
7.08074 2.45356 14.3925 20 20 28 
6.90943 2.53771 14.1454 15 16 20 
6.71686 2.47895 14.174 31 32 37 
7.44507 2.37577 14.3924 118 123 129 
6.55854 2.32567 14.4342 141 146 150 
-0.0881886 0.742103 1.26257 45 43 31 
7.36908 2.32173 14.1207 15 22 32 
6.96533 2.55058 14.4509 40 41 46 
6.84897 2.53595 14.4436 30 31 36 
6.69719 2.21182 12.1792 147 152 158 
-0.159583 -0.134091 1.47481 93 92 90 
-0.221225 0.54531 1.42914 118 116 117 
-0.177369 0.086169 1.43983 2 0 1 
-0.200296 0.0319571 1.44905 1 0 0 
-0.232392 -0.00292484 1.4847 101 100 98 
3.76948 1.89247 7.23309 103 103 105 
-0.240155 0.644785 1.48226 7 8 10 
-0.248592 0.535751 1.50275 0 0 15 
-0.245498 0.129707 1.6025 95 93 94 
-0.223275 0.0383412 1.47879 102 101 99 
-0.253185 0.534834 1.51789 0 0 7 
-0.240302 0.564659 1.47362 117 117 115 
-0.248601 0.57105 1.50727 2 0 3 
-0.24104 0.153219 1.53796 1 0 0 
-0.244992 0.0160132 1.52649 82 81 79 
-0.247456 0.121207 1.56448 85 85 85 
-0.0789723 0.688664 1.30816 4 0 0 
-0.237465 0.0347884 1.50862 1 0 0 
-0.196702 -0.167248 1.56645 4 3 1 
-0.174912 0.0530271 1.42726 81 79 80 
-0.255275 0.0301894 1.60075 17 16 14 
-0.241154 0.606188 1.48017 91 90 95 
-0.104947 -0.463522 1.59541 29 28 26 
-0.189463 -0.144316 1.52517 19 18 14 
-0.259395 0.513025 1.5128 5 1 0 
-0.0981802 0.0101521 1.39395 3 0 0 
-0.238596 0.530562 1.47361 137 136 142 
-0.0677176 0.688333 1.30736 127 126 122 
-0.18574 -0.268675 1.56614 87 84 79 
-0.207925 0.60083 1.40679 103 101 102 
-0.188447 -0.124524 1.49709 122 120 121 
-0.346076 0.737225 1.41862 131 128 123 
-0.212915 -0.0820725 1.53932 101 99 100 
-0.254479 0.0284902 1.5712 100 100 100 
-0.0546986 -0.61118 1.61234 35 32 27 
-0.0665078 -0.217692 1.46132 90 86 83 
-0.247111 0.0977733 1.59592 1 0 0 
-0.246758 0.127907 1.5811 92 91 89 
-0.237877 0.115674 1.52654 81 81 81 
-0.253607 0.058229 1.56104 8 4 5 
-0.242392 0.621506 1.46178 81 82 86 
-0.241909 -0.0156562 1.5258 38 34 31 
-0.250191 0.0319708 1.53753 112 108 109 
-0.256355 0.0311493 1.58321 101 100 98 
-0.183533 -0.20881 1.53595 96 86 85 
-0.244718 0.638544 1.47474 18 19 23 
-0.238129 0.612691 1.4729 54 54 52 
-0.24806 0.106256 1.57802 82 80 81 
-0.286692 0.711317 1.3889 16 16 8 
-0.253353 0.0649021 1.57009 14 13 11 
-0.217399 0.743394 1.28911 101 91 82 
-0.245744 0.642064 1.491 24 23 29 
0.0096544 0.806663 2.57403 78 77 75 
-0.0453723 -0.791543 1.66234 89 80 109 
-0.141689 0.697662 1.32031 51 47 46 
0.59151 0.776318 1.3949 87 86 84 
-0.169161 0.266198 1.41704 64 62 63 
-0.223404 0.531015 1.43289 95 94 92 
-0.198882 0.669663 1.38029 41 40 38 
-0.373874 0.742289 1.50803 73 72 68 
-0.0618601 -0.381058 1.52773 37 33 30 
-0.258209 0.06283 1.58113 57 57 57 
-0.257435 0.691804 1.40848 102 99 94 
-0.343416 0.721376 1.44886 70 69 67 
-0.236437 0.0814319 1.52418 44 44 46 
0.602752 0.733295 1.39548 32 30 33 
-0.305687 0.725309 1.3688 70 69 64 
