ply                 
format ascii 1.0    
element vertex 1139
property float x    
property float y    
property float z    
property uchar red  
property uchar green
property uchar blue 
end_header          
-0.0917051 -0.251061 1.4866 36 33 28 
-0.116374 -0.0528213 1.4184 32 28 25 
-0.108795 -0.0403407 1.40635 116 113 106 
-0.0967117 -0.307174 1.51258 15 14 10 
-0.134865 0.00798157 1.40644 4 2 3 
-0.148527 0.0302334 1.41244 91 91 91 
-0.075872 0.0106309 1.38906 112 111 109 
-0.0782895 -0.239999 1.47588 55 50 46 
-0.155173 0.633472 1.35777 107 106 104 
-0.0674023 -0.236008 1.46913 19 18 14 
-0.100764 -0.130559 1.44647 27 26 24 
-0.0989071 -0.303055 1.51305 120 119 117 
-0.123183 0.0292205 1.4008 1 0 0 
-0.0913459 -0.140311 1.4446 103 102 100 
-0.134524 0.39842 1.38743 72 73 68 
-0.106041 0.527521 1.36082 101 100 96 
-0.120347 0.0981218 1.40619 73 73 73 
-0.151423 -0.154056 1.47934 15 11 10 
-0.113321 -0.0529204 1.41717 46 41 35 
-0.075856 -0.0955953 1.42103 23 22 20 
-0.0895277 -0.10789 1.43394 26 25 23 
-0.118008 -0.151754 1.46388 23 22 20 
-0.092029 -0.251344 1.48686 45 42 37 
-0.0716705 -0.303814 1.49917 14 10 7 
-0.104661 0.666039 1.33534 99 97 100 
-0.0150524 -0.336138 1.51125 54 50 49 
-0.133219 0.689011 1.31686 107 105 108 
-0.0976962 -0.151123 1.45235 21 20 18 
-0.104001 0.516141 1.36456 94 92 93 
-0.0760451 0.0107162 1.38857 97 96 94 
-0.0958711 0.0573326 1.38932 71 70 68 
-0.00698886 0.095308 1.38217 7 3 0 
5.49582 2.86398 23.6445 35 45 46 
-0.056282 -0.325801 1.50001 21 18 13 
-0.126261 0.0183138 1.40104 77 75 76 
-0.0471442 0.724036 1.2964 8 7 5 
-0.16532 -0.0416329 1.43456 118 115 110 
-0.0579115 -0.275663 1.47909 40 35 32 
-0.0592306 -0.243781 1.46684 40 35 31 
-0.0863077 0.0978689 1.39435 67 65 66 
-0.148926 0.098165 1.4199 83 82 80 
-0.108651 0.663169 1.33647 137 133 134 
-0.0784038 0.527338 1.35472 92 92 92 
-0.0775258 -0.325002 1.50914 51 50 46 
-0.108612 -0.0885631 1.4357 40 39 37 
-0.133186 -0.10644 1.45244 28 27 25 
-0.0956874 0.0577638 1.39005 72 71 69 
-0.0819742 -0.0935681 1.4235 102 100 101 
-0.0877509 -0.228934 1.47628 38 34 33 
-0.143245 0.037019 1.40858 0 0 0 
-0.084885 -0.0879372 1.42317 113 111 112 
-0.12594 0.0180186 1.40148 82 80 81 
-0.10844 0.662755 1.33701 124 120 121 
-0.100335 0.243123 1.38585 71 70 68 
-0.134323 0.399221 1.38793 57 58 53 
-0.0546156 0.0953651 1.38968 91 91 91 
-0.0955687 0.0577033 1.38976 72 71 69 
-0.0474344 0.126794 1.38498 95 91 92 
-0.0275934 -0.709851 1.64931 42 40 41 
-0.111431 -0.204627 1.4806 86 82 83 
-0.0759228 -0.094311 1.42003 131 130 126 
-0.0935054 0.232977 1.38659 69 68 66 
-0.155459 0.0306244 1.41727 9 9 9 
-0.161898 0.039009 1.4185 72 71 67 
-0.0790295 -0.122026 1.43259 40 37 30 
-0.106893 -0.119264 1.44656 116 115 113 
-0.053532 0.0937983 1.39005 56 58 57 
5.02843 2.61506 19.7425 112 117 121 
-0.095425 0.18737 1.39073 69 65 66 
-0.048717 0.225559 1.37391 81 80 78 
-0.174736 0.257836 1.42215 69 67 68 
-0.106659 0.526731 1.36095 50 49 45 
-0.136971 0.685541 1.33165 148 145 138 
-0.146103 0.719817 1.31724 39 34 31 
-0.0334367 -0.7878 1.6458 39 36 67 
-0.0489755 0.128219 1.38321 81 79 80 
-0.0592049 0.211019 1.3829 57 55 56 
-0.0600431 0.211587 1.38185 59 57 58 
-0.101333 0.216403 1.3874 75 74 72 
-0.10956 -0.0727256 1.42834 142 141 139 
-0.115805 -0.0806205 1.43563 32 30 31 
0.0203089 -0.0217265 1.39583 27 25 12 
0.0112639 -0.332917 1.51679 126 124 125 
-0.1279 -0.178778 1.47648 24 23 21 
-0.0448127 -0.785708 1.64578 127 129 150 
-0.132051 -0.0943468 1.44957 17 16 14 
-0.0962203 -0.0583677 1.41356 46 39 33 
-0.150688 -0.0562182 1.43498 117 114 105 
-0.0885787 -0.445558 1.56293 49 45 42 
-0.0780565 0.715671 1.29928 82 78 79 
-0.106893 0.146978 1.39777 8 4 5 
-0.14107 -0.102918 1.45651 35 34 30 
-0.0129672 -0.22281 1.45591 31 24 18 
-0.076671 -0.107409 1.42434 19 17 18 
-0.0576286 -0.445686 1.54367 46 42 39 
-0.0458858 -0.0212191 1.38202 30 29 27 
-0.130785 -0.0798808 1.44184 5 3 4 
-0.0842615 -0.261659 1.48653 35 31 28 
0.0099749 -0.252544 1.46368 98 98 96 
0.00169999 -0.232855 1.46086 1 0 0 
-0.0843088 0.0280899 1.38956 101 100 98 
-0.108517 -0.307676 1.51844 17 16 14 
-0.116354 -0.227609 1.48945 21 17 14 
-0.14283 -0.227429 1.50393 31 28 21 
-0.0739993 -0.146849 1.43916 22 19 14 
-0.108112 -0.384112 1.54844 18 14 11 
-0.0847414 -0.317176 1.51139 29 28 24 
-0.137653 -0.210741 1.49513 43 39 38 
-0.12902 -0.204517 1.48855 27 23 20 
-0.0123016 -0.199584 1.45502 123 107 107 
-0.150453 -0.202706 1.49962 98 97 95 
-0.152872 -0.163697 1.48291 52 48 45 
-0.00633011 0.0651187 1.38261 115 113 114 
-0.0908473 0.495018 1.36614 108 106 107 
-0.107471 -0.189747 1.47185 10 10 8 
-0.0456058 -0.352042 1.50689 129 129 127 
0.000596434 -0.11859 1.43705 137 136 134 
-0.124376 -0.0205539 1.40535 14 10 1 
-0.0633577 -0.225302 1.46162 39 36 31 
-0.0399428 -0.313082 1.4939 50 46 43 
-0.00416778 -0.379073 1.52956 116 115 111 
-0.0817818 -0.132347 1.43721 133 130 125 
-0.131988 -0.0328142 1.41521 37 33 22 
-0.0291843 -0.140051 1.43587 31 27 24 
-0.102783 0.0196303 1.39352 83 82 80 
0.0209631 -0.249385 1.46634 86 85 83 
-0.0261425 -0.415369 1.53568 40 34 36 
-0.0954436 -0.32537 1.51744 35 32 27 
-0.0377155 -0.691985 1.60939 26 25 21 
-0.0173531 -0.382763 1.52809 117 113 112 
-0.136571 -0.165279 1.47334 108 107 105 
0.0176581 -0.37009 1.53264 108 108 106 
0.052745 0.0657463 1.40478 90 90 90 
-0.000334307 0.256794 1.3727 19 18 16 
0.0189261 -0.34131 1.52159 110 109 104 
-0.165692 -0.130905 1.47963 106 106 106 
-0.136163 0.679897 1.33972 112 109 104 
-0.0220401 -0.321548 1.50078 79 75 74 
-0.161429 0.0216804 1.41864 68 68 66 
-0.0614444 -0.0956274 1.41288 49 48 46 
-0.0416254 -0.298595 1.4866 87 83 82 
-0.0519766 -0.504638 1.56869 108 107 105 
-0.000672483 0.0413119 1.38551 73 71 72 
0.05731 0.631704 1.36483 126 125 123 
-0.0657922 0.0288263 1.38603 73 72 70 
-0.0769721 0.264405 1.37891 87 83 82 
0.0353379 0.452056 1.37189 117 114 105 
-0.171669 0.0385324 1.4271 116 115 110 
-0.142217 -0.0299747 1.41767 44 41 34 
-0.077784 -0.0627774 1.40235 43 42 40 
-0.0674753 -0.126443 1.42505 97 92 88 
-0.215257 0.508367 1.44343 76 75 73 
-0.0497884 -0.177605 1.44102 76 72 69 
-0.0250601 -0.395204 1.52948 57 53 52 
-0.0594484 -0.292772 1.488 29 24 20 
-0.160984 -0.0765541 1.45358 45 44 40 
0.0385225 0.697273 1.32242 87 83 80 
-0.118919 -0.166895 1.46836 15 14 9 
0.00237672 -0.189216 1.45991 106 96 94 
-0.124683 -0.187853 1.48232 99 98 94 
0.0381959 0.689183 1.33563 95 92 83 
-0.0272703 -0.692277 1.60885 34 33 31 
-0.158559 -0.0921485 1.45985 87 86 84 
-0.0133802 0.223684 1.37011 89 85 84 
-0.142767 -0.0207337 1.41326 44 42 30 
-0.00212341 -0.400054 1.53798 109 103 105 
-0.0720461 -0.20451 1.45925 14 9 6 
-0.109966 -0.214215 1.4826 19 18 16 
0.0469325 0.717279 1.32377 90 90 82 
0.0160748 -0.227835 1.46486 106 95 93 
-0.0403793 -0.216988 1.4573 103 102 100 
-0.00674838 0.444199 1.35697 92 88 85 
-0.0372469 -0.0612561 1.3994 132 132 132 
-0.075756 -0.0523557 1.39985 130 126 123 
-0.0871644 0.0742843 1.39043 61 59 60 
-0.101388 -0.212007 1.47495 118 112 112 
-0.0108718 -0.0649773 1.41208 90 86 85 
0.0207998 0.054687 1.39013 67 65 66 
-0.0271406 0.145118 1.37268 73 69 70 
-0.15855 0.714441 1.32257 62 61 59 
0.0306315 0.727729 1.30999 142 139 134 
-0.0575437 -0.217558 1.4555 33 29 26 
-0.0369749 0.156517 1.37416 76 75 73 
-0.072522 0.210493 1.38244 61 59 60 
-0.241487 0.0874703 1.60377 58 58 58 
-0.049917 0.343823 1.36257 50 49 47 
-0.168996 0.698032 1.33001 83 82 78 
-0.0263288 -0.777893 1.64698 104 109 131 
-0.249918 0.552543 1.50683 0 0 2 
-0.253734 0.543578 1.52213 25 23 28 
-0.0915476 -0.299072 1.50846 24 20 17 
-0.0228744 -0.0373154 1.39311 50 49 44 
-0.118306 -0.301343 1.51873 129 123 123 
-0.0185818 -0.308457 1.50135 13 12 10 
-0.0846346 -0.306054 1.50823 119 116 111 
-0.114389 -0.247019 1.49551 24 20 17 
-0.153518 -0.219742 1.5059 11 7 4 
-0.242017 0.622813 1.48407 89 88 93 
-0.243552 0.349058 1.53254 117 116 111 
-0.0881539 -0.176838 1.45614 33 29 28 
-0.229541 0.0841438 1.51097 77 75 76 
-0.128508 -0.0614981 1.42938 54 51 46 
-0.0629925 -0.1592 1.43707 8 4 1 
-0.146458 -0.06637 1.44256 20 17 12 
-0.118172 -0.133534 1.45898 12 11 9 
-0.150056 -0.123133 1.46606 100 98 99 
-0.135482 -0.119783 1.46113 12 11 9 
-0.119579 -0.0983424 1.44554 16 14 15 
-0.0814179 -0.0796206 1.41753 39 38 34 
0.588035 0.760752 1.56165 81 82 77 
-0.118563 -0.345509 1.5428 19 14 10 
-0.088631 -0.0470969 1.40308 8 5 0 
-0.12798 -0.257351 1.50957 2 0 1 
-0.0605298 -0.191826 1.44809 121 117 114 
-0.176124 0.107525 1.43895 119 117 118 
-0.19912 -0.217561 1.58162 104 100 99 
-0.0554997 -0.692766 1.62681 34 32 33 
-0.0722747 -0.193624 1.45608 14 10 7 
-0.166984 -0.179825 1.49809 102 99 94 
-0.0275291 0.134786 1.37903 88 86 87 
-0.027351 -0.787585 1.64875 208 213 233 
-0.000982592 -0.340728 1.51842 150 146 145 
-0.0747287 -0.179972 1.45274 4 0 0 
-0.157277 -0.115607 1.4682 32 31 29 
-0.242895 0.613591 1.49214 9 10 14 
-0.0827942 -0.47292 1.57193 26 25 23 
-0.0553904 -0.457607 1.55465 45 42 37 
-0.0969477 -0.451737 1.57048 31 28 23 
-0.131323 -0.294335 1.52428 118 117 112 
-0.147305 -0.0810719 1.45137 31 28 23 
-0.180012 -0.0560478 1.44959 109 105 102 
-0.0906382 -0.0370329 1.3992 10 7 0 
-0.0962545 -0.0878741 1.42847 114 113 111 
-0.159313 -0.203354 1.50161 22 18 15 
-0.219641 0.0326973 1.47407 3 0 0 
-0.234446 0.108043 1.52053 1 0 0 
-0.0533891 -0.366583 1.51836 43 38 32 
-0.119819 -0.32803 1.53225 17 14 9 
0.0435957 0.720698 1.3249 114 111 104 
-0.181118 0.0121433 1.43369 128 124 121 
-0.128178 -0.116378 1.4554 27 26 24 
-0.171971 -0.0927591 1.46732 41 40 38 
-0.212887 0.0328251 1.46605 4 3 1 
-0.159238 -0.105421 1.46602 1 0 0 
-0.198247 -0.0035408 1.43947 114 109 106 
-0.166593 -0.165164 1.49251 77 73 74 
-0.143264 -0.321164 1.56702 11 7 4 
-0.171403 0.620544 1.37439 95 94 92 
-0.0513476 -0.119526 1.41959 113 109 106 
-0.248136 0.511847 1.47746 110 109 107 
-0.236503 -0.072694 1.59525 27 23 20 
-0.187165 -0.0939097 1.47377 37 36 32 
-0.207854 0.0220537 1.46375 93 91 92 
-0.161707 0.238356 1.41503 76 74 75 
-0.204946 -0.241809 1.60436 27 30 39 
0.0124517 -0.044272 1.40961 107 105 106 
-0.0689334 -0.452892 1.55664 37 33 30 
-0.177558 -0.22427 1.52204 101 100 96 
-0.0561737 -0.305649 1.49431 45 42 37 
0.0664654 -0.0358354 1.42438 48 47 45 
-0.00363636 -0.431075 1.55215 57 53 52 
-0.070794 -0.167016 1.44407 90 86 83 
-0.132248 -0.315387 1.53174 47 44 37 
-0.0490925 -0.693177 1.61903 32 31 29 
-0.106595 -0.176084 1.46652 101 97 96 
-0.160583 0.0493467 1.41812 80 79 77 
-0.0790382 -0.523928 1.5911 108 104 101 
-0.00326713 0.157622 1.3798 69 67 68 
-0.136784 0.358789 1.39887 111 107 106 
-0.220708 0.683901 1.40507 95 94 92 
-0.183237 -0.0652251 1.46022 1 0 0 
0.00907393 0.11351 1.38771 12 10 11 
-0.0313518 -0.227978 1.45214 11 11 3 
-0.0330966 -0.765681 1.65091 194 197 212 
-0.0590601 -0.134586 1.4284 115 111 108 
-0.0742896 -0.295657 1.49944 45 41 38 
-0.251355 0.643442 1.51588 105 103 104 
-0.24604 0.543089 1.49781 116 115 133 
-0.044334 -0.266167 1.47433 121 120 116 
-0.110074 -0.0650642 1.42071 106 103 98 
-0.045962 -0.333959 1.50273 46 42 41 
-0.172036 -0.167379 1.50069 124 120 117 
-0.0512679 -0.397406 1.52945 96 92 89 
-0.139261 -0.132619 1.46674 85 84 82 
-0.0601071 -0.203895 1.4542 97 93 90 
-0.00630081 0.10751 1.3822 46 45 43 
0.573382 0.740004 1.58846 69 66 57 
-0.233728 0.203464 1.50026 38 35 30 
-0.137252 0.0894939 1.41644 5 4 2 
-0.259167 0.588344 1.52298 132 99 30 
-0.0958374 -0.427213 1.56097 110 105 101 
-0.246852 0.530227 1.48228 4 5 23 
-0.151154 -0.273724 1.53405 94 93 91 
-0.248538 0.544988 1.51333 130 131 149 
0.0239706 -0.228539 1.47355 80 76 75 
-0.0664734 -0.355695 1.51754 98 95 90 
0.0361995 0.726195 1.32011 111 108 101 
-0.250798 0.562368 1.51871 5 3 6 
-0.244713 0.528202 1.49188 79 78 84 
-0.0493672 0.116205 1.38447 78 74 75 
0.0311242 -0.27218 1.4755 57 57 57 
-0.181551 0.0774253 1.44243 77 76 74 
-0.0294148 -0.0950055 1.41975 108 107 105 
-0.174137 -0.180614 1.50956 94 91 86 
-0.0494293 0.217484 1.37686 58 56 57 
-0.0283792 -0.311875 1.49903 45 41 38 
-0.138465 -0.258462 1.51693 38 34 31 
-0.319155 0.74992 1.30866 78 76 63 
-0.153399 -0.232101 1.51001 19 15 12 
-0.277457 0.701169 1.41983 73 73 65 
0.547444 0.760307 1.62131 64 63 58 
-0.248437 0.581924 1.50693 86 82 83 
-0.0363864 0.0545109 1.38228 40 39 37 
-0.236991 0.1936 1.50723 7 4 0 
-0.150666 0.211502 1.41294 50 48 51 
-0.229471 0.70756 1.38329 50 48 49 
-0.210912 0.103962 1.47551 68 68 68 
-0.136705 -0.185592 1.48566 62 58 59 
-0.0678748 0.06575 1.39418 56 54 55 
-0.0570043 0.0860893 1.39539 59 57 58 
-0.0484248 0.105514 1.38231 71 70 68 
-0.175387 0.234081 1.42659 79 77 78 
-0.218591 0.508659 1.43649 61 61 59 
-0.0475429 0.727032 1.30085 97 96 92 
0.0139614 -0.143309 1.44994 93 92 88 
-0.0372269 -0.453468 1.54647 83 81 82 
-0.0538664 -0.232879 1.45924 105 101 98 
-0.0814914 -0.0684708 1.41252 27 26 21 
-0.17685 -0.0356782 1.43891 25 21 18 
-0.04531 -0.514897 1.5705 102 97 93 
0.0190578 0.688809 1.33224 115 112 103 
-0.0634797 -0.259517 1.47419 30 26 23 
-0.0349026 0.271486 1.36933 2 1 0 
-0.168847 0.297853 1.41686 100 100 100 
0.0117877 -0.41095 1.54513 30 26 23 
-0.101397 -0.315737 1.51738 27 26 22 
-0.0472623 -0.208927 1.45183 120 119 115 
-0.101572 -0.1586 1.45678 26 22 19 
-0.0728909 -0.360331 1.52127 124 120 117 
-0.00976456 0.488128 1.35643 97 94 85 
-0.030057 0.0812536 1.38131 80 76 73 
-0.033311 -0.342816 1.50688 122 118 115 
-0.173382 -0.121236 1.48022 31 30 28 
0.00254695 -0.325632 1.50982 30 26 23 
0.0620115 0.0716053 1.40813 31 29 30 
0.0283928 0.713783 1.32015 104 99 96 
0.00837772 -0.377763 1.53233 99 98 96 
-0.0108311 -0.171127 1.451 98 94 91 
-0.0363851 0.0392277 1.38126 79 78 76 
-0.0743544 -0.228639 1.46756 30 29 25 
-0.147092 0.10848 1.41916 83 82 78 
0.0492153 -0.0447974 1.42095 32 32 30 
-0.0122292 -0.0953715 1.42463 30 25 19 
0.0764618 0.0137702 1.42161 7 3 2 
0.0359065 -0.0206899 1.4015 20 19 15 
0.0360956 0.44378 1.3749 115 114 109 
-0.0110142 -0.425393 1.5452 34 31 26 
0.0473452 0.0430876 1.40246 75 74 72 
-0.0777861 -0.515397 1.58251 37 36 34 
-0.0362859 -0.0520422 1.39589 95 94 92 
-0.0639798 -0.069187 1.4009 34 30 29 
-0.0431045 0.0897982 1.37843 3 0 0 
0.020298 -0.260544 1.46759 101 100 96 
-0.172868 -0.0993773 1.47103 25 24 22 
0.0781362 0.0446022 1.42044 14 12 13 
0.0339541 -0.0923274 1.43941 109 108 104 
0.0256947 -0.0852522 1.43435 1 0 0 
0.0542621 0.644692 1.36107 93 91 92 
0.0605955 0.617092 1.37899 118 116 117 
-0.0437825 -0.0697426 1.40318 27 22 18 
-0.169698 -0.0198298 1.42731 48 47 45 
-0.0503277 -0.167999 1.43596 31 30 28 
0.0449658 -0.128899 1.45717 116 114 115 
0.0538974 0.626768 1.36787 9 8 6 
0.0245871 -0.354333 1.52837 123 118 115 
0.0509549 -0.0340537 1.41477 128 127 125 
-0.00487061 -0.135167 1.43902 110 109 107 
0.072565 0.721201 1.34067 87 82 78 
-0.034013 -0.12899 1.43023 111 107 104 
-0.0221798 -0.110906 1.4263 90 89 87 
-0.00495515 -0.0580924 1.40842 117 116 112 
-0.0484091 0.153558 1.38684 81 81 81 
-0.0405015 -0.7616 1.64117 200 209 224 
-0.0352476 -0.743072 1.64708 35 36 66 
-0.0149011 0.155128 1.37673 70 68 69 
-0.0290184 -0.177969 1.44501 60 59 55 
0.0300697 0.0369577 1.39086 52 50 51 
-0.00701689 0.136075 1.3748 73 71 72 
-0.0705363 0.22532 1.37932 50 49 54 
0.0463574 0.562281 1.37736 56 56 56 
-0.0441865 -0.794413 1.65528 104 113 128 
-0.0215161 -0.78269 1.63323 228 232 255 
-0.0463397 -0.780334 1.64066 165 167 190 
-0.249017 0.538564 1.5097 3 1 22 
-0.0605941 -0.159689 1.44275 18 14 11 
-0.0372411 -0.325199 1.49785 20 17 12 
-0.137271 -0.314615 1.5473 18 14 5 
-0.190575 -0.306246 1.56862 29 31 46 
-0.196196 -0.26696 1.59391 206 207 211 
-0.102593 -0.202101 1.47303 116 115 111 
-0.253563 0.54487 1.525 16 16 28 
-0.253429 0.547367 1.51252 104 105 110 
-0.0806934 -0.0898701 1.43064 1 0 0 
-0.24619 0.559743 1.4898 141 141 143 
-0.137426 -0.0330069 1.40887 25 23 11 
0.0666392 -0.0358221 1.42394 28 27 23 
0.0197641 -0.0228186 1.39594 25 25 13 
0.0545461 0.625181 1.36425 118 117 115 
-0.140143 -0.0506788 1.43039 39 38 33 
-0.0418587 -0.167525 1.44209 31 27 24 
0.0732653 -0.0623177 1.44089 26 23 18 
-0.247526 0.576869 1.49372 94 94 92 
-0.252152 0.574851 1.51188 116 116 116 
0.0367427 -0.0931154 1.44546 128 127 123 
0.0479569 0.0117748 1.40284 9 7 8 
-0.381056 0.760376 1.63101 139 131 120 
-0.0487359 -0.12159 1.42486 17 16 12 
0.0477421 -0.129041 1.46261 144 144 142 
0.0551379 0.0315621 1.40692 124 123 121 
-0.181624 -0.131698 1.49266 110 109 105 
-0.0181097 -0.452024 1.556 17 16 14 
0.00127914 -0.194893 1.46263 115 101 101 
-0.0942352 0.492003 1.35811 106 105 103 
-0.0468481 -0.237644 1.46675 17 13 12 
-0.0059471 -0.250678 1.45909 98 97 95 
-0.0855663 -0.426232 1.55083 126 123 118 
-0.114681 -0.303647 1.52888 118 112 112 
-0.0332252 0.0573289 1.38429 0 0 0 
0.062438 0.220692 1.40062 106 105 103 
-0.204254 0.125577 1.47106 1 0 0 
-0.0263853 -0.761264 1.6398 100 110 122 
0.0232328 -0.345161 1.53114 11 12 6 
0.0178179 -0.357067 1.53204 8 7 5 
0.0253519 -0.362067 1.53768 110 110 108 
0.0205149 -0.371124 1.53842 117 113 112 
-0.039962 -0.370744 1.51731 34 30 21 
-0.0943661 -0.38592 1.54356 15 11 8 
-0.0166882 -0.414075 1.54192 128 124 121 
-0.000719325 0.041433 1.38541 83 79 78 
0.0207193 -0.248774 1.46839 12 12 10 
-0.219061 0.152716 1.48633 94 92 95 
-0.231186 0.154142 1.50978 1 0 2 
0.0495845 0.359672 1.38237 7 3 2 
-0.201533 -0.179169 1.60753 18 14 11 
0.0138234 0.143001 1.38146 97 96 94 
-0.017072 0.222868 1.36448 88 87 85 
-0.03198 -0.402049 1.53017 36 32 29 
-0.0922876 -0.0677535 1.42501 125 124 122 
-0.171948 0.691244 1.31984 109 104 101 
-0.174056 0.0863105 1.44788 91 91 91 
-0.0469585 0.194161 1.36913 100 99 97 
0.0118419 -0.0434609 1.40779 105 105 103 
0.000356742 0.257086 1.37408 1 0 0 
-0.157514 0.0429423 1.42737 85 85 85 
-0.252177 0.640886 1.5147 114 112 113 
-0.0565183 -0.645122 1.62019 128 123 120 
-0.184802 -0.225621 1.5588 107 96 94 
0.0676872 -0.0483331 1.4298 37 36 34 
0.00317093 -0.382187 1.53362 130 124 124 
-0.0311398 -0.428044 1.54337 39 38 34 
0.0607085 0.0718747 1.40496 23 22 20 
-0.246088 0.608722 1.48774 0 0 7 
-0.0059998 0.256144 1.36459 109 109 107 
-0.00269467 0.0656746 1.39013 114 110 109 
-0.121668 -0.3355 1.54198 35 32 27 
-0.209904 0.174565 1.47052 85 84 82 
-0.250652 0.595993 1.5032 96 97 91 
-0.259481 0.591795 1.51664 118 98 74 
-0.234236 0.347151 1.51002 133 132 127 
-0.0148202 -0.0663676 1.42128 111 112 107 
-0.0492413 -0.195827 1.44883 110 106 103 
-0.250672 0.583514 1.50376 76 76 74 
-0.0144621 -0.788247 1.63994 67 75 96 
-0.192239 -0.28732 1.57724 215 214 220 
-0.0205891 -0.732908 1.64609 70 77 96 
0.0923473 0.0237969 1.43381 1 0 0 
-0.0729303 -0.300072 1.51034 88 85 80 
-0.256926 0.588227 1.52511 112 88 62 
0.000840802 -0.118299 1.43907 131 127 126 
0.0661445 0.122339 1.40635 105 103 104 
0.106346 0.0458291 1.44878 4 3 1 
-0.074353 -0.313181 1.5036 33 31 19 
-0.060031 -0.0823635 1.40942 128 126 127 
0.0263319 -0.0854626 1.43604 10 9 7 
-0.0588849 -0.13532 1.43392 36 33 28 
-0.0613225 -0.0696349 1.40916 29 27 28 
-0.0374603 -0.065457 1.40522 34 31 26 
-0.00612625 -0.227236 1.46292 36 31 27 
-0.0020219 0.0970953 1.38819 127 126 122 
0.0196856 -0.228363 1.47483 102 93 94 
-0.249628 0.549327 1.49593 143 146 155 
-0.180641 -0.220267 1.54274 14 4 2 
-0.244945 0.554341 1.48114 94 95 99 
-0.0155495 -0.383905 1.53231 126 125 121 
-0.138902 -0.390878 1.62762 205 203 216 
-0.548116 0.657147 1.23692 145 140 137 
-0.0014813 -0.0587252 1.41144 91 90 88 
-0.0313761 -0.195512 1.45008 12 7 3 
0.0427802 0.0206252 1.39875 1 1 0 
0.0652813 0.0195422 1.41585 114 114 114 
-0.119355 0.0188603 1.40842 123 122 120 
0.0207183 -0.260775 1.46875 107 106 104 
-0.0123691 0.471351 1.34857 15 12 7 
-0.0877878 -0.40478 1.55026 86 85 81 
-0.029379 -0.0602884 1.40079 128 127 123 
-0.0346561 -0.333057 1.50992 135 131 128 
-0.20521 -0.15448 1.59043 90 89 85 
-0.120025 0.101125 1.41232 104 102 103 
0.0645796 -0.0903767 1.45296 98 94 93 
0.0516382 -0.0336812 1.41895 104 102 103 
-0.108601 -0.256418 1.50239 36 33 26 
-0.0261854 -0.0961458 1.42715 82 81 79 
0.00283314 -0.438972 1.55583 32 28 25 
-0.0503215 0.0869026 1.3881 77 75 76 
-0.00853362 -0.0956561 1.42589 28 27 23 
-0.0190131 -0.323187 1.50866 87 83 82 
-0.0492326 0.118801 1.38434 86 86 86 
-0.053789 -0.477016 1.5594 12 11 7 
-0.154537 -0.186446 1.49286 83 82 80 
-0.0271639 -0.229711 1.46167 3 3 0 
-0.169127 -0.0328141 1.4286 109 104 100 
-0.0313238 -0.8033 1.64711 208 215 234 
-0.120139 -0.660204 1.38912 88 89 117 
-0.0624231 -0.698824 1.64467 102 101 109 
-0.0737345 -0.238256 1.48441 40 35 31 
-0.137492 0.35826 1.39696 132 128 125 
-0.234418 0.19365 1.51196 7 3 0 
-0.0805496 -0.120314 1.44083 108 105 100 
-0.217533 -0.147499 1.62281 124 133 142 
-0.136619 0.397159 1.38131 69 68 66 
-0.0363793 -0.392781 1.52205 122 118 115 
-0.0686402 -0.60938 1.63203 26 24 29 
0.00694089 -0.38554 1.54587 125 119 119 
-0.0289747 -0.642597 1.6032 34 30 29 
-0.042493 -0.355376 1.51241 35 36 31 
-0.17975 0.0775524 1.45055 64 64 62 
0.00331388 -0.334466 1.5179 144 143 141 
-0.245438 0.223692 1.54842 6 2 0 
-0.0510982 -0.305282 1.50248 106 103 96 
0.00798615 -0.269273 1.4645 122 119 112 
-0.0112197 -0.696657 1.6237 48 47 45 
0.00850926 0.105954 1.38341 13 12 10 
0.00298296 -0.235695 1.46389 84 83 81 
-0.158411 -0.0508928 1.43938 41 38 33 
-0.139677 -0.0576611 1.44749 22 19 12 
-0.242945 0.199191 1.54067 25 22 17 
-0.0642712 -0.123415 1.43252 115 110 104 
0.0758058 0.0135962 1.41751 3 1 2 
-0.187065 -0.171904 1.55864 26 25 23 
-0.149327 -0.278608 1.54402 94 93 89 
0.0327228 0.214841 1.38505 92 91 89 
-0.0578178 -0.687728 1.61513 115 114 112 
-0.00338386 -0.136112 1.44522 97 96 94 
-0.231891 0.340734 1.49594 106 105 103 
-0.243308 0.544284 1.48215 95 95 107 
-0.0388195 -0.729285 1.64352 194 200 216 
-0.251312 0.507891 1.47075 20 16 15 
-0.160905 -0.0921681 1.45302 81 80 78 
-0.246087 0.542348 1.47198 14 16 28 
-0.0425135 -0.342141 1.49824 29 26 21 
-0.0269073 -0.692167 1.60952 42 40 41 
-0.253928 0.598271 1.53405 71 51 24 
-0.0695061 -0.181935 1.45492 43 40 35 
-0.238394 0.209932 1.51204 34 31 26 
-0.566302 0.711898 1.17881 116 113 98 
0.0598516 0.357622 1.39202 21 18 13 
-0.242463 0.180407 1.54556 8 5 0 
-0.223482 0.14374 1.50286 83 83 81 
-0.146855 -0.21753 1.49584 100 96 93 
0.074356 0.0742125 1.4177 39 38 36 
-0.150839 -0.0333964 1.41485 127 126 121 
-0.0087545 -0.201063 1.46206 44 30 27 
-0.0314936 -0.451233 1.5536 81 80 76 
0.0723962 0.0434727 1.41883 0 0 0 
-0.0446892 -0.697832 1.63002 45 44 42 
0.011734 -0.238511 1.47157 79 75 74 
-0.0346679 -0.437645 1.54294 120 116 115 
-0.00789063 0.107421 1.37894 31 30 28 
0.0234067 0.0551432 1.39532 72 71 69 
0.0481928 0.0433819 1.40228 96 95 91 
-0.102345 -0.0557912 1.40597 83 79 68 
-0.104453 -0.0451239 1.41475 102 99 92 
0.0285435 0.542787 1.3635 87 86 84 
-0.244045 0.194116 1.53014 28 25 18 
-0.223347 0.67672 1.39144 96 96 96 
0.0475609 0.147051 1.39019 110 106 105 
-0.136292 -0.260119 1.52812 25 25 23 
-0.243898 0.0569219 1.53309 65 65 65 
-0.00506779 0.156289 1.37715 64 62 63 
0.0385529 0.697653 1.32338 90 87 82 
-0.0089694 0.460182 1.35196 123 120 113 
-0.0346918 -0.784642 1.64975 228 228 252 
-0.0448289 -0.682829 1.58989 52 48 47 
-0.067399 -0.633408 1.6319 197 197 209 
-0.0648047 -0.633763 1.64607 107 107 119 
-0.00438214 -0.707118 1.63172 90 88 89 
-0.537194 0.662061 1.21978 28 24 25 
-0.243647 0.224674 1.55765 40 36 33 
-0.245842 0.33829 1.53828 2 2 0 
-0.24535 0.548189 1.46399 123 122 127 
-0.0494365 -0.692688 1.61702 35 34 32 
-0.0412441 0.0852481 1.37608 85 80 76 
-0.0955338 0.0667892 1.38982 76 76 76 
0.0291123 0.240109 1.37731 77 76 71 
-0.0239607 -0.340583 1.51382 66 66 64 
-0.132488 -0.262388 1.53862 47 47 45 
-0.299738 0.817656 3.20926 85 86 80 
-0.154839 -0.231078 1.50012 18 15 10 
-0.224695 -0.11965 1.6304 59 61 74 
-0.0410988 0.229092 1.37186 94 93 89 
-0.474725 0.721801 1.24094 105 103 91 
-0.522633 0.731546 2.07064 105 106 100 
-0.247605 0.513838 1.48888 15 11 10 
-0.195803 -0.285234 1.58876 39 39 51 
-0.236491 -0.0746936 1.61103 35 31 32 
-0.236609 -0.0750611 1.6276 53 51 62 
0.0151403 -0.0456993 1.41714 118 118 116 
-0.291864 0.72392 1.27727 73 71 56 
-0.242686 -0.0156613 1.51541 53 52 48 
-0.142657 0.674416 1.32871 118 115 110 
-0.106511 0.661886 1.32832 110 106 107 
-0.257122 0.640688 1.43527 24 23 18 
0.399119 0.794065 1.65181 102 100 85 
0.0263571 0.0327946 1.38739 69 67 68 
0.0391241 0.0334753 1.41259 83 82 80 
-0.0717684 -0.521934 1.59987 34 32 33 
-0.147362 -0.162109 1.49575 34 30 27 
0.0518915 0.0442095 1.41112 80 79 75 
-0.16779 -0.188205 1.52522 35 35 27 
-0.0570077 -0.443686 1.5523 41 37 34 
-0.175918 0.0783917 1.45942 68 68 66 
-0.260554 0.530087 1.52501 40 40 40 
0.0361557 0.451721 1.37453 129 126 117 
0.011204 0.0862428 1.38737 78 78 76 
0.029206 -0.379644 1.55817 103 97 97 
-0.0535538 0.15078 1.36475 79 79 79 
0.00648432 -0.337282 1.52725 80 79 77 
0.0368525 0.215542 1.3941 80 79 77 
-0.246259 0.0842917 1.57851 58 57 55 
-0.0297981 -0.687802 1.60088 44 42 43 
-0.0434458 -0.450917 1.53627 74 73 69 
-0.0631679 -0.438693 1.53653 45 41 38 
-0.129383 -0.365747 1.55338 60 57 52 
-0.0303392 -0.250838 1.45912 141 141 131 
-0.0850953 -0.239474 1.46113 67 64 55 
-0.0577382 -0.240236 1.47706 41 37 34 
0.00484384 -0.231931 1.47319 101 93 90 
-0.176111 -0.224666 1.5115 4 3 0 
-0.100285 -0.197192 1.46026 93 89 88 
-0.057698 -0.197713 1.45897 73 68 64 
-0.133804 -0.168222 1.49324 119 118 116 
-0.113788 -0.165779 1.45942 100 96 93 
-0.181805 -0.107155 1.47341 19 15 12 
-0.145535 -0.0694869 1.45639 51 47 44 
0.00341376 0.0189793 1.38463 50 49 47 
0.0325849 0.0366569 1.39728 69 67 70 
-0.25058 0.0852492 1.56812 79 75 74 
-0.0474808 0.128432 1.38516 76 76 76 
-0.0342585 0.14111 1.38422 15 14 12 
0.0538609 0.147064 1.40795 75 71 70 
-0.244485 0.211521 1.54646 14 15 9 
-0.0589562 0.211918 1.38298 54 52 55 
0.0384087 0.311438 1.37341 70 66 67 
0.0149366 0.329853 1.37428 60 59 57 
-0.0396747 0.345575 1.34794 71 70 68 
-0.266012 0.518927 1.50884 54 54 54 
-0.22764 0.524193 1.41795 100 99 97 
-0.245492 0.605396 1.44427 28 27 32 
0.100761 0.70829 1.36203 30 29 25 
-0.0559382 -0.0835771 1.42285 102 100 101 
-0.168876 0.337671 1.41127 60 59 57 
0.00647881 0.502762 1.35571 112 111 107 
-0.0249148 -0.802418 1.6606 189 202 211 
-0.033898 -0.787559 1.66119 196 203 219 
-0.0224049 -0.789175 1.66059 192 200 213 
-0.0293459 -0.730149 1.63516 187 192 211 
-0.0119846 -0.625152 1.60588 41 39 44 
-0.0380633 -0.31489 1.50617 133 129 126 
-0.0368231 -0.247778 1.44272 76 76 66 
0.114631 -0.120656 1.53298 18 18 28 
-0.229688 -0.0225687 1.4953 54 53 49 
-0.162759 0.067376 1.43588 55 54 52 
-0.0666197 0.0659237 1.39709 60 58 59 
-0.0565988 0.0866232 1.39632 76 76 76 
-0.0448741 0.117702 1.39431 74 74 74 
-0.0468788 0.345361 1.36911 64 60 57 
-0.223553 0.505353 1.43919 23 22 20 
-0.260707 0.729077 1.33915 81 81 69 
5.76952 2.28258 13.2673 131 134 139 
-0.238292 0.0797768 1.51771 82 82 82 
-0.1249 -0.0329149 1.41063 38 36 24 
-0.16951 -0.0748712 1.4555 123 120 115 
-0.0707113 -0.34346 1.51588 26 18 15 
-0.11164 -0.294663 1.51782 105 104 100 
5.79371 2.29569 13.3481 14 17 22 
-0.108274 0.109344 1.39994 81 81 81 
0.540513 0.738405 1.67495 110 108 95 
-0.135002 0.717795 1.3082 96 95 90 
-0.124901 -0.0530357 1.42467 66 61 55 
-0.124883 -0.146657 1.46428 105 104 102 
5.89635 2.16779 13.5222 98 103 109 
-0.201588 0.119011 1.4613 28 27 25 
-0.00645706 0.462648 1.35872 123 120 113 
0.544272 0.768416 1.65128 58 57 53 
-0.0463434 0.103753 1.39116 79 79 77 
-0.0897708 -0.461079 1.57229 105 101 98 
0.624882 0.748493 1.51374 76 76 68 
0.554065 0.763247 1.62577 48 47 42 
-0.102912 0.0384841 1.39622 32 31 29 
6.20327 2.19964 14.2641 57 62 66 
-0.118355 0.21111 1.39753 60 60 60 
-0.0436634 -0.789317 1.65773 224 225 255 
-0.0295197 -0.777157 1.65393 214 221 239 
-0.161509 -0.0555756 1.43041 105 101 98 
-0.0358836 -0.756154 1.6487 211 211 235 
-0.0249683 0.27079 1.36339 1 0 0 
0.0996796 0.266868 1.44176 31 30 26 
-0.183592 -0.0761262 1.4662 44 43 39 
0.00158677 -0.0987905 1.43088 22 18 17 
0.0901909 0.24197 1.43341 11 8 3 
0.00425711 -0.628073 1.64157 117 118 136 
0.081937 0.0709596 1.42976 112 111 109 
0.116651 -0.0669255 1.50467 123 122 120 
0.115744 0.0877575 1.47132 94 93 91 
0.0463237 -0.118615 1.44944 14 12 13 
0.0444355 0.465701 1.37599 132 129 122 
-0.141124 -0.147649 1.47187 30 29 27 
0.0353858 -0.317922 1.52061 1 0 0 
0.0255015 -0.318522 1.51765 17 16 14 
-0.0453177 -0.319781 1.49724 12 9 4 
0.0314941 0.168435 1.38735 96 95 93 
-0.0422988 -0.416596 1.53332 32 28 25 
-0.00026625 -0.362809 1.5256 118 114 113 
-0.00785101 0.479969 1.35595 27 23 20 
-0.0203984 0.116706 1.37519 1 0 0 
-0.000755056 0.541033 1.35359 102 101 99 
0.0548012 -0.220552 1.49029 118 117 113 
0.0625707 0.0720086 1.41127 12 11 9 
0.0227555 -0.209605 1.46285 99 87 87 
-0.0836243 -0.476677 1.57333 24 20 19 
0.0814671 0.0609767 1.42299 122 120 121 
0.0270688 -0.198798 1.46585 111 102 103 
0.0907592 0.0553137 1.43237 92 88 87 
0.0676249 -0.191273 1.48722 118 115 110 
-0.0307428 -0.360439 1.51467 39 35 34 
-0.115779 -0.18683 1.47424 36 32 31 
0.0623434 -0.182597 1.47603 130 127 122 
0.0254666 -0.165089 1.45723 19 18 14 
-0.0346902 -0.158356 1.43418 117 112 109 
-0.018386 -0.369918 1.52692 139 135 132 
-0.136877 0.0295175 1.40205 103 103 103 
-0.0518385 -0.14033 1.42615 121 120 116 
-0.0159535 0.0185944 1.38181 1 0 0 
0.109114 0.0142406 1.45225 98 96 97 
-0.165191 -0.118374 1.4707 121 120 118 
-0.0521864 -0.381705 1.51966 46 42 31 
-0.150554 -0.0423509 1.42436 129 125 124 
-0.121777 -0.0453226 1.41043 15 11 8 
-0.00978729 -0.399497 1.54011 108 104 103 
-0.154625 -0.233883 1.51359 87 86 84 
0.0742967 -0.0771502 1.44372 104 100 99 
-0.0707324 -0.0810108 1.40905 116 115 113 
-0.0912829 -0.429197 1.56229 123 119 118 
0.0137757 0.667186 1.34217 127 125 126 
0.0939982 0.449574 1.4292 17 13 10 
-0.0603185 -0.454865 1.55583 26 22 19 
0.100355 0.22142 1.44705 129 128 123 
0.0375427 0.49469 1.37232 122 119 114 
0.0570492 0.269253 1.39128 114 113 109 
-0.0175766 0.0964203 1.37931 104 103 101 
-0.0193386 -0.792783 1.6447 226 230 255 
-0.0391843 -0.775111 1.6504 90 97 115 
-0.100814 -0.268286 1.49295 132 128 125 
0.0592669 -0.199421 1.48492 159 158 154 
0.137694 0.0267912 1.48272 6 5 1 
-0.0688986 -0.333593 1.50696 61 57 54 
0.0384911 0.430637 1.37786 29 28 23 
0.0401078 0.421065 1.37388 131 127 124 
0.113129 -0.0890056 1.5162 13 12 10 
-0.00103676 -0.430436 1.55427 33 30 25 
0.0217636 -0.105536 1.44055 130 129 127 
0.143592 0.0658896 1.49176 127 126 122 
-0.0192089 -0.079081 1.41452 95 94 92 
0.0991007 0.0158011 1.43796 60 58 59 
-0.0543226 -0.401377 1.5294 21 17 16 
0.034143 -0.344062 1.52744 24 21 16 
-0.142192 -0.0608558 1.4249 29 26 21 
-0.11087 -0.356578 1.53996 30 26 23 
-0.0268104 -0.352815 1.50783 22 21 19 
0.0484016 -0.203387 1.47419 112 111 107 
0.0767941 -0.204115 1.50928 118 114 111 
-0.0102778 -0.0341535 1.39096 29 28 24 
0.0588671 0.283023 1.3968 116 111 108 
0.0627492 -0.163462 1.47374 113 112 110 
-0.0609941 -0.144858 1.42678 118 115 110 
0.101663 0.297972 1.4456 101 98 93 
-0.0356683 -0.561 1.58684 116 115 113 
0.0172941 -0.191819 1.45742 88 80 78 
0.00445196 -0.169956 1.44642 94 93 91 
0.0405235 0.444914 1.38061 107 104 99 
0.0611152 0.619851 1.38516 126 125 123 
0.0575448 -0.0502539 1.42995 17 16 12 
0.0343142 0.011323 1.38969 1 0 0 
0.0463929 -0.138514 1.45689 133 132 130 
0.040461 -0.104419 1.44299 3 1 2 
-0.0474026 -0.34106 1.50285 132 127 124 
-0.0145827 0.347603 1.35603 95 93 96 
-0.110104 -0.186749 1.46085 121 117 116 
0.145968 0.0279105 1.50356 1 0 0 
-0.0383037 -0.694966 1.61576 26 25 21 
-0.0345102 -0.390207 1.52895 124 120 117 
-0.0358977 -0.439325 1.54888 120 116 115 
-0.0175498 -0.0547971 1.3965 120 119 115 
-0.0413788 -0.372274 1.52237 39 35 26 
0.0179635 -0.0276617 1.39865 106 102 99 
-0.203465 0.0223511 1.45359 19 17 18 
-0.0998185 -0.303403 1.51773 114 114 112 
-0.112011 -0.313611 1.52303 124 120 119 
0.020946 0.710314 1.31964 108 104 101 
0.032788 0.533949 1.36835 80 79 77 
0.084183 0.0449304 1.42305 8 4 1 
-0.0120627 -0.21463 1.45924 46 36 34 
-0.0217758 -0.0460722 1.39133 104 103 99 
-0.141296 -0.00509223 1.40202 99 98 96 
0.00251076 -0.454486 1.55998 80 76 75 
0.0259803 -0.171032 1.46589 94 93 89 
0.00214936 -0.636269 1.63543 122 124 139 
0.045155 -0.224438 1.4755 86 85 81 
-0.0112342 0.320312 1.36778 1 0 0 
0.0800149 0.141883 1.41962 86 82 81 
0.0470906 -0.447241 1.61359 92 91 86 
-0.0278698 -0.401894 1.53639 108 104 101 
0.156726 -0.0594089 1.58565 109 109 111 
0.0934618 0.460984 1.42392 109 108 104 
-0.468172 0.728589 2.06487 111 111 109 
-0.055248 -0.352871 1.50641 42 39 32 
-0.00760414 -0.345313 1.51926 104 100 97 
0.0113068 -0.345853 1.52499 97 96 94 
0.109558 0.124233 1.45811 107 101 101 
-0.0568593 -0.654882 1.63856 106 101 98 
0.135494 -0.133301 1.59561 111 110 108 
-0.0460899 -0.186834 1.44055 91 89 90 
-0.156348 -0.219257 1.51358 99 97 98 
0.00939542 -0.424754 1.55703 129 125 124 
-1.35302 0.838712 4.84534 140 142 131 
0.0727101 -0.114391 1.45638 35 34 32 
0.114293 -0.159527 1.55829 77 76 72 
0.11246 0.0641272 1.45294 77 76 74 
-0.0488776 0.269079 1.36968 102 102 102 
0.0432747 0.479538 1.37591 80 79 75 
0.108889 0.0801716 1.45436 85 84 82 
-0.0265274 -0.736602 1.65447 195 204 221 
0.0740468 0.0741268 1.42319 39 39 39 
0.0570304 -0.227702 1.497 151 149 150 
-0.0478911 0.151965 1.37126 89 87 88 
-0.00605345 -0.649859 1.63683 18 12 12 
-0.157008 -0.206795 1.50581 113 112 110 
-0.007712 -0.409703 1.53871 118 114 113 
0.0729123 0.0438275 1.42432 6 2 0 
-0.0505072 0.138876 1.38596 48 48 48 
0.0432231 0.0631694 1.39126 89 89 89 
0.0939232 0.293181 1.43474 45 44 40 
0.0321409 0.504399 1.36323 99 98 94 
-0.00665957 0.247967 1.37484 89 87 88 
0.033122 0.121582 1.39028 81 79 80 
0.0133203 -0.41243 1.55477 36 32 31 
-0.0355465 -0.344764 1.51338 100 96 93 
0.133305 0.0125313 1.47 67 66 64 
0.103984 0.457238 1.43043 57 56 52 
-0.0528911 0.513144 1.3548 67 66 64 
-0.0339548 -0.578383 1.59657 83 78 74 
0.136588 -0.145978 1.60074 195 194 199 
0.0680539 -0.124516 1.45719 93 92 90 
-0.0914726 -0.344865 1.52218 50 46 43 
0.0788739 0.271452 1.41704 36 32 31 
-0.00194884 -0.402647 1.54514 110 106 105 
0.0357237 0.741518 1.28187 133 133 123 
-0.0513255 -0.423319 1.53438 85 81 80 
-0.133574 -0.359687 1.60298 34 31 26 
0.00763939 -0.270382 1.46954 103 100 91 
0.00141135 -0.22863 1.44604 106 102 99 
0.136675 -0.100117 1.56541 36 35 33 
0.0690951 0.585894 1.3876 81 79 80 
0.0689574 0.0831958 1.40604 75 74 72 
0.101192 0.0876932 1.45466 24 23 21 
0.069174 0.15651 1.40351 101 100 98 
-0.0470846 0.171981 1.36994 64 63 61 
0.0618742 0.722924 1.32748 58 55 50 
0.00140116 0.167896 1.37935 67 66 64 
0.0906303 0.0447848 1.43234 41 37 36 
0.0763174 -0.230447 1.52257 60 59 57 
0.071378 -0.214032 1.50458 128 127 123 
0.0174939 -0.321541 1.51045 136 135 133 
-0.0380676 -0.293739 1.49557 48 44 43 
0.0914383 -0.208343 1.5447 70 68 69 
-0.140358 -0.167104 1.48397 62 61 59 
-0.0922474 0.058777 1.37534 70 70 70 
0.0162088 0.153078 1.38496 64 63 61 
-0.046834 0.22389 1.36014 109 105 106 
0.043403 0.313223 1.377 71 67 64 
0.0751393 0.347356 1.41304 37 33 30 
-0.128749 -0.231533 1.49671 26 22 21 
-0.0237816 -0.448036 1.54784 122 121 119 
-0.110681 0.721183 1.30797 29 25 26 
-0.0264547 -0.377068 1.52134 114 110 107 
0.16433 0.0932286 1.55873 47 52 46 
-221.321 -43.1748 -3215.33 81 89 108 
-120.882 6.82046 -2037.91 186 195 210 
-87.7243 36.2564 -1310.1 79 88 103 
-69.9394 24.1811 -924.512 83 92 109 
-14.6282 -8.10918 -170.057 255 253 255 
-11.3328 -3.49557 -93.5133 157 170 179 
-94.2572 -34.0502 -1250.02 178 186 199 
-73.6704 -7.03283 -1000.95 167 174 190 
-94.8303 10.3728 -1288.01 66 73 91 
-96.5301 11.1225 -1323.61 197 204 222 
-97.8671 13.3617 -1361.48 192 199 217 
-71.3232 10.6569 -1071.02 70 79 94 
-138.183 41.9223 -1884.97 198 207 224 
-79.5754 24.499 -1102.3 202 211 228 
-194.537 153.029 -3279.88 62 74 88 
-71.1643 22.0701 -932.05 194 203 220 
-51.7412 16.2743 -687.728 193 200 219 
-88.2727 32.0189 -1297.86 65 74 89 
-73.0271 25.1251 -987.972 186 195 212 
-83.1828 33.4767 -1216.97 79 88 103 
-64.4614 31.3156 -872.516 72 81 98 
-147.318 45.1039 -2038.55 202 211 228 
-78.2674 27.2961 -1137.09 194 203 218 
-80.0776 18.0273 -1115.64 181 190 207 
-65.8015 27.0024 -906.768 97 106 123 
-93.8302 2.16614 -1269.54 80 87 105 
-94.6636 18.1936 -1382.92 67 76 91 
-45333.2 3239.02 -699268 188 197 212 
-81.4553 26.5495 -1190.52 181 190 205 
-70.7209 23.2109 -974.303 196 203 221 
-66.7623 4.71542 -1019.74 181 190 205 
-179.67 66.3189 -2622.86 72 81 96 
-67.4791 23.3389 -913.969 186 195 212 
-69.2417 24.3505 -953.996 86 95 112 
-114.141 0.661453 -1636.56 185 194 209 
-55.798 40.0551 -801.896 188 195 213 
-93.4045 -34.9354 -1355.52 182 192 204 
-101.868 -39.6981 -1514.99 39 49 61 
-90.4042 -14.6807 -1218.89 97 102 121 
-46.6952 28.9191 -622.797 180 189 206 
-71.2203 3.35815 -948.136 55 60 80 
-87.5325 59.7395 -1267.13 196 203 221 
-101.641 37.7576 -1370.8 59 67 86 
-116.389 43.1617 -1695.81 69 76 92 
-221.756 42.1119 -3252.08 87 96 111 
-67.9799 9.93092 -930.057 171 178 196 
-71.178 6.66555 -973.613 78 85 103 
-73.9256 4.88714 -1018.07 191 198 216 
-924.296 63.8688 -14172.3 173 182 197 
-75.025 2.83305 -1026.05 191 198 216 
-80.7594 0.514133 -1127.53 163 170 188 
-82.9462 -6.08968 -1126.26 65 72 88 
-126.974 -45.441 -1758.31 181 189 202 
-167.203 -39.1718 -2585.41 71 80 97 
-63.9707 26.216 -954.28 79 88 103 
-107.454 37.1986 -1458.91 158 167 184 
-54.5705 12.7559 -630.44 75 87 101 
-92.5381 5.34488 -1391.28 90 99 114 
-722.142 50.4836 -10551.3 188 197 212 
-228.203 11.3887 -3968.58 105 114 129 
-71.0987 3.69763 -949.03 108 113 133 
-76.8088 1.18622 -1050.4 58 65 83 
-96.8663 7.05331 -1483.27 173 182 197 
-216.393 31.6746 -2979.55 176 183 201 
-103.637 -8.16527 -1529.85 78 87 104 
-87.1331 -6.43603 -1211.09 160 167 183 
-196.36 36.2093 -2704.18 79 88 105 
-83.7863 -5.72623 -1145.5 76 83 99 
-64.7689 14.1473 -893.677 173 182 199 
238418 97663.3 1.44501e+06 55 63 74 
-294.596 231.679 -4968.21 62 74 88 
-52.655 -19.5699 -762.078 181 191 203 
-93.8229 5.26307 -1415.7 59 68 83 
-66.3799 22.7677 -981.254 51 60 75 
-75.4198 11.2923 -1090.92 148 157 172 
-115.662 16.6897 -1588.49 166 173 191 
-71.221 7.28021 -979.049 105 112 130 
-186.344 12.898 -3194.15 69 78 93 
-71.2056 3.58663 -950.452 60 65 85 
-226.509 10.0837 -3930.87 110 119 134 
-79.4426 -2.29024 -1080.9 157 164 182 
-82.8415 -5.70322 -1127 77 84 100 
-51.5912 29.9156 -732.073 54 63 80 
-62.4319 23.1964 -842.039 59 67 86 
-75.3141 1.7172 -924.915 161 170 185 
-56.8521 9.46556 -849.724 109 118 133 
-99.9866 -24.6318 -1346.26 76 81 100 
-12.1933 -2.73978 -110.151 151 158 174 
-34176.8 -7735.53 -507850 153 162 179 
-183.457 -4.92178 -2502.74 164 171 189 
-79978.1 5686.49 -1.38436e+06 182 191 206 
-158.004 11.1002 -2181.93 139 146 164 
-239.161 17.7677 -3512.28 156 165 180 
-149.409 15.0568 -2063.55 102 109 127 
-128.289 23.878 -1772.35 142 151 168 
-156.11 38.925 -2294.06 163 172 187 
-107.209 32.5932 -1481.63 186 195 212 
-108.934 4.46037 -1315.8 66 75 92 
-65513 28873.9 -1.20801e+06 63 75 89 
-47.4988 7.84188 -553.066 73 82 99 
-44838.4 -1103.43 -616803 166 173 191 
-12.1761 -2.75976 -110.167 58 65 81 
-10.2885 -2.27067 -92.1498 119 126 142 
-0.111216 0.00667271 1.39626 82 81 79 
-0.0333048 -0.703992 1.63914 118 117 115 
7.5857 2.45647 14.2355 9 13 24 
7.63131 2.60206 14.623 1 5 16 
7.56959 2.45644 14.431 5 9 21 
6.43453 2.47245 12.7009 126 125 130 
7.53205 2.43724 14.0036 29 33 44 
7.5859 2.65275 14.3489 65 66 70 
-0.198822 0.682782 1.37571 108 104 101 
7.53936 2.44146 14.1656 15 19 30 
7.54814 2.44967 14.2228 15 22 32 
7.58163 2.46024 14.4527 5 9 21 
7.59266 2.46343 14.5299 23 27 38 
7.57034 2.37771 14.4484 40 46 58 
7.5271 2.36783 14.4143 18 27 36 
6.69275 2.53206 14.7348 19 22 31 
7.52112 2.36218 14.1436 25 29 40 
6.63501 2.35084 14.6208 141 146 152 
-0.210522 0.653707 1.39253 84 83 81 
7.61263 2.69408 14.5929 31 34 43 
6.94192 2.29231 12.5722 143 148 152 
7.40022 2.43242 12.5001 28 33 36 
7.17295 2.65731 14.7849 108 109 113 
7.2524 2.51577 14.7284 20 20 28 
7.07228 2.6002 14.4662 15 16 20 
6.87496 2.54003 14.4948 31 32 37 
7.62865 2.43699 14.7342 118 123 129 
6.71637 2.3845 14.7681 141 146 150 
-0.0878081 0.741291 1.263 45 43 31 
7.54751 2.38051 14.4498 15 22 32 
7.13329 2.61486 14.7864 40 41 46 
7.01351 2.59967 14.7776 30 31 36 
6.83506 2.25936 12.4194 147 152 158 
-0.158207 -0.134115 1.47698 93 92 90 
-0.220469 0.54508 1.42981 118 116 117 
-0.176218 0.0862442 1.44147 2 0 1 
-0.199126 0.032031 1.45074 1 0 0 
-0.231225 -0.0028414 1.48645 101 100 98 
3.83443 1.92212 7.3386 103 103 105 
-0.239109 0.644719 1.48309 7 8 10 
-0.247432 0.535842 1.50385 0 0 15 
-0.243729 0.129995 1.60496 95 93 94 
-0.221671 0.0384676 1.48091 102 101 99 
-0.251999 0.534959 1.51903 0 0 7 
-0.239213 0.564659 1.47459 117 117 115 
-0.247457 0.571122 1.50831 2 0 3 
-0.23945 0.153458 1.54004 1 0 0 
-0.243331 0.016154 1.52878 82 81 79 
-0.245791 0.121453 1.56674 85 85 85 
-0.0777539 0.688512 1.30924 4 0 0 
-0.235837 0.0349326 1.51082 1 0 0 
-0.194571 -0.167384 1.56959 4 3 1 
-0.173247 0.0531211 1.42937 81 79 80 
-0.253464 0.0303828 1.60337 17 16 14 
-0.240085 0.60616 1.48107 91 90 95 
-0.101939 -0.464595 1.59984 29 28 26 
-0.187431 -0.144409 1.52806 19 18 14 
-0.258222 0.513144 1.51394 5 1 0 
-0.096177 0.0101694 1.39639 3 0 0 
-0.237473 0.530599 1.47465 137 136 142 
-0.0664485 0.688215 1.3085 127 126 122 
-0.183461 -0.269026 1.56954 87 84 79 
-0.206922 0.600679 1.40763 103 101 102 
-0.186502 -0.124585 1.4998 122 120 121 
-0.345458 0.736538 1.41861 131 128 123 
-0.211007 -0.0820551 1.54203 101 99 100 
-0.252744 0.0286668 1.57366 100 100 100 
-0.0511382 -0.61296 1.61749 35 32 27 
-0.0639083 -0.218062 1.46465 90 86 83 
-0.24534 0.0980285 1.5984 1 0 0 
-0.245052 0.128174 1.58344 92 91 89 
-0.236273 0.115883 1.52865 81 81 81 
-0.251921 0.0584262 1.56339 8 4 5 
-0.241382 0.621404 1.46258 81 82 86 
-0.240211 -0.0155454 1.52817 38 34 31 
-0.248533 0.032132 1.53982 112 108 109 
-0.254597 0.0313353 1.58573 101 100 98 
-0.181384 -0.209025 1.53906 96 86 85 
-0.243697 0.638453 1.47554 18 19 23 
-0.237073 0.612642 1.47378 54 54 52 
-0.246348 0.106503 1.58038 82 80 81 
-0.286015 0.710739 1.38913 16 16 8 
-0.251648 0.0651107 1.57247 14 13 11 
-0.216763 0.742664 1.28943 101 91 82 
-0.244689 0.642017 1.49185 24 23 29 
0.0160925 0.81183 2.58724 78 77 75 
-0.0413749 -0.794275 1.66834 89 80 109 
-0.140716 0.697334 1.3211 51 47 46 
0.598621 0.778857 1.39972 87 86 84 
-0.167698 0.266345 1.41873 64 62 63 
-0.222333 0.530977 1.43387 95 94 92 
-0.197964 0.669368 1.38098 41 40 38 
-0.373104 0.741857 1.50818 73 72 68 
-0.0588646 -0.381894 1.53179 37 33 30 
-0.25649 0.0630452 1.58356 57 57 57 
-0.256639 0.6914 1.40892 102 99 94 
-0.342721 0.720835 1.44898 70 69 67 
-0.234806 0.0816179 1.52636 44 44 46 
0.6101 0.735768 1.40044 32 30 33 
-0.305096 0.724586 1.36887 70 69 64 
0.0398203 -0.134325 1.44375 93 89 90 
0.116463 0.149692 1.45806 106 102 99 
0.101366 0.0445844 1.43046 7 1 1 
0.0456904 0.654431 1.35074 123 121 122 
0.024872 0.0192947 1.38476 1 0 0 
0.130627 0.404814 1.47341 107 104 99 
-0.108578 0.664195 1.3385 137 133 134 
0.117151 0.0993105 1.46148 121 120 118 
-0.0601808 0.680646 1.3272 120 116 113 
0.0231665 0.136576 1.37906 100 99 97 
0.0669379 -0.0979121 1.43951 107 103 102 
0.126945 0.538938 1.44356 115 114 110 
0.0307911 -0.0544633 1.41015 108 107 105 
0.133789 0.0352499 1.4666 1 0 0 
0.0420116 0.109601 1.3875 76 74 75 
-0.0110013 -0.207489 1.44235 21 11 9 
0.113464 0.0367446 1.43819 94 93 91 
-0.137428 0.682394 1.34311 98 97 95 
0.040288 0.642633 1.35117 89 87 88 
-0.0245644 0.237946 1.36637 77 76 74 
0.0975343 0.240715 1.43476 20 17 8 
0.000120908 0.083593 1.37824 94 93 91 
0.0428427 -0.0540532 1.41606 105 104 102 
0.12195 0.0264259 1.45131 100 99 97 
0.0534265 -0.180376 1.46567 122 117 113 
-0.0147628 0.0541394 1.37505 84 82 83 
0.0749724 0.626348 1.37768 88 87 85 
-0.00233404 0.700266 1.30894 76 75 71 
-0.0331835 -0.75136 1.62461 185 193 206 
-0.0238946 -0.778694 1.64349 152 158 180 
