ply                 
format ascii 1.0    
element vertex 1190
property float x    
property float y    
property float z    
property uchar red  
property uchar green
property uchar blue 
end_header          
-0.0930256 -0.237552 1.47552 36 33 28 
-0.116071 -0.0497289 1.41088 32 28 25 
-0.108883 -0.0379128 1.39943 116 113 106 
-0.0978494 -0.290697 1.50015 15 14 10 
-0.133474 0.0079019 1.39956 4 2 3 
-0.146361 0.0290023 1.40531 91 91 91 
-0.0776222 0.0103317 1.38316 112 111 109 
-0.0803122 -0.22709 1.46536 55 50 46 
-0.151556 0.601065 1.35445 107 106 104 
-0.0700016 -0.223322 1.45897 19 18 14 
-0.10141 -0.123397 1.43751 27 26 24 
-0.0999192 -0.286795 1.5006 120 119 117 
-0.122377 0.0280091 1.39426 1 0 0 
-0.092513 -0.132646 1.43573 103 102 100 
-0.132407 0.37803 1.38229 72 73 68 
-0.105191 0.500454 1.35726 101 100 96 
-0.119547 0.093294 1.39956 73 73 73 
-0.149387 -0.1456 1.46868 15 11 10 
-0.113182 -0.0498267 1.40972 46 41 35 
-0.0777823 -0.0903059 1.41341 23 22 20 
-0.090739 -0.101936 1.42565 26 25 23 
-0.11776 -0.143456 1.45402 23 22 20 
-0.0933329 -0.23782 1.47577 45 42 37 
-0.074145 -0.287541 1.48744 14 10 7 
-0.103635 0.631889 1.33325 99 97 100 
-0.0205676 -0.318253 1.49906 54 50 49 
-0.130686 0.653698 1.31558 107 105 108 
-0.0985391 -0.142881 1.44307 21 20 18 
-0.103276 0.489657 1.3608 94 92 93 
-0.0778016 0.0103977 1.38272 97 96 94 
-0.0964797 0.0545922 1.38344 71 70 68 
-0.0121874 0.0904738 1.37703 7 3 0 
5.62887 2.90019 24.2017 35 45 46 
-0.0596156 -0.308382 1.48823 21 18 13 
-0.125313 0.0176799 1.39446 77 75 76 
-0.0490212 0.686857 1.29641 8 7 5 
-0.162376 -0.0390679 1.42621 118 115 110 
-0.061082 -0.260892 1.4684 40 35 32 
-0.0622812 -0.230694 1.45679 40 35 31 
-0.0873213 0.0930075 1.38837 67 65 66 
-0.146626 0.0933524 1.41213 83 82 80 
-0.107422 0.62917 1.33431 137 133 134 
-0.079002 0.500246 1.35152 92 92 92 
-0.0797215 -0.307601 1.49688 51 50 46 
-0.108771 -0.0836036 1.42731 40 39 37 
-0.132056 -0.10051 1.44317 28 27 25 
-0.0963042 0.0550004 1.38413 72 71 69 
-0.0835696 -0.0883777 1.41575 102 100 101 
-0.089249 -0.216598 1.46574 38 34 33 
-0.14135 0.0354249 1.40165 0 0 0 
-0.086315 -0.0830397 1.41544 113 111 112 
-0.125009 0.0173997 1.39488 82 80 81 
-0.107223 0.628777 1.33482 124 120 121 
-0.100365 0.230681 1.38047 71 70 68 
-0.132214 0.37879 1.38277 57 58 53 
-0.0573088 0.0905917 1.38401 91 91 91 
-0.0961922 0.0549429 1.38386 72 71 69 
-0.0504453 0.120369 1.37962 95 91 92 
-0.0330608 -0.672077 1.62973 42 40 41 
-0.111619 -0.193549 1.46986 86 82 83 
-0.0778442 -0.0890888 1.41245 131 130 126 
-0.093875 0.221082 1.38124 69 68 66 
-0.152917 0.0293816 1.40989 9 9 9 
-0.158997 0.037335 1.41107 72 71 67 
-0.0808268 -0.11534 1.42435 40 37 30 
-0.107191 -0.112691 1.43761 116 115 113 
-0.0562849 0.0891053 1.38437 56 58 57 
5.08333 2.61603 19.9703 112 117 121 
-0.0957808 0.17785 1.38508 69 65 66 
-0.0514685 0.213991 1.36928 81 80 78 
-0.170751 0.244723 1.41466 69 67 68 
-0.105778 0.499705 1.35738 50 49 45 
-0.13413 0.650526 1.3298 148 145 138 
-0.142839 0.682959 1.31598 39 34 31 
-0.0388127 -0.745766 1.62622 39 36 67 
-0.0518897 0.121703 1.37791 81 79 80 
-0.0614251 0.200221 1.37778 57 55 56 
-0.0622197 0.20076 1.37678 59 57 58 
-0.101323 0.205379 1.38195 75 74 72 
-0.109664 -0.0686135 1.42059 142 141 139 
-0.115587 -0.0760803 1.42752 32 30 31 
0.0134455 -0.0205588 1.38968 27 25 12 
0.00437313 -0.315325 1.50443 126 124 125 
-0.127192 -0.169045 1.46629 24 23 21 
-0.0495342 -0.743933 1.62667 127 129 150 
-0.130986 -0.0890513 1.44077 17 16 14 
-0.0970184 -0.0550383 1.40654 46 39 33 
-0.148583 -0.0528908 1.42695 117 114 105 
-0.0903814 -0.421796 1.54823 49 45 42 
-0.0783219 0.678588 1.29832 82 78 79 
-0.106715 0.139559 1.39166 8 4 5 
-0.139538 -0.0971536 1.44737 35 34 30 
-0.0184337 -0.21099 1.44666 31 24 18 
-0.078582 -0.101535 1.41673 19 17 18 
-0.061094 -0.421983 1.5299 46 42 39 
-0.0492967 -0.0199449 1.37657 30 29 27 
-0.129768 -0.075349 1.43344 5 3 4 
-0.0860136 -0.247641 1.47576 35 31 28 
0.00324928 -0.239204 1.45402 98 98 96 
-0.00455763 -0.220545 1.45134 1 0 0 
-0.0855842 0.0268549 1.38378 101 100 98 
-0.109041 -0.291176 1.50606 17 16 14 
-0.116338 -0.215323 1.47857 21 17 14 
-0.141396 -0.2151 1.49236 31 28 21 
-0.076117 -0.138908 1.43081 22 19 14 
-0.108775 -0.363567 1.53451 18 14 11 
-0.0865497 -0.300222 1.49934 29 28 24 
-0.136471 -0.199303 1.484 43 39 38 
-0.128289 -0.193423 1.47774 27 23 20 
-0.0177493 -0.188984 1.44578 123 107 107 
-0.148566 -0.191654 1.48826 98 97 95 
-0.150807 -0.154708 1.47243 52 48 45 
-0.0116281 0.0617844 1.37717 115 113 114 
-0.0908157 0.469404 1.36177 108 106 107 
-0.107869 -0.179477 1.46186 10 10 8 
-0.0495584 -0.333325 1.49502 129 129 127 
-0.00538415 -0.112288 1.42879 137 136 134 
-0.123626 -0.0191545 1.39878 14 10 1 
-0.0661703 -0.213247 1.4521 39 36 31 
-0.0441291 -0.296438 1.4827 50 46 43 
-0.0103281 -0.359007 1.51652 116 115 111 
-0.0834621 -0.125154 1.42897 133 130 125 
-0.130848 -0.030755 1.40816 37 33 22 
-0.033649 -0.13256 1.42767 31 27 24 
-0.103099 0.0188766 1.38755 83 82 80 
0.013671 -0.236233 1.45655 86 85 83 
-0.0312149 -0.393335 1.52232 40 34 36 
-0.096696 -0.307961 1.50508 35 32 27 
-0.0426187 -0.655293 1.59232 26 25 21 
-0.022829 -0.362475 1.51513 117 113 112 
-0.135382 -0.15624 1.46332 108 107 105 
0.0103731 -0.350544 1.51945 108 108 106 
0.0443886 0.062262 1.39825 90 90 90 
-0.00554371 0.243418 1.36785 19 18 16 
0.011621 -0.32329 1.50898 110 109 104 
-0.162888 -0.123618 1.46935 106 106 106 
-0.133409 0.644791 1.33681 112 109 104 
-0.0271772 -0.304491 1.48922 79 75 74 
-0.158621 0.0209395 1.41147 68 68 66 
-0.0641521 -0.0904097 1.40586 49 48 46 
-0.0457028 -0.282713 1.47578 87 83 82 
-0.0558295 -0.477816 1.55363 108 107 105 
-0.00631441 0.0392144 1.37992 73 71 72 
0.0499032 0.598699 1.36057 126 125 123 
-0.068044 0.027515 1.38042 73 72 70 
-0.078142 0.250784 1.37378 87 83 82 
0.0286908 0.428429 1.36719 117 114 105 
-0.168273 0.0369292 1.41954 116 115 110 
-0.140529 -0.0280439 1.4105 44 41 34 
-0.079578 -0.0592544 1.39588 43 42 40 
-0.0699137 -0.119592 1.41741 97 92 88 
-0.208568 0.482339 1.43541 76 75 73 
-0.0532433 -0.168094 1.43255 76 72 69 
-0.0301548 -0.374242 1.51644 57 53 52 
-0.0625725 -0.277162 1.47712 29 24 20 
-0.158352 -0.0721362 1.44463 45 44 40 
0.0321767 0.660912 1.32028 87 83 80 
-0.11867 -0.157806 1.45857 15 14 9 
-0.00381734 -0.179198 1.45048 106 96 94 
-0.124149 -0.177637 1.47181 99 98 94 
0.0318682 0.653238 1.33284 95 92 83 
-0.0327271 -0.655593 1.5918 34 33 31 
-0.156078 -0.0869152 1.45056 87 86 84 
-0.0179827 0.212064 1.36538 89 85 84 
-0.141038 -0.0192872 1.40632 44 42 30 
-0.00842471 -0.37888 1.52451 109 103 105 
-0.0743602 -0.193534 1.44986 14 9 6 
-0.110269 -0.202649 1.47206 19 18 16 
0.0401954 0.679866 1.32158 90 90 82 
0.00908415 -0.21581 1.45515 106 95 93 
-0.0443898 -0.205418 1.44799 103 102 100 
-0.0112377 0.421062 1.353 92 88 85 
-0.0411718 -0.0578954 1.39306 132 132 132 
-0.077638 -0.0493845 1.39351 130 126 123 
-0.0881896 0.0706329 1.38463 61 59 60 
-0.102149 -0.200575 1.46479 118 112 112 
-0.0161708 -0.0614734 1.4051 90 86 85 
0.0140693 0.0518455 1.38431 67 65 66 
-0.0312358 0.137618 1.36761 73 69 70 
-0.15458 0.677603 1.32055 62 61 59 
0.0247451 0.689807 1.30849 142 139 134 
-0.0606506 -0.205922 1.44627 33 29 26 
-0.0404812 0.148457 1.36919 76 75 73 
-0.0740355 0.199681 1.3771 61 59 60 
-0.234046 0.083455 1.58758 58 58 58 
-0.052358 0.326003 1.35828 50 49 47 
-0.164505 0.662068 1.32762 83 82 78 
-0.0324691 -0.736015 1.62665 104 109 131 
-0.240773 0.525104 1.49745 0 0 2 
-0.24436 0.51664 1.51212 25 23 28 
-0.0932504 -0.282937 1.49582 24 20 17 
-0.027491 -0.0351684 1.38713 50 49 44 
-0.118625 -0.285048 1.50545 129 123 123 
-0.0239627 -0.291983 1.48956 13 12 10 
-0.0867101 -0.289557 1.49562 119 116 111 
-0.114814 -0.233623 1.48349 24 20 17 
-0.151819 -0.207759 1.49332 11 7 4 
-0.233142 0.591866 1.47591 89 88 93 
-0.235257 0.331696 1.52123 117 116 111 
-0.0898141 -0.167207 1.4463 33 29 28 
-0.222912 0.0801809 1.49925 77 75 76 
-0.127854 -0.0579299 1.4209 54 51 46 
-0.0659197 -0.15054 1.42832 8 4 1 
-0.14486 -0.0625251 1.43337 20 17 12 
-0.118631 -0.126051 1.44802 12 11 9 
-0.148371 -0.116279 1.45561 100 98 99 
-0.134543 -0.113126 1.451 12 11 9 
-0.119432 -0.0928399 1.43627 16 14 15 
-0.0832269 -0.0751542 1.40983 39 38 34 
0.563402 0.725926 1.55972 81 82 77 
-0.118918 -0.326874 1.52831 19 14 10 
-0.0900286 -0.0443379 1.39608 8 5 0 
-0.127692 -0.243396 1.49682 2 0 1 
-0.063651 -0.181436 1.43875 121 117 114 
-0.172442 0.102258 1.43052 119 117 118 
-0.194744 -0.205759 1.56573 104 100 99 
-0.0599428 -0.655457 1.60753 34 32 33 
-0.0747857 -0.183124 1.44629 14 10 7 
-0.164495 -0.16995 1.48593 102 99 94 
-0.0313198 0.127947 1.37434 88 86 87 
-0.0334702 -0.745165 1.62829 208 213 233 
-0.00726689 -0.322598 1.5059 150 146 145 
-0.0770825 -0.170195 1.44314 4 0 0 
-0.155191 -0.109145 1.45765 32 31 29 
-0.233969 0.583127 1.48362 9 10 14 
-0.0852881 -0.4475 1.55585 26 25 23 
-0.0592791 -0.433052 1.53958 45 42 37 
-0.0986566 -0.427436 1.55446 31 28 23 
-0.130932 -0.278405 1.51072 118 117 112 
-0.145677 -0.0764505 1.44174 31 28 23 
-0.176648 -0.0527079 1.43995 109 105 102 
-0.0919166 -0.034803 1.3924 10 7 0 
-0.0973102 -0.0829526 1.42014 114 113 111 
-0.157282 -0.192235 1.48925 22 18 15 
-0.21385 0.0313963 1.46362 3 0 0 
-0.227446 0.102856 1.50853 1 0 0 
-0.057201 -0.346903 1.50528 43 38 32 
-0.120096 -0.310316 1.51827 17 14 9 
0.0386508 0.684734 1.3256 114 111 104 
-0.177535 0.0118803 1.42502 128 124 121 
-0.12762 -0.109909 1.44557 27 26 24 
-0.169064 -0.0874921 1.45682 41 40 38 
-0.207475 0.0315094 1.45596 4 3 1 
-0.157026 -0.099497 1.4556 1 0 0 
-0.193821 -0.00295494 1.43038 114 109 106 
-0.164099 -0.156067 1.48066 77 73 74 
-0.142166 -0.303859 1.55149 11 7 4 
-0.166484 0.589223 1.37087 95 94 92 
-0.0547762 -0.112989 1.41186 113 109 106 
-0.239338 0.486276 1.469 110 109 107 
-0.229664 -0.0685107 1.57942 27 23 20 
-0.18346 -0.0885648 1.46291 37 36 32 
-0.202745 0.0212975 1.45373 93 91 92 
-0.158401 0.226295 1.40826 76 74 75 
-0.200252 -0.228749 1.58742 27 30 39 
0.00618975 -0.0418208 1.40321 107 105 106 
-0.0721185 -0.428562 1.5414 37 33 30 
-0.174578 -0.21203 1.50863 101 100 96 
-0.0597275 -0.289215 1.48252 45 42 37 
0.0577666 -0.0339164 1.4179 48 47 45 
-0.00998782 -0.408123 1.53775 57 53 52 
-0.0733337 -0.15793 1.43493 90 86 83 
-0.131852 -0.298331 1.51776 47 44 37 
-0.0538969 -0.655832 1.60012 32 31 29 
-0.107285 -0.166472 1.45611 101 97 96 
-0.157977 0.0471004 1.41039 80 79 77 
-0.081823 -0.495777 1.57399 108 104 101 
-0.00811797 0.149591 1.37539 69 67 68 
-0.134359 0.340562 1.39345 111 107 106 
-0.213034 0.649619 1.40032 95 94 92 
-0.179694 -0.0614003 1.45007 1 0 0 
0.00350072 0.107749 1.38289 12 10 11 
-0.036025 -0.215717 1.44271 11 11 3 
-0.0388319 -0.724482 1.63042 194 197 212 
-0.0621268 -0.12724 1.42017 115 111 108 
-0.0768826 -0.279729 1.48733 45 41 38 
-0.241814 0.611662 1.50658 105 103 104 
-0.237158 0.516068 1.48874 116 115 133 
-0.0484144 -0.251857 1.46366 121 120 116 
-0.110394 -0.0613286 1.41271 106 103 98 
-0.0499903 -0.316082 1.49067 46 42 41 
-0.169235 -0.158167 1.48846 124 120 117 
-0.0552509 -0.376082 1.51576 96 92 89 
-0.138152 -0.125277 1.45629 85 84 82 
-0.0632672 -0.192867 1.44454 97 93 90 
-0.0111945 0.102068 1.37745 46 45 43 
0.549187 0.70602 1.58516 69 66 57 
-0.226542 0.193364 1.48953 38 35 30 
-0.13568 0.0851185 1.40911 5 4 2 
-0.249381 0.559252 1.51313 132 99 30 
-0.0975557 -0.404228 1.54548 110 105 101 
-0.238038 0.503774 1.47373 4 5 23 
-0.149639 -0.258891 1.52006 94 93 91 
-0.239456 0.517941 1.50367 130 131 149 
0.0167181 -0.216416 1.46369 80 76 75 
-0.069597 -0.336571 1.50444 98 95 90 
0.0315861 0.689931 1.32095 111 108 101 
-0.241526 0.534503 1.50893 5 3 6 
-0.235969 0.501882 1.48297 79 78 84 
-0.0521553 0.110347 1.37928 78 74 75 
0.0233639 -0.257744 1.46543 57 57 57 
-0.177682 0.0737351 1.43368 77 76 74 
-0.0338182 -0.089812 1.41231 108 107 105 
-0.171235 -0.170703 1.49689 94 91 86 
-0.0518357 0.206396 1.37246 58 56 57 
-0.0333044 -0.295185 1.48724 45 41 38 
-0.137617 -0.244441 1.5038 38 34 31 
-0.306787 0.711949 1.30754 78 76 63 
-0.151732 -0.21946 1.4972 19 15 12 
-0.266866 0.666147 1.41431 73 73 65 
0.524352 0.725389 1.61647 64 63 58 
-0.239272 0.55306 1.49769 86 82 83 
-0.0400465 0.0518541 1.37704 40 39 37 
-0.229642 0.184017 1.49616 7 4 0 
-0.148012 0.200811 1.40621 50 48 51 
-0.221385 0.672025 1.37945 50 48 49 
-0.205781 0.0988088 1.46426 68 68 68 
-0.135828 -0.175442 1.47419 62 58 59 
-0.0699121 0.0625397 1.38821 56 54 55 
-0.0594885 0.0818073 1.38954 59 57 58 
-0.0513094 0.10021 1.37717 71 70 68 
-0.171361 0.222264 1.41924 79 77 78 
-0.21145 0.483076 1.42974 61 61 59 
-0.0484378 0.690429 1.30174 97 96 92 
0.00724137 -0.135723 1.44083 93 92 88 
-0.0417795 -0.429368 1.53246 83 81 82 
-0.0571962 -0.22043 1.44976 105 101 98 
-0.0830831 -0.0646267 1.40546 27 26 21 
-0.173312 -0.0333471 1.43066 25 21 18 
-0.0495326 -0.487515 1.55527 102 97 93 
0.0137071 0.652642 1.32903 115 112 103 
-0.0663378 -0.245638 1.46395 30 26 23 
-0.0382698 0.257362 1.36437 2 1 0 
-0.165036 0.28264 1.40967 100 100 100 
0.00473773 -0.389195 1.53112 30 26 23 
-0.10231 -0.298792 1.50497 27 26 22 
-0.0508991 -0.197757 1.44272 120 119 115 
-0.102232 -0.14996 1.44748 26 22 19 
-0.0753979 -0.341091 1.50862 124 120 117 
-0.0140011 0.462562 1.35206 97 94 85 
-0.0340749 0.0771145 1.37576 80 76 73 
-0.0378729 -0.324611 1.49499 122 118 115 
-0.170139 -0.114404 1.46983 31 30 28 
-0.00388113 -0.308385 1.49765 30 26 23 
0.0531717 0.0677701 1.40109 31 29 30 
0.0225887 0.676294 1.31755 104 99 96 
0.00156137 -0.357763 1.51898 99 98 96 
-0.016305 -0.162023 1.44187 98 94 91 
-0.040162 0.0373108 1.37573 79 78 76 
-0.0765828 -0.216367 1.45768 30 29 25 
-0.144836 0.103169 1.41184 83 82 78 
0.0408139 -0.0424798 1.41329 32 32 30 
-0.0175038 -0.0902593 1.41686 30 25 19 
0.0667556 0.0129468 1.41387 7 3 2 
0.0282301 -0.0196142 1.39486 20 19 15 
0.0293779 0.420427 1.36951 115 114 109 
-0.0168916 -0.402829 1.53122 34 31 26 
0.0392071 0.0407847 1.39574 75 74 72 
-0.0802749 -0.487913 1.56669 37 36 34 
-0.0402444 -0.0491625 1.38963 95 94 92 
-0.0665124 -0.0653455 1.39442 34 30 29 
-0.0464226 0.0852392 1.37305 3 0 0 
0.0130153 -0.246792 1.45759 101 100 96 
-0.169622 -0.0936989 1.46111 25 24 22 
0.0684068 0.0421525 1.41275 14 12 13 
0.0262777 -0.0874715 1.43082 109 108 104 
0.0184611 -0.080752 1.42603 1 0 0 
0.0470049 0.61073 1.35634 93 91 92 
0.0529694 0.58455 1.37332 118 116 117 
-0.0473743 -0.065915 1.39656 27 22 18 
-0.166521 -0.0183486 1.41964 48 47 45 
-0.0537388 -0.158982 1.42767 31 30 28 
0.0366552 -0.122136 1.44765 116 114 115 
0.0466296 0.593743 1.36278 9 8 6 
0.0169607 -0.335606 1.51521 123 118 115 
0.0424768 -0.0323062 1.40742 128 127 125 
-0.0106013 -0.12798 1.43049 110 109 107 
0.0644834 0.683191 1.33695 87 82 78 
-0.0382063 -0.122061 1.4222 111 107 104 
-0.0269622 -0.104955 1.41846 90 89 87 
-0.0105552 -0.0549601 1.40147 117 116 112 
-0.0512964 0.145658 1.38102 81 81 81 
-0.0454063 -0.721104 1.62226 200 209 224 
-0.0403813 -0.703557 1.62786 35 36 66 
-0.0195617 0.147073 1.37139 70 68 69 
-0.0335587 -0.168468 1.43622 60 59 55 
0.0228101 0.0350147 1.38476 52 50 51 
-0.0121593 0.128989 1.36947 73 71 72 
-0.0721155 0.213701 1.37391 50 49 54 
0.0393598 0.532662 1.37181 56 56 56 
-0.0489206 -0.752182 1.63575 104 113 128 
-0.0274679 -0.74112 1.61479 228 232 255 
-0.0509799 -0.738818 1.6218 165 167 190 
-0.239763 0.511996 1.50082 3 1 22 
-0.0633186 -0.151129 1.43449 18 14 11 
-0.0414638 -0.307977 1.48675 20 17 12 
-0.136125 -0.297764 1.53386 18 14 5 
-0.186567 -0.289746 1.55423 29 31 46 
-0.191678 -0.25256 1.57863 206 207 211 
-0.103179 -0.191222 1.46322 116 115 111 
-0.244005 0.518051 1.51554 16 16 28 
-0.243918 0.520385 1.50355 104 105 110 
-0.0822166 -0.0849335 1.42307 1 0 0 
-0.237093 0.532068 1.48178 141 141 143 
-0.135953 -0.0309298 1.40228 25 23 11 
0.0578384 -0.0340249 1.41731 28 27 23 
0.0132254 -0.0216006 1.39039 25 25 13 
0.0483866 0.59351 1.3621 118 117 115 
-0.138498 -0.0476711 1.42283 39 38 33 
-0.0455663 -0.158596 1.43389 31 27 24 
0.0641213 -0.0591593 1.43347 26 23 18 
-0.238299 0.548366 1.4856 94 94 92 
-0.242632 0.546515 1.50303 116 116 116 
0.029335 -0.0882728 1.43762 128 127 123 
0.0401574 0.0111384 1.3972 9 7 8 
-0.364241 0.723897 1.61838 139 131 120 
-0.0520162 -0.115056 1.41753 17 16 12 
0.0397383 -0.122353 1.45396 144 144 142 
0.0470679 0.0298881 1.40118 124 123 121 
-0.177843 -0.124369 1.48212 110 109 105 
-0.0234731 -0.428176 1.54204 17 16 14 
-0.00461709 -0.184638 1.4536 115 101 101 
-0.0935063 0.467063 1.35542 106 105 103 
-0.0504271 -0.225014 1.45725 17 13 12 
-0.0116817 -0.237455 1.45001 98 97 95 
-0.0874203 -0.40356 1.53697 126 123 118 
-0.114738 -0.287411 1.51631 118 112 112 
-0.0368757 0.0544817 1.37931 0 0 0 
0.0546387 0.209302 1.39575 106 105 103 
-0.198616 0.119586 1.46232 1 0 0 
-0.0319885 -0.720867 1.62113 100 110 122 
0.0160264 -0.32709 1.51875 11 12 6 
0.0108477 -0.338349 1.51956 8 7 5 
0.0180108 -0.343114 1.52497 110 110 108 
0.0133899 -0.351677 1.52563 117 113 112 
-0.0441121 -0.351113 1.50521 34 30 21 
-0.0956687 -0.36537 1.53012 15 11 8 
-0.0220589 -0.392236 1.52869 128 124 121 
-0.00605749 0.0393489 1.38044 83 79 78 
0.0136854 -0.23573 1.459 12 12 10 
-0.212525 0.145377 1.47705 94 92 95 
-0.223936 0.146778 1.49956 1 0 2 
0.0428244 0.341247 1.37865 7 3 2 
-0.196419 -0.169382 1.59204 18 14 11 
0.00808529 0.135643 1.37702 97 96 94 
-0.0210675 0.211449 1.36091 88 87 85 
-0.0365846 -0.380788 1.51744 36 32 29 
-0.0931706 -0.0639511 1.41773 125 124 122 
-0.166865 0.65638 1.31918 109 104 101 
-0.170176 0.0822646 1.43999 91 91 91 
-0.0495273 0.184266 1.36518 100 99 97 
0.00568358 -0.0411498 1.40164 105 105 103 
-0.00435368 0.243905 1.37025 1 0 0 
-0.154697 0.0411006 1.42023 85 85 85 
-0.242465 0.609327 1.50594 114 112 113 
-0.0602803 -0.610884 1.60267 128 123 120 
-0.180883 -0.21339 1.54514 107 96 94 
0.058818 -0.0458884 1.42288 37 36 34 
-0.00313668 -0.362094 1.52093 130 124 124 
-0.0358157 -0.405418 1.52999 39 38 34 
0.0524916 0.0681084 1.39944 23 22 20 
-0.236869 0.578631 1.47995 0 0 7 
-0.0104374 0.243009 1.36114 109 109 107 
-0.00782989 0.0623397 1.38502 114 110 109 
-0.121412 -0.317569 1.52873 35 32 27 
-0.203833 0.166076 1.46197 85 84 82 
-0.24118 0.56659 1.49475 96 97 91 
-0.249529 0.562663 1.50766 118 98 74 
-0.226269 0.330045 1.50048 133 132 127 
-0.0196513 -0.062804 1.41439 111 112 107 
-0.052638 -0.18539 1.44022 110 106 103 
-0.241231 0.554726 1.49526 76 76 74 
-0.0207639 -0.746422 1.62122 67 75 96 
-0.188053 -0.271832 1.56257 215 214 220 
-0.0263676 -0.694097 1.62727 70 77 96 
0.0825273 0.0224585 1.42704 1 0 0 
-0.0751946 -0.284108 1.49868 88 85 80 
-0.24708 0.55929 1.51578 112 88 62 
-0.00487757 -0.112056 1.4313 131 127 126 
0.0578429 0.11597 1.40095 105 103 104 
0.0959848 0.0433346 1.44148 4 3 1 
-0.076616 -0.296508 1.49217 33 31 19 
-0.0626748 -0.0778611 1.40284 128 126 127 
0.0194287 -0.080994 1.42859 10 9 7 
-0.0616552 -0.128044 1.42612 36 33 28 
-0.0638589 -0.0657979 1.40264 29 27 28 
-0.0412135 -0.0618899 1.39895 34 31 26 
-0.0117555 -0.215256 1.45375 36 31 27 
-0.00709273 0.092134 1.38326 127 126 122 
0.0128026 -0.2164 1.46524 102 93 94 
-0.240365 0.522189 1.48762 143 146 155 
-0.176984 -0.208311 1.52978 14 4 2 
-0.235959 0.5269 1.47344 94 95 99 
-0.0209195 -0.363664 1.51961 126 125 121 
-0.137581 -0.370091 1.61054 205 203 216 
-0.524218 0.624623 1.23988 145 140 137 
-0.00700445 -0.0555887 1.40503 91 90 88 
-0.0356751 -0.185135 1.44148 12 7 3 
0.0352502 0.0195394 1.39329 1 1 0 
0.0567045 0.0184722 1.40973 114 114 114 
-0.118646 0.0181901 1.40207 123 122 120 
0.0136449 -0.247097 1.45932 107 106 104 
-0.0158332 0.447327 1.34642 15 12 7 
-0.0894607 -0.38325 1.53648 86 85 81 
-0.0335444 -0.0570089 1.39475 128 127 123 
-0.0389838 -0.315439 1.49828 135 131 128 
-0.199899 -0.145964 1.57574 90 89 85 
-0.119004 0.0961885 1.40607 104 102 103 
0.0558263 -0.0857415 1.44491 98 94 93 
0.0435707 -0.0319637 1.41248 104 102 103 
-0.10893 -0.242675 1.49112 36 33 26 
-0.0305162 -0.0909992 1.41987 82 81 79 
-0.00355022 -0.415885 1.542 32 28 25 
-0.0529915 0.0825567 1.38301 77 75 76 
-0.0137626 -0.090574 1.41872 28 27 23 
-0.0241084 -0.306136 1.49716 87 83 82 
-0.0518708 0.112801 1.3795 86 86 86 
-0.0574007 -0.451725 1.54508 12 11 7 
-0.152321 -0.176292 1.48215 83 82 80 
-0.0317406 -0.217545 1.45247 3 3 0 
-0.165942 -0.0306819 1.42112 109 104 100 
-0.0367823 -0.760605 1.62795 208 215 234 
-0.121603 -0.624297 1.38146 88 89 117 
-0.0659535 -0.661714 1.62588 102 101 109 
-0.0758664 -0.225542 1.47406 40 35 31 
-0.134842 0.340194 1.39215 132 128 125 
-0.22688 0.184285 1.50178 7 3 0 
-0.0821351 -0.113782 1.43273 108 105 100 
-0.211442 -0.139341 1.60683 124 133 142 
-0.133957 0.377097 1.37727 69 68 66 
-0.0407645 -0.37199 1.50968 122 118 115 
-0.0716126 -0.57707 1.61409 26 24 29 
0.000486547 -0.365298 1.53266 125 119 119 
-0.0342118 -0.608547 1.58651 34 30 29 
-0.0464846 -0.336551 1.50056 35 36 31 
-0.175593 0.0739721 1.44252 64 64 62 
-0.00291 -0.316889 1.50605 144 143 141 
-0.237114 0.212876 1.5369 6 2 0 
-0.0545281 -0.289089 1.4912 106 103 96 
0.00150776 -0.255107 1.45518 122 119 112 
-0.0174531 -0.65979 1.60601 48 47 45 
0.00291958 0.100514 1.37875 13 12 10 
-0.00313141 -0.223292 1.45468 84 83 81 
-0.155791 -0.0478365 1.4314 41 38 33 
-0.138008 -0.0542902 1.43917 22 19 12 
-0.234848 0.189597 1.52937 25 22 17 
-0.0667332 -0.116752 1.42481 115 110 104 
0.0666936 0.0128132 1.41134 3 1 2 
-0.182866 -0.162492 1.5452 26 25 23 
-0.14746 -0.263638 1.53083 94 93 89 
0.0263025 0.203777 1.38072 92 91 89 
-0.0616745 -0.651153 1.59767 115 114 112 
-0.00892223 -0.128927 1.43711 97 96 94 
-0.224115 0.323918 1.48694 106 105 103 
-0.23443 0.517336 1.47437 95 95 107 
-0.0436648 -0.690597 1.62476 194 200 216 
-0.242176 0.482724 1.46331 20 16 15 
-0.15823 -0.0869443 1.44431 81 80 78 
-0.237113 0.51547 1.4646 14 16 28 
-0.0465219 -0.324002 1.48705 29 26 21 
-0.0324278 -0.655412 1.59228 42 40 41 
-0.244174 0.568862 1.5244 71 51 24 
-0.0717967 -0.172188 1.44603 43 40 35 
-0.230605 0.199749 1.50192 34 31 26 
-0.541486 0.676447 1.18432 116 113 98 
0.0526204 0.339302 1.38791 21 18 13 
-0.234427 0.171768 1.53398 8 5 0 
-0.216684 0.136883 1.49288 83 83 81 
-0.145119 -0.205752 1.48491 100 96 93 
0.0655315 0.0703069 1.4117 39 38 36 
-0.148652 -0.0312714 1.40799 127 126 121 
-0.0141662 -0.190457 1.453 44 30 27 
-0.0361833 -0.427382 1.5397 81 80 76 
0.063566 0.0411541 1.41268 0 0 0 
-0.0491889 -0.660796 1.61193 45 44 42 
0.00520263 -0.225989 1.46205 79 75 74 
-0.0391979 -0.414494 1.52953 120 116 115 
-0.0126713 0.101932 1.37442 31 30 28 
0.0169487 0.0523062 1.39004 72 71 69 
0.0404865 0.0411086 1.39675 96 95 91 
-0.102756 -0.0525924 1.39951 83 79 68 
-0.104684 -0.0424807 1.40795 102 99 92 
0.0233671 0.515199 1.36105 87 86 84 
-0.235947 0.184767 1.51923 28 25 18 
-0.215443 0.642908 1.38773 96 96 96 
0.0401922 0.139434 1.38549 110 106 105 
-0.135103 -0.246141 1.51569 25 25 23 
-0.236194 0.0545754 1.52155 65 65 65 
-0.00983412 0.148277 1.37287 64 62 63 
0.0332371 0.662315 1.32309 90 87 82 
-0.0126246 0.436722 1.34965 123 120 113 
-0.0399045 -0.742965 1.63053 228 228 252 
-0.049445 -0.646497 1.57357 52 48 47 
-0.0705141 -0.599801 1.61389 197 197 209 
-0.067993 -0.600183 1.62746 107 107 119 
-0.0109637 -0.669731 1.61368 90 88 89 
-0.513881 0.629173 1.22341 28 24 25 
-0.235375 0.213817 1.54576 40 36 33 
-0.237206 0.321709 1.52758 2 2 0 
-0.236425 0.521001 1.45696 123 122 127 
-0.0540814 -0.655463 1.59844 35 34 32 
-0.044434 0.0809641 1.37151 85 80 76 
-0.0959666 0.0635722 1.38447 76 76 76 
0.0229281 0.227756 1.37338 77 76 71 
-0.0288404 -0.3226 1.50203 66 66 64 
-0.131458 -0.248311 1.52575 47 47 45 
-0.280962 0.786102 3.15367 85 86 80 
-0.152717 -0.218568 1.48894 18 15 10 
-0.218125 -0.112927 1.61424 59 61 74 
-0.0438374 0.2174 1.36791 94 93 89 
-0.454425 0.685793 1.24368 105 103 91 
-0.497918 0.699051 2.04387 105 106 100 
-0.23857 0.488424 1.48074 15 11 10 
-0.191381 -0.269863 1.57362 39 39 51 
-0.229258 -0.0702661 1.59583 35 31 32 
-0.229309 -0.070618 1.61173 53 51 62 
0.00885097 -0.0432788 1.41058 118 118 116 
-0.280785 0.687474 1.27836 73 71 56 
-0.235324 -0.0142695 1.50432 53 52 48 
-0.13906 0.640375 1.32767 118 115 110 
-0.104763 0.628422 1.32733 110 106 107 
-0.24746 0.608863 1.42965 24 23 18 
0.378954 0.755127 1.63995 102 100 85 
0.0196395 0.031107 1.3824 69 67 68 
0.0318841 0.031735 1.40656 83 82 80 
-0.0744322 -0.494258 1.58362 34 32 33 
-0.145427 -0.153256 1.48502 34 30 27 
0.0440468 0.0418894 1.40523 80 79 75 
-0.164765 -0.177954 1.51313 35 35 27 
-0.060376 -0.420161 1.53839 41 37 34 
-0.17192 0.0747652 1.45102 68 68 66 
-0.250688 0.504007 1.5155 40 40 40 
0.0303395 0.428681 1.37137 129 126 117 
0.00542929 0.0818174 1.38249 78 78 76 
0.0217038 -0.359798 1.54454 103 97 97 
-0.0559522 0.143123 1.36084 79 79 79 
0.000132052 -0.319576 1.51499 80 79 77 
0.0302718 0.204445 1.3894 80 79 77 
-0.238185 0.0805736 1.56525 58 57 55 
-0.0351528 -0.651285 1.58413 44 42 43 
-0.0476006 -0.427016 1.52307 74 73 69 
-0.0662723 -0.41539 1.5233 45 41 38 
-0.12878 -0.346199 1.53952 60 57 52 
-0.0348353 -0.237543 1.44995 141 141 131 
-0.0867493 -0.226647 1.45175 67 64 55 
-0.060725 -0.22745 1.46707 41 37 34 
-0.00130852 -0.21974 1.4636 101 93 90 
-0.172827 -0.212458 1.49983 4 3 0 
-0.101028 -0.186569 1.45101 93 89 88 
-0.0606261 -0.187163 1.44989 73 68 64 
-0.132596 -0.159075 1.48262 119 118 116 
-0.11374 -0.156785 1.45029 100 96 93 
-0.178017 -0.101106 1.46376 19 15 12 
-0.143566 -0.0654858 1.44764 51 47 44 
-0.0022122 0.0180532 1.37964 50 49 47 
0.0256147 0.03476 1.3919 69 67 70 
-0.242324 0.0814842 1.55527 79 75 74 
-0.050171 0.121933 1.38033 76 76 76 
-0.0375766 0.133934 1.3795 15 14 12 
0.0462625 0.139451 1.40251 75 71 70 
-0.236252 0.201314 1.53497 14 15 9 
-0.0608035 0.201146 1.37846 54 52 55 
0.0319919 0.295446 1.36989 70 66 67 
0.00974629 0.312959 1.37069 60 59 57 
-0.0422046 0.327914 1.34536 71 70 68 
-0.255963 0.493361 1.49994 54 54 54 
-0.219854 0.498015 1.41269 100 99 97 
-0.236474 0.575323 1.4382 28 27 32 
0.092642 0.672527 1.36036 30 29 25 
-0.0587364 -0.0790228 1.41571 102 100 101 
-0.164642 0.320725 1.40574 60 59 57 
0.00221696 0.477164 1.3534 112 111 107 
-0.0306407 -0.759839 1.64089 189 202 211 
-0.0391117 -0.745761 1.64148 196 203 219 
-0.0282148 -0.747332 1.64094 192 200 213 
-0.0347146 -0.691425 1.61679 187 192 211 
-0.0180186 -0.592113 1.58921 41 39 44 
-0.0421724 -0.298225 1.49475 133 129 126 
-0.04105 -0.234614 1.43425 76 76 66 
0.103667 -0.114586 1.52162 18 18 28 
-0.223091 -0.0208459 1.48501 54 53 49 
-0.159563 0.064281 1.42845 55 54 52 
-0.0684951 0.0626997 1.39149 60 58 59 
-0.0589155 0.0823081 1.39085 76 76 76 
-0.047693 0.111758 1.38905 74 74 74 
-0.0489562 0.327756 1.36562 64 60 57 
-0.215943 0.480169 1.43303 23 22 20 
-0.250973 0.692552 1.33769 81 81 69 
6.16563 2.39303 14.0826 131 134 139 
-0.231041 0.0761 1.50594 82 82 82 
-0.124258 -0.0308487 1.4033 38 36 24 
-0.166542 -0.0705422 1.44585 123 120 115 
-0.0734254 -0.32504 1.50309 26 18 15 
-0.1121 -0.278787 1.50492 105 104 100 
6.19616 2.40852 14.1781 14 17 22 
-0.10803 0.103928 1.39374 81 81 81 
0.51649 0.703823 1.66669 110 108 95 
-0.131766 0.681505 1.30808 96 95 90 
-0.124267 -0.0499121 1.41666 66 61 55 
-0.124396 -0.138597 1.4542 105 104 102 
6.31198 2.27592 14.3778 98 103 109 
-0.196326 0.113234 1.45211 28 27 25 
-0.010108 0.439165 1.35638 123 120 113 
0.52016 0.732488 1.64411 58 57 53 
-0.0492356 0.0985547 1.38573 79 79 77 
-0.0916829 -0.436376 1.55647 105 101 98 
0.597241 0.713516 1.51294 76 76 68 
0.52945 0.727524 1.61968 48 47 42 
-0.103198 0.0367614 1.38993 32 31 29 
6.68454 2.32393 15.2617 57 62 66 
-0.117269 0.20044 1.39179 60 60 60 
-0.0484662 -0.747903 1.63918 224 225 255 
-0.0350395 -0.736399 1.63551 214 221 239 
-0.15885 -0.0522483 1.4227 105 101 98 
-0.0410324 -0.716472 1.63053 211 211 235 
-0.0288636 0.256586 1.35833 1 0 0 
0.0893149 0.252648 1.43277 31 30 26 
-0.179778 -0.0716725 1.45688 44 43 39 
-0.00441355 -0.0935341 1.42266 22 18 17 
0.0802593 0.229078 1.42484 11 8 3 
-0.00272068 -0.595143 1.62358 117 118 136 
0.0720665 0.0671 1.42142 112 111 109 
0.104778 -0.0635987 1.4928 123 122 120 
0.104196 0.0829514 1.46098 94 93 91 
0.0379513 -0.112413 1.44028 14 12 13 
0.0373131 0.44104 1.37012 132 129 122 
-0.139678 -0.139527 1.46214 30 29 27 
0.0272667 -0.301235 1.50815 1 0 0 
0.0178959 -0.301781 1.50534 17 16 14 
-0.0492354 -0.302817 1.48606 12 9 4 
0.0244299 0.159528 1.38107 96 95 93 
-0.0465351 -0.394574 1.52046 32 28 25 
-0.00660244 -0.343691 1.51299 118 114 113 
-0.012207 0.454646 1.35113 27 23 20 
-0.0248528 0.110639 1.3696 1 0 0 
-0.00535713 0.512455 1.34885 102 101 99 
0.0458253 -0.209014 1.47921 118 117 113 
0.0536946 0.068131 1.40383 12 11 9 
0.0154478 -0.198567 1.45311 99 87 87 
-0.085772 -0.451447 1.55872 24 20 19 
0.0715892 0.0576433 1.41498 122 120 121 
0.019562 -0.188337 1.45595 111 102 103 
0.0803944 0.0522606 1.42391 92 88 87 
0.0580329 -0.181302 1.47625 118 115 110 
-0.0354894 -0.341377 1.50264 39 35 34 
-0.115742 -0.176701 1.46432 36 32 31 
0.0530306 -0.173069 1.4656 130 127 122 
0.018104 -0.156397 1.44774 19 18 14 
-0.0389046 -0.149886 1.42591 117 112 109 
-0.0237842 -0.350389 1.51429 139 135 132 
-0.135356 0.028312 1.39556 103 103 103 
-0.0551231 -0.132772 1.4183 121 120 116 
-0.0208461 0.0176984 1.37593 1 0 0 
0.0977263 0.0133138 1.44284 98 96 97 
-0.162425 -0.11174 1.46111 121 120 118 
-0.0558473 -0.361486 1.50746 46 42 31 
-0.148446 -0.0397422 1.41688 129 125 124 
-0.121201 -0.0426192 1.40352 15 11 8 
-0.0156817 -0.378439 1.52684 108 104 103 
-0.15261 -0.221216 1.50197 87 86 84 
0.0645316 -0.0731923 1.43477 104 100 99 
-0.0729176 -0.0765362 1.40205 116 115 113 
-0.0929412 -0.406432 1.54822 123 119 118 
0.00866153 0.631872 1.33791 127 125 126 
0.0843062 0.42571 1.42075 17 13 10 
-0.0636623 -0.430813 1.54198 26 22 19 
0.0898649 0.209598 1.43782 129 128 123 
0.030842 0.468503 1.36663 122 119 114 
0.0488592 0.254969 1.38474 114 113 109 
-0.0222183 0.0914195 1.37353 104 103 101 
-0.0254372 -0.751221 1.62669 226 230 255 
-0.0442 -0.734438 1.63218 90 97 115 
-0.101715 -0.253913 1.48212 132 128 125 
0.0500934 -0.189003 1.47407 159 158 154 
0.124881 0.0251474 1.47185 6 5 1 
-0.0715955 -0.31586 1.49539 61 57 54 
0.0316101 0.407845 1.37193 29 28 23 
0.0331145 0.398774 1.36813 131 127 124 
0.101412 -0.0845114 1.5038 13 12 10 
-0.00743677 -0.407781 1.54032 33 30 25 
0.0147001 -0.0999685 1.43184 130 129 127 
0.130568 0.0621804 1.48046 127 126 122 
-0.0240944 -0.0748176 1.40711 95 94 92 
0.0882206 0.014812 1.42924 60 58 59 
-0.0579009 -0.380127 1.51676 21 17 16 
0.0260428 -0.326004 1.51467 24 21 16 
-0.140561 -0.0572914 1.41737 29 26 21 
-0.111375 -0.33757 1.52697 30 26 23 
-0.0317566 -0.334158 1.49611 22 21 19 
0.0397747 -0.192734 1.46387 112 111 107 
0.0667268 -0.193495 1.49726 118 114 111 
-0.0155709 -0.0322783 1.38465 29 28 24 
0.0506193 0.268009 1.38998 116 111 108 
0.0534528 -0.15494 1.46341 113 112 110 
-0.0638058 -0.137043 1.41893 118 115 110 
0.0912668 0.28211 1.43642 101 98 93 
-0.0404907 -0.531459 1.5715 116 115 113 
0.0103042 -0.181703 1.44794 88 80 78 
-0.00183075 -0.16096 1.43748 94 93 91 
0.03357 0.421364 1.37454 107 104 99 
0.0534584 0.586994 1.37878 126 125 123 
0.0486989 -0.0476754 1.42167 17 16 12 
0.0267647 0.0107033 1.38334 1 0 0 
0.0379853 -0.131266 1.44737 133 132 130 
0.0324182 -0.0989517 1.43413 3 1 2 
-0.0512491 -0.322976 1.49142 132 127 124 
-0.0188706 0.329308 1.35127 95 93 96 
-0.110382 -0.176634 1.45154 121 117 116 
0.132758 0.0261932 1.4917 1 0 0 
-0.0432397 -0.658446 1.59912 26 25 21 
-0.0391036 -0.369581 1.51627 124 120 117 
-0.040497 -0.416132 1.53528 120 116 115 
-0.0224964 -0.0518176 1.38995 120 119 115 
-0.0455824 -0.352573 1.51001 39 35 26 
0.0112059 -0.0261895 1.39191 106 102 99 
-0.198416 0.0216758 1.44492 19 17 18 
-0.100815 -0.287197 1.50574 114 114 112 
-0.112385 -0.296847 1.51084 124 120 119 
0.0155119 0.672671 1.31642 108 104 101 
0.0264179 0.505688 1.36284 80 79 77 
0.0741275 0.0424365 1.41503 8 4 1 
-0.0175543 -0.203251 1.44974 46 36 34 
-0.0264882 -0.0435438 1.38503 104 103 99 
-0.139621 -0.00446556 1.39557 99 98 96 
-0.00411932 -0.430583 1.54577 80 76 75 
0.0185908 -0.16203 1.45599 94 93 89 
-0.0047456 -0.602905 1.61775 122 124 139 
0.0366556 -0.212671 1.46513 86 85 81 
-0.015741 0.303458 1.36246 1 0 0 
0.0703825 0.134287 1.41175 86 82 81 
0.0382192 -0.423842 1.59677 92 91 86 
-0.0328264 -0.380672 1.52334 108 104 101 
0.142902 -0.0565641 1.56996 109 109 111 
0.0838142 0.436514 1.41571 109 108 104 
-0.447224 0.692096 2.02854 111 111 109 
-0.0587041 -0.334154 1.49484 42 39 32 
-0.0135258 -0.327094 1.50695 104 100 97 
0.00439897 -0.327648 1.51237 97 96 94 
0.0983932 0.117516 1.44839 107 101 101 
-0.0607061 -0.620434 1.62088 106 101 98 
0.122638 -0.126539 1.57947 111 110 108 
-0.0497578 -0.176842 1.43201 91 89 90 
-0.154211 -0.207353 1.50196 99 97 98 
0.00246414 -0.402422 1.54293 129 125 124 
-1.28772 0.802208 4.6971 140 142 131 
0.0629682 -0.10847 1.44685 35 34 32 
0.102431 -0.151338 1.54392 77 76 72 
0.101004 0.0605681 1.44348 77 76 74 
-0.0515051 0.25502 1.36437 102 102 102 
0.0362435 0.454145 1.37004 80 79 75 
0.0976585 0.0757757 1.44483 85 84 82 
-0.0321138 -0.69796 1.636 195 204 221 
0.0645886 0.070116 1.41518 39 39 39 
0.0479322 -0.215795 1.48559 151 149 150 
-0.0508235 0.144094 1.36592 89 87 88 
-0.0125464 -0.615768 1.6191 18 12 12 
-0.154819 -0.195542 1.49456 113 112 110 
-0.0137398 -0.388115 1.52551 118 114 113 
0.0634505 0.0414159 1.41626 6 2 0 
-0.0533097 0.131707 1.37992 48 48 48 
0.0353178 0.0597957 1.38481 89 89 89 
0.0839072 0.277581 1.42609 45 44 40 
0.0257333 0.477701 1.35798 99 98 94 
-0.011555 0.234934 1.3692 89 87 88 
0.0258749 0.115146 1.38386 81 79 80 
0.00620651 -0.390751 1.54076 36 32 31 
-0.0400089 -0.326514 1.50142 100 96 93 
0.120671 0.0116448 1.45974 67 66 64 
0.093784 0.432955 1.42192 57 56 52 
-0.0547955 0.486164 1.35014 67 66 64 
-0.0388907 -0.547943 1.58077 83 78 74 
0.123656 -0.138555 1.58437 195 194 199 
0.0585365 -0.118052 1.44762 93 92 90 
-0.0929905 -0.326501 1.50997 50 46 43 
0.0695768 0.25702 1.40925 36 32 31 
-0.00825406 -0.381442 1.53161 110 106 105 
0.0295166 0.702151 1.28043 133 133 123 
-0.0551018 -0.400927 1.5215 85 81 80 
-0.132816 -0.340495 1.5871 34 31 26 
0.00100528 -0.256117 1.45953 103 100 91 
-0.00483893 -0.216541 1.43714 106 102 99 
0.123779 -0.095094 1.55068 36 35 33 
0.0609467 0.554828 1.38111 81 79 80 
0.0597604 0.0787139 1.39884 75 74 72 
0.0903829 0.0829169 1.44512 24 23 21 
0.0601197 0.148159 1.39641 101 100 98 
-0.0500183 0.163051 1.36465 64 63 61 
0.0543105 0.684543 1.32382 58 55 50 
-0.00408705 0.159079 1.3735 67 66 64 
0.0802495 0.0422866 1.42389 41 37 36 
0.0662393 -0.218445 1.50994 60 59 57 
0.0615668 -0.202876 1.49279 128 127 123 
0.0102916 -0.304622 1.4985 136 135 133 
-0.0423119 -0.278156 1.48444 48 44 43 
0.0806486 -0.19754 1.531 70 68 69 
-0.13898 -0.157963 1.47367 62 61 59 
-0.0930414 0.0559265 1.36997 70 70 70 
0.00991487 0.145014 1.37882 64 63 61 
-0.0496817 0.212213 1.3553 109 105 106 
0.0360069 0.296635 1.37114 71 67 64 
0.0661966 0.328919 1.40541 37 33 30 
-0.128042 -0.218994 1.48551 26 22 21 
-0.028984 -0.424289 1.53389 122 121 119 
-0.109243 0.683563 1.30607 29 25 26 
-0.0314136 -0.357067 1.50873 114 110 107 
0.150395 0.0880368 1.54387 47 52 46 
-223.884 -42.4898 -3179.12 81 89 108 
-121.555 6.65179 -1995.91 186 195 210 
-88.1989 35.5456 -1288.11 79 88 103 
-69.5405 23.5283 -901.453 83 92 109 
-14.1838 -7.67957 -161.709 255 253 255 
-10.921 -3.30306 -88.8984 157 170 179 
-92.5374 -32.5851 -1201.61 178 186 199 
-72.6391 -6.7406 -966.317 167 174 190 
-94.5192 10.1283 -1257.57 66 73 91 
-96.2984 10.8642 -1293.2 197 204 222 
-97.7676 13.0569 -1331.65 192 199 217 
-70.8329 10.3207 -1039.41 70 79 94 
-140.759 41.7569 -1881.58 198 207 224 
-79.4098 23.8937 -1077.48 202 211 228 
-209.794 160.437 -3450.56 62 74 88 
-70.7175 21.4688 -908.401 194 203 220 
-51.0869 15.722 -665.719 193 200 219 
-88.6129 31.3565 -1274.47 65 74 89 
-72.7293 24.4709 -964.39 186 195 212 
-83.4266 32.7595 -1194.18 79 88 103 
-64.1832 30.4914 -851.716 72 81 98 
-150.631 45.0764 -2041.91 202 211 228 
-78.2282 26.6247 -1112.03 194 203 218 
-79.7637 17.5503 -1088.16 181 190 207 
-65.4779 26.2622 -884.102 97 106 123 
-93.2399 2.13585 -1235.68 80 87 105 
-94.7372 17.7702 -1353.57 67 76 91 
-85083.5 5926.86 -1.28154e+06 188 197 212 
-81.4707 25.9097 -1164.86 181 190 205 
-70.3766 22.577 -949.847 196 203 221 
-66.1288 4.55608 -986.416 181 190 205 
-186.833 67.2952 -2668.71 72 81 96 
-67.0717 22.6854 -890.365 186 195 212 
-68.9037 23.6845 -930.079 86 95 112 
-114.077 0.675115 -1599.84 185 194 209 
-55.6571 39.0172 -783.421 188 195 213 
-91.8338 -33.423 -1302.07 182 192 204 
-100.245 -37.9943 -1455.62 39 49 61 
-89.2638 -14.1128 -1178.45 97 102 121 
-46.2248 28.0079 -604.769 180 189 206 
-70.38 3.26888 -918.082 55 60 80 
-88.631 59.059 -1256.43 196 203 221 
-102.389 37.2008 -1353.71 59 67 86 
-118.098 42.7377 -1683.68 69 76 92 
-231.187 42.8448 -3315.79 87 96 111 
-67.3062 9.622 -901.907 171 178 196 
-70.456 6.46493 -943.828 78 85 103 
-73.195 4.74699 -986.973 191 198 216 
-1276.06 86.0139 -19109.8 173 182 197 
-74.2432 2.76231 -994.276 191 198 216 
-80.0064 0.522089 -1093.22 163 170 188 
-81.9924 -5.84489 -1090.14 65 72 88 
-125.285 -43.6702 -1697.07 181 189 202 
-167.235 -38.0788 -2523.18 71 80 97 
-63.7205 25.4636 -929.532 79 88 103 
-108.404 36.6976 -1442.54 158 167 184 
-53.6788 12.3293 -609.711 75 87 101 
-92.2242 5.20363 -1354.69 90 99 114 
-896.299 61.2777 -12806.5 188 197 212 
-235.739 11.3833 -3989.41 105 114 129 
-70.2704 3.59652 -919.04 108 113 133 
-76.0005 1.17221 -1017.72 58 65 83 
-96.7238 6.86912 -1446.4 173 182 197 
-224.231 32.1148 -3023.95 176 183 201 
-103.071 -7.88673 -1486.81 78 87 104 
-86.2539 -6.18634 -1173.27 160 167 183 
-202.715 36.5603 -2734.44 79 88 105 
-82.861 -5.49666 -1109.11 76 83 99 
-64.1732 13.7042 -867.204 173 182 199 
415976 167839 2.49966e+06 55 63 74 
-337.467 258.013 -5552.1 62 74 88 
-51.5353 -18.6377 -728.687 181 191 203 
-93.5377 5.12516 -1378.83 59 68 83 
-66.0752 22.1046 -955.248 51 60 75 
-74.9353 10.9568 -1060.22 148 157 172 
-116.159 16.4017 -1562.5 166 173 191 
-70.521 7.05976 -949.305 105 112 130 
-190.693 12.791 -3182.25 69 78 93 
-70.3754 3.48938 -920.405 60 65 85 
-233.788 10.069 -3948.3 110 119 134 
-78.5617 -2.18209 -1046.71 157 164 182 
-81.9006 -5.47296 -1090.97 77 84 100 
-51.2269 29.0119 -711.952 54 63 80 
-61.9657 22.5165 -819.225 59 67 86 
-74.3156 1.69692 -895.835 161 170 185 
-56.2357 9.13089 -821.438 109 118 133 
-98.6308 -23.6719 -1300.17 76 81 100 
-11.7718 -2.58856 -104.801 151 158 174 
-62651.7 -13792.5 -909404 153 162 179 
-186.041 -4.80481 -2485.37 164 171 189 
-125660 8652.97 -2.117e+06 182 191 206 
-160.114 11.0309 -2165.01 139 146 164 
-248.34 18.034 -3565.85 156 165 180 
-151.271 14.9284 -2045.86 102 109 127 
-129.58 23.5854 -1753.29 142 151 168 
-159.813 38.8781 -2296.92 163 172 187 
-108.027 32.1005 -1462.49 186 195 212 
-108.426 4.40526 -1286.1 66 75 92 
-107944 46065.1 -1.93496e+06 63 75 89 
-46.5816 7.56225 -533.084 73 82 99 
-87120.5 -2062.64 -1.1734e+06 166 173 191 
-11.7555 -2.60754 -104.815 58 65 81 
-9.93046 -2.14461 -87.6437 119 126 142 
-0.11109 0.00661749 1.38993 82 81 79 
-0.0382011 -0.666128 1.61895 118 117 115 
8.20648 2.60925 15.3226 9 13 24 
8.28921 2.77499 15.7964 1 5 16 
8.2022 2.61289 15.5544 5 9 21 
6.86333 2.59066 13.4799 126 125 130 
8.13143 2.58376 15.0444 29 33 44 
8.22256 2.82396 15.4708 65 66 70 
-0.192396 0.648289 1.3719 108 104 101 
8.15044 2.59142 15.2367 15 19 30 
8.16425 2.60144 15.3055 15 22 32 
8.21702 2.61749 15.5809 5 9 21 
8.23457 2.62252 15.6737 23 27 38 
8.20095 2.52802 15.5696 40 46 58 
8.15091 2.51647 15.5266 18 27 36 
7.2717 2.69766 15.8955 19 22 31 
8.12578 2.50532 15.2045 25 29 40 
7.19476 2.49886 15.7438 141 146 152 
-0.203553 0.620679 1.38777 84 83 81 
8.27048 2.87418 15.766 31 34 43 
7.39537 2.39951 13.3409 143 148 152 
7.89332 2.55094 13.2884 28 33 36 
7.80167 2.83626 15.9779 108 109 113 
7.87868 2.68165 15.9023 20 20 28 
7.66791 2.76686 15.5878 15 16 20 
7.45324 2.70157 15.6119 31 32 37 
8.28717 2.59805 15.9177 118 123 129 
7.29393 2.53848 15.9255 141 146 150 
-0.0869052 0.703805 1.26533 45 43 31 
8.17619 2.53096 15.5705 15 22 32 
7.75685 2.79 15.9753 40 41 46 
7.62527 2.77289 15.9601 30 31 36 
7.27004 2.36129 13.1588 147 152 158 
-0.156504 -0.126575 1.46479 93 92 90 
-0.213385 0.517398 1.42272 118 116 117 
-0.172919 0.0820191 1.43187 2 0 1 
-0.194833 0.0306878 1.44025 1 0 0 
-0.225286 -0.00233403 1.47395 101 100 98 
3.90999 1.92936 7.47507 103 103 105 
-0.231257 0.611981 1.47349 7 8 10 
-0.239566 0.508445 1.49261 0 0 15 
-0.237425 0.123288 1.58681 95 93 94 
-0.217087 0.0367015 1.46798 102 101 99 
-0.243884 0.507634 1.50709 0 0 7 
-0.231686 0.535795 1.46488 117 117 115 
-0.239443 0.542008 1.4971 2 0 3 
-0.233409 0.145537 1.52494 1 0 0 
-0.237667 0.0155459 1.5133 82 81 79 
-0.239506 0.115207 1.55019 85 85 85 
-0.0773302 0.653752 1.3094 4 0 0 
-0.230508 0.0333302 1.49635 1 0 0 
-0.192027 -0.158052 1.55155 4 3 1 
-0.171068 0.0506107 1.41945 81 79 80 
-0.247074 0.0289391 1.58454 17 16 14 
-0.232342 0.575283 1.47132 91 90 95 
-0.105291 -0.438688 1.57945 29 28 26 
-0.185228 -0.13627 1.51218 19 18 14 
-0.249903 0.486874 1.50203 5 1 0 
-0.0979371 0.0100035 1.38868 3 0 0 
-0.230163 0.503413 1.46476 137 136 142 
-0.0665241 0.65351 1.30882 127 126 122 
-0.181908 -0.254037 1.55097 87 84 79 
-0.200895 0.569967 1.40142 103 101 102 
-0.184311 -0.11749 1.48537 122 120 121 
-0.332291 0.699012 1.41136 131 128 123 
-0.207337 -0.077356 1.52565 101 99 100 
-0.249134 0.0268713 1.55217 100 100 100 
-0.0576899 -0.578616 1.59587 35 32 27 
-0.0681928 -0.20583 1.45272 90 86 83 
-0.239098 0.0930027 1.58031 1 0 0 
-0.238738 0.121569 1.5662 92 91 89 
-0.230564 0.109948 1.51386 81 81 81 
-0.245586 0.0555213 1.54653 8 4 5 
-0.233551 0.589738 1.45371 81 82 86 
-0.234831 -0.0144397 1.51255 38 34 31 
-0.242522 0.0306539 1.52389 112 108 109 
-0.248186 0.0298573 1.56767 101 100 98 
-0.179736 -0.197325 1.52232 96 86 85 
-0.235666 0.605991 1.46618 18 19 23 
-0.22946 0.581438 1.46441 54 54 52 
-0.240064 0.101039 1.56313 82 80 81 
-0.275844 0.674465 1.38357 16 16 8 
-0.245281 0.061843 1.55525 14 13 11 
-0.209831 0.704784 1.28926 101 91 82 
-0.236563 0.609427 1.4818 24 23 29 
0.0180704 0.776812 2.54508 78 77 75 
-0.0491927 -0.74942 1.64316 89 80 109 
-0.137433 0.661947 1.32005 51 47 46 
0.574042 0.743348 1.40504 87 86 84 
-0.164903 0.252568 1.41056 64 62 63 
-0.215817 0.503719 1.42593 95 94 92 
-0.192113 0.635276 1.37644 41 40 38 
-0.358409 0.704401 1.49694 73 72 68 
-0.0640774 -0.360601 1.51568 37 33 30 
-0.249863 0.0598793 1.56579 57 57 57 
-0.247906 0.656175 1.40266 102 99 94 
-0.329687 0.684177 1.44035 70 69 67 
-0.229311 0.0775038 1.51148 44 44 46 
0.584842 0.702159 1.40567 32 30 33 
-0.293992 0.687543 1.36411 70 69 64 
0.0317826 -0.127262 1.43452 93 89 90 
0.104995 0.141607 1.44822 106 102 99 
0.0904188 0.0420637 1.42206 7 1 1 
0.03875 0.620335 1.34715 123 121 122 
0.0178017 0.0182777 1.37888 1 0 0 
0.118981 0.383305 1.4629 107 104 99 
-0.107468 0.629849 1.33575 137 133 134 
0.105548 0.0938716 1.45141 121 120 118 
-0.0616017 0.645409 1.32501 120 116 113 
0.0164106 0.129415 1.37359 100 99 97 
0.0575311 -0.0928433 1.43053 107 103 102 
0.115716 0.510487 1.43479 115 114 110 
0.0233174 -0.0516102 1.40283 108 107 105 
0.121186 0.0331449 1.45619 1 0 0 
0.0342291 0.103809 1.38154 76 74 75 
-0.0164938 -0.19642 1.43319 21 11 9 
0.101879 0.0346081 1.42935 94 93 91 
-0.134756 0.647134 1.34016 98 97 95 
0.033606 0.609154 1.34756 89 87 88 
-0.0286355 0.225589 1.36171 77 76 74 
0.0872238 0.227898 1.42625 20 17 8 
-0.00548353 0.079266 1.37272 94 93 91 
0.0347424 -0.05124 1.40841 105 104 102 
0.109901 0.0248148 1.44178 100 99 97 
0.0445588 -0.170904 1.45531 122 117 113 
-0.0196529 0.0513943 1.3697 84 82 83 
0.0666298 0.593458 1.37239 88 87 85 
-0.00656825 0.663793 1.30737 76 75 71 
-0.0386945 -0.711233 1.60589 185 193 206 
-0.0294848 -0.736718 1.62282 152 158 180 
-0.143447 0.0654545 1.60629 71 70 68 
-0.111905 0.0659512 1.62407 70 69 65 
-0.0469861 -0.620743 1.62165 21 19 24 
-0.0357651 -0.662953 1.60972 101 96 93 
-0.052503 -0.61706 1.63174 12 8 5 
-0.0275413 -0.619896 1.60957 12 8 7 
-0.188415 0.0218365 1.43331 5 4 2 
-0.0270624 -0.665922 1.61089 41 39 40 
-0.054009 -0.662187 1.63217 69 67 68 
-0.0373479 -0.640611 1.62237 211 212 230 
-0.0334288 -0.622632 1.61984 220 220 228 
0.100903 0.000394441 1.41926 14 16 28 
-0.0427167 -0.66707 1.62813 32 31 29 
-0.197448 -0.195745 1.56371 1 0 0 
-0.232042 0.0241448 1.48848 81 80 78 
-0.190777 -0.177926 1.54765 76 66 67 
28112.9 6738.29 28106.3 168 171 160 
-0.230911 0.63009 1.47828 76 79 70 
-0.227394 0.0147496 1.47986 6 5 3 
-0.214763 -0.105883 1.55618 32 28 25 
-0.197226 0.20155 1.44578 77 73 72 
-0.275293 0.667471 1.41028 71 68 59 
0.221214 0.832801 2.33899 76 74 75 
-0.224929 -0.0990504 1.56754 127 125 126 
-0.205685 -0.171093 1.57402 125 124 119 
-0.233407 0.53717 1.4947 139 138 143 
-0.241473 0.100739 1.57163 93 93 93 
-0.251823 0.0369455 1.57072 1 0 0 
-0.224076 0.604262 1.47208 38 41 50 
-0.210117 -0.136247 1.56171 3 2 0 
-0.209032 -0.124796 1.5472 99 98 96 
-0.253633 0.0629043 1.5792 80 80 80 
-0.186317 0.223293 1.43524 80 78 79 
-0.212128 -0.106068 1.54026 42 38 35 
0.257991 0.831482 2.29579 70 65 59 
-0.219803 0.525293 1.44164 84 84 84 
-0.189266 -0.104619 1.47065 10 9 7 
-0.227532 0.560974 1.48218 80 80 80 
-0.232947 -0.0419647 1.53077 43 39 36 
0.218523 0.838917 2.32194 14 13 11 
0.205824 0.831878 2.33124 14 10 7 
0.279212 0.798069 2.31669 68 68 56 
-0.224789 -0.0444764 1.50338 44 41 36 
-0.194044 -0.0746734 1.46206 42 41 37 
0.184533 0.829181 2.33285 70 73 62 
0.264884 0.835775 2.31005 12 7 1 
0.242432 0.809735 2.38263 68 67 63 
-0.241616 0.109542 1.56633 10 8 9 
-0.230531 -0.0721961 1.55463 106 105 101 
0.233069 0.823 2.35077 59 58 54 
-0.238926 0.353527 1.53509 25 24 22 
