ply                 
format ascii 1.0    
element vertex 79
property float x    
property float y    
property float z    
property uchar red  
property uchar green
property uchar blue 
end_header          
-0.0883981 -0.257857 1.49058 36 33 28 
-0.114383 -0.0543333 1.42031 32 28 25 
-0.106694 -0.0414826 1.40792 116 113 106 
-0.0932981 -0.315608 1.51736 15 14 10 
-0.133492 0.00793174 1.40798 4 2 3 
-0.147508 0.0306444 1.41414 91 91 91 
-0.0732076 0.0108012 1.39019 112 111 109 
-0.074717 -0.246431 1.47955 55 50 46 
-0.156002 0.646043 1.35798 107 106 104 
-0.0635964 -0.242285 1.47262 19 18 14 
-0.098121 -0.134087 1.44921 27 26 24 
-0.0955583 -0.311385 1.51784 120 119 117 
-0.121617 0.029698 1.40219 1 0 0 
-0.0884576 -0.144059 1.4473 103 102 100 
-0.134245 0.406681 1.38842 72 73 68 
-0.105583 0.538326 1.36115 101 100 96 
-0.118896 0.100117 1.40772 73 73 73 
-0.149826 -0.158407 1.483 15 11 10 
-0.111262 -0.0544247 1.41905 46 41 35 
-0.0727955 -0.0981011 1.42307 23 22 20 
-0.0867175 -0.110782 1.43633 26 25 23 
-0.115668 -0.155925 1.46712 23 22 20 
-0.0887279 -0.258149 1.49085 45 42 37 
-0.0676867 -0.312051 1.50358 14 10 7 
-0.104617 0.679321 1.33507 99 97 100 
-0.00952953 -0.345278 1.51613 54 50 49 
-0.133846 0.702665 1.31611 107 105 108 
-0.0949069 -0.155189 1.45527 21 20 18 
-0.103462 0.526732 1.36498 94 92 93 
-0.0734968 0.0109039 1.38982 97 96 94 
-0.09368 0.058542 1.39061 70 69 65 
-0.00303083 0.0975123 1.38321 7 3 0 
6.17516 3.05644 26.2689 35 45 46 
-0.0518495 -0.334614 1.50448 21 18 13 
-0.124734 0.0185388 1.40244 77 75 76 
-0.0462084 0.738514 1.29528 8 7 5 
-0.164441 -0.0430206 1.43688 118 115 110 
-0.0537283 -0.28302 1.4829 40 35 32 
-0.0552091 -0.250236 1.47027 40 35 31 
-0.0841225 0.0999601 1.3956 67 65 66 
-0.148126 0.0999658 1.42107 83 82 80 
-0.108677 0.67639 1.33621 137 133 134 
-0.0773912 0.538215 1.35493 92 92 92 
-0.0735969 -0.33387 1.51386 51 50 46 
-0.106299 -0.0910185 1.43811 40 39 37 
-0.131353 -0.109447 1.45531 28 27 25 
-0.0932617 0.0590141 1.39173 56 55 51 
-0.0790558 -0.0960459 1.4256 102 100 101 
-0.0844387 -0.235093 1.47995 38 34 33 
-0.142133 0.0376102 1.41017 0 0 0 
-0.0820526 -0.0902807 1.42526 113 111 112 
-0.124403 0.0182347 1.40289 82 80 81 
-0.108459 0.675968 1.33677 124 120 121 
-0.0988645 0.248233 1.38691 74 73 71 
-0.13404 0.407496 1.38893 57 58 53 
-0.051721 0.0974657 1.39084 91 91 91 
-0.0932338 0.0587769 1.3913 64 63 59 
-0.0444858 0.12962 1.38602 95 91 92 
-0.0208118 -0.73079 1.65891 42 40 41 
-0.108745 -0.210216 1.48436 86 82 83 
-0.0728704 -0.09678 1.42204 131 130 126 
-0.0918899 0.237993 1.38761 69 68 66 
-0.154585 0.0310111 1.41909 9 9 9 
-0.161188 0.0395729 1.42035 72 71 67 
-0.0759359 -0.125243 1.43495 40 37 30 
-0.104426 -0.122524 1.4493 116 115 113 
-0.0506072 0.0958636 1.39123 56 58 57 
5.55514 2.75835 21.5816 112 117 121 
-0.0937097 0.191406 1.39186 69 65 66 
-0.0461264 0.230548 1.37465 81 80 78 
-0.17489 0.262961 1.42352 69 67 68 
-0.106212 0.537521 1.36129 50 49 45 
-0.13788 0.699003 1.33158 148 145 138 
-0.147062 0.733939 1.3165 39 34 31 
-0.0267683 -0.811284 1.65564 39 36 67 
-0.0462962 0.13109 1.38452 81 79 80 
-0.0567797 0.215644 1.38387 57 55 56 
-0.0576413 0.216227 1.38278 59 57 58 
-0.099838 0.221059 1.38843 75 74 72 
