# .PCD v0.7 - Point Cloud Data file format
VERSION 0.7
FIELDS x y z rgb
SIZE 4 4 4 4
TYPE F F F U
COUNT 1 1 1 1
WIDTH 1268
HEIGHT 1
VIEWPOINT 0 0 0 1 0 0 0
POINTS 1268
DATA ascii
1.67749 1.05994 4.6743302 12432815
1.6816 1.05774 4.6655002 9669249
1.6863199 1.05571 4.6571298 9142904
1.6844701 1.06074 4.6489401 9142904
0.13459 0.58500701 5.1780701 6108931
0.126755 0.58480901 5.1666002 6174467
1.12773 0.90191799 5.1065898 9668992
1.13661 0.90268302 5.09688 9603455
1.30599 0.94952101 4.9562898 9669250
1.30823 0.952779 4.9465199 9735042
1.31627 0.95590502 4.9433398 9735043
1.33069 0.95864701 4.93295 9800580
1.33878 0.96113902 4.9169102 9866629
1.36321 0.96614403 4.9209299 9800837
1.36586 0.97382897 4.9115701 9998472
1.37603 0.97691202 4.89855 10853525
1.38712 0.97311401 4.86625 11314077
1.4141999 0.98525101 4.8597298 13156026
1.4729 1.0008301 4.8471699 13617092
1.47437 1.00582 4.84058 13617349
1.67788 1.06233 4.7024498 13683399
1.67047 1.06528 4.6894898 13749192
1.67501 1.06283 4.6819301 13682885
1.6754301 1.0651 4.66606 13222333
1.67987 1.06279 4.6573801 10524817
1.67802 1.06783 4.6491899 11643042
1.68249 1.06573 4.6406598 9208698
1.68257 1.06574 4.6408 9208698
1.6865799 1.06356 4.6318598 9143160
1.6858701 1.06896 4.6248598 9077367
1.6859 1.06907 4.6249099 9077367
0.140424 0.59712499 5.1401601 7030789
1.13073 0.908427 5.1079001 9800321
1.33016 0.96493202 4.92695 9800837
1.31986 0.968099 4.9054399 9998215
1.32207 0.96224898 4.8962498 9932422
1.32945 0.97036803 4.9011002 10064265
1.3521301 0.97662002 4.91536 10130058
1.35181 0.975896 4.9039102 10393230
1.36245 0.97840399 4.8994699 10985112
1.37709 0.98307401 4.8915401 12761524
1.37105 0.979882 4.8915801 11840421
1.6801701 1.07375 4.6903901 13683142
1.6702501 1.06671 4.6745901 13814728
1.66836 1.07196 4.6662798 13814728
1.6735899 1.07026 4.6579399 13617091
1.67874 1.07156 4.66188 13551041
1.6765 1.07294 4.6412702 12433072
1.68094 1.07085 4.63273 9537920
1.68093 1.0708801 4.6328301 9537921
1.6798199 1.0760601 4.6251202 10393230
1.67976 1.07611 4.6252098 10459023
1.68432 1.0739599 4.6168699 9142904
1.68705 1.07661 4.60077 9142648
0.126339 0.59543198 5.1430202 5976833
1.3256 0.97512102 4.8841801 11380126
1.3465199 0.97983098 4.89042 11972008
1.66687 1.07724 4.6582098 13814985
1.67191 1.0754 4.64993 13814727
1.6717 1.07495 4.6494699 13814471
1.66975 1.07991 4.6412702 13814729
1.67523 1.07807 4.6332798 13025211
1.67514 1.07804 4.6334 13025211
1.6748101 1.0779999 4.6332302 13091004
1.67805 1.08109 4.6168699 11183004
1.6826 1.0789 4.6087599 9208698
1.68135 1.0839 4.6009598 9340285
1.68608 1.08171 4.5932298 9142648
0.112144 0.60367 5.15306 6240259
0.113295 0.604563 5.14189 6108932
0.127995 0.605829 5.1283898 5845506
0.13858999 0.61178601 5.1206598 5845251
0.50372201 0.72496003 5.0184898 9792262
1.28488 0.97254097 4.9102101 9932422
1.29223 0.97487497 4.90732 9932423
1.2986701 0.976318 4.9070401 10063752
1.30081 0.970743 4.9049802 9932422
1.30081 0.97714901 4.8969302 10392974
1.31564 0.97779399 4.8782401 12300972
1.36173 0.99000502 4.8840899 13616578
1.6768 1.08711 4.6360798 13814472
1.67405 1.08339 4.62537 13485762
1.67213 1.08828 4.6171298 13683141
1.67672 1.08612 4.6086998 12038057
1.67997 1.08887 4.5931001 9669508
1.68435 1.0865901 4.5850401 9142649
1.68328 1.0917 4.5773902 9142648
1.68601 1.08921 4.5679202 9142904
0.117137 0.612638 5.1450701 6371844
0.11215 0.61029702 5.1247802 6240517
0.12594099 0.61494303 5.1253099 6305795
0.133066 0.61699498 5.1219301 6042628
0.147149 0.62099701 5.1138401 5713666
0.151887 0.61687797 5.1110802 6503685
0.15335099 0.62252998 5.1060901 6372099
0.494807 0.72464001 5.0093899 10055430
1.27276 0.974783 4.9070401 9866630
1.2729501 0.97493201 4.90765 9866630
1.27714 0.97657502 4.9071202 9932422
1.28309 0.97740799 4.9022598 9998215
1.2831 0.97744101 4.9026599 9998215
1.288 0.97917497 4.9015799 10129801
1.66758 1.09042 4.6252599 13749193
1.6765701 1.0987999 4.6256499 13814728
1.67111 1.09343 4.6089301 13749192
1.67568 1.09119 4.60109 12564659
1.67391 1.09603 4.5930901 13222590
1.6785001 1.09382 4.5851898 10459024
1.67706 1.0987999 4.5773301 11314591
1.6822701 1.09682 4.56985 9274492
1.68496 1.0933 4.5604501 9208697
1.68424 1.09913 4.55264 9208698
0.114182 0.61393499 5.1179199 6240517
0.145138 0.62832898 5.1228099 6371589
0.156232 0.627675 5.1023402 6042627
0.157056 0.63198602 5.0943699 5713922
0.18014801 0.638978 5.0780201 6306306
0.48606101 0.729653 5.00454 10844426
0.50015002 0.73593199 5.0082002 11501574
0.50771999 0.73587298 5.0099902 11567367
1.26502 0.97783601 4.8913598 10064008
1.26518 0.97795302 4.89188 10064008
1.27744 0.98217797 4.8962598 10392973
1.28815 0.98472703 4.8906102 11379869
1.28602 0.98337698 4.88168 11774627
1.67678 1.1006 4.6069498 13814728
1.67226 1.1009099 4.5851102 13551812
1.67528 1.10366 4.5692201 12169901
1.6798199 1.10153 4.56109 9603459
1.68025 1.1071301 4.55474 9932424
1.68392 1.10445 4.5457101 9208698
0.130147 0.62527502 5.1199198 6371844
0.142342 0.63252503 5.1299701 6437635
0.144621 0.63607699 5.1217399 6503172
0.148239 0.632173 5.1162 6503172
0.154002 0.635225 5.1024199 6371331
0.16098 0.635014 5.0865898 5910785
0.159501 0.63964802 5.0785999 5911298
0.165738 0.63861698 5.0748401 5911299
0.20740999 0.64989901 4.9929399 8017671
0.458812 0.73336297 4.9927101 10449416
0.472936 0.73580498 4.9937301 11304456
0.488906 0.73997301 4.9984899 11764999
0.51205301 0.74615997 5.00985 11962632
1.21338 0.969392 4.8972101 9800835
1.20521 0.96937698 4.8955998 9603457
1.23311 0.97484398 4.9032602 9866628
1.23311 0.97484398 4.9032602 9866628
1.21181 0.973692 4.8901901 9866628
1.23311 0.97484398 4.9032602 9866628
1.2343 0.97937202 4.89504 9932165
1.23892 0.98129302 4.8892002 10129800
1.25033 0.97834402 4.8903298 9998214
1.24507 0.98409301 4.8812199 10853524
1.25503 0.98096699 4.8862801 10326923
1.25501 0.98660499 4.8764801 11840421
1.26509 0.983522 4.8817 11116697
1.2654901 0.98930198 4.8727102 12893109
1.27597 0.98651499 4.8780799 12366508
1.66594 1.10796 4.5851202 13814729
1.67031 1.10576 4.57689 13749192
1.67268 1.1119 4.5721698 13814728
1.67361 1.1086 4.5612402 12630453
1.67732 1.11192 4.5462499 10985112
1.68141 1.1090699 4.5370698 9208698
1.67818 1.11344 4.5278902 9340284
1.68056 1.10923 4.5215402 9208697
1.67969 1.1139801 4.5137601 9208698
0.177402 0.65069097 5.07125 6240258
0.18179099 0.651739 5.0475798 6437891
0.44700399 0.73662603 4.9833498 10778121
0.45013499 0.73662001 4.9864898 10778121
0.46311 0.740206 4.9881401 11304711
0.49921501 0.74902397 5.0025401 11962632
1.20365 0.97366899 4.8885698 9800836
1.2341599 0.98599303 4.8791099 11445406
1.23938 0.98815298 4.8680801 12695473
1.25008 0.99061698 4.8629498 13353661
1.27558 0.99620301 4.8557401 13682372
1.66724 1.11561 4.5612602 13749449
1.67203 1.11356 4.55334 13354176
1.67184 1.12008 4.5468702 13748678
1.67519 1.1165299 4.5378399 11840421
1.67531 1.1167001 4.5379801 11840677
1.67812 1.11851 4.5054498 9208441
1.6789401 1.1213 4.4942398 9274234
0.17727099 0.65557897 5.066 6372098
0.18563101 0.65605801 5.0401802 6635267
0.38486999 0.72314298 4.9939299 9267461
0.43555599 0.73545301 4.98979 9396486
0.43558699 0.74038702 4.9776001 11107338
0.45102501 0.74342602 4.9832301 11502087
0.50383699 0.76178098 4.9991398 11898125
1.16618 0.97480297 4.9032698 9998214
1.1416301 0.96302402 4.8800702 9669249
1.17756 0.97405702 4.88766 10261387
1.21013 0.98628098 4.8730202 12169130
1.21766 0.984007 4.8758702 11248283
1.21788 0.99016702 4.8702502 13156025
1.21744 0.99041998 4.8683801 13222075
1.22633 0.987975 4.8729601 12498095
1.2207201 0.98601902 4.8419299 13419198
1.23901 0.99342602 4.8565402 13616833
1.66547 1.1205 4.5532198 13749449
1.66557 1.12595 4.5466199 13683656
1.66959 1.12462 4.5383501 13748936
1.6740299 1.12156 4.53022 12432816
1.67303 1.12629 4.5223498 12827832
1.67553 1.12242 4.51406 9866630
1.68525 1.12796 4.5101399 9340028
1.6761 1.1255 4.4852099 9274234
0.18472099 0.66383803 5.04006 6766596
0.372897 0.726345 5.0036001 9267205
0.38514 0.72846103 4.9886198 9267206
0.42447001 0.73938501 4.9840798 9988872
0.440763 0.747756 4.98107 11567880
0.45399201 0.753977 4.9883099 11896840
0.45573699 0.75098199 4.9705 11831303
0.46373299 0.75501001 4.9659901 11766280
0.48263001 0.76187903 4.9844298 11898126
1.14293 0.97141701 4.8863602 9866628
1.15373 0.97848701 4.8970098 9932421
1.1570801 0.97404802 4.90066 9866628
1.16588 0.979092 4.8900199 10853268
1.20372 0.98796803 4.8682299 13024695
1.20486 0.98725498 4.8731399 12564144
1.21163 0.99466997 4.8590398 13748420
1.2256 0.99421901 4.8651099 13485248
1.22569 0.99408901 4.8675199 13485248
1.23057 0.99632102 4.8543901 13682627
1.6698999 1.12989 4.5304499 13814728
1.6699899 1.1349601 4.5229402 13749192
1.67207 1.13095 4.5143299 13090748
1.67141 1.1329401 4.5029502 12432559
1.67426 1.12955 4.4949002 9603458
1.67423 1.1293499 4.4946399 9537665
1.67294 1.13406 4.4867802 9866887
1.6752 1.13025 4.47756 9208698
1.6742899 1.1349699 4.4698801 9208698
0.12792499 0.65770203 5.0584002 7096067
0.151164 0.66390401 5.0511899 7029764
0.184734 0.670892 5.0103998 6766851
0.184734 0.670892 5.0103998 6766851
0.19381601 0.67151201 4.99576 6767362
0.198033 0.67391503 4.99264 6898946
0.20457999 0.67816001 4.9886599 7293700
0.36871201 0.73382199 5.0033998 9135621
0.37280199 0.73106098 4.99616 9201413
0.38349599 0.735847 4.9985499 9201158
0.39753601 0.74034399 4.9790702 8870915
0.411663 0.74217802 4.9759202 10252553
0.40963 0.74229997 4.9724398 10383881
0.42104599 0.744721 4.9709301 11304713
0.45159101 0.759588 4.9776902 11831561
0.46726501 0.76444298 4.9706602 12029975
1.1536 0.98148102 4.8762298 11774370
1.1534899 0.985807 4.85987 13419197
1.19326 0.99733502 4.8773999 13748163
1.66834 1.13657 4.5115099 13814472
1.6661 1.14098 4.5029001 13880265
1.6693 1.1374 4.49511 13024954
1.67137 1.13844 4.4781299 10130060
1.6729701 1.14025 4.4623699 9142905
0.143861 0.66617 5.04705 7030019
0.14544301 0.66872603 5.0394101 7161604
0.164836 0.67076802 5.0559602 7095555
0.18991999 0.67858702 5.0223298 6832899
0.193399 0.68054098 4.9925399 6832899
0.19708601 0.68309301 4.9854002 6964482
0.20406701 0.682935 4.9807801 7162115
0.211358 0.68274701 4.9765401 8017927
0.239731 0.69239599 4.93256 8346627
0.37612599 0.73894298 4.9986 8871942
0.385726 0.743761 4.9730301 9265415
0.39739799 0.745345 4.96596 10778379
0.413066 0.74884403 4.9711399 11436296
0.43872899 0.76238 4.9625702 11766284
0.449451 0.763381 4.96733 11832335
0.46818399 0.76853502 4.9776301 12161561
1.00398 0.94666702 4.9326601 9734785
1.09887 0.97709298 4.89958 9735042
1.11033 0.97611398 4.8952999 9735042
1.11712 0.98118401 4.89188 9800579
1.11742 0.98174697 4.8832698 9866628
1.12611 0.98547697 4.8825302 10458765
1.13486 0.98306698 4.8873401 10129801
1.13596 0.98446399 4.8686099 11840420
1.6646 1.14544 4.4958401 13814729
1.66772 1.14209 4.4871302 13222590
1.66717 1.14656 4.47859 13222590
1.66494 1.1465 4.4625001 11840679
1.67006 1.145 4.4536901 9208699
1.6705 1.14851 4.4379501 9142905
1.67276 1.1427701 4.4436402 9142904
0.12194 0.66358799 5.0459299 7227652
0.123263 0.66645402 5.0372601 7293444
0.142465 0.670479 5.0482502 7227396
0.141022 0.67052603 5.05267 7293188
0.124084 0.669007 5.0286498 7359491
0.143755 0.67301798 5.0411301 7293188
0.142572 0.67315799 5.04356 7293188
0.159072 0.67541802 5.0433102 7227395
0.185587 0.68938899 5.0170202 7293699
0.196925 0.68882501 4.9969301 7161859
0.19571 0.68956703 4.9806399 7557124
0.200543 0.69315302 4.9758 7557381
0.203843 0.68772697 4.9732599 7359491
0.34007701 0.73846501 4.9923301 8082436
0.34749201 0.73952699 4.98809 8016388
0.36256301 0.74581999 4.9742198 8279302
0.37412 0.74726301 4.96737 9857801
0.385607 0.74871802 4.9600701 10976008
0.48097599 0.77871501 4.9847398 12293403
0.98330402 0.94413197 4.9313998 9603199
0.99977201 0.94856203 4.9408898 9668992
1.0529701 0.97057098 4.9135098 9669249
1.0778199 0.97311997 4.9039898 9669249
1.0778199 0.97311997 4.9039898 9669249
1.09266 0.97960299 4.9066901 9669249
1.09422 0.98116601 4.8983798 9735042
1.09864 0.98311102 4.8907399 9866372
1.1027499 0.978854 4.89153 9735042
1.11738 0.98810297 4.8772101 11182489
1.11564 0.98977 4.8738999 11906212
1.12615 0.98566198 4.88164 10524559
1.12411 0.99147099 4.87356 12498349
1.66417 1.15352 4.4858899 13814729
1.66549 1.1498801 4.4756198 13551556
1.65686 1.15271 4.4625802 13749191
1.66219 1.15128 4.4539299 12433073
1.66703 1.14976 4.4453402 9603458
1.66449 1.15495 4.4375701 10392974
1.66873 1.15339 4.43011 9142905
0.125416 0.67484301 5.0337501 7622916
0.12521 0.67476702 5.0335302 7622916
0.124383 0.67676502 5.0241199 7754757
0.150943 0.68073201 5.0405302 7359491
0.136831 0.67853802 5.03122 7622660
0.15704399 0.68459499 5.0200601 7820293
0.169292 0.68673098 5.0176601 7622659
0.174826 0.687195 5.0046101 7622659
0.196216 0.695611 4.98107 8149511
0.315864 0.73701501 4.9788899 7687684
0.33858901 0.74239498 4.98634 7095041
0.35098699 0.74436802 4.98102 7292674
0.37391701 0.752096 4.9548998 11173385
0.389474 0.75579101 4.95928 11502087
0.48017499 0.785999 4.98383 12096022
0.47872901 0.78819197 4.98739 12095765
0.55342603 0.81596601 4.97894 11700750
0.54846001 0.80968499 4.9745798 11568907
0.93272501 0.93914098 4.9630098 9734784
0.932859 0.93919301 4.9632602 9734784
0.932859 0.93919301 4.9632602 9734784
1.00183 0.95856899 4.9257998 9866371
1.07972 0.981502 4.8892899 9932421
1.07996 0.98214102 4.8756599 10261386
1.0799 0.982122 4.8755898 10261386
1.0917701 0.98692 4.8784199 11116696
1.10672 0.99254501 4.8696799 13024437
1.1148 0.99561203 4.8659101 13485245
1.12406 0.99339998 4.8703599 13024694
1.1261899 0.99328297 4.8660402 13222073
1.11781 0.99743998 4.8577099 13682369
1.13419 0.99721003 4.8629098 13682370
1.65424 1.15754 4.4541101 13749192
1.6548001 1.15763 4.4541502 13749192
1.6596 1.15609 4.4455299 13025210
1.6631401 1.15997 4.4300499 10524304
1.6685899 1.15869 4.42344 9274234
0.134781 0.68313199 5.0328598 8083718
0.13265499 0.68551898 5.0366101 8281350
0.141827 0.68305999 5.0323 8083462
0.152891 0.68844903 5.0221701 8478727
0.169167 0.69253302 5.0015101 8544519
0.16771001 0.69176 5.0050001 8544520
0.23786899 0.715321 4.9502001 9136393
0.56914198 0.82799399 4.97471 11109660
0.57891297 0.83085799 4.97158 10912031
0.93107802 0.94331598 4.9827399 9668991
0.93071997 0.94714099 4.9601798 9668991
0.95059001 0.94686401 4.9688001 9537406
0.96268499 0.95548499 4.9566302 9668992
0.97228903 0.95972502 4.9555402 9734785
0.97180498 0.95963699 4.95469 9734785
0.95205599 0.95374203 4.9393702 9734786
0.98104 0.957147 4.9594698 9668991
0.99610001 0.96472198 4.9286299 11576990
1.07868 0.99242097 4.8793201 13090488
1.09469 0.99337697 4.8747902 13024438
1.10274 0.99385703 4.8718801 13156280
1.09984 0.997567 4.8643498 13616833
1.10534 0.99818599 4.8612599 13682625
1.1065201 0.998797 4.85217 13682626
1.12809 1.00157 4.8513098 13616833
1.65301 1.16283 4.4467001 13749192
1.65988 1.16764 4.4370499 13419970
1.65916 1.16432 4.4233499 11445921
1.66476 1.16614 4.40307 9208698
1.66476 1.16898 4.3920999 9274490
0.130604 0.68957001 5.02635 8347397
0.199324 0.70829999 4.9784198 7886853
0.19911499 0.70954698 4.9799099 7952645
0.31650501 0.75165898 4.9520998 9463560
0.56027102 0.83163601 4.9727302 12164189
0.56953901 0.83417398 4.9674001 11769426
0.59553599 0.84043902 4.9671001 9994824
0.87894201 0.93505198 4.9930501 9668991
0.89455903 0.93729198 4.9798102 9471612
0.90576601 0.94214499 4.9679198 9734784
0.91271901 0.94900399 4.9690299 9931907
0.91729897 0.949359 4.9622302 9997700
0.91869199 0.94445401 4.9608302 9734784
0.930767 0.947905 4.9616199 9668991
0.93164098 0.95402002 4.9552598 10063750
0.95240498 0.957798 4.9660101 9669249
0.95665598 0.95999599 4.9450498 9866629
0.95608401 0.96078598 4.9369702 10261387
0.96449 0.96413201 4.94244 10787730
0.97236401 0.96522099 4.9453301 10985109
1.00191 0.97123301 4.9166598 13024437
1.0051 0.97813499 4.9222999 13550782
1.0179 0.98093098 4.9187102 13484989
1.65671 1.1754301 4.44133 13749450
1.65661 1.1754 4.4412599 13815243
1.65661 1.1754 4.4412599 13815243
1.65031 1.17019 4.4233499 13749449
1.65955 1.17028 4.4123001 11380383
1.65624 1.1720001 4.39885 11314334
0.130522 0.69516098 5.0248499 8478985
0.13067 0.70008302 5.0205402 8479238
0.249937 0.73707199 4.9610901 9070342
0.30230299 0.74845701 4.9530702 8279557
0.32134801 0.75834203 4.95329 10910216
0.52129 0.82080001 4.9740901 10649104
0.51927 0.82643902 4.9622202 10781492
0.56298399 0.83793098 4.9679499 12626562
0.59262198 0.84934199 4.9614201 10982253
0.59830302 0.84614402 4.96173 10061406
0.90150201 0.94662797 4.9720898 9800578
0.90323198 0.95275199 4.9678102 10853266
0.915429 0.95493001 4.9549999 11445403
0.95197099 0.96586299 4.9373002 11774370
0.96131301 0.96951699 4.9322 13024693
0.97231901 0.97060102 4.9345002 13222072
0.98156202 0.97113502 4.92349 13682368
0.98167801 0.977184 4.9157901 13682370
1.01932 0.98887199 4.91853 13682625
1.64735 1.17498 4.4146399 13880778
1.6552401 1.17757 4.4112301 13748935
1.64832 1.1780601 4.3950901 13814728
0.33722299 0.77304697 4.9565601 11174663
0.33730099 0.77307701 4.9566998 11174663
0.43575001 0.80734098 4.9802999 11241227
0.41190699 0.79073101 4.9383302 11438605
0.52508301 0.83256501 4.9542599 11442028
0.58044398 0.84848201 4.9637399 12759700
0.58672899 0.85535598 4.96312 12628374
0.59183401 0.85547101 4.9527798 10983293
0.832775 0.93400699 4.9962301 9603198
0.832937 0.93976802 4.98631 9800576
0.85373199 0.94132203 4.9879398 10721422
0.86588401 0.94897997 4.97192 10787472
0.89097703 0.95426702 4.95717 12037540
0.89993399 0.959638 4.9544902 13221815
0.94163901 0.96991098 4.9327598 13484989
0.95394498 0.97230399 4.9286799 13550782
0.94592297 0.97464502 4.9243498 13748163
0.956765 0.97438699 4.92168 13682625
0.97237998 0.97603297 4.92416 13682626
1.01668 0.99106097 4.9236202 13748419
1.64448 1.17979 4.4059901 13880779
1.642 1.18463 4.39253 13946572
1.64905 1.18116 4.3847098 13551556
1.6464 1.18602 4.3763599 13749193
-0.497446 0.49192801 4.7603698 7361811
0.31203699 0.77170402 4.9376702 11109132
0.34560701 0.777996 4.9548101 11438353
0.51248503 0.83847201 4.9542198 10255937
0.52712703 0.84037799 4.95502 11113585
0.54116201 0.842776 4.9533801 11772291
0.54696399 0.84706098 4.9495602 11904136
0.551579 0.85064 4.9437799 12035981
0.58604997 0.85935801 4.9527798 12365461
0.601547 0.86072201 4.9281998 9799277
0.843629 0.94506401 4.9876399 10195334
0.85365498 0.946661 4.9759898 11050644
0.85401797 0.95211101 4.9654598 11971491
0.86485302 0.953857 4.9552498 12563628
0.89540303 0.96113598 4.9611301 13156022
0.90005302 0.96627402 4.9477901 13682369
0.910061 0.971331 4.9493999 13682625
0.93140399 0.972058 4.9573898 13616576
0.922521 0.969082 4.9563198 13682368
0.92494601 0.97382301 4.9547801 13682370
0.93253601 0.97760999 4.9523201 13616577
0.93570298 0.97319299 4.9346199 13748418
0.93559402 0.97478998 4.92307 13748419
0.95394999 0.97883099 4.9218702 13748420
-0.49725401 0.49859199 4.7572799 8876047
-0.49755999 0.50052297 4.75664 9402639
-0.49755999 0.50052297 4.75664 9402639
0.244646 0.753618 4.9458699 9134599
0.29250899 0.76754898 4.9413199 10910985
0.29703799 0.77402902 4.9373698 11108616
0.31003901 0.77547401 4.9342799 11438095
0.534455 0.846753 4.9524202 11311740
0.52970201 0.84667403 4.93927 11377790
0.535806 0.84666997 4.9335799 11772549
0.53380299 0.85152698 4.92451 11641220
0.539015 0.85153103 4.91856 11970187
0.59161401 0.86702502 4.94171 11641482
0.82434601 0.94543397 4.9808102 9668734
0.83491403 0.94940698 4.9849801 9800320
0.84298402 0.95107901 4.9766102 10524300
0.83230001 0.953861 4.9711199 9866113
0.85477901 0.95814198 4.9576602 12827057
0.87542701 0.96541399 4.93964 13748161
0.88370299 0.964872 4.9432402 13682368
0.93598098 0.98403299 4.94944 13551298
-0.50870299 0.49888799 4.7466502 10456333
-0.49733999 0.505005 4.7515101 10060816
0.121675 0.72617698 5.0425901 7820804
0.122002 0.72464299 5.0415201 7689482
0.199439 0.74586499 4.9987302 8083970
0.21892001 0.75474697 4.9651599 8346373
0.27339101 0.772223 4.9520202 10779661
0.28079301 0.77231902 4.9513202 9726470
0.28298 0.77538902 4.9367299 9265927
0.28732601 0.773305 4.9303999 10910988
0.30405799 0.77902502 4.93292 11503893
0.30275401 0.77720398 4.9271698 11372566
0.32195199 0.786659 4.9436998 11701265
0.33139199 0.79090899 4.9453402 11898648
0.35798699 0.79747099 4.9337602 11438608
0.43258801 0.82372499 4.95402 10714632
0.43938801 0.82369798 4.95121 10648840
0.52988303 0.85206401 4.9333601 11311998
0.53692698 0.85679603 4.9098501 11641480
0.58961201 0.87742198 4.9246302 11246983
0.59602398 0.87806398 4.9200702 9865328
0.84329998 0.96091998 4.9516501 11839905
0.85478097 0.96333998 4.9454799 13484732
0.85497099 0.96335399 4.9457502 13616318
0.85539401 0.96438599 4.9289198 13682624
-0.51293802 0.50376999 4.7390599 10982921
-0.505211 0.50424302 4.7432699 10456076
-0.50142902 0.51004702 4.7421198 10587403
-0.47792599 0.51822799 4.7515302 7626001
0.215624 0.75835598 4.9719701 8477958
0.21574201 0.76185 4.9657001 8741128
0.22345699 0.76073599 4.9582901 9332745
0.22179601 0.761334 4.9449801 9727496
0.269216 0.77792603 4.9514599 10779913
0.275915 0.77792299 4.94907 10055944
0.28338999 0.78019202 4.9303999 9068807
0.294339 0.781542 4.9226799 11569681
0.29787099 0.78671998 4.9224601 11701527
0.33051199 0.79760802 4.9253502 11241491
0.35249501 0.803339 4.9363499 11175437
0.45021299 0.838202 4.9552698 10253834
0.44269601 0.83811498 4.95257 10385942
0.465933 0.84477597 4.9407802 9004552
0.49373701 0.85373199 4.9509001 9466416
0.53235197 0.864591 4.9064798 10851707
0.59745401 0.883614 4.9151402 9733744
0.82628298 0.96152502 4.96207 9537405
0.81931603 0.96312702 4.9435701 9668734
0.83157498 0.963745 4.9458699 10590094
0.843297 0.96605098 4.9391999 12563628
0.85818797 0.97145498 4.9356899 13682368
-0.51241899 0.51174301 4.7360702 11180551
-0.505988 0.514925 4.72965 11113996
-0.47792199 0.52530098 4.75313 9008145
0.21454699 0.76619101 4.9727998 8214789
0.21684299 0.76583099 4.9566598 9004038
0.227024 0.76966 4.93293 10253831
0.27334601 0.78443003 4.9504299 10056455
0.27811399 0.78369302 4.9461498 8937477
0.25958899 0.777955 4.93434 10122503
0.281459 0.78986102 4.9439502 8279299
0.31902701 0.79819798 4.92278 11241749
0.45803201 0.84429699 4.9385099 9728277
0.48390299 0.85235202 4.9448299 8544273
0.49515399 0.859685 4.9470701 9993549
0.52821499 0.86722302 4.91962 10720120
0.596919 0.89121401 4.91646 9799537
0.59929001 0.89560503 4.9103198 9470831
0.77250999 0.95548201 4.9584899 9340026
0.78799403 0.95949101 4.9307098 9537404
0.82025999 0.96727198 4.9460602 9537405
0.82025999 0.96727198 4.9460602 9537405
0.831523 0.96879399 4.9331598 11510939
0.83074898 0.96811098 4.9321899 11247767
0.83020699 0.97275603 4.9209599 11642782
0.83522499 0.97337002 4.9224801 12432298
0.846955 0.978396 4.9117599 13748418
-0.55571198 0.50020099 4.71175 11246607
-0.512537 0.517919 4.7299399 11640583
-0.50664902 0.51884902 4.7284498 11311370
-0.50006998 0.52139097 4.7285199 10850572
-0.49043199 0.52406901 4.7403598 10060811
-0.48500499 0.52470797 4.7466202 9797646
-0.48465401 0.52473199 4.7453699 9468429
-0.472709 0.53152603 4.7527199 8218383
0.21286 0.76861501 4.9630899 8148996
0.21254399 0.77326602 4.9569302 8017156
0.21690901 0.771487 4.9495602 8740870
0.27815601 0.79590398 4.9468999 8937734
0.28166699 0.79241699 4.9226699 8938000
0.41109201 0.83915502 4.9306898 11045970
0.45153901 0.85083801 4.9504299 12099175
0.453455 0.85459 4.9340301 12166015
0.47416601 0.86048198 4.9356399 9532999
0.480555 0.85976398 4.9344401 9006652
0.59399998 0.89795899 4.91506 10523261
0.602081 0.90166199 4.90803 9536371
0.776748 0.95863402 4.9477201 9405819
0.77903801 0.96312302 4.9412699 9603197
0.78628498 0.96389198 4.9392099 9603198
0.83602399 0.98093897 4.9032698 12892850
0.84569502 0.983877 4.8969202 13748162
1.62824 1.22122 4.2870698 13748934
1.6332901 1.21966 4.2785301 10985368
1.6362799 1.22435 4.2675099 9274748
-0.57193202 0.49964899 4.70823 9141000
-0.55585998 0.50580603 4.7035499 12036118
-0.55042201 0.50888401 4.6948299 12430354
-0.50665098 0.52376699 4.7234402 11508745
-0.500121 0.52778399 4.7243099 11048205
0.27405801 0.80184698 4.9451399 9398022
0.278763 0.80086398 4.9421201 8542723
0.29678899 0.80373299 4.915 10978321
0.409374 0.84610403 4.9323702 11112808
0.45496801 0.86167198 4.9295502 12298635
0.46768999 0.86613399 4.9342399 12035205
0.47389901 0.86598599 4.9288201 9468763
0.54519701 0.89103401 4.8961401 10260087
0.54034603 0.88454598 4.89571 9931121
0.80069298 0.97525603 4.94768 9800320
0.81039399 0.97741199 4.92311 9800577
0.81875801 0.98223501 4.90449 10195335
0.83749199 0.98676503 4.8947902 12892851
0.83813202 0.98588699 4.8907599 13287609
0.84861797 0.989775 4.8908401 13748162
1.6253999 1.22565 4.2783298 13814728
1.63052 1.2242 4.2702298 11379870
1.62769 1.22865 4.2616401 11840422
1.63231 1.2284499 4.2582698 9669250
1.63348 1.22883 4.2588201 9471871
-0.567752 0.51071298 4.69524 11970321
-0.496802 0.53351301 4.7245102 10916107
-0.52706099 0.523139 4.69135 11772172
-0.52191699 0.527264 4.6968899 11640589
0.236827 0.79508501 4.9391799 10386186
0.261787 0.80275899 4.9452901 10188039
0.26556799 0.80144501 4.94385 9924870
0.26360601 0.80545598 4.9478402 10056711
0.32684201 0.81944603 4.90697 10452231
0.401232 0.84897602 4.9294 10520153
0.41710699 0.85673201 4.9166098 11114106
0.44979399 0.862885 4.9363799 12035464
0.43914101 0.86251098 4.92205 12035723
0.469978 0.87257302 4.9282298 12035722
0.70852602 0.95243198 4.9782 9668475
0.697604 0.95286697 4.9603 9668733
0.71524298 0.95533502 4.9541798 9734526
0.70586997 0.955176 4.9530602 9734526
0.766626 0.97600502 4.9902101 9800576
0.79442501 0.979114 4.9340301 9800577
0.79417503 0.97902203 4.9337602 9800577
0.812096 0.98806202 4.90273 9734785
0.81648201 0.98570597 4.89043 10195079
0.82663202 0.99291801 4.8702998 12037540
0.83792502 0.99582601 4.8666301 13616575
0.83702701 0.99105299 4.85324 13748162
0.83645201 0.99363399 4.8355398 13813956
0.938003 1.02517 4.7670798 13814214
1.6225899 1.2301 4.2697501 14011851
1.61982 1.23461 4.2614002 14012108
1.6249 1.23313 4.2532201 12235436
1.62902 1.23294 4.2495198 9998216
1.63065 1.2333 4.2504201 9735043
1.6329499 1.23638 4.2340002 9076854
-0.509606 0.535797 4.7183399 11706119
-0.52991802 0.52893198 4.6840801 11838221
-0.48993099 0.545591 4.7258701 10126604
-0.482117 0.54707098 4.7292199 9008142
0.26499599 0.80895102 4.9445901 9924614
0.26629999 0.80930799 4.9408598 9661702
0.303271 0.82480001 4.9205599 10320139
0.331637 0.82859701 4.9135299 10188806
0.41409999 0.85820198 4.9264002 10587247
0.40149999 0.85446501 4.9161301 10455659
0.41625601 0.86175001 4.9096899 10719864
0.42667499 0.86327702 4.9082198 11574916
0.427798 0.86289197 4.90797 11640709
0.442458 0.87007302 4.9225702 12101772
0.441829 0.86952198 4.9191098 12035723
0.69734699 0.95493299 4.9507098 9734526
0.68536001 0.953192 4.9456 9668990
0.68931103 0.956662 4.9402199 9734783
0.70503598 0.95954698 4.94485 9800320
0.82669097 0.99809301 4.8590999 12234921
0.837915 1.00403 4.8460498 13747906
0.83399397 0.99758101 4.8254299 13748163
0.889341 1.01703 4.78826 13813958
0.921305 1.029 4.8050499 13945543
0.90364498 1.02363 4.7916598 13880007
0.94010597 1.02985 4.76123 13880007
0.93510997 1.03176 4.7458501 13814215
0.93510997 1.03176 4.7458501 13814215
0.93510997 1.03176 4.7458501 13814215
1.62209 1.23757 4.2447 12564146
1.62778 1.23772 4.2417698 10129802
1.62431 1.24054 4.2280798 9669250
1.63006 1.24071 4.2252102 9076855
-0.52650899 0.53226602 4.6872902 11837966
-0.52351397 0.53856802 4.6872802 11771919
0.134756 0.78183699 5.0432301 8083973
0.14209799 0.78143501 5.0437598 8084228
0.171147 0.79332602 5.0634098 8083461
0.22017901 0.80786002 4.9961801 7096068
0.23444501 0.80666399 4.9317098 10320136
0.27584299 0.82300001 4.9477601 9266438
0.28102899 0.82538003 4.9379201 7950851
0.28806901 0.82492697 4.9234099 7621638
0.39813101 0.85833102 4.8962402 10193262
0.410144 0.86752701 4.9032001 10061934
0.418244 0.86450899 4.9016299 10917243
0.426081 0.86782998 4.9005899 11575172
0.4382 0.87289399 4.8993201 12101773
0.50918901 0.900051 4.9064398 9536107
0.52694398 0.90322602 4.8902302 10259831
0.52694398 0.90322602 4.8902302 10259831
0.68641698 0.95848501 4.9424 9734527
0.67855698 0.95840102 4.9402299 9668990
0.67742598 0.95969498 4.9292798 9734527
0.80734301 1.00143 4.8552499 9997956
0.82662702 1.00295 4.8469601 12695472
0.83536899 1.00675 4.8352599 13748163
0.83814597 1.00586 4.8345499 13682370
0.88003498 1.02282 4.80686 13945544
0.88932198 1.02359 4.7825899 13879751
0.89671201 1.02737 4.7802801 13813957
0.92038298 1.03434 4.7589002 13090490
0.93222302 1.0355 4.76473 13616834
0.94290698 1.03793 4.7658701 13814213
0.93481702 1.04082 4.7522402 13550785
0.934627 1.03664 4.7391 13748422
1.6135401 1.24186 4.2390399 13880522
1.6192501 1.24202 4.2362299 12827575
1.61579 1.2447799 4.2223601 12366767
1.6215301 1.245 4.2195301 10064008
1.6273 1.2452101 4.21666 9142647
1.62362 1.2478 4.2026 9208696
-0.59359998 0.51871002 4.6963301 12233494
-0.52792501 0.537305 4.6886301 12101132
-0.53091002 0.53817701 4.6819801 12101133
-0.52591002 0.54017299 4.6910601 12101132
0.150829 0.787965 5.0513601 7952388
0.174687 0.79667199 5.0444102 7425539
0.162829 0.79722899 5.0183301 7161603
0.180438 0.80214798 5.0331802 7096066
0.211394 0.80768597 4.9962301 6767362
0.214757 0.81105798 4.9771399 6964482
0.221894 0.80847102 4.9326 8280324
0.24399 0.82081097 4.93823 10385672
0.240787 0.81454498 4.9387598 10451464
0.27763501 0.83162898 4.9375601 8016387
0.291668 0.83175802 4.9245501 7884552
0.32153499 0.846443 4.9222698 9991178
0.42252901 0.872325 4.8846102 11378051
0.41734499 0.87783098 4.8866901 10391156
0.437801 0.878784 4.8909101 11575687
0.42346799 0.87855297 4.8820601 10785915
0.43284401 0.880063 4.8874402 11114880
0.48680201 0.89981502 4.8887601 8154715
0.509157 0.906946 4.9053202 9076074
0.498357 0.90141797 4.8961902 8944230
0.53437901 0.91492897 4.9036198 9996920
0.55947697 0.92502803 4.8877001 9405300
0.67390901 0.96189898 4.9444399 9603197
0.67005998 0.96602798 4.9310002 9668734
0.67739302 0.96262699 4.93396 9668990
0.67423397 0.96379 4.9291601 9668990
0.67123401 0.96585101 4.91853 9734783
0.67448902 0.964948 4.91958 9800320
0.80720901 1.00288 4.8594999 9800577
0.805076 1.00621 4.84548 9932164
0.81582397 1.0067101 4.83921 10984853
0.81954902 1.01191 4.83253 11774369
0.83513403 1.01059 4.8260398 13748164
0.83073401 1.01553 4.8139501 13879492
0.86323398 1.02288 4.79635 13879751
0.90615499 1.0355 4.7783399 12761525
0.91116101 1.03925 4.7591801 11445408
0.92072499 1.0377001 4.7523599 12695731
1.20503 1.12565 4.5080199 13617606
1.6107301 1.24625 4.2304902 14011852
1.6079 1.25065 4.2219701 14077901
1.61294 1.2491601 4.21385 12630196
1.61862 1.24933 4.21104 10195596
1.61508 1.25195 4.19701 9800580
1.62075 1.25211 4.19418 9142904
-0.59709197 0.52514899 4.7100902 12299286
-0.59222901 0.52513099 4.7057099 12167954
-0.58801103 0.523561 4.6805501 12167692
-0.51915902 0.55211401 4.68892 11640333
-0.524266 0.54521799 4.6837401 11508751
0.14511099 0.79348999 5.0528598 7491586
0.147551 0.79597598 5.0411 7425283
0.17157701 0.80549502 5.0225801 7622404
0.175548 0.804995 5.01124 7293444
0.18012699 0.80314499 5.0049601 7161860
0.184862 0.80773902 4.99856 7227652
0.20624 0.81701601 5.0096798 7162116
0.207168 0.81517899 4.9992099 7095812
0.21072599 0.81264001 4.9886298 6964226
0.236948 0.82098299 4.9384699 10122248
0.28478301 0.83615398 4.92346 7292421
0.35357201 0.863994 4.9279499 8412167
0.428029 0.88527602 4.8850899 9930864
0.42532101 0.88403302 4.8766999 9799279
0.480501 0.90000999 4.89259 7628372
0.557226 0.92891699 4.8967299 8747373
0.55911499 0.93272698 4.88941 9076596
0.81938201 1.01573 4.8230801 12169385
0.814906 1.01597 4.82516 11379611
0.85420001 1.0259 4.7920799 13748164
0.863289 1.02837 4.7877402 13287870
0.86492902 1.02913 4.7812099 12827319
0.86252999 1.03231 4.7719402 11643043
0.89141601 1.03888 4.7751298 11314078
0.90134102 1.04391 4.7533898 10524560
0.92320001 1.05051 4.7347498 13551042
1.20862 1.13789 4.5218601 13552070
1.20541 1.13114 4.5044498 13617863
1.20617 1.1314501 4.50561 13617863
1.20622 1.13147 4.5056901 13617863
1.60508 1.25501 4.2134199 14078158
1.61007 1.25345 4.2051201 12695990
1.61412 1.25317 4.20151 10787991
1.61295 1.2581 4.1942 10721940
1.61797 1.25661 4.1860499 9274490
-0.505952 0.55998999 4.7052898 11377164
-0.50505698 0.56341702 4.7055998 11311116
-0.513834 0.55912203 4.69555 11771916
-0.49415001 0.56709403 4.7128701 10126857
0.158728 0.80574799 5.0287199 7754244
0.157928 0.80692101 5.0229001 7885828
0.161042 0.81057203 5.01086 8412167
0.15993799 0.80416501 5.0135498 7688196
0.165692 0.81132501 5.0049901 8411912
0.193891 0.81959301 5.00003 7622147
0.205248 0.823084 4.9874701 7358979
0.21171699 0.82650697 4.9787502 7293188
0.23557401 0.82761598 4.93642 9793545
0.25852299 0.83348501 4.9369798 9792773
0.25600001 0.83196998 4.9268799 9661190
0.291403 0.845011 4.9214401 9267475
0.34697801 0.863603 4.9191499 8544274
0.34915 0.86870199 4.9145799 8150821
0.35541499 0.86907601 4.91502 7886872
0.363628 0.87368399 4.9117699 8216881
0.424826 0.88893098 4.8702998 9338728
0.47672701 0.90610403 4.89325 8878694
0.65415299 0.97247499 4.9173102 9603197
0.66844898 0.977588 4.9223599 9734783
0.81252098 1.01836 4.8169398 11445404
0.83097601 1.02652 4.7825899 13353662
0.83540797 1.02775 4.7822599 13222076
0.83894497 1.0316499 4.7802601 12300974
0.85176998 1.03101 4.7781801 12366767
0.86363399 1.03948 4.7696199 10261130
0.87080598 1.03496 4.76582 10787476
0.89691699 1.04547 4.7705102 10129803
0.88672298 1.04401 4.7470002 10327180
0.898063 1.0446399 4.73664 11050647
0.91190499 1.04842 4.7406998 12366509
0.91184998 1.0535001 4.73037 13484991
0.923002 1.0569201 4.7298999 13879751
1.22384 1.14688 4.44625 13683399
1.2238899 1.1469001 4.4463401 13683399
1.22738 1.1447901 4.4371099 13683143
1.23173 1.14601 4.4246502 13617350
1.61011 1.2625099 4.1859198 11050905
1.6151299 1.26103 4.1777902 9011318
1.6123101 1.26548 4.1696401 9077111
-0.52209401 0.55797499 4.6835299 11508748
-0.51325399 0.56225401 4.6935802 11442955
-0.50090402 0.56976801 4.7066202 10719243
0.14608601 0.81062502 5.02949 8017925
0.151788 0.81052297 5.0247102 8149253
0.157033 0.81020498 5.0192199 8280838
0.159739 0.817312 5.0195899 8346630
0.16129699 0.81665498 5.0064502 8806920
0.17090701 0.81914002 4.99404 8609544
0.16785599 0.81703001 4.9900498 8741127
0.20572101 0.82974702 4.9818802 7753476
0.20332301 0.83071798 4.9782801 8082692
0.22542199 0.83171302 4.9297199 7753476
0.254942 0.83959001 4.93326 9858307
0.273938 0.851448 4.92943 9728009
0.28259599 0.84947997 4.9235501 9991706
0.326938 0.869587 4.9151402 12035205
0.35556301 0.87613899 4.9078498 8875591
0.379022 0.88254499 4.9148102 9403232
0.65959299 0.98083103 4.92097 9668991
0.79821497 1.0245301 4.8122101 9997957
0.81853801 1.03057 4.78298 11971750
0.82451099 1.03232 4.7747302 11379870
0.83212799 1.0363801 4.77528 10721939
0.86512899 1.0407701 4.7672601 10064008
0.87148899 1.04322 4.7226601 10326924
0.88670802 1.0483201 4.7337298 10656145
0.87148899 1.04322 4.7226601 10326924
0.87148899 1.04322 4.7226601 10326924
0.89983302 1.05097 4.73244 12037799
0.90072203 1.05653 4.7250199 13353661
1.17134 1.13758 4.5103698 13749192
1.17283 1.13903 4.5006299 13683656
1.1806901 1.1388201 4.4976101 13551813
1.21178 1.15116 4.4617901 13485765
1.21979 1.15025 4.43397 13749193
1.22159 1.14738 4.4251399 13683400
1.21714 1.14906 4.4165702 13749194
1.2212 1.14617 4.4088998 13748936
1.60225 1.26838 4.18573 13814472
1.60728 1.26694 4.1777301 11379869
1.6095099 1.2699 4.16149 9208698
0.16088399 0.82205498 4.9953198 8609797
0.17603099 0.82294798 4.9874902 8609799
0.175752 0.82731199 4.9832201 8872713
0.186216 0.82908398 4.97193 8740872
0.185032 0.82965702 4.9767599 8609544
0.198045 0.83195603 4.9789701 8609287
0.210389 0.83369702 4.9700198 8213765
0.216111 0.83489799 4.9551301 8214021
0.222545 0.837901 4.9446301 8411142
0.27415901 0.85474098 4.9198599 9597209
0.27427399 0.857885 4.9098601 9531957
0.282998 0.859595 4.9136901 10190675
0.30528799 0.86881202 4.9015098 11508606
0.31503001 0.87243998 4.90799 11772292
0.32891601 0.875287 4.91293 12166793
0.34088701 0.880126 4.9089999 12232844
0.341768 0.87603301 4.9110398 12232585
0.348977 0.881006 4.9064002 11574655
0.35516599 0.881437 4.9012799 8416077
0.42368001 0.90179002 4.8664098 9733488
0.426835 0.90806502 4.8653102 10128245
0.82312202 1.04009 4.7677302 9997959
0.82177901 1.03815 4.77353 10195594
0.81372702 1.0338399 4.7645402 10392717
0.83099401 1.04224 4.7631102 9866373
0.836842 1.03965 4.76721 10064009
0.85523701 1.0453399 4.7364702 9997701
0.861821 1.04802 4.72616 9998214
0.87475401 1.0513 4.7274299 10656144
0.87472099 1.05134 4.7277498 10655887
0.88820302 1.0587 4.7155499 13484989
0.90099001 1.06169 4.7153401 14011336
1.1647 1.14215 4.4906201 13683399
1.1647 1.14215 4.4906201 13683399
1.1647 1.14215 4.4906201 13749192
1.20336 1.15617 4.4688702 13683399
1.21777 1.1573 4.4596601 13683657
1.21777 1.1573 4.4596601 13683657
1.2155401 1.15218 4.4407201 13814986
1.2104 1.1503201 4.43648 13749193
1.21523 1.15702 4.4341698 13946572
1.21733 1.15426 4.42559 13749194
1.2174799 1.15422 4.4106598 13880779
1.60369 1.2719899 4.1454101 9077112
-0.62033498 0.53780299 4.68608 12167434
-0.61790401 0.53762299 4.67205 12233480
-0.52027398 0.57060301 4.6826401 10917130
0.137476 0.82021397 5.0211 7754757
0.141187 0.82234597 5.01159 7754756
0.144655 0.82051498 5.0033002 7820803
0.15856799 0.82840198 4.9984002 8083715
0.16432901 0.82691002 4.9818702 8412676
0.172639 0.83447701 4.9830098 8280835
0.177967 0.83152199 4.9770899 8806919
0.178856 0.83383298 4.9660001 8543749
0.19163799 0.83569503 4.9709802 8807177
0.202446 0.83817703 4.9690599 9267464
0.20186301 0.84298402 4.9582 8938759
0.214525 0.84065199 4.9436402 9529865
0.205492 0.84206897 4.9363399 9267721
0.21953 0.842619 4.9254899 9793032
0.22758999 0.849087 4.9258499 10122247
0.238612 0.84750301 4.9211001 10450440
0.26221099 0.85611302 4.9078698 9596425
0.254134 0.85319197 4.90727 9924870
0.26258001 0.86141902 4.9063301 9004818
0.279975 0.86281401 4.8978701 10125664
0.29195201 0.86467499 4.89958 10653040
0.29585099 0.87055999 4.8966398 10719092
0.30420801 0.87426198 4.8930001 11048571
0.342291 0.88700902 4.9040399 11970186
0.34763899 0.88565803 4.8975301 11575172
0.35441601 0.88905501 4.8902102 9206881
0.41476899 0.90889603 4.87148 9601901
0.420297 0.908342 4.8672299 9996403
0.81504601 1.04081 4.77039 9931909
0.81607902 1.04263 4.7641802 9866372
0.84179401 1.04965 4.7239499 9866371
0.84789199 1.0494 4.7339301 9932421
0.83509701 1.04927 4.7159801 9932421
0.85421598 1.05108 4.7252698 9932422
0.84539503 1.0517 4.7104201 10326923
0.85439903 1.05673 4.71766 10853524
0.86314398 1.0540299 4.7209401 10787731
0.86309201 1.05399 4.7212501 10787474
0.86375397 1.05773 4.7060299 12432557
1.15571 1.14294 4.4941401 13749192
1.1638401 1.14728 4.4920101 13749192
1.14835 1.1408 4.4737401 13683656
1.16585 1.1497101 4.48629 13749192
1.18701 1.1540999 4.4826498 13814986
1.19042 1.16004 4.4800701 13880779
1.21049 1.15876 4.44063 13946572
1.1985 1.15775 4.4410901 13946573
1.21086 1.1633199 4.4474602 14012109
1.60144 1.27812 4.1426702 9340284
-0.52254403 0.57682598 4.67909 10785803
0.142571 0.82945299 5.0423198 7557637
0.15876999 0.83336401 4.9913201 7952387
0.157327 0.83313799 4.9674501 7886595
0.172089 0.83551103 4.9706001 8083715
0.171634 0.84059501 4.9640999 7952131
0.181759 0.84158099 4.95925 8281093
0.19110499 0.84333199 4.9582701 8610054
0.195576 0.84718001 4.9540501 8281092
0.198836 0.84412003 4.9439402 8872968
0.21562099 0.84757 4.9399199 9464842
0.22055399 0.84946197 4.9295902 9661960
0.223324 0.85575002 4.9257002 9595911
0.227652 0.85380501 4.9190402 10056455
0.23322 0.85289001 4.9159398 10319366
0.241199 0.86089897 4.9093299 9201412
0.29677999 0.87718701 4.8881202 10127727
0.300616 0.87790799 4.8728099 10983035
0.30485401 0.87833798 4.87853 11114620
0.34783399 0.89230001 4.8894801 11444101
0.35391 0.89453697 4.8819299 9207141
0.569547 0.96990299 4.9186902 9471613
0.80933303 1.04528 4.7610002 9800578
0.828426 1.05555 4.73031 9800578
0.825526 1.05312 4.7147398 9932421
0.83480603 1.05577 4.71172 10326923
0.84423298 1.05773 4.7060099 11248026
0.84424198 1.05767 4.7062001 11182489
0.85320801 1.06071 4.7021499 12498350
0.85398299 1.06013 4.7006998 12564143
0.86353397 1.06418 4.7016001 13485246
1.14662 1.1486599 4.4741101 13814986
1.13948 1.1487401 4.4737802 13814986
1.15297 1.1475199 4.4711199 13814729
1.18484 1.1647201 4.47363 13946572
1.5935 1.28389 4.1425099 11972266
1.59851 1.28245 4.1343799 9471871
1.59556 1.28669 4.1258798 9603457
-0.66364503 0.53671902 4.7312899 9600775
-0.64615101 0.54330999 4.7051401 12233488
-0.54343802 0.57833099 4.7072001 11443719
-0.466809 0.60843199 4.7445102 9139474
-0.46621999 0.60860503 4.7449398 9007890
-0.45833799 0.60904098 4.74824 7559953
0.18556599 0.84801298 4.9567199 8149765
0.193949 0.851381 4.9438 8083715
0.229505 0.85930598 4.9165401 9464836
0.26775801 0.87615401 4.8938999 9008727
0.27623701 0.87223601 4.8797498 9404004
0.29496199 0.881558 4.8801398 9930605
0.28980601 0.88314098 4.8673401 9667691
0.292301 0.87996101 4.8571601 10457206
0.305646 0.88331699 4.8737302 10983292
0.306142 0.88413602 4.8580799 11180929
0.347085 0.89815003 4.8807402 11246725
0.393271 0.91529697 4.88798 9075558
0.44730601 0.935175 4.8702898 9931387
0.81618702 1.05567 4.7086601 9998214
0.82559299 1.05784 4.7036901 10655888
0.83495498 1.06002 4.69877 11708577
0.84427398 1.06256 4.6954398 12827058
1.14324 1.15477 4.4726901 13880779
1.58494 1.28799 4.13728 13946315
1.59053 1.28813 4.1339898 11972009
1.58134 1.29045 4.1233702 13485506
1.5919501 1.28913 4.1119499 9208697
-0.64856201 0.54939097 4.7055998 11772940
-0.601538 0.56267601 4.68296 11181063
0.133772 0.83889502 5.0294299 7492101
0.13486101 0.84525502 5.0320401 7492101
0.15397 0.842641 4.9624801 7821059
0.185194 0.852355 4.95576 7886595
0.24202301 0.86957902 4.9105501 8346884
0.246966 0.872666 4.9036498 7755015
0.29867101 0.89114898 4.8517499 9930864
0.39101899 0.921184 4.8910599 8483678
0.397627 0.92265099 4.8853502 8681058
0.439199 0.93704498 4.8764601 9141871
0.44481599 0.93964201 4.8696599 8812909
0.56991202 0.98615497 4.8996401 9406077
0.80430102 1.05964 4.69769 10458508
0.81462097 1.06127 4.6972299 11050647
0.82560402 1.06285 4.6938901 12103335
0.83490402 1.06536 4.69034 13156024
0.84635901 1.06757 4.6879301 13748162
1.14324 1.16137 4.4689598 13880779
1.58402 1.29483 4.1117601 11380385
1.58903 1.29347 4.1038699 9208955
1.58602 1.29773 4.0956001 9340540
0.28403699 0.89143002 4.8763199 9206885
0.28751501 0.89123899 4.8572798 9601900
0.290097 0.89297998 4.8468499 9470314
0.400372 0.93031102 4.8827701 8154718
0.443012 0.94548398 4.8765402 8154980
0.51848501 0.98038799 4.9131298 8418669
0.546453 0.98901802 4.8948002 9274234
0.55646098 0.98633599 4.9007401 9208698
0.55012798 0.98945999 4.88275 9471614
0.79375702 1.06396 4.69419 10590095
0.804313 1.0646 4.6877298 11905955
0.81462997 1.0655299 4.6848102 12827059
0.81445903 1.07039 4.67662 13748420
0.82542002 1.06813 4.6855898 13484989
0.83466297 1.07098 4.68292 13880005
0.825387 1.0726 4.6775398 13880006
1.58104 1.2990299 4.1032701 11314592
1.5775 1.30172 4.0903602 11182748
-0.53064501 0.60216498 4.7001901 8749342
-0.54482198 0.59820497 4.6722298 7303209
0.52070701 0.98687297 4.9066601 8682098
0.53046799 0.9903 4.90166 8813683
0.52654099 0.98768002 4.8889799 8945269
0.53733301 0.99132001 4.8899899 9142648
0.78385597 1.06718 4.6887999 10326923
0.793769 1.0687701 4.6835198 11708576
0.80429 1.0687 4.6764898 13221818
1.57257 1.30312 4.09829 13814473
1.56899 1.3056901 4.0851202 13288127
1.57935 1.30433 4.0739298 9274234
-0.66429102 0.56009299 4.7161398 9601287
-0.56747699 0.59126002 4.6536298 5529910
-0.53279501 0.60719299 4.6837301 5989433
-0.53399301 0.60632598 4.6831498 5989689
0.235131 0.89119703 4.9251699 8215817
0.52235001 0.99332798 4.8912702 9011062
0.53061801 0.99588799 4.8920999 9076855
0.53391302 0.994986 4.8835101 9274234
0.53511101 0.99464601 4.8825202 9274234
0.54636699 0.99985802 4.8853698 9405820
0.78266603 1.07327 4.6812701 11050646
0.793558 1.07375 4.6757998 12629680
0.80398202 1.07418 4.6708398 13682371
0.80574101 1.08042 4.6666002 13813957
1.5710599 1.3082 4.0680099 10195338
1.57646 1.30834 4.0650702 9274233
-0.55057299 0.60251498 4.6721401 5466197
-0.54331899 0.60952199 4.6764998 4677718
0.243536 0.90130502 4.9204402 7560499
0.46623701 0.984281 4.9208498 8616305
0.51613098 0.99546403 4.9052401 8945269
0.502096 0.99339497 4.8699098 9011062
0.52166301 0.99766803 4.8763499 9274233
0.53759199 1.00193 4.8808899 9405820
0.78307301 1.07783 4.6718402 12300714
0.79390198 1.07822 4.6659498 13485248
0.79513597 1.08355 4.6533499 13945544
1.56829 1.31241 4.0598798 10195594
1.56838 1.31238 4.05933 10064008
1.56497 1.31642 4.0514202 10392973
-0.66277099 0.57300103 4.7141299 9207560
0.102965 0.88030601 5.2151799 5981739
0.109781 0.87772202 5.2042599 5915684
0.109479 0.88201302 5.1954098 6047272
0.113945 0.88020599 5.1897202 5915424
0.13559701 0.88523102 5.1240902 6834178
0.266197 0.91275299 4.8661799 8154712
0.44128901 0.979568 4.9112701 8353389
0.45202699 0.984047 4.90277 8813428
0.451989 0.98402399 4.9026599 8813428
0.467428 0.988675 4.9112902 8813684
0.50572997 0.99982601 4.8994298 8879476
0.50461102 0.99865901 4.8614202 9339771
0.52573001 1.00486 4.8748899 9405563
0.783261 1.08236 4.6603198 13550785
0.78326201 1.08646 4.6471701 13945544
1.56098 1.3190399 4.0606699 13485506
1.55729 1.32274 4.0517902 13419713
-0.68381202 0.57322401 4.7251902 8614918
0.109933 0.88569802 5.18257 5981481
0.105262 0.88533801 5.1745901 6112811
0.098165601 0.88465399 5.1703 6113325
0.130124 0.887501 5.1168299 6637316
0.129611 0.88728398 5.11551 6637316
0.211228 0.91270202 5.0173302 7623940
0.26559901 0.92057502 4.8713598 8220249
0.430464 0.98328 4.9066701 8353134
0.45109001 0.98775202 4.8951898 8945014
0.74126101 1.0776 4.6716299 9866371
1.55439 1.32692 4.0433602 13682886
-0.54484499 0.62593001 4.7094898 4874836
0.105742 0.889449 5.1652598 5981739
0.105658 0.88923901 5.16363 5981739
0.098128103 0.88866103 5.16078 6113582
0.13357601 0.897551 5.1293602 6243083
0.127423 0.89973599 5.11553 6178333
0.21016701 0.92060798 5.0249801 7492613
0.211863 0.91885698 5.0179701 7426564
0.21086299 0.92054302 4.99685 7558148
0.234937 0.92370898 4.9306798 7361032
0.243595 0.92816401 4.9263902 7032858
0.239764 0.92194003 4.9227099 7164441
0.43578401 0.98695099 4.8843002 8550512
0.428096 0.98395997 4.8654499 8879221
0.431043 0.98519301 4.8681502 8813428
0.44499099 0.99358499 4.8530598 8945013
0.73043501 1.07769 4.65763 9800835
0.74953598 1.08912 4.6389799 13090489
-0.547391 0.630548 4.7040901 4874323
-0.51301599 0.64785701 4.69802 4479573
0.00060246198 0.85794902 5.0944099 6113841
-0.0126994 0.85258001 5.0783901 6048305
0.110884 0.90165198 5.1329498 6179374
0.116165 0.90139598 5.1251998 6113581
0.121952 0.90090698 5.12011 6178857
0.21476001 0.92582101 5.0136199 7623942
0.214599 0.928895 5.00772 7360773
0.21073399 0.92506897 5.0092101 7624197
0.23094399 0.92720699 4.9379301 7689734
0.23414101 0.93100202 4.9314198 7163909
0.24704801 0.93463898 4.9253898 6835739
0.422104 0.99159801 4.8909798 8484719
0.44856501 0.99924201 4.86623 8945269
0.444619 0.99650401 4.85853 8879477
0.44548601 1.00141 4.8545599 9011062
0.44974199 0.99679798 4.8487902 9076855
0.449424 1.00298 4.8421302 9208185
0.447842 1.0022 4.84059 9142648
0.74965501 1.09435 4.6300902 13551042
-0.57211 0.63521302 4.7393799 4940110
-0.56227702 0.63692498 4.73421 4808783
-0.50849998 0.65073699 4.7032599 4807756
-0.0013204 0.85852998 5.0689602 6048306
0.122343 0.90622002 5.11448 6048043
0.239779 0.93480003 4.9280701 6769416
0.395758 0.99139303 4.8817401 8089704
0.40803099 0.99362099 4.8751998 8419182
0.414372 0.99253201 4.8649902 8550512
0.41432801 0.99323797 4.8590398 8616304
0.45343199 1.00999 4.8375001 9076855
0.74963599 1.09803 4.6192799 13813959
-0.641087 0.61259598 4.7424402 4874319
-0.605483 0.62500697 4.7314 5729886
-0.59973699 0.63114703 4.7280898 5006161
-0.57182699 0.640899 4.7304201 4545355
-0.56759399 0.63834703 4.7112002 4348493
-0.0014854301 0.86587298 5.0579 6114355
0.110344 0.90975398 5.0964098 6114095
0.155334 0.92789698 5.0833902 6113315
0.26414701 0.95440298 4.92484 5917240
0.39892301 0.99818599 4.8783002 8418926
0.41018701 1.00368 4.85253 8747890
