ply                 
format ascii 1.0    
element vertex 1282
property float x    
property float y    
property float z    
property uchar red  
property uchar green
property uchar blue 
end_header          
0.104443 -0.203941 1.50362 10 5 0 
0.244306 0.239601 1.35662 38 28 18 
0.136179 0.064063 1.37782 75 65 56 
0.0337112 -0.27378 1.539 9 1 0 
0.037333 -0.308091 1.55452 29 25 22 
0.0307905 0.217137 1.29707 31 24 14 
0.134727 0.199238 1.30852 127 116 94 
0.127271 0.325394 1.2474 111 103 90 
-0.0925457 -0.0938923 1.52043 43 44 36 
0.233565 0.189989 1.37808 41 31 19 
0.11031 0.11085 1.35133 106 95 89 
0.00179655 -0.00799182 1.4149 62 62 52 
0.0482713 -0.0797272 1.44241 22 14 11 
0.226517 0.00409913 1.47344 102 93 84 
0.172124 0.419998 1.20693 127 118 109 
0.0544514 -0.022786 1.41228 33 29 20 
-0.11917 0.247684 1.38982 13 8 5 
0.177539 0.409238 1.21725 54 50 38 
-0.052735 0.0926659 1.41224 3 0 0 
-0.024973 0.455057 1.19214 34 31 26 
0.020308 0.0605484 1.3764 48 44 33 
0.25484 0.272482 1.34727 40 28 14 
0.0433222 0.190072 1.30829 21 18 9 
0.141535 0.181497 1.31855 58 49 42 
-0.0653652 0.44684 1.23132 25 17 15 
0.0148578 0.226404 1.29705 95 87 76 
-0.0412802 0.234382 1.33636 93 84 79 
0.0977367 -0.26178 1.53188 79 76 69 
0.0563769 0.0858378 1.35998 84 77 71 
0.0494948 0.0222132 1.3899 85 78 72 
0.182288 0.0820447 1.38207 123 110 101 
0.0795484 -0.294142 1.54215 95 92 85 
0.0165209 -0.101931 1.45707 3 0 0 
0.129287 0.409623 1.20609 76 73 68 
0.149899 0.355099 1.23841 112 107 101 
0.0702835 0.0779731 1.36288 92 85 77 
0.0930944 0.141455 1.33213 98 94 83 
-0.133396 0.493144 1.25783 85 76 67 
-0.194091 -0.350728 1.71173 27 27 19 
-0.0929512 -0.313624 1.61319 73 70 63 
0.0494912 0.265379 1.27242 43 34 27 
0.150327 0.0164562 1.40601 21 11 2 
0.261811 0.348204 1.28655 105 98 90 
-0.0167626 -0.202626 1.51221 107 98 93 
0.171572 -0.247237 1.54338 92 94 83 
0.0654857 -0.105563 1.45173 13 5 2 
0.145165 -0.108911 1.46601 88 89 75 
-0.0620036 0.32738 1.29569 79 72 64 
-0.00567137 0.0979689 1.36575 50 41 34 
0.0198397 0.251566 1.28562 87 82 78 
-0.122194 0.450938 1.28003 45 41 38 
-0.00173824 0.0544762 1.3836 54 47 41 
-0.055825 0.00442426 1.45195 66 64 65 
0.0212808 -0.261259 1.5348 53 53 45 
0.00311195 -0.0761097 1.44583 25 17 14 
-0.206484 -0.268122 1.71896 90 87 82 
-0.103182 0.328515 1.33556 29 24 18 
0.0898608 -0.145795 1.47596 80 76 65 
-0.0835641 0.460396 1.23593 29 24 21 
-0.0515076 -0.157511 1.52683 64 60 59 
0.0320277 0.313931 1.25276 26 17 12 
0.000120194 0.333353 1.25051 63 59 58 
0.0148045 -0.00565038 1.40865 17 13 10 
0.0527167 0.433565 1.18495 94 91 82 
0.133396 0.247067 1.28632 129 116 99 
0.0877617 0.048193 1.37703 25 17 15 
-0.107775 0.533874 1.20813 43 34 27 
-0.0542596 0.349918 1.26973 64 63 59 
0.163952 -0.197659 1.51898 78 72 60 
0.13009 0.100202 1.3572 89 79 70 
-0.0659841 0.226262 1.35585 93 88 82 
0.0412262 -0.21487 1.50893 83 78 72 
0.118206 -0.0382543 1.42736 80 71 64 
0.0226113 0.435067 1.19214 32 29 22 
0.169589 -0.276524 1.55739 53 45 42 
-0.10267 0.164615 1.41097 30 25 22 
0.13815 -0.203337 1.51188 90 84 72 
0.231206 0.148353 1.39801 65 55 43 
0.287335 0.257994 1.3801 74 62 48 
0.217634 0.140936 1.39259 132 122 112 
0.0489912 0.282808 1.26362 102 93 86 
-0.0605361 0.315381 1.31067 32 29 24 
0.021567 -0.121541 1.46576 66 61 57 
0.06411 0.153211 1.32477 79 72 64 
0.195332 0.430888 1.20437 42 35 29 
0.23086 0.231027 1.35129 120 110 100 
0.021762 0.213259 1.30023 92 82 73 
0.00804074 0.270932 1.27818 25 21 10 
0.0662745 0.202838 1.30147 59 45 32 
0.00154063 0.162799 1.33273 22 15 7 
-0.0569688 0.279853 1.32954 61 51 49 
-0.0785852 -0.116235 1.52249 80 79 75 
-0.019466 0.314186 1.28155 77 72 68 
0.253025 -0.0479027 1.51334 35 31 20 
-0.107359 -0.168448 1.57076 74 69 66 
-0.172383 0.516702 1.29706 100 90 88 
0.199154 0.385479 1.23925 106 98 87 
0.10918 0.340743 1.2363 98 94 83 
0.0500178 -0.0934794 1.44573 81 78 71 
0.144185 -0.223732 1.52289 99 92 86 
-0.0399425 -0.326083 1.60315 88 84 81 
-0.0208178 0.160591 1.35559 86 81 78 
0.0658121 0.409047 1.20565 74 71 66 
0.0407591 0.325745 1.24462 94 86 83 
-0.0198838 -0.225895 1.5258 111 106 100 
0.00383561 -0.0527571 1.43404 5 0 0 
0.175374 0.149555 1.34649 109 100 91 
0.103614 0.421685 1.19671 38 29 20 
0.0612776 -0.0453825 1.42399 91 84 74 
0.167203 0.124019 1.35292 65 55 45 
-0.164648 0.384231 1.36546 38 33 30 
0.112243 0.16008 1.32597 14 1 0 
0.115862 0.441298 1.17231 82 79 72 
0.0788714 0.35366 1.22908 28 19 10 
0.0601897 0.423579 1.19627 40 30 21 
0.150168 0.239691 1.29209 49 39 30 
-0.0130948 -0.0721508 1.44954 12 8 9 
-0.00209277 -0.017118 1.42035 20 13 5 
-0.00388365 -0.360135 1.58264 10 7 0 
0.072703 -0.22422 1.51096 79 75 66 
0.148561 -0.346746 1.58755 67 62 58 
0.165589 -0.154077 1.49592 30 23 15 
0.0294934 0.249417 1.28276 104 97 91 
0.240688 0.266092 1.34225 114 106 95 
0.170636 0.0190077 1.40907 29 20 11 
-0.0988462 -0.0525767 1.5077 5 0 0 
-0.0164209 -0.212156 1.51916 97 95 83 
-0.0837386 0.213147 1.36965 77 70 64 
0.0575079 0.293141 1.25806 90 81 74 
0.232857 0.24791 1.34602 89 79 69 
-0.115564 -0.210673 1.5965 13 10 5 
0.0865144 -0.245511 1.52433 40 33 27 
0.136131 0.292592 1.26413 47 39 28 
-0.00445212 -0.340888 1.57613 88 84 83 
-0.0506431 -0.115577 1.50707 73 70 65 
0.316833 -0.303541 1.71346 94 93 88 
0.189365 0.200463 1.32379 87 83 72 
0.0782327 -0.0690049 1.43548 98 90 79 
0.249043 0.277087 1.3383 116 106 94 
0.14481 -0.160368 1.49193 92 86 74 
-0.0456321 0.388186 1.24963 89 85 76 
-0.162473 0.337249 1.40964 27 23 14 
0.227107 0.385683 1.25259 97 90 82 
0.0545406 0.190664 1.30603 10 1 0 
-0.133011 0.263256 1.40145 23 15 12 
-0.056125 0.230173 1.34551 96 91 85 
0.133312 -0.270263 1.54597 79 75 66 
-0.0715867 -0.0381162 1.48203 30 26 23 
-0.10321 0.48778 1.22489 92 83 74 
0.012751 -0.0816549 1.44927 80 73 67 
0.0727204 0.308765 1.25103 93 83 71 
0.122867 0.0852493 1.3627 78 69 60 
0.190973 0.0758101 1.38944 92 82 72 
-0.124596 0.344698 1.34472 10 5 2 
0.188616 -0.393566 1.62744 89 88 83 
0.135572 -0.0767002 1.44883 92 85 75 
-0.0809432 -0.0342087 1.48413 4 1 0 
-0.0410204 0.291485 1.31244 112 102 90 
0.218656 -0.0811465 1.50417 90 78 66 
0.0330546 -0.0818997 1.44454 71 68 59 
-0.116788 -0.175584 1.57773 26 23 18 
0.237688 0.291838 1.32728 78 68 56 
-0.0614031 -0.333418 1.61698 71 67 64 
-0.163331 -0.255542 1.66409 3 0 0 
-0.181662 0.332842 1.44018 83 74 67 
0.0531961 0.00496881 1.39739 32 29 20 
0.111371 0.0596928 1.37618 87 77 65 
0.0943497 0.448819 1.1677 82 78 69 
-0.0934855 0.15067 1.40833 86 81 77 
0.213162 0.307053 1.29035 109 102 92 
0.144403 0.0779011 1.37455 96 87 78 
0.0325865 0.0738612 1.36688 68 61 53 
-0.0836069 0.287589 1.34373 91 84 76 
-0.065198 -0.457001 1.63493 117 110 100 
0.0544257 0.113121 1.34276 78 74 63 
0.122477 -0.167975 1.49151 12 5 0 
-0.00478962 0.321134 1.26299 70 65 59 
0.0732389 0.159813 1.32212 75 67 64 
0.0255042 0.0497755 1.37832 11 4 0 
0.200169 0.359756 1.25013 44 37 27 
0.091473 0.30832 1.24284 90 81 74 
0.189767 0.255527 1.2954 41 31 22 
0.114373 0.429977 1.18487 120 112 101 
0.110741 0.398348 1.20897 95 89 77 
-0.0316817 0.221579 1.33912 27 18 13 
0.274846 0.315665 1.32933 116 109 101 
0.0179253 -0.0262475 1.41771 97 92 86 
-0.181088 0.461733 1.35352 39 32 26 
-0.0783416 0.463797 1.22653 36 35 33 
0.230257 -0.0122386 1.48153 62 49 40 
0.171964 -0.0115553 1.42547 63 56 48 
-0.0460434 -0.101931 1.49753 68 64 63 
-0.11434 -0.19758 1.58973 70 67 62 
0.128835 0.0556827 1.37931 101 92 83 
-0.089659 0.212864 1.38084 8 4 0 
0.0923167 0.351888 1.23161 28 18 9 
0.0302531 0.149027 1.33139 76 72 63 
0.0304007 0.269088 1.27546 82 78 69 
-0.137919 0.170089 1.44201 73 69 66 
-0.0578203 -0.290949 1.59204 64 60 59 
0.0707549 0.426336 1.19041 46 37 28 
0.191501 0.16375 1.34627 130 126 114 
0.244287 0.190142 1.3823 112 102 90 
-0.0128672 -0.0949969 1.46631 70 65 61 
-0.054167 0.0177501 1.44566 75 70 67 
0.149832 0.109394 1.35987 81 72 65 
0.0414415 0.421486 1.19998 88 83 80 
-0.13245 0.231233 1.41353 81 74 68 
0.0989649 0.377844 1.21535 108 103 99 
0.143447 -0.303616 1.56538 68 64 63 
0.121741 0.196799 1.30925 84 74 64 
0.274593 0.229344 1.38517 33 30 15 
0.0713302 -0.127968 1.46444 90 84 72 
0.0421283 0.240194 1.28566 82 73 66 
0.218559 0.124429 1.40245 107 101 89 
0.0331731 -0.149551 1.47739 87 84 77 
-0.0775183 0.395283 1.26697 81 76 70 
-0.00982654 -0.231347 1.52159 10 2 0 
0.150802 0.328512 1.2499 40 29 23 
-0.0698633 -0.108968 1.51655 66 63 58 
-0.0967714 0.341873 1.31023 24 21 16 
0.0529002 -0.30238 1.54944 95 92 85 
0.0128207 0.102411 1.35653 23 20 11 
-0.165072 -0.271981 1.66861 71 66 62 
0.0983707 0.111033 1.34779 85 83 71 
0.0273011 0.0907916 1.36071 30 27 20 
0.096433 0.0699032 1.36729 105 98 90 
0.279576 0.241424 1.38607 101 91 79 
-0.0162124 0.330399 1.26103 86 81 77 
0.142839 0.284698 1.26889 91 81 72 
-0.0668538 0.188433 1.37411 32 24 21 
0.085544 0.305626 1.25086 92 89 80 
0.13059 0.428268 1.18947 59 51 40 
0.119784 0.276077 1.26971 41 38 29 
0.158794 0.400364 1.21665 31 28 19 
0.223265 0.0376653 1.44982 95 88 78 
-0.133289 -0.415828 1.67567 86 83 78 
0.211256 -0.150822 1.53993 57 48 39 
-0.0974206 0.511914 1.20763 81 76 70 
-0.0420548 -0.29758 1.59008 37 38 33 
0.0224081 0.201211 1.30689 47 40 32 
0.0105331 0.0926655 1.36143 8 0 0 
-0.196135 -0.231242 1.69829 19 18 16 
0.0281656 0.443028 1.18124 93 86 78 
0.0304845 0.42385 1.20094 84 79 75 
-0.0295117 0.308982 1.29184 72 69 64 
0.0784265 0.0321398 1.38469 90 86 77 
-0.0796161 -0.14371 1.53649 76 70 70 
0.101731 0.306638 1.25344 102 95 87 
-0.0317589 -0.0687716 1.47817 8 4 3 
0.162548 0.35377 1.24018 103 94 87 
-0.0486625 -0.178409 1.54048 17 13 10 
-0.126123 0.158721 1.43529 34 33 29 
0.0218421 -0.320717 1.5659 86 83 76 
0.0469676 0.132436 1.33787 64 57 49 
0.0318311 -0.0671906 1.43766 91 86 82 
-0.0607412 0.25194 1.34049 72 68 59 
0.120666 -0.276198 1.54653 27 22 19 
-0.104299 0.469759 1.2477 88 85 78 
0.163452 0.363872 1.23735 98 88 79 
0.0289434 0.330458 1.24503 46 40 28 
0.0195254 0.115278 1.34862 64 57 51 
-0.0437291 0.30156 1.3074 73 68 65 
0.151289 0.276807 1.27335 109 102 92 
0.0237334 -0.35894 1.5824 97 93 90 
0.0774235 0.135429 1.33556 20 15 12 
0.116958 -0.29437 1.55102 38 35 26 
0.247988 -0.177779 1.57918 108 100 89 
0.0445044 -0.347541 1.57267 73 65 62 
-0.0455175 0.0493637 1.43101 14 9 5 
0.0115895 0.0774823 1.37794 66 59 51 
0.0860753 -0.159614 1.48137 78 74 63 
0.148721 0.408046 1.21259 42 33 24 
0.098928 0.365181 1.22282 52 44 33 
0.157882 -0.364058 1.59978 90 86 77 
0.0456945 -0.148381 1.4771 40 40 32 
0.173428 -0.0676917 1.45612 100 94 82 
-0.0866953 -0.361357 1.62175 28 27 23 
0.0113535 0.403491 1.21928 57 53 44 
0.0109254 0.0181743 1.3992 54 46 35 
-0.0381783 0.467417 1.19147 87 82 78 
-0.136892 0.2909 1.3916 27 22 18 
0.24073 -0.10785 1.53597 100 92 81 
-0.121866 0.208579 1.4077 35 25 23 
0.122047 -0.103633 1.45819 102 95 85 
-0.122516 0.466604 1.26846 57 52 48 
0.0809104 0.442649 1.17174 97 88 81 
0.00227384 0.0713436 1.37464 14 9 5 
-0.0416952 -0.278526 1.57467 79 78 74 
0.100456 -0.150205 1.47934 14 10 7 
-0.0607869 0.165535 1.38137 32 23 16 
0.0221274 0.0790689 1.36433 35 27 24 
-0.111648 0.457256 1.26528 31 22 17 
0.151793 -0.0723467 1.44938 75 66 57 
0.165977 0.254395 1.28882 55 40 33 
0.122393 0.383976 1.21772 31 28 19 
-0.0181087 0.228266 1.32739 69 64 60 
-0.0940195 0.366734 1.28803 18 14 11 
-0.168889 -0.347291 1.68164 80 76 73 
0.180392 0.330187 1.25386 50 41 32 
0.137166 0.0170102 1.39738 31 18 10 
-0.0935666 0.169192 1.40585 73 63 61 
0.190656 0.150773 1.3505 98 90 79 
0.224492 -0.0347109 1.4896 104 98 86 
-0.0611337 -0.0206628 1.46377 78 72 72 
0.0036491 -0.128608 1.47079 68 63 59 
0.137256 0.315035 1.25343 84 73 67 
0.0318194 -0.126456 1.46901 36 33 24 
0.188775 0.38318 1.2347 115 108 100 
0.0330479 -0.580296 1.75143 33 30 21 
-0.125794 -0.403576 1.66992 75 72 67 
0.151905 0.344956 1.2402 48 39 32 
0.152463 -0.256657 1.54319 75 66 57 
0.0328261 0.0628763 1.37331 75 68 58 
0.222296 0.162913 1.38312 60 49 43 
-0.00516128 -0.217778 1.51574 12 3 4 
-0.00688266 0.461057 1.17852 90 82 79 
0.050741 0.320455 1.24496 87 83 72 
0.133408 -0.308667 1.56525 24 20 17 
0.0593424 0.0149427 1.39724 69 64 58 
-0.0888055 -0.272829 1.60215 78 74 71 
-0.0275593 0.0217757 1.4292 24 23 19 
-0.114981 0.33412 1.34479 42 41 39 
0.0279361 0.040571 1.38553 4 4 0 
0.0304107 -0.205283 1.50391 30 20 18 
0.21114 -0.177995 1.55256 61 51 39 
-0.060372 -0.0781011 1.49356 53 48 44 
-0.0658998 0.307781 1.32053 64 56 53 
-0.00493113 -0.312104 1.56186 38 34 25 
0.202366 0.341913 1.25884 58 51 41 
0.0169046 0.16085 1.33031 26 17 8 
0.034297 0.18102 1.31637 51 43 32 
-0.125836 0.50183 1.23811 41 36 33 
0.0806317 -0.0373148 1.41944 84 77 69 
0.105608 0.139273 1.33362 106 97 90 
-0.159982 0.424336 1.3326 72 65 57 
-0.130327 -0.258971 1.63112 49 46 41 
-0.0612434 0.103477 1.41044 57 54 49 
0.107932 -0.190055 1.49845 87 84 75 
0.122241 -0.0935435 1.44853 77 70 62 
0.00365045 0.00652734 1.40501 26 22 13 
-0.0906577 -0.136438 1.54261 24 20 17 
0.184079 0.34843 1.24805 52 43 28 
0.11341 -0.174358 1.49238 47 42 36 
0.156912 -0.189256 1.50838 88 80 69 
0.053107 0.406668 1.20617 95 86 79 
0.168866 0.188634 1.32356 105 95 83 
0.119253 0.336293 1.24007 119 115 106 
0.107315 0.000714308 1.40329 83 76 70 
0.00411911 -0.367808 1.58657 89 86 81 
0.160985 0.022416 1.40413 81 72 63 
0.163302 0.380343 1.22935 90 77 60 
-0.0369341 -0.231871 1.5569 60 56 53 
0.169252 -0.0868668 1.46358 8 0 0 
0.0400626 0.260972 1.27868 32 23 16 
-0.156425 0.344516 1.39479 56 49 41 
-0.159636 0.530658 1.2686 19 14 11 
0.222814 0.0192361 1.45947 98 90 77 
0.115485 -0.19988 1.5043 17 14 9 
0.2269 0.34669 1.269 51 42 33 
-0.17426 0.306991 1.44173 11 6 2 
0.147817 -0.270367 1.55066 77 74 69 
-0.0240884 -0.061341 1.46765 71 67 66 
-0.0906546 -0.242829 1.5905 65 64 60 
-0.0762144 0.518321 1.18936 43 36 30 
0.17181 0.370443 1.2344 104 94 85 
0.148875 0.0336615 1.39592 96 86 77 
-0.0489553 -0.00912852 1.45322 64 60 57 
0.0297733 0.387402 1.21953 55 48 42 
0.0368338 0.0327501 1.38506 65 56 47 
-0.0868122 0.0869513 1.43308 105 98 92 
-0.0385574 0.324084 1.28057 30 24 24 
-0.10204 0.255894 1.3726 66 58 55 
0.0892137 -0.227158 1.51473 78 74 63 
0.13602 0.121977 1.35152 19 15 6 
0.140833 -0.0625062 1.44153 87 80 74 
-0.095039 0.456441 1.24819 27 19 17 
0.164718 -0.128259 1.48152 84 77 71 
0.254006 -0.349879 1.6504 80 73 67 
0.0620422 0.173177 1.3172 86 79 71 
-0.116994 0.320726 1.35695 18 13 10 
0.110328 -0.0453039 1.42855 80 71 64 
-0.0109411 -0.270888 1.54258 100 98 86 
0.0508078 0.377621 1.22041 76 73 66 
0.263478 0.116752 1.43692 65 55 45 
0.0188405 -0.279437 1.54353 22 18 9 
0.0902726 0.320299 1.24245 34 27 21 
-0.138024 0.128125 1.48688 25 10 5 
0.0777731 -0.330943 1.56643 33 30 23 
0.0802788 -0.0857009 1.4441 69 65 56 
0.091138 -0.041774 1.42185 42 28 25 
-0.0268176 -0.0912022 1.48928 20 17 10 
0.00872845 0.200742 1.31084 90 81 76 
0.0192843 0.278966 1.27268 42 38 29 
0.054145 -0.25641 1.52928 87 86 82 
-0.13362 0.309407 1.37847 74 65 58 
0.25098 0.207596 1.37782 71 65 53 
0.0844186 -0.179425 1.49194 78 74 63 
-0.165999 -0.324077 1.66616 4 3 1 
-0.00886913 0.316614 1.27272 96 87 78 
0.0923271 0.299727 1.25691 57 43 34 
0.140166 0.447351 1.16915 137 127 118 
-0.194438 0.480214 1.36317 86 83 76 
0.0731353 0.361362 1.22502 36 27 18 
-0.0838786 0.355432 1.28378 33 24 25 
-0.0146271 0.10496 1.38 21 17 16 
-0.113815 0.293392 1.36558 56 52 49 
0.135112 0.383096 1.2204 52 43 36 
0.0259974 0.482885 1.15795 82 73 66 
-0.0900013 0.328151 1.31965 43 38 35 
0.223626 -0.304628 1.63076 102 98 87 
0.179926 0.0189231 1.41756 24 15 10 
0.0805139 -0.0972602 1.44921 49 45 42 
0.0118634 0.428206 1.2024 43 31 31 
0.0434408 -0.00130412 1.40194 16 12 3 
0.00428616 0.238962 1.29506 30 26 15 
-0.11399 -0.267151 1.6192 74 73 68 
-0.154529 0.273159 1.42119 36 31 27 
0.141691 -0.0153437 1.41967 81 72 63 
0.0080601 -0.616591 1.77547 59 56 47 
-0.0866763 0.247059 1.36383 73 64 57 
0.189059 0.395154 1.23139 107 100 90 
-0.127104 -0.226366 1.61365 80 74 74 
0.112463 0.448879 1.16468 84 81 76 
0.00938527 0.297909 1.26611 37 30 24 
-0.0903227 0.433837 1.25721 35 30 26 
-0.136801 0.202577 1.41927 61 60 58 
-0.0490512 0.445232 1.22253 88 83 77 
0.0309231 -0.283514 1.54383 75 70 64 
0.222516 0.283705 1.31762 106 94 80 
-0.0708182 0.467718 1.21715 37 33 30 
-0.024746 -0.0811866 1.47138 25 21 20 
0.230782 0.359002 1.26534 94 91 76 
0.151345 -0.323625 1.57787 39 35 34 
0.293453 0.197173 1.42486 104 96 83 
0.136696 0.330216 1.24591 89 79 70 
0.177473 0.0336012 1.40648 85 75 66 
0.0466533 0.293592 1.25968 61 54 48 
-0.0518925 0.0785226 1.41506 79 75 66 
0.304712 0.224071 1.4224 81 73 60 
0.0736837 0.374993 1.21959 54 51 42 
0.135561 0.364406 1.22959 29 23 11 
0.14566 0.191099 1.31816 89 82 76 
0.135495 0.21787 1.30172 66 53 37 
0.0849635 0.402262 1.20722 95 93 81 
-0.0796077 0.0944276 1.42796 72 63 54 
-0.144608 0.513861 1.25529 65 56 51 
0.173498 -0.139514 1.49035 63 56 48 
-0.0398011 -0.00661869 1.44753 70 66 65 
0.127444 -0.349323 1.58208 94 89 86 
0.0503345 -0.367056 1.58019 4 0 1 
-0.038985 0.040363 1.42939 73 68 64 
0.0786639 -0.0198239 1.41046 85 81 70 
-0.0686191 -0.0733247 1.49786 46 45 43 
-0.0797029 0.335552 1.30125 39 38 33 
0.0401204 -0.264687 1.53388 44 40 31 
0.113981 0.307022 1.25497 82 76 64 
0.0608319 0.338202 1.23977 23 19 10 
0.0245999 -0.0202364 1.41101 15 12 7 
-0.103622 0.272356 1.36648 70 61 56 
0.105978 -0.219714 1.51367 79 72 64 
-0.0590218 -0.250699 1.57774 59 55 52 
0.250629 0.354946 1.27857 94 84 75 
0.0268304 -0.0443884 1.42545 96 87 80 
-0.112584 0.375454 1.30159 20 19 15 
-0.137121 0.332127 1.37331 49 38 36 
0.158324 0.23011 1.2979 92 86 74 
0.0972526 0.160757 1.32303 88 81 73 
-0.00198741 0.43832 1.2 38 33 30 
0.102511 0.127369 1.3412 56 47 38 
-0.0996066 0.379798 1.2881 45 42 37 
-0.123725 -0.269777 1.62806 14 13 11 
0.0255013 -0.228894 1.51541 77 76 72 
0.158218 0.316386 1.2574 84 79 73 
0.0177102 -0.350419 1.57354 7 4 0 
0.0860544 -0.271093 1.53571 45 42 35 
-0.173945 -0.296264 1.68772 15 11 8 
-0.13376 0.368066 1.32555 89 86 79 
0.0330874 0.168247 1.32248 70 61 52 
0.0372144 0.130301 1.34097 34 25 18 
0.171139 0.266006 1.28364 52 42 32 
0.130136 -0.00287338 1.40941 76 69 61 
-0.01899 0.137997 1.37317 69 63 63 
0.0567628 -0.222911 1.50828 15 11 8 
0.0574857 0.311601 1.24899 37 25 13 
0.0614304 -0.116963 1.46086 92 87 81 
0.086006 0.214739 1.3004 62 32 30 
0.047384 -0.445065 1.6168 79 80 75 
0.00797885 -0.262535 1.53295 75 70 67 
0.0692091 0.2777 1.2666 96 87 80 
0.216128 0.338143 1.26657 89 83 69 
0.168883 -0.361157 1.60688 89 86 81 
-0.0055442 -0.182057 1.50182 78 71 61 
0.270848 0.241499 1.37665 118 110 97 
0.237727 -0.406644 1.66322 91 88 83 
-0.134346 0.343585 1.3626 38 35 30 
0.0827165 0.151439 1.32531 80 73 65 
0.233876 -0.370638 1.64477 41 40 35 
0.195165 0.414648 1.21766 80 76 65 
-0.138787 0.180515 1.43887 32 27 24 
0.0155812 -0.0500869 1.43031 94 87 81 
0.10643 0.434052 1.1777 89 85 74 
0.127292 -0.0192355 1.41676 47 38 31 
0.0453506 -0.136845 1.47294 76 69 59 
0.227576 -0.0707734 1.50664 109 97 81 
-0.0961222 -0.111497 1.53525 81 72 65 
0.0417192 0.27344 1.27076 39 34 28 
0.0591681 0.440995 1.17491 55 50 44 
-0.105647 0.421372 1.27821 35 27 24 
-0.0107911 0.428989 1.21235 70 67 58 
0.112627 -0.0142351 1.41231 87 80 72 
0.261108 0.365974 1.28539 115 105 93 
0.0532162 0.448092 1.16781 29 26 21 
0.225803 -0.331513 1.64303 72 65 55 
0.1411 -0.0455006 1.43617 98 89 80 
0.137152 -0.135395 1.48014 75 71 62 
0.113773 0.046276 1.379 14 8 0 
-0.0059905 0.412573 1.21977 72 69 64 
-0.0905121 0.517884 1.198 42 30 30 
-0.141776 0.3756 1.33273 38 30 28 
0.106519 0.021713 1.39396 85 78 72 
-0.116715 0.42511 1.28822 77 72 68 
0.267367 0.0633953 1.46926 46 34 20 
-0.135143 0.194293 1.42894 51 47 44 
0.253464 0.0474081 1.46487 53 41 29 
0.165733 -0.0361071 1.43724 78 69 60 
0.238277 -0.270007 1.6245 61 53 42 
-0.0632164 -0.309962 1.60506 4 0 0 
0.0490436 0.19935 1.30259 72 65 57 
0.00835618 0.147532 1.3372 50 41 34 
0.188355 0.274449 1.28639 97 88 73 
0.141428 -0.00873865 1.411 105 96 87 
0.18348 0.427814 1.20743 55 51 40 
0.040283 -0.0574296 1.43156 38 33 29 
0.245567 -0.154085 1.56676 106 96 84 
-0.0145269 0.169009 1.35484 51 47 44 
0.105888 -0.275356 1.54109 41 36 32 
-0.117175 0.167122 1.41912 68 63 59 
0.0106081 0.471017 1.16671 76 73 64 
0.18895 0.373255 1.24168 98 90 77 
-0.0366159 -0.116826 1.49787 77 73 70 
-0.134384 -0.241469 1.62712 70 67 60 
-0.138154 0.245438 1.41142 51 47 38 
-0.0885512 -0.254926 1.59633 58 55 50 
0.0510947 0.0674048 1.36812 34 23 21 
-0.0726113 0.154176 1.39389 60 52 50 
-0.0831582 0.254546 1.35539 81 74 68 
0.00892934 0.494154 1.15607 89 83 71 
-0.174684 -0.197828 1.64659 75 70 64 
0.24028 -0.302244 1.63851 73 69 60 
0.0453015 -0.185161 1.49324 89 88 83 
-0.158698 0.499775 1.29024 44 39 35 
0.115766 -0.0580448 1.43525 57 46 40 
0.11079 -0.131824 1.4708 28 25 16 
0.175232 0.0987937 1.37123 35 31 20 
-0.0897397 0.272675 1.35129 74 69 63 
-0.193813 -0.277968 1.71069 15 14 10 
-0.0950911 0.189913 1.39136 38 33 29 
-0.124794 -0.109299 1.55302 20 20 22 
0.157381 -0.220149 1.52595 77 73 64 
0.144467 -0.0954733 1.46284 74 65 60 
0.239662 -0.12531 1.54529 82 70 58 
-0.0798238 0.421653 1.25869 50 42 40 
-0.0592546 0.460198 1.21161 90 85 81 
-0.100115 0.334388 1.32685 35 30 27 
0.107039 -0.141455 1.47191 38 33 30 
0.165245 0.170065 1.3335 66 56 46 
-0.0109594 0.340029 1.25046 74 67 61 
-0.138307 -0.14292 1.58814 61 56 52 
0.0735326 -0.199427 1.49978 48 43 40 
-0.00212081 -0.243617 1.52965 60 55 49 
0.195828 0.225129 1.31474 63 53 43 
-0.156054 -0.228271 1.64388 28 24 21 
0.253868 0.336676 1.28817 102 93 84 
0.149028 0.451431 1.1657 48 45 36 
0.0368436 -0.10298 1.45318 33 28 22 
-0.177902 0.246732 1.4707 70 62 59 
0.14778 0.381051 1.22366 47 40 32 
0.00689202 -0.0251693 1.42211 55 50 46 
-0.198518 -0.414576 1.72369 31 27 24 
0.270345 -0.364392 1.66737 76 73 68 
-0.0290491 -0.599706 1.75783 85 82 75 
0.131416 -0.0869594 1.44712 12 7 3 
0.0374835 0.208423 1.29998 54 45 38 
0.151691 0.432988 1.18897 60 54 42 
-0.0130997 0.30507 1.28247 83 78 74 
0.105101 0.197113 1.30846 14 7 1 
0.0124678 -0.295866 1.55274 49 42 32 
0.147139 0.0495041 1.38264 48 40 29 
-0.105921 0.326321 1.34581 59 55 46 
-0.135794 0.4306 1.30391 75 72 63 
0.16106 0.345001 1.24667 107 100 92 
0.26511 -0.324788 1.6595 58 53 49 
0.0445683 0.116516 1.34541 66 62 53 
-0.111215 -0.10021 1.54224 75 71 68 
-0.0654659 0.241918 1.35027 55 50 47 
-0.122483 0.507608 1.22355 27 22 19 
-0.070719 -0.264537 1.59126 16 16 14 
0.103298 -0.445816 1.62125 58 55 50 
-0.116048 0.235604 1.38989 48 45 36 
-0.0826825 0.489667 1.20779 91 83 80 
-0.163207 -0.210486 1.64032 50 49 47 
-0.0338015 -0.438317 1.62864 74 70 61 
0.176889 0.0750257 1.39119 83 71 59 
0.0696229 0.058138 1.37295 85 75 65 
0.0116823 0.438432 1.19292 75 68 62 
0.0771127 0.458309 1.15819 66 61 55 
-0.000853469 0.128619 1.34758 57 46 40 
0.241326 0.362991 1.26851 82 73 66 
0.00343462 -0.224016 1.51792 52 47 43 
0.0766505 -0.258607 1.52892 90 86 83 
0.0266913 -0.293843 1.54426 71 64 58 
0.121842 0.219166 1.30011 70 57 40 
0.0845727 -0.208959 1.50188 68 67 63 
-0.159495 0.363207 1.37703 83 78 74 
0.102845 0.185722 1.31176 88 76 60 
0.0348939 -0.192844 1.49671 12 4 1 
-0.0260901 0.0647432 1.41009 20 16 17 
0.145578 0.309343 1.26003 46 36 27 
0.065846 -0.270702 1.53468 58 53 49 
-0.0376808 0.436682 1.2154 44 36 33 
-0.0859592 -0.179226 1.5597 28 24 21 
-0.0873219 -0.574742 1.77872 90 86 83 
-0.18622 -0.275479 1.69391 11 9 10 
0.272436 0.21738 1.39203 101 93 80 
0.183856 -0.00462052 1.42965 80 76 65 
-0.00664839 0.45155 1.18676 29 24 20 
0.0621252 0.389698 1.21363 43 36 30 
-0.0529614 0.105161 1.40274 70 67 60 
0.0407457 0.450448 1.1706 26 22 19 
0.0538098 -0.0346554 1.42014 77 69 58 
-0.133443 -0.390808 1.66614 65 61 58 
0.0136582 0.185195 1.31927 84 75 66 
-0.000376891 -0.32737 1.56889 85 79 67 
0.197719 0.370852 1.24632 58 50 39 
0.24009 -0.135912 1.55106 78 68 58 
0.0675281 -0.0141013 1.4082 65 62 55 
-0.00591664 0.0202627 1.40371 91 84 74 
-0.0349724 0.194972 1.35215 85 76 71 
0.120152 0.261461 1.27868 34 25 20 
0.22026 -0.190382 1.56916 59 50 41 
0.0127389 -0.142658 1.47687 71 66 63 
0.0588261 0.127819 1.34368 23 20 11 
0.11998 -0.11737 1.4638 77 71 59 
0.0922994 0.0601292 1.3745 72 68 59 
0.140405 -0.0382494 1.42807 89 79 70 
0.158808 -0.443213 1.63961 77 73 70 
-0.154423 0.372835 1.35515 86 82 73 
-0.0177222 0.0166092 1.42966 42 39 34 
0.13862 0.0307175 1.39966 71 64 54 
-0.0592561 0.516873 1.17834 42 34 31 
-0.112279 -0.362929 1.61702 63 60 51 
-0.0333134 0.039791 1.4194 54 50 47 
-0.0848025 -0.120155 1.53422 43 39 36 
0.114446 0.371036 1.22262 107 97 88 
0.140076 0.00455486 1.40783 17 7 0 
0.171876 0.23961 1.29846 85 75 63 
0.0938047 -0.0244052 1.41241 90 86 77 
0.113692 -0.155527 1.48278 51 44 38 
0.0282203 0.123684 1.34543 70 61 56 
0.16238 -0.0674505 1.44835 94 85 78 
-0.159381 -0.0522428 1.5723 18 14 13 
0.0868965 0.0241314 1.38837 46 39 31 
-0.16191 -0.136201 1.60762 64 55 50 
-0.110289 0.250061 1.38218 41 30 24 
0.262295 -0.42821 1.69278 46 45 40 
0.212062 0.0264063 1.44795 106 96 86 
0.102636 0.0396354 1.38996 14 5 0 
0.0906692 -0.300109 1.55151 61 58 53 
-0.0239448 0.210646 1.33746 27 22 16 
0.11778 -0.230654 1.51875 26 23 14 
0.0767622 0.236405 1.28553 83 70 54 
0.0955317 0.407989 1.20381 57 47 38 
-0.0566298 -0.326008 1.61243 27 23 20 
-0.121652 -0.365889 1.64974 38 33 29 
0.199701 -0.379264 1.62604 78 72 60 
0.177425 0.281853 1.27843 89 79 69 
-0.18205 0.397053 1.37298 80 71 66 
0.151799 -0.121926 1.4747 63 59 48 
-0.144679 0.384736 1.32705 59 56 51 
0.0859748 -0.189616 1.4963 41 30 26 
0.0948206 0.0139497 1.39607 61 52 45 
0.108184 0.175572 1.31781 101 92 83 
0.0195602 0.418637 1.20912 64 59 53 
-0.0166406 0.442974 1.20764 39 34 30 
0.142267 0.392346 1.21839 78 75 68 
-0.0909296 -0.163522 1.55436 68 63 59 
-0.0628973 0.132289 1.39691 48 44 35 
0.0948591 0.398527 1.20953 48 41 31 
0.20249 -0.2883 1.60285 106 104 92 
0.132402 0.301335 1.25904 28 21 13 
-0.0650717 0.382092 1.26321 34 30 27 
-0.0461286 0.278495 1.32116 74 70 61 
-0.139107 0.272268 1.399 52 49 44 
-0.0409552 0.369609 1.2544 58 54 53 
0.0350763 0.100495 1.35757 13 9 0 
-0.0180337 0.271192 1.30919 68 59 52 
-0.0447443 -0.0532054 1.4779 67 66 61 
-0.145728 0.212695 1.43412 62 57 54 
-0.0152869 -0.151263 1.483 44 37 31 
-0.0541488 -0.0557292 1.48385 61 57 54 
0.0958516 -0.0807725 1.44059 39 30 21 
-0.0664285 -0.0832301 1.50294 33 32 30 
-0.085431 -0.000168333 1.47526 79 76 69 
0.180077 0.0633119 1.39124 75 62 53 
0.220845 -0.217386 1.57779 91 82 75 
-0.093835 0.47817 1.22715 58 53 49 
-0.115345 0.285088 1.3729 31 27 24 
-0.0489211 0.335903 1.27561 22 18 15 
-0.152893 -0.12747 1.59076 40 37 32 
0.0991912 -0.132428 1.47014 77 70 60 
0.00454576 -0.287838 1.55375 70 67 62 
0.108234 0.291919 1.26077 79 72 62 
-0.108153 0.185222 1.40444 73 65 62 
-0.163465 0.349486 1.40566 38 31 23 
-0.00349191 0.0858645 1.36954 84 75 66 
-0.0935476 0.312412 1.33818 28 23 19 
-0.110179 0.342177 1.32192 62 59 52 
0.145923 0.0929224 1.36309 61 58 49 
0.162949 0.209344 1.31011 95 85 75 
0.0786809 0.283873 1.25867 96 89 79 
-0.024788 0.422333 1.22214 57 48 39 
0.160492 0.42345 1.1976 118 108 98 
0.0689934 0.0974801 1.35244 47 38 29 
0.0357939 0.0121846 1.39688 39 36 27 
-0.0263879 -0.00799522 1.44271 70 66 63 
-0.0694426 0.0831282 1.4236 27 24 19 
0.0786079 0.253505 1.28073 84 74 62 
0.226011 0.415174 1.23589 89 79 69 
0.100433 -0.177493 1.49631 79 72 64 
0.14059 0.43791 1.17914 63 59 48 
-0.151538 0.528144 1.25197 23 18 14 
-0.185629 0.37014 1.42475 43 38 35 
-0.0304091 -0.161166 1.51913 57 53 50 
0.06385 0.183186 1.31352 63 56 50 
0.0203639 -0.19214 1.49872 68 59 52 
0.0939708 0.286885 1.26264 91 84 78 
-0.0727806 0.0217117 1.4527 79 76 71 
0.160982 0.109389 1.36202 35 28 20 
0.101848 0.280167 1.26512 22 13 4 
0.032432 0.0242475 1.38992 69 64 60 
0.14174 -0.440045 1.62975 49 46 41 
-0.195302 0.506469 1.36159 49 45 36 
-0.13097 -0.367287 1.65767 34 31 26 
-0.0695544 0.0540396 1.43845 78 73 69 
-0.0701496 -0.238959 1.57925 24 20 19 
0.1039 -0.421256 1.61473 53 50 41 
-0.105875 0.406857 1.28206 25 21 18 
0.0650074 -0.0937326 1.44648 73 64 57 
-0.115574 -0.23524 1.60741 77 74 69 
0.131104 0.354614 1.23472 91 82 75 
0.0784897 -0.304064 1.55278 92 92 84 
-0.130083 0.471533 1.27474 47 39 36 
0.0603945 -0.236122 1.51888 37 34 25 
-0.0216015 0.463595 1.1844 65 58 52 
-0.154156 0.140149 1.47505 78 73 70 
0.0811416 0.182512 1.31156 56 48 35 
0.0149269 -0.0357808 1.42706 66 61 55 
-0.0494126 -0.23607 1.56563 46 42 39 
-0.134862 -0.210163 1.60103 28 28 28 
-0.0690322 0.423204 1.25128 64 63 59 
-0.121598 0.223067 1.40149 43 35 33 
-0.0772224 -0.198012 1.56383 69 70 65 
0.26913 0.176414 1.41044 106 98 85 
-0.186387 -0.410825 1.71142 56 53 46 
0.0584612 0.0742629 1.36539 49 40 33 
0.0837421 -0.54934 1.71449 44 41 34 
-0.17822 0.0324769 1.55268 72 68 67 
-0.0805866 -0.0530777 1.49195 64 60 57 
-0.0100253 -0.0630007 1.44592 67 60 52 
0.103514 0.444836 1.17079 83 73 71 
-0.0563374 0.323405 1.30469 23 18 15 
0.0416454 0.409765 1.20716 43 33 31 
-0.163163 0.192574 1.46624 19 14 10 
0.0570068 -0.386474 1.5895 62 53 46 
-0.071081 0.26309 1.34316 72 63 56 
0.0933779 -0.200354 1.50385 34 31 26 
0.21848 0.0759442 1.42623 93 84 77 
-0.133372 0.501139 1.24555 43 41 29 
0.0952749 0.0895563 1.35889 59 49 47 
-0.107443 0.222484 1.38893 66 59 53 
-0.0215203 0.407916 1.22874 38 31 25 
0.178086 0.317439 1.26021 75 65 53 
0.155466 0.00197491 1.41147 65 56 47 
-0.177002 0.21876 1.47698 83 75 72 
0.155114 -0.310094 1.57067 85 82 73 
-0.16548 -0.190539 1.63274 64 60 57 
-0.0684881 0.351276 1.2837 21 20 18 
-0.171506 -0.334893 1.67866 50 46 45 
0.137786 -0.57604 1.75256 45 44 40 
-0.0144547 0.178289 1.34785 37 33 30 
-0.0941786 -0.33377 1.61482 72 69 62 
0.182357 0.240368 1.30054 79 69 57 
0.206773 0.316623 1.26923 77 68 59 
0.159175 0.182676 1.32598 83 76 70 
0.0536519 0.210583 1.29829 93 85 72 
-0.059216 -0.220827 1.56429 47 43 40 
0.0274301 0.190025 1.31146 69 58 52 
-0.0549601 0.396827 1.25229 72 67 64 
0.0962822 -0.0683677 1.43535 74 70 61 
0.0357335 0.459396 1.16316 38 31 25 
-0.0296363 0.184561 1.35492 74 67 59 
-0.0301736 -0.612268 1.77141 73 70 63 
-0.167479 0.41901 1.34341 52 49 44 
-0.0492398 0.155794 1.3749 87 82 78 
-0.0779062 0.182427 1.38258 67 62 58 
0.0738558 0.17618 1.31585 59 52 46 
-0.113896 -0.38696 1.65154 68 65 60 
-0.0787106 0.318345 1.3174 84 79 73 
0.0664769 -0.171062 1.48411 82 78 66 
-0.037783 0.0927247 1.40107 53 50 45 
0.0185593 0.409098 1.21397 74 71 66 
0.00870941 0.0489521 1.3833 43 33 24 
-0.0777759 0.311571 1.32552 68 63 57 
0.105118 0.267746 1.27255 71 63 50 
0.0740258 0.386969 1.21446 78 73 67 
0.238288 0.348795 1.27358 65 56 47 
0.0537019 -0.160717 1.48318 73 64 57 
0.000591736 0.389954 1.22941 70 67 60 
0.266668 -0.190574 1.60071 68 58 48 
-0.194682 0.418126 1.38703 56 51 48 
0.0414109 0.372184 1.22253 47 42 36 
0.221572 0.0559707 1.44315 101 89 77 
0.00582685 0.28735 1.27054 73 66 58 
-0.0532007 0.264892 1.33063 32 24 22 
0.0112068 -0.0921575 1.45495 47 44 35 
-0.0462703 0.219949 1.34572 70 65 59 
0.117802 0.406031 1.20739 67 63 52 
0.055737 -0.319242 1.56168 90 87 80 
0.141146 -0.286866 1.55238 68 64 55 
-0.0250431 0.0332572 1.4244 70 69 64 
0.00894352 0.312559 1.27538 83 76 70 
0.0519932 0.141891 1.33489 37 33 22 
0.0183541 0.446165 1.18347 46 43 38 
0.0273934 -0.24166 1.52172 27 20 14 
0.222367 0.222037 1.35267 92 82 72 
-0.149689 -0.560211 1.83834 66 63 58 
-0.0497904 -0.134236 1.51621 47 43 42 
-0.111124 0.176445 1.41575 106 99 91 
0.122368 0.295967 1.25917 55 45 35 
0.0476564 -0.336612 1.56527 70 63 57 
0.00599305 -0.572416 1.73968 93 86 76 
-0.10378 0.149757 1.41815 68 64 55 
0.00304458 -0.209588 1.51955 62 57 53 
0.154662 0.295929 1.26614 70 61 52 
0.095663 0.193546 1.28044 12 5 0 
-0.0768809 -0.289381 1.6094 60 57 52 
0.257076 0.230375 1.37089 83 75 62 
-0.0596868 0.437412 1.23581 68 67 62 
-0.0384392 -0.171634 1.52867 47 46 42 
-0.129821 0.272283 1.38609 64 64 56 
0.0449674 -0.202107 1.49586 68 63 59 
-0.104051 0.499325 1.21653 48 41 33 
-0.15232 0.0604817 1.51574 28 23 19 
0.117796 0.144023 1.33472 54 41 35 
0.0333622 0.434243 1.19003 44 36 33 
0.231775 -0.210768 1.58632 75 71 59 
0.137483 0.13472 1.34346 67 60 52 
-0.0398271 0.433601 1.22685 30 25 22 
0.187463 -0.0841644 1.47406 87 80 74 
-0.0146741 0.476819 1.17304 36 27 22 
0.0983895 0.330254 1.24072 74 70 61 
0.131003 -0.215326 1.51525 74 70 59 
0.153777 -0.203014 1.51867 70 61 54 
-0.0934685 0.39435 1.27824 60 56 53 
0.222435 -0.09426 1.51777 90 80 68 
0.0542298 -0.190739 1.49491 78 68 59 
-0.0262671 0.104075 1.39317 42 38 35 
0.16804 -0.0252164 1.43567 77 67 57 
-0.0510304 0.318133 1.29577 56 48 45 
0.125115 0.31424 1.25286 66 59 51 
-0.086992 -0.440359 1.64361 54 51 42 
0.164557 -0.167653 1.50408 62 55 49 
0.235937 0.371992 1.2649 83 77 65 
-0.104765 0.0241009 1.49223 79 69 57 
-0.110429 0.210103 1.40204 68 63 59 
-0.0171445 -0.166767 1.49906 27 22 19 
0.0733254 0.123159 1.34007 58 54 43 
0.0915015 0.0330101 1.3845 69 58 52 
-0.125452 0.105117 1.48313 88 40 36 
0.195017 0.310596 1.27157 89 80 65 
0.153322 0.391449 1.22182 58 54 45 
0.0848777 8.18811e-05 1.39976 65 56 51 
-0.0862451 -0.150929 1.54694 74 67 57 
-0.158385 0.44231 1.32723 45 41 32 
0.0222706 0.168862 1.32203 74 65 58 
-0.0649792 0.396297 1.25863 36 35 31 
0.130978 -0.177127 1.49481 64 58 46 
-0.173044 0.244169 1.46007 67 62 56 
-0.00638118 -0.0439667 1.43147 70 65 59 
0.0751152 0.222659 1.29092 99 87 61 
0.0720289 0.0461929 1.37818 73 63 61 
-0.0230844 0.127208 1.38202 60 52 49 
0.21015 -0.32331 1.63067 57 54 49 
-0.143536 0.469052 1.29974 47 42 38 
-0.124318 -0.343611 1.64067 69 55 52 
-0.121844 -0.453762 1.67673 105 101 90 
0.031858 -0.414696 1.59803 59 56 49 
0.010152 0.136468 1.34054 75 64 58 
0.22259 0.26492 1.32804 92 84 71 
-0.0928802 0.147874 1.42247 60 55 52 
-0.0392007 -0.129059 1.50846 32 27 24 
-0.135859 0.389492 1.31867 75 68 62 
0.262585 0.213007 1.38468 118 109 94 
0.0430808 0.200246 1.31049 42 35 27 
-0.125973 0.378635 1.31235 43 38 34 
0.269316 0.165181 1.41729 97 89 78 
-0.13045 -0.146553 1.57717 46 42 39 
0.118454 0.0268132 1.39316 78 74 63 
-0.0566996 0.0486988 1.43509 83 76 70 
-0.113039 -0.146964 1.56376 30 26 23 
0.128857 -0.296766 1.55738 53 45 43 
0.0427664 0.312548 1.24919 37 27 18 
-0.0548688 0.365556 1.26515 24 23 19 
-0.048092 -0.59536 1.7579 56 52 43 
0.156165 0.199058 1.3125 81 69 55 
-0.0753861 0.449083 1.24024 62 53 46 
0.12873 0.398164 1.21254 60 51 44 
-0.152424 0.0058738 1.54625 17 16 14 
0.114438 -0.081754 1.44462 62 62 52 
-0.20837 -0.0993897 1.65863 45 42 35 
-0.00382698 -0.195979 1.50866 38 30 27 
-0.060743 0.141334 1.38943 65 57 54 
0.139813 -0.26126 1.54841 75 70 67 
0.0236609 0.339333 1.2426 41 37 26 
-0.182974 -0.0487545 1.59397 62 57 54 
-0.00311467 0.295171 1.28455 38 33 29 
0.00436877 -0.16437 1.48941 67 57 48 
0.141995 -0.37789 1.60011 35 29 15 
0.120739 0.347757 1.23407 59 52 44 
0.0358458 -0.0227942 1.41453 57 50 42 
-0.0888816 0.377869 1.27934 69 65 54 
-0.118026 -0.222327 1.60468 46 42 41 
-0.111778 -0.343084 1.63377 3 0 0 
0.115822 0.231706 1.29699 95 62 55 
0.00946019 -0.195533 1.5033 52 47 41 
-0.143409 0.501036 1.26108 52 51 47 
0.122158 -0.380525 1.59332 55 52 43 
-0.0287922 0.339502 1.25842 41 31 29 
-0.112547 -0.371415 1.63896 77 74 65 
-0.0584043 -0.473275 1.66161 102 96 84 
-0.0413208 0.175841 1.36372 60 53 45 
-0.0647715 -0.207961 1.55889 24 20 19 
0.064337 -0.144946 1.47946 83 78 74 
-0.193296 -0.592996 1.9162 65 62 57 
-0.16156 -0.120368 1.5988 38 33 29 
-0.0960946 0.446667 1.25824 49 41 38 
-0.0603881 0.417881 1.24925 42 32 31 
-0.256623 -0.384816 1.80786 54 50 41 
0.0552143 0.0585236 1.37447 64 55 50 
-0.152222 -0.387857 1.68332 54 49 45 
-0.0480455 -0.209218 1.54968 21 17 16 
-0.0445609 0.118183 1.39922 37 32 28 
0.0623061 0.323574 1.24425 89 85 74 
0.035404 0.478005 1.15895 38 33 27 
-0.0668895 0.276571 1.33578 41 41 33 
-0.0753627 0.487705 1.19969 51 48 43 
-0.180763 0.511048 1.32232 69 64 58 
0.0926087 -0.219512 1.50818 66 64 52 
0.120511 -0.320303 1.56312 42 41 39 
0.00981547 0.125764 1.34771 54 46 44 
0.0373202 -0.237527 1.51975 86 82 73 
-0.126276 0.405139 1.29669 67 62 58 
-0.0206702 0.346882 1.25365 45 40 37 
0.0819205 0.337273 1.23575 43 39 30 
0.165565 0.00822109 1.41168 62 57 51 
0.106225 0.357399 1.22838 84 75 66 
0.233214 -0.0799024 1.52063 83 70 61 
0.0227816 0.142935 1.3363 67 58 53 
0.149464 -0.144793 1.48607 70 66 57 
-0.15486 0.125791 1.48274 54 49 43 
-0.1056 0.290657 1.35693 34 30 27 
-0.178842 -0.0262088 1.57627 55 54 50 
0.165104 0.393869 1.22347 79 73 61 
0.16269 -0.330842 1.58364 76 73 66 
0.153084 0.422804 1.20731 73 67 55 
-0.174966 0.102601 1.52 87 82 79 
-0.13616 -0.229607 1.6217 68 64 61 
-0.107811 0.0321826 1.47143 74 60 51 
0.172845 -0.228539 1.53418 88 81 71 
-0.142543 -0.395687 1.6776 29 26 21 
-0.0397397 -0.0315332 1.46109 25 24 22 
0.25517 -0.442484 1.69119 26 25 23 
-0.182087 -0.425322 1.7114 114 107 99 
0.16936 0.326539 1.25705 73 63 53 
0.0113747 0.353534 1.23638 59 56 51 
0.265807 0.202724 1.39412 99 89 79 
0.168911 -0.180511 1.51233 82 76 64 
0.0953191 -0.164832 1.48496 47 39 28 
0.0246119 -0.058738 1.4418 50 45 41 
0.0177316 -0.155911 1.48229 65 56 47 
-0.0769482 0.0766064 1.43111 68 65 56 
-0.00368921 -0.0620942 1.43726 52 48 45 
-0.0327104 -0.650847 1.81054 47 42 36 
0.0971643 -0.251441 1.528 80 76 65 
-0.0892125 -0.425945 1.65379 54 49 45 
-0.0548219 0.307174 1.31368 54 49 46 
0.116734 -0.243621 1.5259 31 27 24 
-0.0669328 -0.181352 1.54872 41 40 36 
0.186202 0.21449 1.31377 93 85 74 
0.188585 0.190101 1.33289 89 80 71 
-0.0779159 -0.130631 1.53531 38 34 31 
-0.0224868 -0.54565 1.70045 49 45 36 
0.189026 0.317851 1.26586 83 75 64 
0.127839 0.267238 1.27039 77 67 55 
-0.0162369 0.0760302 1.40185 44 39 36 
0.060638 -0.206822 1.4983 41 32 25 
0.0852475 0.392913 1.21206 80 75 69 
-0.138608 0.137879 1.46114 83 78 75 
-0.0839333 0.441893 1.24924 73 70 65 
0.175242 0.389145 1.22584 94 90 79 
-0.0902606 -0.295298 1.6142 38 34 33 
-0.09649 0.23284 1.37133 49 45 42 
0.122537 0.250904 1.28157 77 65 53 
-0.0983858 -0.287961 1.61929 51 50 46 
-0.128695 0.434672 1.29269 51 44 38 
-0.0923501 -0.450829 1.64486 101 97 88 
-0.140899 -0.0322066 1.56414 72 31 27 
0.110494 0.206445 1.30809 66 31 27 
-0.144122 -0.343618 1.65046 57 54 49 
0.0559938 -0.135224 1.46888 69 60 51 
-0.0270609 -0.129343 1.49925 31 27 24 
0.0686544 0.343122 1.23344 48 43 37 
0.15651 -0.00812903 1.42158 80 70 61 
-0.120465 -0.28874 1.63447 48 47 45 
-0.0749451 0.236492 1.35642 63 58 55 
-0.0491168 -0.581746 1.7474 77 77 67 
0.116488 0.0935824 1.3584 99 92 82 
0.115524 -0.0259387 1.41779 66 58 47 
0.0795652 0.0141968 1.39031 65 60 54 
-0.137367 -0.0802689 1.56032 54 15 10 
-0.170363 0.431475 1.34207 67 62 58 
-0.21493 0.412151 1.45998 47 43 40 
-0.0727327 0.372622 1.26837 44 44 42 
-0.0293268 0.317549 1.2814 60 55 51 
-0.160496 0.51917 1.27172 46 43 36 
0.211386 -0.24482 1.58948 88 75 66 
0.167135 0.433289 1.19205 70 61 54 
0.0261919 0.348171 1.23705 58 54 45 
-0.050858 0.509007 1.17702 65 56 49 
-0.166303 -0.373916 1.68973 42 38 37 
-0.215693 -0.301988 1.71793 2 1 0 
0.119519 0.167846 1.32297 29 22 12 
-0.0842229 0.508989 1.20094 65 62 57 
0.157894 0.0404425 1.39572 84 76 65 
-0.0937864 0.466437 1.23975 81 76 70 
0.255801 0.325411 1.3008 83 74 65 
-0.111395 0.520121 1.21819 37 32 28 
0.119969 -0.588567 1.76091 59 56 51 
0.160517 0.134153 1.35013 55 51 42 
0.0155401 0.179064 1.33416 42 31 25 
-0.0744232 -0.446133 1.64528 45 40 34 
-0.12469 -0.312309 1.65099 41 40 36 
-0.103213 0.314412 1.34987 44 36 33 
0.15343 0.123886 1.34912 66 59 53 
0.103875 0.213424 1.30272 62 31 26 
-0.150177 0.503115 1.27212 63 56 46 
0.0306897 -0.25095 1.52669 81 78 73 
-0.020681 -0.48616 1.64218 71 66 62 
0.126588 -0.202465 1.50991 46 42 31 
0.111797 0.45919 1.15844 58 55 48 
-0.0754451 0.204173 1.37109 62 55 45 
0.0625709 -0.0830766 1.43969 67 62 56 
0.0856529 0.452791 1.16288 59 56 51 
0.092765 0.20606 1.30439 74 35 28 
0.0432575 0.362088 1.22629 61 54 44 
-0.0779201 0.408878 1.2615 51 46 43 
-0.0886387 0.1008 1.43076 58 48 39 
-0.0218521 0.0538773 1.4159 46 32 31 
-0.0631668 -0.384236 1.61817 69 64 58 
0.218462 0.406711 1.23424 90 81 72 
0.14799 0.134744 1.3534 58 52 40 
0.0948607 0.34223 1.23563 74 70 61 
0.0491392 -0.113039 1.45938 66 61 55 
0.158673 -0.112402 1.47105 79 69 60 
-0.0510497 0.246973 1.33757 66 63 56 
-0.147355 0.0441713 1.51624 18 17 13 
-0.0562638 0.208277 1.35526 72 63 56 
-0.159081 0.295964 1.42141 62 58 49 
0.168111 0.107604 1.37137 90 81 74 
-0.0319632 0.496566 1.16958 47 42 38 
-0.0552546 0.182209 1.37313 70 65 59 
-0.116428 0.470477 1.25808 55 48 42 
0.0883122 0.238156 1.28823 75 35 33 
-0.142112 0.346761 1.37412 79 70 63 
-0.209141 -0.373569 1.73358 53 50 45 
-0.0980177 -0.217763 1.58493 49 45 42 
-0.0583545 0.497302 1.19218 57 47 45 
0.0490763 0.38901 1.21263 59 56 47 
-0.104068 -0.0923646 1.53313 50 45 39 
-0.143516 -0.298602 1.67083 25 21 22 
-0.165286 0.158113 1.48727 95 92 83 
-0.0798944 0.0204158 1.46206 77 72 66 
0.236025 0.049922 1.45412 110 101 92 
-0.0394682 0.493623 1.17616 48 43 39 
-0.0595997 -0.00719552 1.46812 50 46 45 
0.221396 -0.131862 1.53638 18 11 1 
-0.0890409 -0.0290918 1.49036 53 48 44 
-0.134707 0.0313288 1.52875 70 30 30 
0.0305718 0.372691 1.22231 46 41 37 
-0.0942561 0.49878 1.21175 43 38 34 
-0.113965 0.270596 1.37841 34 30 27 
0.104298 0.231025 1.29461 65 34 29 
-0.200844 -0.534172 1.87783 49 46 41 
0.0615402 -0.0594384 1.43432 107 105 92 
-0.158709 0.454959 1.32502 55 51 42 
-0.05099 -0.0219948 1.46155 47 43 42 
-0.0103244 -0.614412 1.77196 67 64 59 
-0.0789617 -0.0422255 1.49089 47 43 40 
-0.06522 -0.13273 1.52488 40 38 39 
-0.129898 -0.130958 1.56958 38 34 33 
0.162746 -0.288485 1.56353 78 75 66 
-0.00678182 0.0041488 1.41169 74 67 57 
0.058237 0.102215 1.35076 52 48 39 
-0.212146 0.389375 1.46284 54 54 46 
-0.187419 -0.394275 1.71865 53 50 43 
-0.151653 0.289678 1.41655 61 56 50 
0.156169 -0.0274816 1.43224 60 51 42 
0.185647 0.106648 1.37217 85 76 67 
0.10433 0.0984216 1.35258 72 63 54 
0.0257547 -0.309573 1.55683 55 52 47 
-0.138698 0.515224 1.24398 58 52 52 
0.171067 0.218494 1.31146 54 44 35 
-0.0553439 -0.377061 1.60632 59 59 51 
-0.0333805 0.158309 1.36668 53 48 42 
-0.0600823 -0.272498 1.58422 57 56 52 
0.146369 0.254894 1.28616 87 74 66 
-0.0544532 -0.53505 1.71246 60 57 52 
0.013598 0.262201 1.27966 51 42 37 
-0.0260647 -0.393332 1.60677 58 57 55 
-0.0491869 -0.00481362 1.46742 24 23 21 
-0.183305 0.237421 1.47827 59 54 50 
-0.00765146 0.0682412 1.38454 49 42 34 
-0.145796 0.330782 1.38911 50 43 35 
0.158897 -0.232197 1.53193 75 71 62 
-0.132655 -0.315162 1.65578 47 43 42 
-0.118041 -0.253953 1.61735 68 67 63 
-0.099268 0.527862 1.20247 65 61 52 
-0.20473 -0.321215 1.71305 49 48 46 
0.124209 0.235543 1.28848 92 79 62 
-0.0954421 0.138359 1.41747 66 62 61 
-0.0770355 -0.353762 1.61514 26 22 19 
-0.112741 -0.128434 1.55181 72 68 65 
0.0425883 0.0571916 1.37646 60 53 45 
0.00508046 0.367433 1.23582 73 66 58 
0.105313 -0.126915 1.48182 76 69 61 
0.0177823 0.364412 1.23028 61 50 48 
0.249174 0.374382 1.26941 49 41 30 
-0.139285 0.456392 1.29467 69 60 53 
0.0541786 0.343416 1.23265 63 56 48 
-0.14917 0.482287 1.29113 96 91 87 
0.0952516 0.225581 1.29087 72 43 37 
0.0478404 -0.0134396 1.40607 62 53 44 
0.178003 -0.0588507 1.45027 71 65 51 
0.0830021 0.0819119 1.36128 21 10 4 
-0.0805237 -0.457833 1.64526 101 97 86 
-0.233607 -0.438696 1.79457 83 78 74 
-0.100887 -0.276298 1.61396 61 56 52 
0.0645849 0.117009 1.34288 69 60 53 
-0.22054 -0.385763 1.75828 62 59 52 
0.0639561 0.459942 1.16068 46 40 40 
-0.0278208 0.327619 1.2665 43 38 34 
0.0808674 -0.00738223 1.4057 72 64 61 
-0.0710107 0.0322659 1.44862 50 46 35 
-0.111976 0.438474 1.28508 92 87 81 
0.0869311 0.0710712 1.36137 93 89 80 
0.0869439 0.376516 1.2173 74 71 64 
-0.0699314 -0.323853 1.61983 22 21 17 
0.0534421 0.148185 1.32629 55 52 43 
-0.12928 0.520099 1.23111 49 44 41 
-0.058272 -0.147475 1.52913 27 23 20 
-0.153925 -0.0192086 1.55603 38 32 34 
-0.0622695 -0.356875 1.61516 26 22 23 
-0.120149 0.484333 1.25137 46 43 38 
0.145706 0.162213 1.32737 82 72 63 
-0.114379 -0.117583 1.55121 74 73 69 
0.0478664 -0.23247 1.51558 66 58 55 
-0.146045 0.27387 1.40969 46 43 38 
0.132794 -0.0280747 1.42397 67 58 49 
0.154409 -0.057869 1.44572 70 64 52 
-0.155574 0.111994 1.4898 54 49 43 
-0.104324 -0.0032533 1.48776 64 56 45 
0.00768486 0.483837 1.16276 63 52 46 
-0.0867804 -0.247949 1.56929 54 53 49 
-0.0370895 0.104391 1.40093 67 62 56 
-0.0142682 0.215164 1.33226 49 46 41 
0.222485 -0.154857 1.54708 75 62 53 
0.0857385 -0.112171 1.45483 37 28 19 
-0.174328 -0.0131288 1.57235 66 59 49 
0.212818 -0.161087 1.54959 75 67 56 
-0.11337 -0.30705 1.64043 36 34 35 
-0.0415275 -0.40171 1.61589 58 55 48 
0.0782954 0.266732 1.27264 55 48 40 
-0.16057 -0.419828 1.6866 55 48 40 
-0.0400985 -0.145494 1.52043 40 36 35 
-0.10556 0.372406 1.28659 116 113 106 
0.0406907 0.0424336 1.39252 103 94 87 
-0.0171221 -0.295606 1.56594 33 28 25 
-0.152546 -0.37169 1.66758 8 5 0 
-0.131817 0.251988 1.39154 5 1 0 
-0.0677468 0.334726 1.28638 101 98 93 
-0.129934 0.427712 1.28413 70 61 54 
-0.0870673 0.422275 1.25239 25 20 14 
-0.083161 -0.0630168 1.50121 70 69 64 
-0.118482 0.198299 1.40398 50 46 37 
-0.113053 0.453213 1.25446 29 25 16 
0.0314429 -0.0939193 1.46213 85 76 67 
-0.170962 0.10478 1.50153 64 59 55 
-0.0948423 0.35893 1.28457 8 0 0 
-0.0713367 0.467705 1.20518 107 102 98 
-0.077147 -0.0919658 1.51138 5 4 0 
0.0559767 -0.0882264 1.45861 48 40 37 
-0.199948 -0.306474 1.68978 3 3 5 
-0.101049 0.46005 1.23621 43 39 30 
-0.103072 0.449979 1.25042 52 48 39 
-0.0261916 -0.275356 1.56236 63 59 48 
-0.15375 0.530162 1.23168 27 18 11 
-0.116175 0.477552 1.23074 52 43 34 
0.0737182 0.301077 1.26283 95 88 80 
-0.117852 0.336428 1.33232 76 73 68 
-0.0861966 0.450622 1.23461 53 49 40 
-0.0769713 0.446851 1.23115 31 26 20 
-0.0643202 0.451244 1.21642 31 26 22 
-0.185194 0.234318 1.46756 24 20 11 
-0.105151 0.481147 1.21675 43 34 25 
-0.0750582 0.170304 1.38435 24 14 5 
-0.117012 0.32046 1.34653 30 27 22 
-0.00974801 -0.284068 1.56047 110 105 99 
-0.167331 0.534263 1.24512 76 67 58 
-0.111971 0.175875 1.40764 117 113 104 
-0.00714711 -0.376925 1.60227 91 87 78 
-0.0733467 -0.0485649 1.48854 70 67 62 
-0.110997 0.298672 1.34947 16 11 5 
-0.107004 0.417867 1.26791 44 40 31 
-0.148271 -0.360874 1.66034 76 73 68 
-0.0666447 0.217246 1.35869 80 76 67 
-0.0537707 -0.243942 1.57304 21 17 16 
-0.195883 0.50927 1.31672 52 48 39 
-0.172538 0.07787 1.51799 57 48 39 
-0.0389297 -0.356327 1.6039 2 2 0 
0.11613 0.449722 1.17979 15 15 7 
-0.143897 0.22907 1.41295 80 77 70 
0.0575766 0.468224 1.16278 22 17 13 
-0.0701195 0.0421269 1.44741 83 79 70 
-0.127725 0.19515 1.41281 67 64 57 
-0.168561 0.2125 1.44954 74 70 59 
-0.162849 0.0259063 1.5256 69 66 57 
-0.0683551 0.349558 1.27335 16 12 9 
-0.115344 0.528458 1.19673 53 44 37 
-0.0824836 -0.228667 1.58023 44 40 37 
-0.192128 0.419188 1.35692 47 42 38 
-0.137259 0.387082 1.30487 83 79 70 
-0.0419416 0.458438 1.19743 51 46 42 
-0.185068 0.00608137 1.56264 77 74 69 
-0.0938601 0.478506 1.21182 37 33 24 
-0.148429 0.309959 1.38264 49 38 36 
0.0636929 -0.181175 1.50673 85 76 69 
-0.157718 0.510932 1.24811 35 30 26 
-0.129905 -0.242819 1.61671 64 61 56 
-0.0841342 -0.0234797 1.48463 76 71 67 
-0.13508 0.410366 1.29435 44 40 31 
-0.094261 -0.0823622 1.52014 32 27 21 
-0.0190435 0.296774 1.30092 82 74 71 
-0.17236 0.244704 1.43808 71 67 58 
-0.0779311 0.45336 1.22294 45 40 36 
-0.146625 0.211512 1.42308 78 74 71 
-0.102182 -0.173311 1.5649 16 13 4 
-0.10881 -0.421851 1.66098 63 63 55 
-0.214045 0.0436275 1.60029 74 70 67 
-0.0930248 0.307221 1.33304 70 61 54 
-0.155221 0.286094 1.40236 50 43 35 
-0.145149 0.548759 1.21729 50 41 34 
-0.147766 0.456002 1.28737 71 68 59 
-0.114473 0.258615 1.37337 67 58 51 
-0.18869 0.0229331 1.56363 67 63 52 
-0.0846544 0.0311171 1.4592 70 66 57 
-0.157936 0.236249 1.42527 77 73 64 
-0.172026 0.47623 1.30663 56 49 41 
0.00651292 0.424571 1.21287 76 72 63 
-0.0879464 0.39735 1.26336 51 47 38 
-0.117421 0.46787 1.24387 54 50 39 
-0.137041 -0.00823433 1.53907 52 14 5 
