ply                 
format ascii 1.0    
element vertex 1280
property float x    
property float y    
property float z    
property uchar red  
property uchar green
property uchar blue 
end_header          
0.182803 -0.00472565 1.42554 97 93 82 
-0.00680474 0.450435 1.18488 29 24 20 
0.0618092 0.388711 1.21181 43 36 30 
-0.0534054 0.104569 1.39895 70 67 60 
0.0404036 0.449247 1.16813 33 29 26 
0.0534759 -0.0347033 1.41841 74 68 56 
-0.132959 -0.389559 1.66106 65 61 58 
0.0134302 0.184558 1.31697 88 78 69 
-0.000686182 -0.326305 1.5642 85 79 67 
0.196543 0.369182 1.24268 67 59 48 
0.238034 -0.1353 1.54386 78 66 52 
0.067079 -0.0143242 1.40509 65 62 55 
-0.00651406 0.0199858 1.40002 91 84 74 
-0.0348728 0.194362 1.3517 78 74 65 
0.119709 0.260647 1.27668 34 25 20 
0.219116 -0.189865 1.56481 59 50 41 
0.0121384 -0.142238 1.47265 71 66 63 
0.0582147 0.127269 1.33979 16 5 1 
0.119391 -0.117215 1.46122 73 63 54 
0.0918149 0.0596986 1.37172 72 68 59 
0.139743 -0.0383882 1.42495 89 79 70 
0.157772 -0.441448 1.63423 77 73 70 
-0.15431 0.371372 1.35165 86 82 73 
-0.0179524 0.0162876 1.42622 42 39 34 
0.137878 0.0304667 1.39664 71 64 54 
-0.0594109 0.515552 1.17621 42 34 31 
-0.112139 -0.361641 1.61186 63 60 51 
-0.0331855 0.0395598 1.42103 53 49 46 
-0.0849221 -0.119775 1.52953 43 39 36 
0.113854 0.369876 1.22011 118 114 102 
0.13944 0.00428468 1.40487 17 7 0 
0.171334 0.238843 1.29647 85 75 63 
0.093753 -0.0245651 1.41152 94 90 79 
0.113517 -0.155369 1.48115 77 72 68 
0.0278988 0.123081 1.3427 70 61 56 
0.161913 -0.0675139 1.44612 108 98 88 
-0.159029 -0.052543 1.57135 22 18 17 
0.0868622 0.0239576 1.38799 37 34 25 
-0.161601 -0.135879 1.60245 64 55 50 
-0.110162 0.249261 1.38094 37 32 28 
0.260684 -0.426347 1.68685 46 45 40 
0.211185 0.026085 1.44486 106 96 86 
0.10168 0.0393552 1.38549 8 4 0 
0.0897023 -0.298824 1.54536 31 28 19 
-0.0241566 0.209798 1.33463 27 22 16 
0.117316 -0.230194 1.51555 45 42 33 
0.076377 0.235604 1.28333 83 70 54 
0.0951913 0.407036 1.20218 57 47 38 
-0.056755 -0.324853 1.60706 27 23 20 
-0.121374 -0.363791 1.64142 52 48 39 
0.198505 -0.377816 1.62084 78 72 60 
0.176909 0.28104 1.27662 89 79 69 
-0.181843 0.395441 1.36924 80 71 66 
0.150896 -0.121686 1.47097 63 59 48 
-0.144606 0.383295 1.32377 59 56 51 
0.0855114 -0.189225 1.49344 42 33 26 
0.0944703 0.0137527 1.39453 72 63 54 
0.107886 0.175087 1.31693 113 104 95 
0.0192646 0.417602 1.20694 72 67 63 
-0.016858 0.441798 1.20555 39 34 30 
0.142042 0.391475 1.21697 78 75 68 
-0.0906973 -0.163623 1.55307 67 64 59 
-0.063008 0.131606 1.39359 48 44 35 
0.0947535 0.397577 1.20808 48 41 31 
0.201337 -0.287317 1.59802 106 104 92 
0.131964 0.300484 1.2572 28 21 13 
-0.0650189 0.381474 1.26237 41 38 33 
-0.0460107 0.27801 1.32083 75 71 62 
-0.139013 0.271094 1.39535 52 49 44 
-0.0411336 0.368464 1.25197 58 54 53 
0.0348403 0.100258 1.35745 7 7 0 
-0.0184616 0.270181 1.30631 68 59 52 
-0.0450205 -0.053262 1.47418 67 66 61 
-0.145593 0.211685 1.43024 62 57 54 
-0.0157081 -0.150866 1.47881 44 37 31 
-0.0542764 -0.0559079 1.48036 61 57 54 
0.0952975 -0.0807751 1.43725 39 30 21 
-0.0667349 -0.0830867 1.49843 33 32 30 
-0.0854553 -0.000435882 1.47133 79 76 69 
0.179371 0.0628855 1.38853 75 62 53 
0.21968 -0.216748 1.57333 91 82 75 
-0.0939226 0.476748 1.22462 58 53 49 
-0.115331 0.283924 1.36951 31 27 24 
-0.0491517 0.335056 1.27452 27 26 22 
-0.152629 -0.127199 1.58575 40 37 32 
0.0985986 -0.132239 1.46655 77 70 60 
0.00384257 -0.286244 1.54582 67 64 59 
0.108008 0.291308 1.25963 57 51 39 
-0.10814 0.18435 1.40091 73 65 62 
-0.1633 0.34801 1.4018 38 31 23 
-0.00392164 0.0853452 1.36634 84 75 66 
-0.0936035 0.311228 1.33508 28 23 19 
-0.110197 0.340914 1.31884 62 59 52 
0.145289 0.0924573 1.36047 61 58 49 
0.162469 0.208708 1.30823 103 99 88 
0.0787248 0.283389 1.25882 97 93 82 
-0.0246185 0.421778 1.2216 72 67 63 
0.160287 0.422502 1.19612 125 115 105 
0.0683576 0.0969809 1.34952 47 38 29 
0.0352026 0.0120177 1.39346 39 36 27 
-0.0268903 -0.00818599 1.43872 70 66 63 
-0.0695284 0.0825874 1.42009 27 24 19 
0.0781193 0.252741 1.27874 86 77 62 
0.225548 0.414302 1.2346 89 79 69 
0.0992463 -0.176689 1.4899 74 67 59 
0.139807 0.436147 1.17541 71 61 51 
-0.151491 0.526422 1.24901 23 18 14 
-0.18538 0.36853 1.42064 43 38 35 
-0.0306036 -0.16083 1.51494 57 53 50 
0.0637049 0.183348 1.31616 82 73 64 
0.0199619 -0.191632 1.49465 68 59 52 
0.0936255 0.286075 1.26067 91 84 78 
-0.0727261 0.0214141 1.45471 74 70 67 
0.160203 0.108865 1.35889 47 43 32 
0.10141 0.279319 1.26322 23 16 6 
0.0319226 0.0238542 1.38671 69 64 60 
0.140786 -0.438313 1.62442 49 46 41 
-0.195067 0.504463 1.35776 49 45 36 
-0.130649 -0.365784 1.65101 48 44 41 
-0.0696364 0.0535901 1.43484 78 73 69 
-0.0702327 -0.238383 1.5745 24 20 19 
0.102683 -0.418364 1.6042 49 45 42 
-0.105919 0.405484 1.2792 25 21 18 
0.0647453 -0.0938072 1.44551 81 74 66 
-0.11537 -0.234464 1.60242 77 74 69 
0.130698 0.353716 1.23303 91 82 75 
0.0778871 -0.303118 1.54831 92 92 84 
-0.130078 0.469957 1.27179 47 39 36 
0.0600269 -0.235533 1.515 49 45 36 
-0.0219199 0.462057 1.18113 71 66 62 
-0.153966 0.139366 1.47088 78 73 70 
0.0808939 0.182094 1.31073 59 49 40 
0.0146507 -0.0359412 1.42397 74 71 66 
-0.0494898 -0.235626 1.56176 49 45 42 
-0.134655 -0.209538 1.59597 28 28 28 
-0.0691633 0.421901 1.24874 64 63 59 
-0.121551 0.222067 1.39792 43 35 33 
-0.0773672 -0.197455 1.55898 69 70 65 
0.26822 0.175714 1.40793 106 98 85 
-0.185904 -0.40899 1.70438 58 55 50 
0.0584633 0.0740822 1.36557 36 32 23 
0.0829569 -0.546827 1.70815 44 41 34 
-0.177892 0.0320816 1.54788 72 68 67 
-0.0805878 -0.0533611 1.49214 67 64 59 
-0.0102721 -0.0630623 1.44238 67 60 52 
0.102998 0.443306 1.16765 77 74 69 
-0.0564854 0.322275 1.30193 23 18 15 
0.0414579 0.408648 1.20545 43 33 31 
-0.162952 0.191599 1.46207 19 14 10 
0.0561845 -0.384353 1.58146 60 49 43 
-0.0711867 0.262063 1.34014 72 63 56 
0.0927683 -0.199885 1.4999 34 31 26 
0.217433 0.0755835 1.42249 106 93 85 
-0.13337 0.499543 1.24273 43 41 29 
0.0947971 0.0890527 1.35623 59 49 47 
-0.10744 0.221506 1.3855 66 59 53 
-0.0217323 0.406759 1.22652 38 31 25 
0.177472 0.316402 1.25798 65 57 44 
0.154787 0.00171432 1.40852 65 56 47 
-0.17674 0.217668 1.47265 83 75 72 
0.154196 -0.309081 1.56608 85 82 73 
-0.165138 -0.189959 1.62734 64 60 57 
-0.0686111 0.350094 1.281 21 20 18 
-0.170892 -0.333828 1.67341 50 46 45 
0.136677 -0.573228 1.74574 45 44 40 
-0.0148999 0.177493 1.34473 37 33 30 
-0.0938861 -0.332841 1.61021 72 69 62 
0.181798 0.239603 1.29858 79 69 57 
0.206248 0.315793 1.26761 77 68 59 
0.158561 0.182095 1.32383 86 79 69 
0.0533012 0.209815 1.29595 93 85 72 
-0.0592499 -0.220178 1.55974 49 48 46 
0.0272663 0.189597 1.31086 69 65 54 
-0.0551153 0.395605 1.24982 72 67 64 
0.0957328 -0.068413 1.43207 74 70 61 
0.0356195 0.458384 1.16165 38 31 25 
-0.0300544 0.183733 1.35168 74 67 59 
-0.0304121 -0.609284 1.76445 73 70 63 
-0.167336 0.417398 1.33991 52 49 44 
-0.0493357 0.155395 1.37553 87 83 74 
-0.0779817 0.181595 1.3793 67 62 58 
0.0735899 0.175556 1.3141 76 71 65 
-0.113916 -0.384666 1.64265 63 58 54 
-0.0788055 0.317189 1.31448 84 79 73 
0.0659761 -0.170725 1.48033 82 78 66 
-0.0379587 0.0921677 1.39778 53 50 45 
0.0182941 0.408022 1.21199 74 71 66 
0.00859226 0.0487551 1.38372 43 34 27 
-0.0778725 0.310422 1.32256 68 63 57 
0.104818 0.267087 1.27131 75 67 54 
0.0736975 0.386001 1.2127 78 73 67 
0.237733 0.347937 1.27206 65 56 47 
0.0531102 -0.160329 1.4792 73 64 57 
0.000348977 0.388815 1.22709 72 69 64 
0.263838 -0.189268 1.58998 73 63 51 
-0.194426 0.416393 1.38311 56 51 48 
0.041115 0.371185 1.22059 47 42 36 
0.220667 0.0556504 1.44009 101 89 77 
0.00556922 0.286412 1.26821 73 66 58 
-0.0533501 0.263886 1.32774 32 24 22 
0.0109434 -0.0921234 1.45327 44 39 35 
-0.0463813 0.219161 1.34384 70 65 59 
0.117441 0.405102 1.20584 67 63 52 
0.0552138 -0.318218 1.5571 90 87 80 
0.140309 -0.285986 1.54798 68 64 55 
-0.0255003 0.0329402 1.42062 70 69 64 
0.00852832 0.310781 1.27033 61 57 46 
0.0516239 0.141254 1.3323 37 33 22 
0.0180327 0.444953 1.18108 41 36 30 
0.0270013 -0.240939 1.51788 32 27 23 
0.221659 0.221269 1.35048 92 82 72 
-0.148806 -0.558115 1.83218 66 63 58 
-0.0499679 -0.13419 1.51367 51 50 46 
-0.111099 0.175592 1.41214 106 99 91 
0.122093 0.295186 1.25739 55 45 35 
0.0471657 -0.335516 1.56066 70 63 57 
0.0049105 -0.567614 1.72727 94 90 79 
-0.103773 0.148993 1.41455 68 64 55 
0.00208833 -0.208659 1.51346 80 75 71 
0.154301 0.295119 1.26431 90 82 71 
0.0952607 0.192852 1.27833 12 5 0 
-0.0769 -0.288408 1.60431 60 57 52 
0.256281 0.229587 1.36869 83 75 62 
-0.059899 0.435714 1.23249 83 80 75 
-0.0387 -0.171167 1.52421 47 46 42 
-0.129759 0.271131 1.38256 64 64 56 
0.0445299 -0.201645 1.49194 68 63 59 
-0.104121 0.497861 1.214 48 41 33 
-0.152111 0.0599837 1.5113 28 23 19 
0.117137 0.143464 1.33214 54 41 35 
0.0332537 0.433208 1.1884 44 36 33 
0.230553 -0.210144 1.5818 75 71 59 
0.137041 0.134241 1.34132 79 71 58 
-0.0400405 0.431985 1.22357 40 36 33 
0.186602 -0.084131 1.47061 87 80 74 
-0.0148847 0.475669 1.17113 36 27 22 
0.0980123 0.329355 1.23889 74 70 61 
0.130018 -0.214672 1.5102 83 72 68 
0.152945 -0.202516 1.51467 70 61 54 
-0.0935412 0.393034 1.27546 60 56 53 
0.221389 -0.0941589 1.514 90 80 68 
0.0538493 -0.190672 1.4923 73 69 58 
-0.0264737 0.10349 1.38997 42 38 35 
0.166134 -0.0252954 1.42854 63 53 43 
-0.0511883 0.317034 1.29308 56 48 45 
0.124721 0.313395 1.25104 66 59 51 
-0.0870713 -0.438271 1.63651 51 48 41 
0.163712 -0.167303 1.50026 62 55 49 
0.235404 0.371118 1.26345 83 77 65 
-0.104728 0.0237468 1.48809 79 69 57 
-0.110414 0.209151 1.39851 68 63 59 
-0.0176116 -0.166279 1.49466 27 22 19 
0.0734764 0.122928 1.34021 66 59 51 
0.0908007 0.032761 1.38137 69 58 52 
-0.125357 0.104467 1.479 88 40 36 
0.193886 0.309138 1.26797 114 104 92 
0.152233 0.389745 1.21797 68 64 52 
0.0843895 -0.00018253 1.39675 65 56 51 
-0.0862434 -0.150604 1.54244 74 67 57 
-0.158279 0.440664 1.32385 45 41 32 
0.0224329 0.168578 1.32215 77 68 59 
-0.0653016 0.394684 1.25492 41 40 36 
0.130255 -0.176754 1.49101 64 58 46 
-0.172808 0.243 1.45587 67 62 56 
-0.00705662 -0.0440487 1.42747 70 65 59 
0.0752429 0.222461 1.29151 105 93 71 
0.072052 0.0459666 1.37759 81 72 65 
-0.0232989 0.126562 1.37892 60 52 49 
0.208912 -0.322115 1.62552 57 54 49 
-0.143487 0.467405 1.29658 47 42 38 
-0.124231 -0.342014 1.63327 63 58 54 
-0.121042 -0.454048 1.6734 105 101 90 
0.0315082 -0.413665 1.59395 55 54 50 
0.0103477 0.136226 1.34204 76 66 57 
0.221932 0.264098 1.32605 92 84 71 
-0.0929063 0.147117 1.41887 60 55 52 
-0.0393656 -0.128851 1.50437 32 27 24 
-0.135815 0.388063 1.31547 75 68 62 
0.260859 0.211778 1.37917 130 118 104 
0.0430128 0.199767 1.30966 49 41 30 
-0.125956 0.377264 1.30924 43 38 34 
0.268508 0.164579 1.41475 97 89 78 
-0.130276 -0.146216 1.57234 46 42 39 
0.117989 0.0266416 1.391 81 74 64 
-0.0570152 0.048318 1.43121 83 76 70 
-0.112935 -0.146639 1.55908 30 26 23 
0.127657 -0.29537 1.55097 67 62 56 
0.0427774 0.312168 1.24962 39 29 19 
-0.0550212 0.364385 1.26261 24 23 19 
-0.048236 -0.59252 1.75111 56 52 43 
0.156131 0.198624 1.31254 77 65 51 
-0.0755076 0.447731 1.23773 62 53 46 
0.128354 0.397248 1.21099 60 51 44 
-0.152196 0.00558752 1.54158 17 16 14 
0.113591 -0.081664 1.44101 62 62 52 
-0.207838 -0.0991866 1.65285 45 42 35 
-0.00429899 -0.195429 1.50403 41 36 32 
-0.0605654 0.140992 1.38908 76 68 65 
0.137882 -0.259568 1.53905 72 67 64 
0.0231537 0.338248 1.24028 41 37 26 
-0.182595 -0.0488077 1.58883 62 57 54 
-0.00314192 0.294445 1.28355 60 52 49 
0.00406753 -0.164052 1.48551 67 57 48 
0.141085 -0.376521 1.59515 35 29 15 
0.120373 0.346801 1.23211 62 58 47 
0.0356825 -0.0228931 1.4138 65 61 52 
-0.0889621 0.376603 1.27658 69 65 54 
-0.117886 -0.221645 1.5996 46 42 41 
-0.111825 -0.341015 1.62486 2 1 0 
0.115171 0.230845 1.294 96 67 51 
0.00913876 -0.195088 1.49928 52 47 41 
-0.143377 0.499386 1.25813 52 51 47 
0.121338 -0.379163 1.58842 55 52 43 
-0.0289899 0.338433 1.25603 41 31 29 
-0.112439 -0.370047 1.63313 82 79 70 
-0.0584875 -0.471357 1.65593 102 96 84 
-0.0414913 0.175059 1.36067 60 53 45 
-0.064843 -0.207401 1.55431 24 20 19 
0.0629778 -0.144224 1.47268 95 92 83 
-0.192201 -0.590513 1.90915 65 62 57 
-0.161184 -0.120296 1.59669 55 50 46 
-0.0961707 0.445251 1.25554 49 41 38 
-0.0605355 0.416608 1.24677 42 32 31 
-0.255709 -0.383013 1.80058 54 50 41 
0.0548176 0.0583425 1.37361 71 64 58 
-0.151892 -0.386303 1.67743 54 49 45 
-0.0481789 -0.208662 1.54519 21 17 16 
-0.0449164 0.117644 1.39657 42 39 30 
0.0617049 0.322369 1.24097 92 88 77 
0.0348862 0.476074 1.15477 36 31 25 
-0.0670118 0.275727 1.33477 49 44 40 
-0.0754877 0.486361 1.19738 51 48 43 
-0.180598 0.509146 1.31881 69 64 58 
0.0919978 -0.218967 1.50418 66 64 52 
0.119613 -0.31908 1.55793 71 71 63 
0.00975158 0.125538 1.34851 59 51 48 
0.0368941 -0.236902 1.5156 86 82 73 
-0.126266 0.403716 1.29365 67 62 58 
-0.0209884 0.345738 1.25121 45 40 37 
0.08148 0.336286 1.23348 47 38 29 
0.164861 0.00794379 1.40875 62 57 51 
0.106052 0.356427 1.22666 95 89 77 
0.232129 -0.0798493 1.51686 83 70 61 
0.0220189 0.142197 1.33314 67 58 53 
0.148695 -0.144544 1.4824 70 66 57 
-0.154663 0.125055 1.47849 54 49 43 
-0.105708 0.289971 1.35653 40 36 33 
-0.178492 -0.0263617 1.5713 55 54 50 
0.164988 0.393017 1.2222 79 73 61 
0.16176 -0.328952 1.57699 64 62 50 
0.152702 0.4219 1.20591 73 67 55 
-0.174676 0.101933 1.51543 87 82 79 
-0.135891 -0.229189 1.61804 54 53 51 
-0.107767 0.0317988 1.46744 74 60 51 
0.171923 -0.22792 1.53004 88 81 71 
-0.142337 -0.393764 1.6699 38 35 30 
-0.039905 -0.0316936 1.45737 25 24 22 
0.253592 -0.440551 1.68524 26 25 23 
-0.181603 -0.423535 1.70523 114 107 99 
0.169001 0.325687 1.25545 73 63 53 
0.0113067 0.352874 1.23536 61 62 54 
0.264903 0.201975 1.39172 99 89 79 
0.16804 -0.180104 1.50843 82 76 64 
0.094725 -0.164517 1.48122 47 39 28 
0.0242626 -0.0588136 1.43835 50 45 41 
0.0173905 -0.155631 1.47847 65 56 47 
-0.0770106 0.0760833 1.42753 68 65 56 
-0.0033918 -0.0625167 1.43978 58 55 50 
-0.0329465 -0.647505 1.8031 47 42 36 
0.0965161 -0.250745 1.52381 80 76 65 
-0.0891627 -0.42428 1.64823 54 49 45 
-0.0551335 0.306006 1.31068 54 49 46 
0.11602 -0.242958 1.52176 31 27 24 
-0.0670344 -0.180905 1.54418 41 40 36 
0.185615 0.213762 1.31171 93 85 74 
0.187948 0.189474 1.33067 89 80 71 
-0.077949 -0.130392 1.53089 38 34 31 
-0.0227407 -0.543255 1.69433 49 45 36 
0.18852 0.317007 1.26418 83 75 64 
0.127398 0.266459 1.26844 77 67 55 
-0.0164688 0.0755286 1.39863 44 39 36 
0.0601474 -0.206341 1.49438 41 32 25 
0.0847453 0.391536 1.20907 79 77 65 
-0.138477 0.137117 1.45711 83 78 75 
-0.084036 0.440525 1.24664 73 70 65 
0.174817 0.388266 1.22439 94 90 79 
-0.090223 -0.294296 1.60907 38 34 33 
-0.0965221 0.231854 1.36805 49 45 42 
0.122086 0.250107 1.27954 77 65 53 
-0.0983212 -0.28686 1.614 51 50 46 
-0.128639 0.433476 1.2905 58 53 49 
-0.0922828 -0.449073 1.63937 101 97 88 
-0.140706 -0.0323361 1.55935 72 31 27 
0.110034 0.205704 1.30585 66 31 27 
-0.143515 -0.342597 1.64571 57 54 49 
0.0555364 -0.135027 1.46522 69 60 51 
-0.027601 -0.128779 1.49456 31 27 24 
0.0684538 0.342326 1.23218 49 42 32 
0.155814 -0.00835807 1.41855 80 70 61 
-0.120301 -0.287727 1.6291 48 47 45 
-0.0750372 0.235523 1.3533 63 58 55 
-0.0486916 -0.579468 1.74183 77 77 67 
0.115964 0.0930733 1.35579 99 92 82 
0.115062 -0.0260462 1.41594 54 46 33 
0.0790169 0.0140197 1.38721 65 60 54 
-0.13718 -0.0802079 1.55558 54 15 10 
-0.170213 0.42982 1.33855 67 62 58 
-0.214551 0.41027 1.45543 47 43 40 
-0.0728169 0.37191 1.26762 46 42 39 
-0.0296757 0.316455 1.2787 60 55 51 
-0.160416 0.517405 1.26861 46 43 36 
0.209453 -0.243357 1.58177 100 86 77 
0.16677 0.432429 1.19078 70 61 54 
0.0259836 0.347285 1.23537 54 50 39 
-0.0511717 0.506133 1.17097 65 56 49 
-0.165909 -0.372419 1.68379 42 38 37 
-0.215061 -0.30077 1.71162 2 1 0 
0.119 0.167207 1.32164 36 32 20 
-0.0843348 0.507578 1.19858 65 62 57 
0.157231 0.0400735 1.39291 84 76 65 
-0.0938718 0.465014 1.23716 81 76 70 
0.25517 0.324551 1.29915 83 74 65 
-0.111452 0.518587 1.21561 37 32 28 
0.118942 -0.585663 1.75399 59 56 51 
0.159922 0.133585 1.34772 55 51 42 
0.014794 0.178413 1.33089 42 31 25 
-0.0743101 -0.443938 1.6374 48 44 33 
-0.124691 -0.310864 1.64492 41 40 36 
-0.103241 0.313199 1.34666 44 36 33 
0.152892 0.123387 1.34669 66 59 53 
0.10351 0.212958 1.30151 66 35 30 
-0.150124 0.501417 1.26907 63 56 46 
0.0301312 -0.250299 1.52304 82 78 67 
-0.021102 -0.483022 1.63247 80 75 71 
0.125974 -0.201928 1.50604 46 42 31 
0.111499 0.458308 1.15713 58 55 48 
-0.0755307 0.203287 1.36789 62 55 45 
0.0621159 -0.0830747 1.43632 67 62 56 
0.0853616 0.451864 1.16144 59 56 51 
0.0927148 0.20584 1.3043 75 38 30 
0.042958 0.361103 1.22433 61 54 44 
-0.0780302 0.40758 1.25888 51 46 43 
-0.0886692 0.100195 1.42714 58 48 39 
-0.02207 0.0534394 1.41256 46 32 31 
-0.0630764 -0.383007 1.61331 69 64 58 
0.218003 0.405843 1.23293 90 81 72 
0.146532 0.13396 1.3464 62 56 42 
0.0942136 0.340889 1.23216 83 79 70 
0.0484821 -0.112902 1.45588 63 59 50 
0.157898 -0.112136 1.46744 75 66 59 
-0.0512026 0.24601 1.33464 66 63 56 
-0.147163 0.0437358 1.51178 18 17 13 
-0.0565476 0.207378 1.35202 72 63 56 
-0.158917 0.294663 1.41751 62 58 49 
0.167465 0.107068 1.36882 90 81 74 
-0.0321525 0.495361 1.16762 47 42 38 
-0.0553915 0.181395 1.36998 70 65 59 
-0.116412 0.468973 1.25537 55 48 42 
0.0879144 0.237371 1.28605 75 35 33 
-0.142027 0.345368 1.37058 79 70 63 
-0.208522 -0.371978 1.72714 53 50 45 
-0.0979603 -0.21713 1.58007 49 45 42 
-0.0585097 0.495988 1.18999 57 47 45 
0.0487769 0.388012 1.21078 59 56 47 
-0.10401 -0.0922747 1.52871 50 45 39 
-0.142993 -0.297611 1.66563 25 21 22 
-0.165054 0.157249 1.48293 95 92 83 
-0.0799397 0.0200765 1.45824 77 72 66 
0.235077 0.0495341 1.45105 110 101 92 
-0.0396489 0.49239 1.17413 48 43 39 
-0.0596215 -0.00747579 1.46446 50 46 45 
0.219388 -0.131394 1.52909 11 3 0 
-0.0890481 -0.0292543 1.48632 53 48 44 
-0.134556 0.0309444 1.52426 70 30 30 
0.0302906 0.371681 1.22034 46 41 37 
-0.0943467 0.497346 1.20929 43 38 34 
-0.113953 0.26947 1.37499 34 30 27 
0.103794 0.23016 1.29218 74 36 33 
-0.20016 -0.531349 1.86971 49 46 41 
0.0610867 -0.0595127 1.43097 107 105 92 
-0.158605 0.453277 1.32165 55 51 42 
-0.0508561 -0.0224139 1.46334 35 34 30 
-0.0106674 -0.611401 1.76497 67 64 59 
-0.0790009 -0.0423408 1.48687 47 43 40 
-0.0652963 -0.132494 1.5206 40 38 39 
-0.129731 -0.130689 1.56479 38 34 33 
0.161863 -0.287504 1.55905 78 75 66 
-0.00724748 0.00389951 1.40812 74 67 57 
0.057918 0.101724 1.34811 52 48 39 
-0.211775 0.387592 1.45832 54 54 46 
-0.18691 -0.392617 1.71239 53 50 43 
-0.151515 0.28841 1.41271 61 56 50 
0.155458 -0.0276501 1.42911 60 51 42 
0.184162 0.10616 1.369 85 76 67 
0.103693 0.0979668 1.34982 72 63 54 
0.0253504 -0.308602 1.55229 55 52 47 
-0.138685 0.513584 1.24114 58 52 52 
0.170506 0.217753 1.30938 54 44 35 
-0.0554385 -0.375721 1.60125 59 59 51 
-0.0335687 0.157579 1.36365 53 48 42 
-0.0601145 -0.271767 1.57955 57 56 52 
0.145794 0.253945 1.2839 86 78 65 
-0.0545595 -0.532679 1.70621 60 57 52 
0.0130478 0.261238 1.27701 51 42 37 
-0.0259539 -0.392264 1.60234 58 57 55 
-0.0493301 -0.00506262 1.4636 24 23 21 
-0.183021 0.236253 1.47389 59 54 50 
-0.00789788 0.0677678 1.38146 49 42 34 
-0.145693 0.329418 1.38547 50 43 35 
0.158596 -0.231889 1.53015 86 77 68 
-0.132052 -0.31443 1.6512 47 43 42 
-0.117894 -0.253122 1.61217 68 67 63 
-0.0993532 0.526376 1.20003 65 61 52 
-0.204152 -0.319918 1.70682 49 48 46 
0.123749 0.23477 1.28642 92 79 62 
-0.0954584 0.137636 1.41391 66 62 61 
-0.07696 -0.352563 1.61014 26 22 19 
-0.112643 -0.128192 1.54722 72 68 65 
0.0422204 0.0567599 1.37355 60 53 45 
0.00505622 0.366301 1.23397 73 66 58 
0.104686 -0.126732 1.47813 76 69 61 
0.0175198 0.363389 1.22821 61 50 48 
0.248626 0.37351 1.26798 49 41 30 
-0.139248 0.454802 1.29156 69 60 53 
0.0541344 0.342869 1.23201 56 51 45 
-0.14911 0.480609 1.28798 96 91 87 
0.0959198 0.225425 1.29354 76 45 40 
0.0474464 -0.0136669 1.40294 62 53 44 
0.177206 -0.0589132 1.44701 71 65 51 
0.0825508 0.081425 1.35858 21 10 4 
-0.0805074 -0.456041 1.63977 101 97 86 
-0.232816 -0.436642 1.78746 83 78 74 
-0.100809 -0.275375 1.60882 61 56 52 
0.0643985 0.116588 1.3413 73 63 53 
-0.219849 -0.384066 1.75159 62 59 52 
0.0636721 0.459076 1.15908 54 49 45 
-0.0280293 0.326531 1.26407 43 38 34 
0.0799019 -0.0074261 1.40204 72 64 61 
-0.0713419 0.0320561 1.44451 58 54 43 
-0.11201 0.436995 1.28215 92 87 81 
0.0864725 0.0706135 1.35868 93 89 80 
0.0866966 0.375668 1.21599 83 83 73 
-0.0699759 -0.322711 1.61463 22 21 17 
0.053077 0.147539 1.32376 55 52 43 
-0.129294 0.518498 1.22838 49 44 41 
-0.0583724 -0.147179 1.52481 27 23 20 
-0.153723 -0.0195261 1.55694 45 41 38 
-0.0623402 -0.355602 1.61002 26 22 23 
-0.120175 0.482793 1.24858 46 43 38 
0.145163 0.161566 1.32509 82 72 63 
-0.114277 -0.117384 1.54663 74 73 69 
0.047427 -0.231837 1.51148 66 58 55 
-0.145925 0.27267 1.40592 46 43 38 
0.131947 -0.0281061 1.42059 67 58 49 
0.153368 -0.0577309 1.4413 62 54 43 
-0.15537 0.111308 1.48552 54 49 43 
-0.104385 -0.00348344 1.4835 64 56 45 
0.00789349 0.483366 1.16213 63 52 46 
-0.0867617 -0.247219 1.5646 54 53 49 
-0.0374389 0.103755 1.39743 67 62 56 
-0.0145013 0.214314 1.3295 49 46 41 
0.221379 -0.154506 1.54298 75 62 53 
0.0849013 -0.111952 1.45098 37 28 19 
-0.174 -0.0133361 1.5674 66 59 49 
0.211738 -0.160708 1.54544 75 67 56 
-0.113232 -0.305948 1.63502 36 34 35 
-0.0414254 -0.400482 1.61122 58 55 48 
0.0782988 0.266199 1.27139 56 52 40 
-0.160195 -0.418123 1.68069 55 48 40 
-0.0405322 -0.144968 1.51569 40 36 35 
-0.105242 0.371849 1.28657 116 113 106 
0.0400455 0.0418364 1.38867 103 94 87 
-0.017554 -0.294711 1.56067 33 28 25 
-0.152063 -0.370273 1.66275 8 5 0 
-0.131501 0.25128 1.39053 5 1 0 
-0.0672377 0.334251 1.28642 66 63 58 
-0.129558 0.427274 1.28447 70 61 54 
-0.0867579 0.4218 1.25245 25 20 14 
-0.0832309 -0.0632954 1.49784 86 83 78 
-0.118215 0.197604 1.40264 50 46 37 
-0.11215 0.453025 1.25559 21 16 12 
0.0307407 -0.0940002 1.45749 85 76 67 
-0.170521 0.104306 1.49937 64 59 55 
-0.0945523 0.358339 1.28443 8 0 0 
-0.0706149 0.467595 1.20591 95 90 86 
-0.0771233 -0.0920254 1.50792 5 4 0 
0.0550578 -0.0882942 1.45352 48 40 37 
-0.199196 -0.305163 1.68494 3 3 5 
-0.100688 0.459737 1.23666 43 39 30 
-0.102721 0.449597 1.25074 52 48 39 
-0.0265522 -0.274573 1.55728 63 59 48 
-0.152274 0.530733 1.23428 31 21 19 
-0.115072 0.477668 1.23236 53 48 42 
0.0716442 0.299639 1.25804 81 76 72 
-0.117541 0.335763 1.33189 76 73 68 
-0.0858669 0.450241 1.23485 53 49 40 
-0.0764593 0.446546 1.23156 39 34 28 
-0.0637294 0.450912 1.21686 23 18 14 
-0.184729 0.233633 1.46598 24 20 11 
-0.104131 0.48129 1.2182 34 30 19 
-0.074948 0.169576 1.38265 24 14 5 
-0.116713 0.319759 1.3459 30 27 22 
-0.0102375 -0.283216 1.55513 110 105 99 
-0.165888 0.53484 1.24773 82 73 64 
-0.111728 0.175193 1.40617 117 113 104 
-0.00757982 -0.375137 1.59622 75 70 66 
-0.0733318 -0.0487924 1.48537 70 67 62 
-0.110717 0.297959 1.34874 16 11 5 
-0.106663 0.417405 1.26811 44 40 31 
-0.147148 -0.360128 1.65694 71 67 64 
-0.0665439 0.21647 1.35718 80 76 67 
-0.054393 -0.242783 1.56719 19 15 16 
-0.195442 0.508929 1.31741 52 48 39 
-0.172086 0.0774698 1.51557 57 48 39 
-0.0392144 -0.355068 1.5984 2 2 0 
0.115355 0.448507 1.17683 15 15 7 
-0.143553 0.22838 1.41179 80 77 70 
0.0573411 0.467302 1.1612 19 14 8 
-0.0700947 0.0416272 1.44475 83 79 70 
-0.127427 0.194469 1.41148 67 64 57 
-0.167437 0.211678 1.44944 79 76 67 
-0.162424 0.0256196 1.52302 69 66 57 
-0.0681356 0.348908 1.27291 16 12 9 
-0.114913 0.528519 1.19779 53 44 37 
-0.0824597 -0.228064 1.57574 44 40 37 
-0.191684 0.41864 1.35708 47 42 38 
-0.136295 0.386668 1.30597 75 71 60 
-0.0415593 0.458056 1.19748 43 38 35 
-0.184539 0.0059353 1.55964 77 74 69 
-0.093486 0.478302 1.21242 37 33 24 
-0.147811 0.309143 1.38242 50 40 38 
0.0626013 -0.180721 1.50073 85 76 69 
-0.157287 0.51086 1.24924 35 30 26 
-0.129595 -0.242058 1.61229 64 61 56 
-0.0840587 -0.0237744 1.48167 76 71 67 
-0.134704 0.409896 1.29465 44 40 31 
-0.0941487 -0.0824253 1.51679 32 27 21 
-0.0190921 0.295902 1.29928 82 74 71 
-0.171937 0.244019 1.43686 71 67 58 
-0.0773186 0.453107 1.22351 49 46 41 
-0.146131 0.210699 1.42213 72 69 64 
-0.102034 -0.172975 1.56097 16 13 4 
-0.108597 -0.420209 1.65568 63 63 55 
-0.213377 0.0434821 1.59669 74 70 67 
-0.09279 0.306492 1.33224 70 61 54 
-0.154842 0.285386 1.40146 50 43 35 
-0.144707 0.54887 1.21856 50 41 34 
-0.147365 0.455628 1.28789 71 68 59 
-0.114199 0.257891 1.37237 67 58 51 
-0.188145 0.022749 1.56061 67 63 52 
-0.0845609 0.0306611 1.45661 70 66 57 
-0.157552 0.235565 1.4241 77 73 64 
-0.1716 0.475856 1.3072 56 49 41 
0.00529403 0.423383 1.21019 65 61 58 
-0.0878179 0.396779 1.26311 48 43 39 
-0.117035 0.4676 1.24449 54 50 39 
-0.136725 -0.00842099 1.53586 52 14 5 
-0.0537577 0.382358 1.25279 34 29 25 
-0.160473 0.409099 1.32184 74 70 61 
-0.100879 0.382412 1.28186 54 49 43 
-0.0553664 0.512557 1.17062 56 47 40 
-0.151068 0.434737 1.30037 69 65 56 
-0.0764858 0.275272 1.33718 35 30 27 
-0.0561504 0.460249 1.20216 55 50 46 
-0.150033 0.183223 1.43847 45 40 34 
-0.119917 0.409184 1.28218 72 68 59 
-0.134282 0.50672 1.22427 40 35 31 
-0.0709148 0.178363 1.37716 51 47 38 
-0.0083757 -0.755461 1.88003 83 79 67 
-0.0851755 0.470499 1.20972 68 64 55 
-0.112622 -0.410749 1.65348 34 27 21 
-0.0819494 -0.241082 1.58095 38 34 33 
-0.108597 0.275855 1.35977 45 41 38 
-0.211446 0.404866 1.42375 58 55 46 
-0.0822185 0.0623624 1.43839 59 50 45 
-0.0648338 0.371732 1.26366 25 26 20 
-0.174568 -0.0128063 1.55691 70 61 52 
-0.099589 0.510122 1.19758 49 40 33 
-0.0427637 -0.0718465 1.48072 41 37 38 
-0.11677 -0.431865 1.65254 52 52 42 
-0.131122 0.222007 1.40374 70 66 57 
-0.113763 0.207168 1.39501 103 99 90 
-0.0451505 0.195147 1.35602 84 81 76 
-0.0987217 0.105731 1.43021 65 59 47 
-0.131104 -0.4235 1.66861 5 5 5 
-0.139361 0.496889 1.23779 64 60 51 
-0.184742 0.0661747 1.5355 82 78 69 
-0.150929 0.495774 1.25514 78 69 62 
-0.0655259 0.399886 1.25002 52 47 43 
0.108516 0.20333 1.31789 72 42 34 
-0.165769 0.427944 1.32275 70 66 57 
-0.221093 0.604596 1.23115 44 39 33 
-0.108197 0.429274 1.26394 43 34 27 
-0.100713 0.260092 1.36152 55 46 39 
-0.11045 0.404881 1.27549 62 58 49 
-0.0215432 0.0938323 1.39811 29 25 24 
-0.255714 -0.375439 1.7697 55 52 43 
-0.0121873 0.184844 1.34166 63 55 52 
-0.165234 0.458669 1.30848 76 72 63 
0.00552106 -0.460685 1.62652 38 34 31 
-0.122731 0.133596 1.43667 65 58 50 
-0.0581926 -0.0387591 1.4741 75 71 68 
-0.200477 -0.0424256 1.60417 56 52 49 
0.0852952 -0.1946 1.50708 33 24 15 
-0.0918559 0.441218 1.2469 59 56 47 
-0.0614265 0.238638 1.34364 58 49 42 
-0.00996723 0.28769 1.30038 47 42 36 
-0.128921 -0.2053 1.59288 33 32 30 
-0.098969 -0.412419 1.64784 43 40 33 
-0.117357 -0.00324334 1.49996 73 36 30 
-0.0512881 0.249379 1.32944 68 59 52 
-0.148206 0.422463 1.30316 76 67 58 
-0.241859 0.265764 1.65228 194 192 193 
-0.246751 0.275516 1.63266 38 37 32 
-0.188788 -0.812297 2.08225 207 211 212 
0.279437 0.421663 1.25639 16 8 0 
0.129767 0.198975 1.3095 148 139 124 
0.107375 -0.434025 1.59991 3 2 0 
0.23828 0.223156 1.35269 130 120 110 
0.143594 0.226022 1.29845 140 128 112 
-0.0543688 0.374972 1.25811 101 98 93 
0.207619 -0.427123 1.6356 2 0 1 
0.23763 -0.309426 1.62351 1 0 2 
0.212645 -0.0281545 1.47219 147 139 128 
0.158064 0.283928 1.26929 126 115 109 
0.167712 -0.339927 1.57503 25 22 17 
0.29564 -0.297051 1.66871 4 3 0 
-0.0300045 -0.262396 1.55494 108 107 102 
0.241953 0.326004 1.28326 120 118 106 
0.307762 -0.123989 1.6074 19 12 4 
0.134253 0.169863 1.32226 144 133 115 
0.144447 0.07106 1.37588 118 112 100 
0.301875 -0.334797 1.66876 79 73 59 
0.23087 0.329273 1.26815 117 111 99 
0.178572 0.443781 1.16805 14 7 0 
0.274082 0.348994 1.28543 117 113 104 
-0.0922169 -0.0610363 1.51031 95 92 85 
0.273439 0.243852 1.36767 27 17 7 
0.244164 -0.341017 1.62338 74 67 57 
0.0678959 0.190858 1.31 148 140 117 
0.196728 -0.350901 1.6064 2 1 0 
0.166703 -0.216874 1.51596 119 114 108 
0.242623 0.266547 1.33369 39 29 20 
-0.15241 0.209835 1.44603 96 89 83 
-0.212946 0.385011 1.47898 83 78 72 
0.16548 0.0641106 1.38426 104 91 82 
-0.299331 -0.338103 1.92629 55 56 50 
0.241086 -0.00388241 1.48028 126 114 102 
0.298518 0.335795 1.32307 33 25 14 
-0.202129 -0.340746 1.71214 70 69 65 
-0.0197227 -0.103403 1.4762 70 66 57 
0.276496 0.394463 1.27194 38 28 16 
-0.0300091 -0.294973 1.56378 106 103 98 
0.279641 0.362501 1.28764 34 24 14 
0.216629 0.165101 1.37522 130 123 113 
0.262911 0.231442 1.36489 45 32 23 
0.240797 0.203519 1.36696 122 112 102 
0.235897 0.183754 1.37646 83 74 59 
0.272624 0.279245 1.34636 117 109 98 
0.22613 0.203286 1.35641 51 47 36 
0.308401 0.233458 1.40831 126 118 105 
0.144688 0.122658 1.34901 18 8 0 
0.297588 0.238196 1.39318 101 94 84 
0.191613 0.430284 1.19267 99 95 84 
0.184635 0.0859075 1.37783 33 21 9 
0.288154 0.225669 1.39017 131 118 109 
0.280725 0.259408 1.36876 120 112 99 
-0.251582 -0.0171238 1.76174 54 53 51 
0.240312 0.0184762 1.46887 16 6 0 
0.25833 0.180144 1.39319 132 122 113 
0.229018 -0.348404 1.62148 0 2 1 
0.000559743 0.301544 1.27362 11 5 5 
0.0632011 -0.482724 1.62282 134 128 102 
0.180461 -0.23855 1.54141 8 3 0 
-0.191703 -0.62468 1.92504 116 108 106 
-0.0860824 0.318542 1.33219 18 14 11 
0.168131 -0.149425 1.4896 104 94 82 
-0.0821886 -0.0144878 1.48311 10 5 1 
-0.232573 -0.244179 1.75641 2 2 2 
0.184535 -0.358258 1.59277 0 0 0 
0.261923 0.272157 1.3429 62 52 43 
0.169753 -0.295295 1.55852 26 23 18 
0.276748 0.33672 1.30182 43 38 32 
-0.197928 -0.267497 1.70286 9 8 6 
0.0518798 -0.290754 1.53906 105 102 97 
0.152509 0.426267 1.18017 118 110 97 
0.130328 0.426534 1.17825 130 122 109 
0.166732 0.0470835 1.39485 118 110 99 
0.208312 -0.349326 1.60507 3 3 3 
0.226074 -0.236794 1.58215 109 101 88 
0.315928 0.174143 1.45349 120 112 99 
0.0108947 -0.557991 1.70856 38 33 30 
0.149405 0.212869 1.30475 81 78 69 
0.117094 0.196756 1.308 11 2 0 
0.273371 0.196013 1.39455 115 105 93 
-0.0241386 -0.220395 1.53194 75 75 65 
-0.11845 0.354834 1.32073 27 23 20 
0.161232 0.413209 1.20193 38 32 20 
0.0802226 0.0490379 1.37739 32 23 18 
0.197416 -0.409156 1.62051 97 89 86 
0.135134 0.183316 1.31673 49 39 27 
0.222452 0.307308 1.28818 111 102 93 
-0.0597577 0.0791476 1.42623 110 105 99 
-0.121238 0.178959 1.42798 83 78 72 
0.185884 0.0186886 1.40728 9 4 0 
0.267641 0.183024 1.4009 126 116 106 
0.212072 -0.0722658 1.49292 117 108 99 
0.297612 0.167418 1.43318 117 108 99 
0.125989 0.152379 1.33083 98 89 80 
0.139791 -0.271439 1.536 46 38 35 
0.167175 -0.265289 1.53371 96 92 83 
-0.186916 -0.11758 1.633 7 3 0 
0.145551 0.237054 1.29209 119 115 103 
0.130135 0.438307 1.1651 96 92 83 
0.295118 0.138122 1.44998 31 23 12 
0.248119 -0.0103279 1.4924 123 114 105 
0.14648 0.265852 1.27258 134 125 118 
0.297054 0.295631 1.36781 49 39 27 
0.274015 0.0868016 1.46002 104 92 80 
0.0953878 0.428611 1.17168 39 34 30 
0.106064 -0.206222 1.49441 87 84 77 
0.067977 -0.338566 1.56135 99 94 90 
0.237221 -0.288485 1.61512 104 99 95 
0.218973 0.323766 1.26758 57 48 39 
0.176879 -0.425778 1.61996 92 90 78 
0.316911 0.446159 1.27256 138 128 118 
0.178728 0.0464734 1.39834 110 97 89 
0.0883278 -0.356637 1.56748 84 79 76 
0.279295 0.455203 1.2172 94 90 81 
0.0466968 -0.322633 1.55417 98 97 93 
0.253468 0.0579652 1.4538 44 35 26 
0.188044 -0.36067 1.60583 5 4 2 
0.291324 0.197339 1.41245 66 58 45 
-0.0196066 -0.129578 1.48412 62 59 50 
0.15623 -0.240729 1.52652 33 26 18 
0.14323 0.145831 1.3369 97 90 80 
0.275634 0.107652 1.44798 110 100 88 
-0.0768798 0.271315 1.34661 14 9 5 
-0.0488164 0.0290281 1.44205 109 104 98 
-0.0831457 -0.0746958 1.50838 85 81 78 
-0.0367426 0.274406 1.31952 95 86 77 
0.247555 -0.0515969 1.50902 103 99 88 
0.273041 -0.337576 1.63823 4 2 3 
-0.173762 0.251756 1.46336 41 37 36 
0.30541 -0.325165 1.67215 75 71 60 
0.289134 0.352036 1.29256 112 110 98 
0.238125 0.129796 1.40845 83 71 57 
-0.0921013 0.414597 1.26868 11 8 3 
-0.0127929 -0.106994 1.46928 94 84 74 
0.092571 0.422586 1.18959 122 115 99 
0.171819 -0.55043 1.71113 128 119 102 
0.170324 0.242144 1.29173 21 9 0 
-0.126373 0.329835 1.36384 90 85 81 
-0.203194 -0.197211 1.69079 30 29 25 
0.246975 -0.325842 1.62392 17 12 8 
0.101551 0.115812 1.34514 41 33 20 
0.228657 0.228708 1.346 121 111 101 
0.216121 0.1099 1.40485 116 108 97 
-0.0233623 -0.146443 1.50349 20 19 14 
0.220174 0.231124 1.34035 129 121 110 
0.136415 0.339783 1.23474 97 93 84 
-0.215577 0.505266 1.42469 43 35 32 
-0.179891 0.056261 1.54613 96 93 86 
-0.023723 -0.30941 1.56508 47 40 30 
0.0956222 0.151637 1.32617 102 95 85 
-0.0949541 0.349348 1.30145 7 6 2 
-0.0243692 -0.208884 1.5212 78 76 64 
0.0807837 -0.39087 1.58219 5 1 0 
-0.184119 0.257952 1.4752 38 33 29 
0.241645 0.350295 1.26626 119 109 99 
0.180848 0.180639 1.33447 41 32 23 
-0.0301537 -0.222674 1.54888 9 8 4 
0.119254 0.420139 1.18572 120 110 101 
-0.0714384 -0.0188053 1.47686 81 77 74 
0.251601 0.394009 1.25311 53 40 31 
0.258539 -0.0249742 1.50506 70 60 48 
0.213186 0.226977 1.32908 91 82 73 
0.011724 -0.364816 1.57005 107 107 99 
0.139227 0.452325 1.15301 100 93 83 
0.246066 0.246714 1.34716 43 35 24 
-0.0491615 0.0622969 1.42649 49 46 39 
0.099332 0.425645 1.18198 39 29 28 
-0.0818033 -0.0860506 1.51398 98 94 91 
0.17346 0.342271 1.24669 104 95 86 
0.221979 0.173605 1.37142 116 107 100 
0.139262 0.415529 1.1949 122 116 102 
0.235331 -0.0851409 1.5149 117 103 92 
0.282985 0.278966 1.35845 54 44 32 
-0.0359603 0.258841 1.33259 64 55 48 
0.182753 0.294832 1.26479 108 98 88 
0.179737 0.12008 1.35857 23 14 5 
0.270757 0.221096 1.37776 117 109 96 
0.17844 0.436804 1.17684 47 40 32 
0.156305 0.256974 1.28244 58 50 39 
0.0462634 -0.564205 1.71752 101 97 94 
0.235012 0.303045 1.30133 124 115 106 
0.106411 0.364279 1.22129 47 40 30 
-0.0896671 -0.558762 1.74605 97 94 89 
0.0633842 0.44583 1.16297 31 23 20 
0.334584 0.355955 1.34276 39 27 13 
0.243799 0.167457 1.38961 106 96 84 
-0.24202 -0.244097 1.78563 64 56 53 
-0.27261 -0.196123 1.92588 29 27 28 
0.181494 0.213697 1.31403 110 101 94 
0.170998 0.178488 1.32667 38 28 19 
0.255455 -0.360035 1.63548 82 79 74 
0.142232 0.19957 1.31039 126 114 92 
0.110527 -0.0724428 1.43862 31 26 20 
-0.092956 -0.0943546 1.52417 43 44 36 
0.136228 -0.249057 1.52901 117 112 108 
-0.0955283 -0.300126 1.60628 2 0 1 
-0.0539474 -0.366709 1.59987 80 79 74 
0.0624147 -0.311826 1.55041 92 89 84 
0.345955 -0.292028 1.72455 85 80 74 
0.137794 0.114425 1.35087 109 100 91 
0.224887 0.00397237 1.46611 102 93 84 
0.170853 0.417153 1.2001 127 118 109 
-0.175292 0.0668247 1.54169 7 3 0 
0.176168 0.406382 1.20996 54 50 38 
-0.0250098 0.453853 1.1901 34 31 26 
0.126372 0.323551 1.2414 111 103 90 
0.239044 0.299432 1.31119 125 119 107 
0.153323 0.139455 1.34292 111 102 93 
0.174618 -0.412882 1.6134 104 101 96 
-0.0415988 0.234746 1.34089 93 84 79 
0.174086 -0.356421 1.59323 91 88 79 
0.244601 -0.0373811 1.5008 137 127 115 
-0.0675683 0.335392 1.29087 84 81 74 
0.259759 -0.0133518 1.4973 41 31 19 
0.237674 0.274486 1.32663 47 35 23 
-0.166506 -0.248492 1.66109 81 77 74 
0.118021 0.461147 1.1473 97 94 87 
0.159457 0.445185 1.16507 90 83 75 
0.27445 0.231594 1.37536 105 98 88 
0.128191 0.406658 1.19869 76 73 68 
-0.0964326 -0.588264 1.77562 118 114 103 
0.183648 0.23734 1.30036 50 44 30 
0.254262 -0.292193 1.62727 43 39 28 
0.0784967 0.41543 1.18633 89 84 80 
0.278263 0.177913 1.40604 109 99 90 
0.186465 -0.0871409 1.46926 24 17 9 
0.0212463 0.222883 1.30717 88 79 70 
0.210356 0.325284 1.26015 107 98 89 
0.305262 -0.296348 1.68441 79 78 74 
-0.0327607 -0.341536 1.58174 56 57 52 
0.284406 0.131638 1.44287 91 82 73 
0.169746 -0.245358 1.53195 92 94 83 
0.114177 -0.358402 1.57728 117 112 108 
0.179449 -0.343452 1.58223 99 94 90 
0.116812 0.113898 1.34849 103 96 86 
0.0906876 0.117223 1.34515 17 13 4 
-0.222759 0.38748 1.46911 116 109 101 
-0.0278232 0.214242 1.34204 106 103 98 
0.161517 -0.0880538 1.45386 16 13 8 
0.156315 0.346835 1.23865 65 63 50 
0.0780823 -0.290482 1.52399 95 92 85 
-0.122201 0.449272 1.27696 45 41 38 
0.102741 -0.292061 1.53923 97 89 86 
0.134724 -0.292109 1.54272 71 66 60 
-0.213682 -0.266285 1.72259 64 59 55 
0.226904 0.291348 1.31061 133 121 107 
-0.0894394 0.0720939 1.44523 15 10 4 
-0.018961 -0.331407 1.56412 61 57 54 
0.259598 0.345468 1.27841 94 87 77 
0.223004 0.438772 1.19826 99 97 85 
-0.0310172 -0.118699 1.50055 92 88 87 
0.132993 0.246544 1.28472 129 116 99 
0.270951 -0.0237008 1.51166 108 99 84 
0.249574 0.231668 1.34959 117 107 97 
0.207584 0.179068 1.35644 13 4 0 
0.203806 0.350988 1.24851 76 69 61 
0.0632766 0.0215211 1.39198 80 73 67 
-0.0544911 0.349478 1.26978 64 63 59 
-0.177582 0.231017 1.47366 6 1 0 
0.0572518 -0.628454 1.76716 103 100 95 
-0.10338 0.164932 1.41839 30 25 22 
0.18135 -0.208095 1.523 46 43 36 
0.24825 -0.116781 1.53896 102 92 83 
-0.00413008 0.0467586 1.39353 76 65 59 
0.214337 -0.14542 1.53076 113 106 96 
0.361135 0.463944 1.32442 49 41 30 
0.00101776 0.329651 1.25292 38 37 35 
0.188425 -0.0363148 1.44287 99 91 80 
0.191766 0.261816 1.2853 67 56 50 
-0.0690543 0.370277 1.26998 72 71 66 
0.00581701 -0.332035 1.55264 63 60 53 
-0.0195978 -0.323917 1.56411 100 97 88 
0.242226 0.452181 1.18545 101 97 88 
-0.170218 0.0389595 1.5498 83 78 74 
-0.137797 0.153814 1.45551 98 95 88 
0.212995 -0.0888553 1.50153 120 108 94 
0.20869 0.405034 1.22125 88 80 69 
-0.138278 0.3085 1.39199 31 23 20 
0.262543 -0.109723 1.54816 123 113 103 
0.237143 0.239242 1.34696 136 124 110 
0.267246 -0.216527 1.60543 92 89 80 
0.00802279 0.231252 1.29661 24 15 8 
0.21217 0.222504 1.34113 19 14 8 
-0.220384 0.0673387 1.63009 16 11 7 
0.181556 -0.035659 1.43669 122 118 107 
-0.0573043 0.279968 1.3325 61 51 49 
0.240398 0.371806 1.25659 111 105 93 
0.251557 0.19749 1.37773 122 114 103 
0.24133 0.0831645 1.43471 78 68 58 
-0.107604 -0.16862 1.57158 74 69 66 
0.1827 0.0747602 1.38684 91 78 69 
-0.245252 -0.270377 1.76209 76 73 68 
0.321423 0.309362 1.39222 111 102 93 
0.197632 0.382687 1.23185 106 98 87 
0.108564 0.339289 1.23219 98 94 83 
0.212757 -0.00183907 1.46117 30 26 14 
-0.0361168 0.0652271 1.41979 81 77 74 
0.0737996 -0.54255 1.69506 41 36 30 
0.17126 -0.0117073 1.42405 66 55 49 
-0.0760401 -0.575952 1.73892 109 102 94 
0.251643 0.421729 1.23401 92 85 75 
0.174991 0.149194 1.34577 109 100 91 
-0.039589 0.0125044 1.44504 24 19 16 
0.234062 -0.425877 1.65361 6 1 0 
-0.0312993 -0.057835 1.4748 74 69 65 
0.114147 0.433587 1.17045 84 78 66 
0.336207 0.483401 1.24485 42 38 27 
0.166849 0.123631 1.35245 65 55 45 
0.204017 -0.0510244 1.47917 95 93 81 
-0.162671 -0.080984 1.5837 79 79 71 
0.287777 0.341861 1.29547 118 112 100 
0.113174 -0.358501 1.56994 113 110 103 
0.130151 0.383836 1.2139 102 96 84 
-0.0332641 -0.311619 1.58063 21 18 13 
0.123411 -0.276259 1.53136 98 93 89 
-0.097547 -0.147719 1.55459 87 82 78 
0.25913 0.217776 1.37661 118 110 99 
0.146434 -0.342882 1.5711 67 62 58 
-0.0759509 0.249438 1.35788 13 3 1 
-0.0217797 -0.285588 1.57043 79 72 64 
-0.0489424 0.309152 1.31466 88 81 73 
0.170084 0.018811 1.40731 29 20 11 
0.236345 -0.258733 1.60499 97 87 77 
0.0534801 0.417482 1.19194 107 106 101 
0.204265 -0.436106 1.64194 59 58 56 
-0.0107609 -0.206703 1.49072 116 112 100 
0.231574 -0.0444282 1.49802 71 63 50 
-0.0843312 0.21374 1.3767 77 70 64 
0.0992043 0.0199328 1.39234 91 82 75 
0.293116 0.346095 1.31166 134 128 116 
0.121889 -0.161998 1.48388 88 79 72 
0.195949 0.199163 1.32876 113 106 98 
0.231248 0.246329 1.33908 89 79 69 
-0.209816 -0.209483 1.70664 80 75 72 
-0.0412922 0.291314 1.31402 112 102 90 
0.312549 0.382135 1.30474 64 56 43 
0.135524 0.291544 1.26088 47 39 28 
0.266293 0.0325299 1.47902 46 30 14 
0.176935 -0.10048 1.46917 87 78 69 
-0.176412 -0.149785 1.63216 16 16 8 
0.188615 0.199688 1.32073 87 83 72 
0.113599 -0.414458 1.59362 64 61 54 
-0.105722 0.23155 1.38892 28 23 17 
-0.00370163 -0.353569 1.57489 104 100 97 
0.128183 0.0282897 1.39326 92 85 75 
0.223886 -0.133487 1.52991 111 101 92 
0.145365 0.285638 1.26653 63 55 44 
-0.0457867 0.386891 1.24673 89 85 76 
-0.0432588 -0.00200306 1.45376 3 3 1 
0.224831 0.382083 1.24221 97 90 82 
0.0297075 0.235217 1.30364 68 61 51 
-0.133342 0.262677 1.40225 23 15 12 
0.155468 -0.33199 1.56985 48 46 34 
-0.0565179 0.230503 1.35048 96 91 85 
0.212748 0.183666 1.36356 97 93 81 
0.0880725 -0.591844 1.74064 107 105 93 
-0.124685 0.343516 1.34265 10 5 2 
0.159879 -0.26726 1.54049 86 81 77 
0.185229 -0.387949 1.60486 89 88 83 
0.218642 -0.081143 1.49853 109 97 85 
0.0704812 -0.558806 1.71612 95 87 84 
-0.116773 -0.175787 1.57789 26 23 18 
-0.0907001 -0.0515285 1.50481 87 83 80 
0.0424372 -0.35914 1.56917 80 75 71 
-0.18228 0.332791 1.44319 83 74 67 
-0.159149 -0.0972783 1.59225 3 2 0 
0.258292 0.240863 1.36004 58 50 39 
0.256907 0.192373 1.38651 107 97 88 
0.223115 -0.00957082 1.47511 106 98 85 
-0.122876 0.121908 1.4699 31 10 5 
0.19134 0.00531482 1.43103 106 100 88 
0.260718 -0.262603 1.62041 59 55 44 
0.211565 0.305405 1.28264 109 102 92 
-0.037563 -0.160298 1.52336 71 67 64 
-0.0839748 0.287545 1.34611 91 84 76 
0.247562 0.107739 1.4258 111 101 91 
0.226018 0.095063 1.41729 121 109 97 
0.0637795 0.285059 1.25824 107 104 97 
0.0890115 0.301651 1.21708 90 81 74 
-0.0993924 0.358933 1.296 94 90 79 
-0.0867455 0.126424 1.42138 9 4 1 
0.204087 0.440689 1.18127 68 65 58 
0.110042 0.396399 1.20414 95 89 77 
0.272384 0.313013 1.31965 116 109 101 
-0.0272618 -0.326191 1.57253 79 76 67 
0.0929103 0.344986 1.22959 81 77 66 
-0.114559 -0.197577 1.59055 70 67 62 
0.10805 -0.0967205 1.45016 96 92 83 
0.149839 0.434294 1.17316 60 53 43 
0.0538997 -0.356747 1.56809 80 75 71 
0.191095 0.218729 1.31233 29 19 9 
-0.00459195 -0.145394 1.49441 17 14 7 
0.190854 0.163265 1.34389 130 126 114 
-0.249026 0.286978 1.6039 49 45 44 
-0.0545888 0.0174089 1.45212 75 70 67 
0.23357 0.421707 1.22743 98 90 77 
-0.0986905 0.201962 1.3939 31 28 23 
-0.128164 0.431237 1.29512 51 46 40 
0.14913 0.108848 1.35643 81 72 65 
0.203397 0.42023 1.21108 89 80 71 
0.154647 0.360494 1.2287 103 93 91 
-0.132753 0.230728 1.41418 81 74 68 
0.154581 -0.0685462 1.4461 105 98 88 
0.141704 -0.30108 1.55249 68 64 63 
-0.0900992 0.227767 1.38003 30 25 21 
0.165417 0.154216 1.33738 96 88 77 
0.130803 -0.163616 1.4872 91 78 70 
0.209802 0.31074 1.27117 106 97 90 
-0.0840371 0.328994 1.30908 27 21 21 
0.238716 -0.067921 1.50841 114 104 92 
-0.0643532 0.252229 1.34659 45 40 34 
0.217539 0.123861 1.39844 107 101 89 
0.21941 0.0271387 1.44904 115 107 96 
-0.0239374 -0.617272 1.7565 27 22 18 
0.120749 0.447378 1.16497 107 98 91 
0.180699 0.340363 1.2381 90 77 60 
0.283838 0.173036 1.41891 89 80 71 
-0.0745637 -0.0263533 1.48624 88 83 77 
-0.164929 -0.271329 1.66558 71 66 62 
0.216698 0.0683237 1.4246 112 102 92 
-0.0164289 0.330723 1.26369 86 81 77 
0.0993405 -0.554613 1.70829 103 98 92 
0.0867492 0.294362 1.25559 60 50 38 
-0.0943598 -0.319463 1.60819 18 14 11 
-0.0328401 -0.268662 1.56843 13 12 8 
-0.0909114 -0.0217907 1.49354 108 103 97 
-0.0672876 0.18829 1.37848 32 24 21 
-0.0230276 0.024262 1.43987 59 54 51 
0.065098 -0.45132 1.59736 24 20 17 
-0.0485992 0.162943 1.37832 57 48 39 
0.228993 0.112066 1.41143 107 100 92 
-0.0775124 0.0887811 1.43038 22 12 10 
0.119272 0.275214 1.26689 41 38 29 
0.157021 0.3964 1.20583 31 28 19 
0.243879 0.445523 1.20413 50 42 31 
0.221232 0.0372266 1.44003 95 88 78 
0.199525 -0.221621 1.55641 90 80 70 
0.29895 0.307414 1.35505 56 48 35 
-0.0887353 -0.142299 1.55501 87 83 74 
0.286156 0.250044 1.37286 113 104 89 
0.231922 -0.401183 1.6398 93 92 88 
-0.0168142 -0.304201 1.55369 119 114 108 
-0.19586 -0.230621 1.6946 19 18 16 
0.269446 0.00629542 1.49387 106 96 84 
-0.175566 0.21176 1.47426 33 28 24 
0.252253 -0.0209983 1.49287 97 90 80 
0.14009 0.356793 1.22272 94 91 82 
0.25391 0.00909724 1.48101 120 107 91 
-0.0297758 0.309197 1.29472 72 69 64 
0.267389 -0.0566695 1.52666 124 112 98 
0.101188 0.305503 1.2498 102 95 87 
0.21993 -0.385206 1.6258 88 85 80 
0.176101 0.0331152 1.40202 95 82 73 
0.346138 0.310756 1.42042 118 110 97 
0.252366 -0.246324 1.60452 53 45 34 
-0.126691 0.158515 1.43936 34 33 29 
0.0359954 0.156503 1.33062 78 71 61 
0.107567 -0.466997 1.59999 88 86 74 
0.256258 0.462016 1.18954 45 42 33 
0.333124 0.170021 1.47546 70 64 50 
0.194516 0.231943 1.30644 92 81 75 
0.273712 0.295635 1.3387 114 100 89 
0.129711 0.129646 1.34254 43 34 29 
0.000175032 0.107538 1.36723 64 57 47 
0.214394 0.345687 1.25525 102 93 84 
-0.104408 0.468283 1.24548 88 85 78 
0.309362 0.311684 1.3672 52 42 30 
0.314057 0.477866 1.22337 100 96 85 
0.178834 -0.320944 1.57303 31 28 19 
-0.0897293 -0.0359896 1.49728 92 89 84 
-0.115795 -0.416273 1.65483 79 76 71 
0.150025 0.27488 1.26547 109 102 92 
0.229361 0.427146 1.20997 107 99 86 
0.264656 0.0608826 1.46383 44 34 24 
0.268284 -0.306047 1.64822 92 90 78 
0.0371749 -0.217235 1.51017 79 76 71 
0.245942 -0.176742 1.57016 108 100 89 
0.211718 0.0177358 1.451 114 101 92 
-0.0513352 0.266642 1.32952 98 87 81 
0.156298 0.195488 1.3138 97 89 78 
0.27636 0.309551 1.33355 109 100 91 
0.194764 0.129291 1.36109 65 57 46 
-0.110235 0.000713982 1.49967 98 84 73 
-0.198607 -0.320828 1.69917 19 15 12 
-0.0418141 0.343346 1.26321 3 0 0 
0.29481 0.45512 1.22955 47 42 36 
-0.09513 -0.559795 1.759 55 51 48 
0.162886 -0.350895 1.58051 91 88 81 
0.18933 0.278904 1.27833 114 104 94 
-0.0172119 -0.359355 1.57888 42 39 32 
0.0784064 -0.372002 1.56817 75 68 62 
0.28067 -0.392876 1.67628 89 84 78 
0.24961 0.296593 1.31805 113 103 91 
0.139012 -0.319848 1.56025 71 67 58 
-0.154513 -0.26895 1.65384 32 28 25 
0.24541 0.0377531 1.46459 73 63 51 
-0.137326 0.290837 1.39378 27 22 18 
0.252266 0.438074 1.21397 88 79 74 
0.238967 -0.107582 1.52856 100 92 81 
0.19799 0.262957 1.29462 106 98 87 
-0.215035 0.308824 1.53537 82 79 74 
0.143541 -0.511217 1.65791 62 55 45 
0.0959159 -0.000479406 1.40079 73 66 56 
0.230708 0.364416 1.25282 107 101 89 
-0.0882979 -0.00679836 1.48388 62 59 54 
0.285421 0.440237 1.23934 110 106 94 
-0.0413416 -0.279105 1.57664 75 74 70 
0.0947436 -0.581192 1.73357 53 48 44 
0.189316 0.330256 1.25342 59 53 39 
-0.0611085 0.165216 1.38349 32 23 16 
-0.182379 0.316907 1.44464 75 70 64 
-0.0762728 0.209084 1.37405 68 64 55 
-0.111637 0.455438 1.26175 31 22 17 
0.0893671 0.442526 1.15754 36 28 25 
-0.0782974 -0.651758 1.81617 84 77 67 
0.119733 0.453253 1.15444 102 95 85 
-0.14088 0.212796 1.4306 55 51 50 
-0.163628 0.321889 1.41834 36 26 27 
-0.0341181 -0.570096 1.71713 91 92 86 
-0.121296 0.251427 1.39603 77 72 68 
0.144763 0.445051 1.16592 132 123 114 
-0.198686 -0.308881 1.70236 2 2 0 
-0.15797 0.345495 1.39951 42 33 26 
0.269029 0.169057 1.40588 67 59 46 
0.121708 0.360999 1.22837 92 85 75 
-0.19792 -0.30562 1.68407 2 2 0 
-0.174293 -0.287229 1.68718 70 67 62 
-0.094343 0.366666 1.2894 18 14 11 
0.181745 -0.0089697 1.42974 22 16 4 
0.229845 0.326887 1.27928 55 45 35 
0.104881 -0.614138 1.76118 86 77 72 
0.15936 0.205677 1.30813 92 84 73 
0.235773 -0.233105 1.58589 102 95 85 
0.233854 0.0879317 1.42861 92 82 72 
0.222273 -0.034733 1.47877 104 98 86 
-0.061679 -0.0211747 1.47331 78 72 72 
0.180888 0.0919848 1.37317 53 44 35 
0.0537323 0.0983431 1.36949 19 10 5 
0.136506 0.313675 1.249 84 73 67 
0.116283 0.159491 1.32605 13 2 0 
0.253521 0.135508 1.41387 84 70 61 
-0.223435 -0.253616 1.74868 61 58 53 
0.187157 0.380552 1.22683 115 108 100 
-0.0872075 0.0173539 1.47112 4 0 0 
0.299393 0.484118 1.21049 31 28 19 
-0.0159414 -0.263105 1.54518 102 95 85 
0.235641 -0.0387526 1.48937 116 110 98 
0.202403 -0.0735527 1.48836 98 91 85 
0.237257 0.00444304 1.47186 82 70 58 
-0.0836214 0.198035 1.38562 34 31 26 
0.30476 -0.399393 1.70325 50 46 37 
0.260235 0.364572 1.27372 135 126 111 
0.02728 -0.581121 1.72918 46 43 38 
-0.132154 0.365096 1.33098 29 24 18 
0.204708 -0.120018 1.51269 33 31 18 
-0.151395 0.346735 1.38294 53 44 39 
0.164394 0.291892 1.26802 50 41 26 
0.155612 0.025758 1.40084 65 57 44 
-0.0686826 -0.169393 1.54584 87 82 79 
-0.173094 0.110634 1.51758 92 89 84 
-0.014248 -0.275806 1.57186 115 113 101 
0.0290145 -0.381265 1.58191 70 69 64 
0.223486 0.102963 1.41081 100 90 78 
-0.115556 0.334585 1.34905 42 41 39 
0.281795 0.300784 1.34457 81 71 59 
