ply                 
format ascii 1.0    
element vertex 1279
property float x    
property float y    
property float z    
property uchar red  
property uchar green
property uchar blue 
end_header          
0.162675 -0.230786 1.54473 98 89 80 
0.0140647 0.419903 1.21262 57 52 48 
0.363427 0.455204 1.33588 69 63 51 
-0.0401008 0.200387 1.34921 93 90 85 
0.187879 0.00588951 1.39559 103 93 84 
0.0742335 0.174596 1.3097 68 59 52 
0.211392 -0.46482 1.6547 97 97 87 
-0.164611 -0.0316968 1.56618 80 77 68 
0.0523983 0.31257 1.2466 21 11 1 
0.0602568 0.499747 1.14946 85 81 70 
0.200895 -0.296997 1.57591 88 80 69 
-0.0119747 0.226485 1.32471 58 54 53 
-0.0879372 -0.213555 1.57339 62 61 59 
0.3898 -0.134925 1.78432 66 56 46 
0.00334718 -0.378102 1.58729 79 76 67 
0.337481 0.219495 1.45816 125 113 101 
0.251706 0.0735998 1.43471 121 113 102 
-0.136272 0.427641 1.31058 56 54 42 
0.0774381 0.124045 1.34065 94 90 81 
-0.178184 -0.386845 1.71141 23 18 22 
0.292815 0.485864 1.20778 76 70 56 
0.127394 0.134393 1.33649 41 32 23 
0.192842 -0.610724 1.80275 65 58 48 
0.123956 -0.00835978 1.40552 68 58 49 
0.113649 -0.145951 1.45605 55 47 45 
-0.0061937 0.311022 1.27222 70 67 58 
-0.0372198 0.233049 1.33832 66 63 56 
0.270172 -0.262595 1.62948 102 92 83 
0.0619183 -0.157275 1.46666 88 79 72 
0.319847 -0.436057 1.73583 46 46 38 
0.00812156 0.105414 1.352 84 75 70 
0.181061 -0.0834766 1.47735 57 50 44 
0.121667 -0.0273406 1.4041 89 79 67 
0.20941 0.0991379 1.39456 108 96 84 
0.133014 0.27777 1.26591 92 86 74 
0.244742 -0.43015 1.66368 66 64 52 
-0.144359 0.501909 1.27703 70 65 59 
0.0256549 0.092235 1.35804 68 65 60 
0.0733156 0.0560254 1.37017 68 58 49 
-0.0593052 0.0501069 1.43137 82 79 74 
0.356707 -0.0682008 1.64502 105 92 76 
0.0648162 0.453177 1.15973 37 33 24 
0.205677 0.0502973 1.40951 110 100 90 
0.0708685 0.220663 1.2894 88 76 52 
0.286042 -0.351633 1.66245 89 84 78 
0.0893259 -0.199979 1.48491 38 30 27 
-0.0462244 0.442071 1.22723 25 21 20 
0.0244588 -0.232791 1.5125 20 20 12 
0.182369 -0.369497 1.59853 84 78 66 
-0.0338168 -0.707334 1.84935 42 38 35 
-0.104885 0.359335 1.30842 59 54 50 
0.198488 -0.0650281 1.46482 41 32 23 
-0.00650835 0.488944 1.17641 58 51 41 
0.0154495 0.449892 1.18441 65 60 56 
0.350096 0.212216 1.49432 114 107 88 
0.350553 0.0139208 1.5883 101 88 72 
0.342396 -0.00173248 1.58187 112 99 82 
0.274947 0.275003 1.35743 101 93 74 
0.156911 0.056994 1.38055 25 15 5 
0.0724482 -0.72067 1.84961 74 71 62 
0.287973 -0.141567 1.58191 88 78 66 
-0.00693992 -0.237328 1.48513 66 63 56 
0.166672 0.3186 1.25211 83 73 61 
-0.0262096 0.192362 1.34726 76 69 59 
0.00673745 -0.242342 1.5226 32 27 21 
0.225603 -0.270759 1.58829 44 34 25 
0.311706 -0.0797977 1.59567 85 42 36 
-0.087279 -0.266101 1.60299 49 50 45 
0.0982179 -0.779967 1.87925 100 96 87 
0.0307494 0.339108 1.23957 26 23 14 
0.178841 -0.58647 1.7321 80 76 65 
0.297094 0.278646 1.37349 89 83 67 
0.145866 -0.807877 1.95076 60 55 51 
0.353445 0.452173 1.31365 63 55 44 
-0.0502852 -0.457758 1.62586 100 100 88 
0.275581 -0.347496 1.64879 37 34 27 
-0.039849 -0.329069 1.58689 79 78 74 
0.343098 -0.122606 1.64938 100 88 72 
-0.0501402 -0.330039 1.60714 88 84 81 
-0.0713473 -0.447347 1.62745 60 51 42 
-0.0241033 0.471766 1.19106 34 26 24 
0.201282 -0.000719926 1.44163 43 39 30 
0.304303 -0.489607 1.79299 54 51 42 
0.365526 0.411455 1.35708 88 76 62 
0.332326 0.0240172 1.55759 119 103 80 
-0.0858606 -0.11734 1.52958 55 50 47 
0.171623 -0.671297 1.83252 73 67 53 
-0.0552571 0.174843 1.37152 82 77 73 
0.251811 -0.55368 1.81296 92 83 76 
-0.0244159 0.441112 1.21825 56 52 51 
0.223967 -0.73394 1.97073 62 61 57 
-0.191714 -0.570562 1.90232 81 77 74 
-0.109481 0.386124 1.29841 26 22 19 
-0.0301057 0.36889 1.25828 36 32 29 
0.127482 -0.716797 1.86338 57 54 47 
-0.0900567 -0.201862 1.57299 36 32 29 
-0.00421747 -0.195718 1.50445 40 36 27 
-0.198731 -0.360952 1.71026 78 73 69 
-0.0760035 0.369455 1.28063 55 53 54 
-0.0597031 0.404482 1.26115 49 46 41 
-0.231756 -0.837183 2.23829 104 100 91 
-0.00449781 -0.0995863 1.45673 6 2 0 
0.0946512 -0.024481 1.40406 105 97 86 
0.269254 -0.115657 1.5493 84 76 63 
-0.0383111 0.389867 1.2532 51 48 43 
0.247181 -0.367429 1.63904 49 46 39 
0.0734284 -0.159473 1.47571 92 83 74 
-0.0497036 -0.67641 1.81875 60 57 50 
0.303021 -0.313329 1.6614 34 30 21 
-0.0472026 -0.123543 1.50849 51 47 46 
0.343984 -0.334469 1.72672 86 79 69 
0.222168 0.0169904 1.44846 128 115 106 
0.347814 0.335298 1.38727 111 101 91 
0.345546 0.139582 1.51065 99 86 70 
0.1046 -0.707704 1.85742 49 45 42 
0.0159358 -0.600079 1.74904 43 38 32 
0.106825 -0.583405 1.74312 79 74 70 
0.118591 -0.149546 1.47668 59 56 51 
0.0748906 0.380965 1.21557 77 72 66 
0.297093 0.384702 1.29784 112 102 90 
0.260455 0.210936 1.3776 121 111 99 
0.31592 -0.628556 2.01066 119 112 102 
0.153174 -0.425291 1.61014 66 62 51 
-0.0232932 -0.741338 1.87121 42 39 34 
0.333217 0.397481 1.32496 108 95 79 
0.185522 -0.406138 1.61736 112 105 95 
0.131383 -0.114003 1.45007 72 63 56 
0.0499435 0.0623541 1.36685 61 57 46 
0.178782 0.431353 1.19057 81 72 57 
0.254596 0.00393453 1.47587 99 86 70 
-0.00225831 -0.450065 1.60855 52 51 46 
0.152409 -0.12979 1.45894 49 49 39 
-0.10081 0.266554 1.36766 15 10 6 
0.290798 0.050866 1.4971 91 58 43 
0.115727 0.0360825 1.36942 71 63 50 
-0.151123 0.021594 1.53889 47 42 38 
0.013582 -0.287561 1.52791 106 101 98 
0.261071 -0.713348 1.99879 46 45 41 
-0.139789 0.0609995 1.52701 76 38 37 
0.120651 -0.372556 1.5792 9 4 1 
0.0161939 -0.0362815 1.41389 68 63 60 
-0.0221557 0.0454511 1.41277 12 9 4 
0.00144289 -0.436017 1.61465 75 72 67 
0.129377 -0.450426 1.59562 38 34 35 
-0.327011 0.647008 1.15254 67 62 33 
0.0813633 -0.749063 1.87921 62 47 42 
0.0864681 -0.187968 1.48374 69 58 54 
0.0508593 0.0923465 1.34897 79 70 61 
-0.161964 0.419248 1.34787 35 30 26 
0.264549 -0.233798 1.60946 47 40 34 
0.0226148 0.168666 1.32407 74 65 56 
-0.0362167 0.0486584 1.41669 12 7 3 
-0.0651795 -0.585721 1.75607 68 64 55 
0.348891 0.279054 1.43091 96 86 74 
-0.0880028 0.309456 1.34066 48 44 41 
0.0716493 -0.397264 1.58791 64 61 54 
0.239821 0.455508 1.19063 51 46 40 
0.106206 0.257752 1.27721 40 25 18 
0.163677 -0.729243 1.87848 72 62 53 
-0.0747227 0.399663 1.26673 37 36 32 
0.345689 0.374156 1.33457 101 93 74 
0.311763 -0.102178 1.60551 74 70 59 
0.357385 0.388773 1.35121 111 98 82 
0.278635 0.0644872 1.4621 59 48 30 
0.154197 -0.511668 1.66906 75 71 62 
0.2106 -0.333758 1.61877 45 38 30 
-0.1623 0.487882 1.32459 79 75 66 
0.226754 0.406592 1.23441 128 121 105 
0.160699 0.123963 1.34677 57 53 41 
0.241283 -0.631555 1.88969 79 75 66 
0.246427 0.303881 1.29384 88 78 68 
-0.18875 -0.279943 1.70109 7 5 6 
0.290853 -0.36468 1.67638 101 94 86 
0.166961 -0.57196 1.72876 80 76 65 
0.315119 0.477444 1.29402 117 107 95 
0.269235 -0.393762 1.66889 102 99 90 
0.0338793 0.199747 1.30142 46 42 31 
0.329766 0.278606 1.40184 116 107 92 
0.306888 0.466587 1.23522 63 55 44 
-0.0302462 0.249168 1.32515 85 80 74 
-0.126956 0.254366 1.4019 64 61 56 
0.290194 -0.374227 1.67444 85 82 73 
0.326158 0.412196 1.30912 120 112 99 
0.386488 0.470742 1.38768 68 58 46 
0.100541 -0.17482 1.46985 77 68 59 
-0.115065 0.348313 1.3288 51 48 43 
-0.0269886 0.223566 1.33958 57 52 48 
0.226646 -0.638255 1.87198 60 58 46 
-0.128444 -0.147293 1.57563 55 50 47 
0.198254 0.317285 1.25404 105 95 83 
0.310407 0.394896 1.30625 118 111 95 
-0.0976273 -0.165412 1.55873 36 32 29 
0.0801795 0.488429 1.15096 69 65 56 
0.205599 0.135922 1.35885 87 83 74 
0.00331146 -0.308952 1.55127 109 100 93 
0.229165 0.438996 1.21422 61 50 44 
0.247945 -0.669344 1.93873 70 67 62 
0.268922 -0.021429 1.45651 105 93 81 
0.14836 -0.863493 2.01191 98 94 85 
0.191485 0.3698 1.23511 120 112 99 
0.091437 -0.528446 1.68708 56 53 48 
-0.156525 -0.0549114 1.58138 28 24 23 
-0.0546788 -0.268719 1.57847 41 42 37 
0.075846 0.214109 1.29598 121 105 80 
0.0247496 0.0683016 1.37095 68 61 53 
-0.0218993 0.261737 1.31777 74 67 57 
0.109665 0.388756 1.20941 96 94 81 
0.253081 -0.21028 1.58819 77 68 59 
0.324867 0.368968 1.33641 94 70 46 
0.192445 -0.561529 1.73995 99 95 83 
-0.0878146 -0.293417 1.60169 49 45 46 
0.164611 0.295128 1.25176 95 87 76 
0.0879545 0.0236387 1.37945 49 45 36 
0.341949 0.226877 1.46809 115 103 91 
-0.130087 -0.193337 1.60614 18 16 17 
0.366902 0.0029493 1.62916 97 84 68 
0.0465207 -0.496275 1.65454 81 78 73 
0.192539 0.237637 1.3407 91 84 78 
-0.0348476 0.469261 1.19705 84 77 71 
0.0830189 -0.136888 1.46116 83 78 72 
0.117801 0.14203 1.32117 54 47 37 
-0.039381 0.120624 1.39109 90 87 80 
0.0290872 0.0668229 1.33795 58 50 48 
0.261349 -0.370825 1.64684 91 88 79 
0.215659 -0.50657 1.68368 113 109 98 
-0.0327489 0.4101 1.23677 41 36 33 
-0.111196 0.209148 1.40563 71 68 59 
-0.0717915 0.413861 1.26317 56 53 48 
-0.0862801 0.492399 1.21763 76 73 68 
0.351687 0.0948332 1.54818 74 58 42 
0.293597 -0.0389492 1.53378 84 42 30 
0.123827 -0.400315 1.6016 68 60 49 
-0.0342722 0.339433 1.26335 18 14 11 
-0.0160984 0.258265 1.29757 68 61 53 
0.21466 -0.745557 1.97648 46 41 37 
0.115879 -0.713687 1.85939 77 73 64 
0.0248576 0.422243 1.20482 78 73 67 
-0.152524 -0.341778 1.66873 53 49 46 
-0.235497 -0.423122 1.78757 83 84 76 
-0.00291881 -0.257329 1.52923 70 67 60 
0.352479 0.441072 1.33788 71 62 45 
0.0950981 -0.748248 1.8869 89 80 73 
0.0476312 -0.627255 1.78388 85 82 77 
-0.0116825 -0.696067 1.83073 48 43 39 
0.0975539 0.435908 1.16768 44 40 37 
-0.0556081 -0.223946 1.55629 14 13 11 
0.117357 -0.535742 1.68861 70 67 60 
0.0815594 -0.663831 1.8233 6 3 0 
0.29005 0.341601 1.33882 101 91 81 
0.326498 0.0504381 1.54138 84 71 52 
0.354688 -0.389446 1.76884 68 61 51 
0.171689 0.380826 1.22593 71 62 47 
-0.14797 0.0377195 1.53538 9 7 8 
-0.0154812 0.349391 1.25333 60 57 52 
0.176268 -0.547807 1.71831 73 70 53 
-0.154214 0.324644 1.40798 60 53 45 
0.0136585 -0.277665 1.53555 15 10 6 
0.132587 -0.557498 1.72568 80 75 71 
0.365695 -0.524869 1.94467 206 207 211 
0.0414553 -0.367195 1.56959 58 54 51 
-0.143189 0.467188 1.30139 52 48 39 
0.19398 0.0887892 1.37423 86 78 67 
-0.0888873 0.275914 1.35736 15 10 7 
0.0365631 0.103802 1.34133 75 67 64 
-0.115386 0.22391 1.40186 76 68 65 
0.142673 0.173833 1.30635 74 72 59 
-0.0241325 -0.673843 1.82702 95 92 83 
0.401737 0.443925 1.43165 91 83 70 
0.0776022 0.0929729 1.34809 66 58 47 
0.0494676 0.502792 1.15183 80 78 66 
0.323167 -0.154686 1.64677 106 94 78 
0.0231908 -0.203586 1.49973 38 28 26 
-0.0089201 -0.00583323 1.41401 68 63 59 
0.0267124 -0.398702 1.5841 75 71 60 
0.0277982 0.12913 1.34291 56 52 43 
0.00277244 -0.731432 1.86783 102 92 80 
0.161158 -0.483922 1.64031 49 46 39 
0.188079 -0.435647 1.64047 75 75 67 
0.365758 -0.407878 1.79071 51 46 40 
-0.102482 0.225071 1.38566 68 63 57 
-0.0208315 0.022044 1.40907 19 15 12 
0.264951 0.0172853 1.50068 117 106 88 
-0.082089 -0.169884 1.55493 33 29 26 
0.314347 0.465321 1.24916 82 74 61 
0.00198286 -0.484258 1.62884 78 74 65 
0.336428 -0.194573 1.66571 97 88 73 
0.10651 0.354951 1.22268 85 81 70 
-0.0489468 0.304325 1.31345 59 54 48 
-0.0971781 0.31588 1.35032 27 24 15 
0.363209 0.439687 1.35232 63 55 42 
0.106563 0.331715 1.23719 60 56 45 
0.306353 -0.85076 2.1064 209 213 216 
-0.0857903 -0.180581 1.55758 22 16 18 
-0.176016 -0.400641 1.69952 29 29 31 
0.170134 0.440863 1.1762 69 67 55 
0.0543955 0.181329 1.30931 60 56 47 
-0.0679605 -0.25112 1.5827 57 56 52 
-0.0861014 0.104624 1.42759 71 64 54 
0.192856 -0.322255 1.61415 77 74 67 
0.354577 -0.011752 1.60449 114 108 94 
0.0811582 0.183544 1.30999 68 58 46 
-0.0089427 0.40611 1.22614 43 40 35 
0.0127987 -0.310096 1.55396 65 62 55 
0.146948 -0.665698 1.82054 79 74 70 
0.235587 -0.293513 1.61937 25 21 9 
-0.0084138 0.334304 1.24957 65 62 55 
0.263759 -0.427612 1.68177 75 70 67 
-0.140279 0.477654 1.29447 58 54 45 
0.128879 -0.0372778 1.41191 88 79 70 
-0.0780913 0.343274 1.29369 42 41 37 
0.0353671 0.0189076 1.38727 20 16 7 
-0.0538218 0.252405 1.34096 71 67 58 
-0.0119254 0.258594 1.3083 69 62 54 
-0.00620905 -0.053638 1.43791 40 32 29 
-0.16968 -0.0957248 1.60935 84 81 74 
-0.0318791 -0.409884 1.61687 57 54 49 
-0.0515269 0.138067 1.39065 75 64 58 
0.199202 -0.481075 1.68472 101 97 85 
-0.141083 0.12318 1.48905 28 24 21 
-0.0964645 -0.0316977 1.4981 53 50 41 
0.219865 0.432101 1.2111 76 67 52 
-0.132511 -0.386832 1.66339 85 81 78 
0.295491 0.0153474 1.5038 84 41 35 
0.291734 -0.745653 2.08254 44 40 31 
0.288763 0.47743 1.21168 78 71 61 
0.0570483 -0.311665 1.54546 114 111 106 
0.0911918 -0.70659 1.85619 42 38 35 
0.287592 -0.43658 1.70041 54 54 46 
0.345019 -0.354798 1.73995 80 69 63 
0.262637 0.0274898 1.47821 123 110 94 
0.26878 -0.20229 1.59112 85 75 66 
0.320779 0.246988 1.42159 117 109 96 
-0.126148 0.378065 1.32148 56 55 50 
0.0404876 0.415872 1.18465 95 92 87 
-0.212575 -0.313644 1.72051 60 59 55 
0.333312 0.247819 1.44932 124 112 98 
-0.13956 0.105447 1.50436 35 17 13 
-0.11609 0.491241 1.25387 89 82 72 
0.360376 -0.279827 1.76707 78 70 59 
-0.143926 0.516337 1.25812 48 42 42 
0.126485 -0.0978223 1.4343 21 17 8 
0.114451 0.265679 1.26741 81 79 64 
0.0644366 0.181487 1.30606 71 67 56 
0.0361325 0.475581 1.15525 59 54 50 
0.295216 0.224787 1.40584 24 14 4 
-0.0835334 0.257511 1.35746 74 67 59 
0.0719068 -0.0605946 1.42014 73 66 58 
-0.150907 -0.0265533 1.56701 14 10 7 
0.337044 -0.226239 1.68965 106 102 93 
0.135937 0.102805 1.35392 65 55 45 
0.357292 -0.0989774 1.64234 40 30 18 
-0.157576 0.504631 1.29137 45 37 34 
0.0187042 -0.0635294 1.43721 75 66 61 
0.0604856 -0.234758 1.51136 37 33 24 
-0.00951225 -0.191761 1.49484 40 35 32 
-0.112026 0.455762 1.27715 40 35 29 
-0.0730088 -0.299024 1.60371 61 57 54 
-0.00723906 0.475978 1.17524 54 49 45 
0.111009 -0.255058 1.51603 74 70 61 
0.0727444 0.498093 1.15214 41 37 28 
0.398341 0.420473 1.43323 85 76 67 
0.325093 -0.635423 2.01519 114 114 104 
0.06306 0.509013 1.14579 73 68 64 
0.319838 -0.362193 1.69661 107 103 94 
0.238731 -0.610647 1.85994 68 64 55 
0.193501 0.0246584 1.37933 80 74 62 
-0.0331704 -0.505375 1.661 76 72 63 
-0.00867136 -0.677956 1.82553 46 43 36 
-0.0387137 0.0488335 1.41477 20 16 13 
0.214411 -0.532269 1.72132 132 123 114 
0.0409822 0.410049 1.20989 45 41 32 
-0.0125975 0.452662 1.19165 42 39 34 
-0.137388 -0.237637 1.63004 41 37 34 
0.308013 0.403057 1.2931 126 117 102 
0.286029 0.449543 1.24205 68 64 52 
-0.0162903 0.0853904 1.36608 56 56 54 
0.225677 -0.451179 1.65109 42 36 36 
-0.0345841 -0.0897918 1.4805 15 14 12 
-0.114535 -0.19296 1.58402 47 43 40 
0.0550363 -0.373742 1.57514 42 35 27 
0.050619 0.373143 1.22236 66 63 54 
-0.1113 0.180168 1.41677 75 72 63 
0.274926 -0.433216 1.69274 8 4 3 
0.316324 -0.393728 1.71032 67 64 55 
0.105683 -0.632098 1.7912 73 68 65 
0.19886 -0.201141 1.56417 97 91 77 
-0.0452932 0.281868 1.32119 52 47 43 
0.323994 0.0154403 1.55419 100 84 58 
0.139314 0.304256 1.25263 42 32 20 
-0.211735 -0.405228 1.73207 39 38 33 
0.0688261 -0.718792 1.86213 76 73 64 
0.140042 -0.669364 1.82938 72 67 63 
0.361336 0.191893 1.51485 114 106 93 
-0.0744247 -0.358384 1.61199 63 60 55 
0.270552 0.260444 1.35149 62 50 36 
0.143437 -0.484711 1.67798 83 80 71 
0.0531521 0.486225 1.14775 47 43 34 
0.325722 0.367512 1.32348 78 56 43 
-0.116598 -0.387342 1.65706 65 62 57 
-0.00878965 -0.0276144 1.42732 79 70 63 
0.195878 0.465553 1.1648 66 59 49 
0.181474 -0.397989 1.61157 77 68 59 
0.0689438 -0.745402 1.88736 65 50 43 
0.258382 -0.122182 1.54905 99 87 75 
0.152415 -0.200522 1.50241 73 64 57 
0.276329 -0.445653 1.69603 49 45 36 
-0.0442783 -0.135574 1.51012 60 56 53 
-0.0753437 0.203756 1.37296 75 71 62 
-0.00156588 -0.15363 1.48025 60 49 43 
0.314493 0.0445433 1.53775 94 47 41 
0.297897 -0.000389181 1.52607 99 49 40 
0.14052 -0.742963 1.87594 64 60 49 
0.211661 0.332741 1.22774 33 29 17 
0.304503 0.298293 1.37417 75 66 51 
0.0575144 0.547536 1.08046 51 43 32 
-0.144533 0.378714 1.33997 56 52 49 
0.316528 -0.243532 1.7006 98 94 85 
0.354307 0.194415 1.49529 112 102 90 
0.20057 -0.522693 1.69779 87 83 72 
-0.0155051 -0.456749 1.6162 48 45 38 
0.358186 -0.32551 1.74982 85 76 67 
0.391067 0.303655 1.53252 108 101 85 
-0.0480349 0.358075 1.26752 21 17 14 
-0.11784 -0.406849 1.66177 30 26 23 
0.349905 -0.229814 1.70785 93 86 76 
-0.0221304 0.462032 1.20174 60 55 51 
-0.162936 -0.136708 1.61265 43 38 34 
0.117796 0.0281139 1.38756 63 53 41 
0.0559518 0.0602682 1.34108 63 58 52 
0.230135 -0.574659 1.80242 88 84 75 
0.0587043 -0.123759 1.45876 46 37 28 
0.340125 -0.0179245 1.59016 129 115 88 
0.383074 0.470131 1.37277 63 53 41 
0.342464 -0.417877 1.74892 47 44 39 
0.241002 0.481977 1.17906 51 49 37 
-0.0291166 0.286474 1.31407 79 75 72 
0.168458 -0.474119 1.64916 85 81 72 
0.251929 0.368285 1.27136 97 87 75 
0.145411 -0.592209 1.75449 64 61 52 
0.00424287 -0.419147 1.60361 33 30 23 
0.143887 -0.170465 1.4863 91 77 68 
0.307246 -0.14089 1.60322 91 79 65 
0.394917 0.33469 1.52714 66 59 43 
0.0353216 -0.0188402 1.4051 48 44 35 
-0.143888 0.0736582 1.51943 33 28 24 
0.25629 -0.330647 1.62358 29 25 24 
-0.119898 -0.587986 1.82713 53 49 46 
0.290294 0.0886211 1.45794 99 82 56 
0.221642 -0.515696 1.71111 115 105 95 
-0.0808495 -0.0516002 1.49301 69 65 62 
-0.143413 -0.287421 1.65164 1 1 1 
-0.0454905 0.428328 1.23432 66 62 59 
0.348516 -0.288557 1.71751 91 87 75 
-0.101608 -0.15452 1.55952 53 50 45 
-0.163944 0.396765 1.35591 46 42 39 
0.289167 0.127824 1.44552 83 75 64 
-0.0251391 0.0807823 1.39892 44 43 39 
0.247532 -0.654122 1.92189 78 77 72 
0.0692775 0.0075344 1.38761 60 55 49 
0.14017 -0.657828 1.79867 47 42 39 
0.359109 0.418016 1.34452 103 91 69 
-0.197433 -0.253747 1.70936 59 58 54 
-0.0935508 -0.276181 1.60349 37 36 32 
0.253296 0.276926 1.33408 82 77 58 
0.183063 -0.449644 1.64778 3 0 0 
0.10991 0.204841 1.30347 76 37 32 
-0.0167927 0.42368 1.21333 74 70 67 
-0.00910078 -0.425046 1.62898 35 30 27 
-0.118621 0.370439 1.31744 44 41 36 
0.0417677 -0.099205 1.44182 54 51 44 
-0.0598055 -0.162172 1.53415 53 50 45 
-0.0638838 -0.10578 1.50628 36 32 33 
0.323304 0.100773 1.5216 73 58 39 
0.331579 0.44641 1.29628 104 97 81 
0.0709347 -0.395921 1.57925 56 53 48 
0.187366 0.182893 1.30817 96 87 78 
0.0406422 -0.423363 1.59367 95 92 85 
0.329776 -0.0738348 1.59151 107 89 67 
0.295565 -0.436005 1.71074 50 47 42 
0.232321 -0.163691 1.54501 94 84 74 
0.35463 0.387657 1.36336 109 98 80 
0.327441 -0.333599 1.7011 15 15 5 
0.354784 -0.221638 1.72563 116 107 98 
-0.0389301 0.258309 1.32356 77 68 59 
-0.232617 -0.584407 1.96207 228 230 229 
0.163325 -0.142843 1.48362 103 94 85 
-0.14396 -0.0758124 1.58194 59 28 26 
0.224054 0.476929 1.172 66 62 51 
0.0667568 -0.65885 1.81092 99 96 89 
0.217137 -0.127621 1.52181 74 67 57 
-0.144904 -0.00262995 1.56009 69 36 31 
0.273173 0.366086 1.28526 122 120 108 
-0.149207 0.0547916 1.52104 46 41 38 
0.362539 -0.21238 1.73034 95 85 75 
0.112351 -0.0688332 1.41771 67 62 56 
-0.0743607 0.281432 1.34422 49 46 39 
0.391171 0.461308 1.3961 62 56 44 
0.0329279 0.00867592 1.39367 50 45 39 
-0.0604798 0.467399 1.2219 51 48 43 
0.228432 -0.384532 1.6385 75 70 67 
0.149928 -0.748349 1.89619 80 76 65 
-0.221107 -0.370547 1.75535 38 34 31 
0.350067 -0.256885 1.73593 79 71 60 
-0.073238 -0.133109 1.52912 27 26 24 
-0.127677 -0.312478 1.64692 34 33 29 
-0.0461321 -0.413157 1.6169 63 59 50 
0.060702 0.528393 1.09746 52 48 36 
0.176535 0.122167 1.38273 55 48 38 
0.330625 -0.395761 1.73737 75 71 62 
-0.105611 -0.218135 1.59055 44 40 37 
0.00475291 -0.919971 1.99248 57 53 42 
0.267737 0.208765 1.39419 158 148 136 
-0.243118 0.310873 1.57662 48 48 40 
-0.0534748 -0.687662 1.84061 79 74 68 
0.229239 -0.0669142 1.52099 27 11 0 
0.0856455 -0.742747 1.8879 59 53 53 
-0.0612408 -0.235946 1.57018 58 57 53 
0.100277 -0.197701 1.48697 94 87 77 
-0.084011 -0.421556 1.63673 67 66 61 
0.343541 0.252246 1.4527 122 110 96 
0.205578 -0.479157 1.66865 91 87 76 
0.0581647 0.231536 1.29025 54 44 35 
0.140786 0.478439 1.15323 77 72 66 
0.0876478 -0.0624771 1.42338 24 15 6 
-0.0860325 0.155589 1.40059 75 71 62 
0.10218 0.296698 1.25045 58 45 37 
-0.115387 -0.320733 1.63527 11 7 6 
0.0391468 -0.410154 1.58688 64 60 57 
-0.0480198 -0.458648 1.61071 108 106 94 
0.241552 -0.0684363 1.50936 114 100 91 
0.0426538 0.312964 1.25411 42 29 20 
0.274727 -0.401616 1.6751 108 105 96 
0.28892 0.217227 1.3961 113 101 85 
0.0118462 -0.170188 1.47963 34 27 19 
0.175626 -0.514975 1.68201 94 90 81 
0.0368283 -0.164019 1.47801 51 42 35 
-0.0276728 -0.588036 1.74711 58 53 49 
-0.0298692 -0.696811 1.83654 65 61 58 
0.0463224 0.47981 1.15894 60 57 52 
-0.0761059 -0.254182 1.58994 41 40 38 
0.169599 -0.628179 1.78561 86 80 66 
-0.0430515 -0.328759 1.57185 69 68 66 
0.19261 0.277384 1.30661 106 96 84 
-0.0164656 0.442746 1.20939 31 25 25 
-0.0141762 0.294276 1.29544 74 71 66 
-0.144168 -0.368846 1.67588 54 51 44 
-0.136738 -0.185971 1.61033 56 55 53 
0.0117726 0.0850251 1.35474 39 35 24 
-0.0457335 0.194713 1.36035 82 79 74 
0.0215643 0.289249 1.26788 76 67 60 
-0.0479379 -0.512447 1.6739 95 92 83 
-0.0703372 0.430842 1.25296 64 59 56 
0.0875417 0.337818 1.23358 77 67 57 
-0.10204 -0.234912 1.56873 78 74 71 
0.154718 0.0141897 1.39591 81 70 64 
0.129974 0.523356 1.09267 44 36 25 
0.0193256 0.360626 1.23452 44 41 34 
-0.103473 -0.399368 1.64391 67 64 59 
-0.0302671 -0.556818 1.72349 60 57 52 
-0.0354862 -0.0209414 1.45582 51 46 42 
0.102054 -0.678354 1.8331 82 79 74 
0.343354 -0.351087 1.71829 84 77 69 
-0.184372 -0.358896 1.70423 66 65 63 
0.186298 -0.165302 1.49892 87 77 67 
-0.0625704 -0.425901 1.63003 38 35 30 
-0.0608632 -0.377242 1.60787 73 70 65 
0.269087 0.20229 1.38593 130 122 111 
-0.134074 -0.0947063 1.57279 55 25 27 
-0.132791 0.0305354 1.52232 63 28 26 
0.0694747 0.499402 1.13535 22 15 7 
-0.116377 -0.110748 1.55591 77 73 70 
0.344506 -0.234885 1.69567 104 100 89 
0.282948 -0.131496 1.56887 114 102 86 
0.16894 0.0915582 1.35407 82 75 69 
-0.0536636 -0.419282 1.62591 69 62 54 
0.150957 -0.573796 1.74029 64 60 48 
-0.0682255 0.290311 1.33806 61 58 53 
0.185769 -0.088862 1.4998 57 47 38 
0.272231 -0.0028128 1.48949 100 93 75 
0.144453 0.0885218 1.34666 51 42 35 
-0.129874 0.171927 1.44063 55 51 48 
0.178729 -0.568839 1.74019 98 90 79 
0.331815 -0.544653 1.93705 95 91 82 
-0.0627283 0.442248 1.24279 37 34 25 
0.320888 0.420658 1.29997 103 94 77 
0.37592 0.46373 1.36183 66 56 44 
0.0640253 -0.734528 1.85662 81 58 52 
0.104208 -0.393668 1.58426 49 44 41 
0.328094 -0.0351601 1.58585 75 64 42 
0.0708299 -0.333817 1.55504 69 65 56 
0.23851 -0.56417 1.7916 123 119 110 
0.0901019 0.226774 1.28014 69 35 33 
0.0870939 -0.37134 1.5677 40 35 29 
0.129959 -0.0634353 1.43406 82 78 67 
-0.0393775 -0.221472 1.54923 49 47 48 
-0.0467034 0.342228 1.27018 47 43 40 
-0.116573 0.132645 1.43926 62 54 51 
-0.0697773 -0.22102 1.56597 62 60 61 
-0.0773947 0.331643 1.29685 38 34 31 
0.255312 -0.638388 1.91154 47 42 38 
0.204947 0.434524 1.19568 62 58 49 
0.195674 -0.388727 1.62288 63 60 51 
0.117605 0.0135635 1.37981 73 65 54 
0.257949 -0.486644 1.72325 105 98 88 
-0.125811 -0.119794 1.56549 67 64 59 
0.0739762 0.405775 1.20481 64 55 48 
-0.0474235 -0.43057 1.62179 55 54 50 
0.0549517 -0.176781 1.4796 71 58 49 
0.0234285 -0.0594384 1.4261 50 42 39 
-0.112755 -0.436525 1.66465 55 52 43 
0.150477 0.48896 1.14588 39 35 32 
0.100484 -0.352527 1.56681 62 54 51 
0.000339637 0.386653 1.23534 61 60 55 
0.309906 -0.0263804 1.56511 94 46 42 
-0.11222 -0.089903 1.53877 52 48 47 
-0.0172985 0.0924711 1.37975 30 28 29 
0.131352 -0.00221317 1.38792 56 46 37 
0.0811663 -0.239201 1.51067 61 57 48 
0.271682 -0.408542 1.66737 79 74 70 
0.0910693 -0.254743 1.54214 69 62 52 
0.119328 0.310723 1.24203 50 43 33 
0.247014 -0.126728 1.53836 108 95 78 
0.0692227 -0.294224 1.53894 66 62 51 
0.173656 0.346643 1.2287 80 71 62 
0.0910342 -0.611185 1.7687 75 72 67 
-0.107827 -0.240303 1.59684 69 65 62 
0.180555 -0.659785 1.8303 86 76 66 
0.0925232 -0.672859 1.82916 82 79 74 
0.266487 -0.285444 1.63589 89 82 72 
-0.171532 -0.446692 1.72405 55 51 42 
0.0935133 0.204898 1.29934 72 37 31 
0.280894 0.0920518 1.4485 55 43 29 
0.332941 0.104343 1.51279 84 68 42 
0.191685 -0.304216 1.59334 87 77 67 
-0.115223 -0.378438 1.64689 76 73 66 
0.15047 -0.442973 1.62505 59 58 54 
-0.0953728 -0.444716 1.6427 70 65 59 
0.044997 -0.436934 1.58879 65 62 57 
-0.0814642 0.446716 1.25807 56 49 41 
0.179609 0.47605 1.15082 25 26 21 
0.317277 -0.251497 1.6797 120 112 101 
0.192683 0.0048475 1.40875 84 74 65 
-0.129046 -0.423581 1.64975 57 54 45 
0.0770959 -0.103521 1.44128 66 57 50 
0.00126341 -0.173932 1.48959 53 44 35 
-0.0870388 -0.437936 1.6371 57 53 44 
0.0165243 -0.433358 1.59835 41 37 34 
0.285442 -0.0538647 1.53174 106 94 80 
0.204169 0.415393 1.22197 81 77 66 
0.305244 -0.0357567 1.56921 88 45 39 
0.171334 -0.786654 1.96355 82 77 73 
0.129295 -0.519579 1.68357 64 61 54 
0.317206 -0.0190093 1.57679 65 35 24 
0.0226112 0.44289 1.17918 62 58 49 
0.202704 0.553042 1.06217 109 108 87 
0.272726 -0.421158 1.67805 32 27 24 
0.0640028 -0.214702 1.49362 49 44 41 
0.281201 -0.588531 1.89809 77 70 64 
-0.0274954 0.274677 1.31264 50 45 41 
-0.0753417 -0.516142 1.69541 69 66 61 
0.295631 -0.328402 1.65928 36 32 23 
0.291496 -0.287809 1.66159 92 82 73 
0.278928 -0.0117829 1.50323 101 83 61 
-0.0535758 -0.0165103 1.462 39 35 32 
0.0269257 -0.307737 1.54686 61 56 50 
-0.103504 -0.426484 1.66303 33 32 28 
0.0403348 0.396021 1.21296 62 53 48 
-0.0513201 -0.144079 1.50587 28 26 27 
0.356429 -0.497877 1.89007 97 92 88 
0.0249595 -0.413019 1.59436 80 76 73 
0.343405 -0.0708655 1.6188 96 81 62 
0.146528 0.498978 1.13503 62 54 41 
0.104212 -0.717716 1.86537 76 73 64 
0.168331 0.488249 1.14327 50 49 44 
0.355996 -0.40026 1.7756 75 70 66 
-0.0586626 0.36626 1.27237 22 20 21 
0.172441 0.559718 1.14172 26 23 6 
0.297218 -0.463033 1.74212 82 75 67 
0.0156205 -0.786709 1.86911 69 65 54 
0.14912 0.329445 1.2377 72 68 57 
0.337899 0.301414 1.42832 118 106 92 
0.215259 0.438428 1.20622 57 50 40 
0.0939831 0.258163 1.2751 52 38 29 
0.151499 0.375862 1.1822 58 54 45 
0.390115 0.294911 1.58868 103 91 75 
-0.0310536 -0.396971 1.59992 49 45 42 
0.0112404 0.352317 1.24797 49 46 41 
0.204614 -0.240106 1.58597 95 83 71 
-0.101161 0.443802 1.27469 60 57 52 
-0.111488 -0.300829 1.6316 52 50 51 
0.0724093 0.0152177 1.38788 52 45 37 
0.081941 -0.618502 1.78109 63 59 50 
-0.0812069 -0.292653 1.60702 19 18 13 
0.315759 0.0840697 1.5201 94 45 38 
0.0093906 0.152626 1.33244 70 61 52 
0.0924076 -0.259934 1.52506 78 74 65 
0.317392 -0.212082 1.65164 84 75 66 
-0.0493238 0.253898 1.32899 68 63 57 
0.112849 -0.273059 1.5561 60 56 47 
0.278761 0.505509 1.20733 80 73 63 
0.0992385 0.237543 1.28783 78 44 35 
-0.353413 0.654618 1.15704 49 47 22 
-0.0844136 -0.319366 1.61831 17 15 20 
-0.141372 -0.0798569 1.60253 81 41 39 
0.312323 0.289809 1.38527 122 115 97 
0.333741 -0.0427613 1.58604 107 91 68 
0.141146 -0.755229 1.91811 79 77 65 
-0.100027 -0.0850159 1.53153 45 42 35 
-0.0157374 -0.439283 1.59552 1 0 0 
0.308185 -0.430125 1.712 57 53 50 
0.251626 -0.879 2.19014 141 144 137 
0.12767 0.297336 1.25708 58 49 40 
-0.069558 -0.00800909 1.4656 30 26 25 
0.0669488 0.398513 1.20523 50 45 42 
-0.0703698 0.460533 1.27692 34 30 27 
0.288497 0.372058 1.2917 103 101 88 
-0.0610929 0.0186388 1.44892 39 35 32 
0.0504893 -0.788577 1.8967 71 52 46 
0.33545 0.0630565 1.53921 93 80 63 
0.0040953 -0.289303 1.54321 88 83 80 
0.342226 -0.0616207 1.60931 108 97 69 
0.0803436 -0.175028 1.48211 62 53 44 
-0.0311798 0.312871 1.29137 65 61 58 
0.0218262 0.0030134 1.40082 107 104 97 
0.362449 -0.232939 1.74039 106 102 90 
0.0873505 -0.314042 1.54458 93 84 75 
-0.0576431 0.26296 1.33317 66 61 57 
-0.151776 -0.0415047 1.57326 13 8 12 
-0.133744 -0.0143613 1.54928 81 46 42 
-0.122306 0.0404183 1.5058 77 39 36 
0.146273 0.25153 1.27508 77 69 58 
0.16539 -0.659306 1.80993 92 83 78 
0.352553 0.121323 1.54559 115 101 88 
0.362969 -0.116538 1.68249 113 96 86 
-0.0183601 0.078837 1.37999 49 48 44 
0.0505731 -0.219567 1.49715 49 45 42 
-0.0905709 0.130895 1.41393 28 24 23 
0.164825 -0.462358 1.61777 98 93 87 
0.166222 -0.65028 1.81591 56 49 39 
0.0113768 -0.70177 1.86471 72 67 61 
-0.035237 0.112633 1.39538 37 36 32 
0.184791 0.066559 1.48426 41 31 22 
0.151692 -0.799277 1.93747 52 48 39 
-0.140298 -0.270204 1.64159 16 16 14 
0.275183 -0.158416 1.57112 75 65 55 
-0.0761403 0.163909 1.39218 45 36 27 
0.103616 -0.496722 1.66633 49 44 41 
0.146856 -0.779283 2.01137 70 61 52 
-0.155054 -0.742281 2.0279 60 56 53 
-0.258883 0.272936 1.62583 183 187 188 
0.0949544 -0.497208 1.64199 75 72 67 
0.00133133 -0.599989 1.76655 50 47 38 
0.0198102 0.345001 1.23863 54 52 40 
-0.0440689 0.121398 1.37746 74 69 66 
0.234063 0.496255 1.16562 72 68 57 
-0.0783065 -0.491014 1.67419 74 71 64 
0.185445 -0.465008 1.63948 107 102 96 
0.0663312 0.463473 1.15573 39 36 31 
0.134249 -0.455733 1.63009 6 5 1 
0.23403 -0.0589558 1.49757 100 88 74 
0.154171 0.186346 1.31513 81 73 60 
0.306607 -0.164489 1.6109 87 77 65 
0.276178 0.486574 1.20302 71 69 57 
-0.050519 0.423172 1.24579 45 42 37 
0.0494739 -0.0127542 1.39742 61 53 42 
-0.153572 -0.0200148 1.55954 42 38 35 
-0.0448916 -0.352933 1.58471 17 15 16 
-0.0589058 -0.444276 1.63074 61 55 57 
-0.0990927 0.1339 1.43049 33 28 25 
-0.0397307 0.4807 1.18614 39 35 32 
0.307239 -0.61863 1.96136 95 92 85 
0.255531 0.171846 1.4005 71 63 50 
-0.0712204 -0.436332 1.63588 4 0 1 
0.0579424 -0.719878 1.86376 56 42 39 
0.175834 -0.394765 1.55993 54 50 39 
0.0340038 -0.470982 1.61143 122 113 106 
-0.154669 -0.253195 1.65937 54 50 49 
0.146497 -0.535998 1.69224 50 49 44 
0.358655 -0.418676 1.78083 46 43 34 
-0.0871586 -0.134566 1.53698 44 40 37 
-0.145722 -0.0513107 1.58315 75 37 34 
0.0737917 0.467232 1.14857 49 46 37 
0.366583 0.245523 1.49589 104 92 78 
0.292614 0.470136 1.34769 107 97 85 
0.312096 -0.272443 1.67642 73 65 54 
-0.0826276 -0.0981583 1.51654 23 20 15 
-0.0733922 0.0784995 1.42977 24 20 11 
-0.0764827 -0.241082 1.58509 56 55 53 
-0.220172 -0.35117 1.74545 78 75 70 
-0.00554405 -0.735444 1.84286 77 73 64 
0.346967 -0.150753 1.67059 115 103 91 
-0.121527 -0.283199 1.62718 46 44 45 
0.0237824 -0.282105 1.54174 80 73 67 
0.248923 -0.474817 1.68417 83 74 67 
-0.0466421 -0.609302 1.76773 70 65 59 
0.0266855 0.257614 1.27727 62 55 47 
0.0162929 0.275346 1.27901 56 52 43 
0.240606 -0.806566 2.07595 48 43 37 
0.339176 0.0447512 1.55923 110 99 71 
0.095316 -0.613279 1.76363 72 69 62 
0.0885672 0.00940399 1.38154 54 47 37 
0.17414 -0.581335 1.75074 80 71 64 
0.231078 -0.462888 1.65558 104 97 87 
0.055846 0.0757117 1.34568 41 32 25 
0.19247 -0.714459 1.89973 73 72 67 
0.0801318 0.271046 1.2639 33 24 15 
0.141708 -0.409178 1.60255 53 46 36 
0.127327 -0.199096 1.52642 83 76 66 
0.0541704 -0.736631 2.71517 4 0 0 
0.152967 0.45235 1.15231 63 60 51 
0.0402545 0.499866 1.14829 81 77 68 
-0.097356 0.301587 1.35069 65 56 49 
0.136363 0.227014 1.28817 91 82 67 
0.264121 -0.850891 2.163 211 215 218 
0.309553 -0.751115 2.10176 81 79 64 
-0.0504851 -0.35035 1.5759 46 42 39 
0.304572 -0.113134 1.60367 21 17 8 
-0.0900905 -0.398365 1.63619 68 64 55 
-0.119713 0.280417 1.37129 42 41 39 
0.135221 -0.393337 1.59205 72 64 53 
-0.041276 -0.779092 1.90232 58 55 48 
-0.1774 -0.413248 1.70056 49 48 44 
0.275213 -0.104575 1.54697 109 95 82 
0.202111 -0.754095 1.96645 67 62 58 
-0.0150569 0.186219 1.33971 54 46 43 
-0.054793 0.14739 1.38842 80 72 61 
0.243406 -0.228727 1.58802 115 108 98 
0.0807124 0.136291 1.29517 60 55 49 
0.346328 0.098353 1.52466 104 94 82 
-0.110293 -0.258766 1.61148 75 72 67 
0.104568 -0.118145 1.44774 73 66 56 
0.201284 0.0985857 1.36399 102 96 82 
0.0110466 -0.477024 1.61649 96 93 84 
0.238137 -0.417374 1.65408 68 64 61 
-0.107914 -0.757208 1.96332 58 57 55 
0.359139 0.331404 1.43116 75 68 52 
0.304436 -0.261475 1.66624 88 80 69 
0.325901 0.0606208 1.53512 74 62 48 
0.209866 -0.500593 1.67858 80 73 63 
-0.0821404 -0.201125 1.56436 33 32 28 
0.2994 0.451098 1.25881 87 83 71 
0.0590066 -0.050155 1.41513 122 112 103 
-0.0314459 -0.447159 1.6002 55 51 40 
0.133865 0.314527 1.24143 63 59 47 
-0.118106 -0.230972 1.60456 79 78 74 
-0.0236421 -0.501336 1.65186 82 78 67 
-0.00653095 0.27251 1.2943 51 48 43 
-0.0425006 -0.400193 1.61245 63 59 56 
0.18768 -0.486599 1.65773 92 88 79 
0.165431 -0.531587 1.69352 79 75 66 
0.0839221 0.0829605 1.34479 48 39 32 
-0.129938 -0.205248 1.60079 39 38 36 
0.198047 0.465852 1.1519 36 33 26 
-0.0816159 -0.191699 1.55535 10 9 5 
0.00712754 0.338488 1.2532 44 43 39 
0.105686 0.0114685 1.3888 60 52 41 
0.193841 -0.772519 1.97583 56 55 50 
0.170927 0.279565 1.26723 31 22 17 
0.166343 -0.813463 1.98849 52 44 41 
0.0428252 -0.394077 1.58303 48 39 34 
0.340715 0.437388 1.33633 89 81 68 
0.201036 -0.290043 1.59859 65 58 50 
-0.041611 0.120196 1.36359 72 67 63 
-0.128749 -0.131326 1.57279 41 37 36 
-0.0876196 0.2395 1.35647 48 43 39 
-0.0470515 -0.54927 1.69907 84 81 74 
0.0654259 0.38135 1.21576 52 48 37 
-0.120956 -0.42854 1.66297 24 23 21 
0.166457 -0.188318 1.48763 27 21 9 
-0.154577 -0.0103318 1.55619 49 45 34 
0.0111275 -0.250296 1.52527 60 56 45 
0.0297191 -0.238685 1.56216 53 49 40 
-0.0659494 -0.321372 1.60976 27 26 24 
0.137563 0.388034 1.20611 87 80 72 
0.297288 -0.49935 1.794 76 73 64 
-0.131611 0.0505794 1.51458 55 20 14 
-0.17045 -0.349014 1.68916 76 75 71 
0.296775 -0.424479 1.70544 59 55 52 
0.116606 0.0127142 1.36266 63 54 47 
0.130567 -0.257637 1.50421 69 64 58 
-0.0190995 0.199139 1.34101 59 56 51 
-0.0259867 -0.37551 1.58951 88 85 80 
0.177121 0.502801 1.14096 48 45 36 
0.252889 -0.196988 1.57951 89 79 70 
0.178187 0.00417263 1.39543 90 80 71 
0.227784 0.222337 1.36258 107 94 85 
0.0781631 -0.588619 1.77136 100 97 88 
0.377545 -0.29787 1.78958 10 10 10 
0.104107 0.320117 1.23476 64 60 51 
0.152636 0.129947 1.3333 56 49 39 
0.0932702 0.222337 1.29517 90 55 49 
-0.0703935 -0.147537 1.53309 57 53 50 
-0.164072 -0.0663216 1.58922 59 58 54 
0.37746 0.348342 1.47399 85 76 61 
-0.0759798 -0.335541 1.62779 29 28 23 
-0.00594607 0.343644 1.25553 57 54 49 
0.286833 0.210086 1.35782 107 99 80 
0.231403 -0.73821 1.99558 45 44 42 
-0.0716403 -0.419952 1.63359 59 55 52 
0.334877 0.0839798 1.51607 96 85 63 
0.0966076 0.411606 1.20332 71 64 56 
0.0908465 -0.273068 1.50921 69 65 56 
0.328833 -0.0524016 1.58769 61 49 27 
0.369992 0.459499 1.35139 70 67 52 
0.209494 0.304032 1.32887 111 103 90 
-0.23794 0.364068 1.52404 185 189 190 
0.120624 0.123874 1.33819 113 106 96 
0.404889 0.278181 1.59967 127 120 110 
-0.0294955 -1.67199 2.65858 215 219 220 
0.202197 0.449746 1.17884 119 113 101 
0.107733 -0.956308 2.05724 129 121 110 
0.123404 -0.785896 1.88511 26 25 21 
0.25569 -0.359516 1.63565 107 102 98 
0.123477 -0.730918 1.85472 41 37 26 
0.0614444 -1.10927 2.19392 123 120 103 
0.117297 -0.643465 1.78982 46 42 39 
0.227585 0.291179 1.3124 135 123 107 
0.284143 -0.271025 1.64708 48 44 32 
0.235805 -0.23288 1.58481 125 119 107 
0.0194321 -1.65688 2.56405 221 225 226 
0.234838 0.422582 1.23171 104 92 80 
0.0781754 -1.05888 2.14721 41 36 32 
0.237596 -0.391255 1.6408 91 88 81 
0.231372 0.318338 1.28106 54 42 30 
0.0706028 -0.570879 1.73013 50 47 40 
-0.047879 0.00511066 1.4498 17 11 11 
-0.0189439 -0.242984 1.52802 75 68 60 
0.284989 -0.067104 1.54299 109 93 68 
0.0715171 -0.409746 1.58862 91 90 85 
0.127772 -0.760005 1.87949 31 27 24 
0.0336121 -0.142219 1.468 84 80 71 
-0.141886 -0.324196 1.64353 3 3 5 
0.0692768 0.191946 1.29871 80 69 49 
0.0539848 -0.469714 1.61016 110 107 102 
0.12027 -0.811205 1.90257 73 69 57 
0.317951 0.47492 1.23889 124 117 101 
0.0383635 -0.875634 1.91889 66 59 49 
0.273159 -0.0377899 1.51325 93 77 62 
0.0354879 0.048985 1.3797 81 76 70 
0.116029 -0.607834 1.76217 80 76 75 
0.144069 -0.689245 1.82816 20 15 9 
-0.0161583 -0.654524 1.79558 43 38 32 
0.0295783 -0.823011 1.89347 40 39 37 
0.104689 -0.789441 1.88388 66 59 51 
0.320622 0.478734 1.24849 113 109 97 
0.0047213 -0.183584 1.49122 84 77 69 
0.133982 -0.6549 1.79476 48 43 40 
0.179005 -0.453315 1.63541 33 27 27 
0.246154 0.493183 1.17526 39 36 27 
0.224734 0.371489 1.25137 55 49 37 
-0.0340675 -0.100692 1.48902 24 19 15 
0.252943 0.472281 1.19184 45 41 32 
0.273955 -0.170972 1.58243 93 83 73 
0.0621398 -0.461715 1.60167 39 36 31 
0.27585 -0.429171 1.68387 13 9 6 
0.0898806 -0.815403 1.89557 37 35 36 
-0.0608521 -0.338553 1.62087 41 40 36 
0.058803 -0.816231 1.89495 26 25 23 
0.0174494 -0.625939 1.77531 88 85 76 
-0.00447385 -0.0274393 1.42394 64 53 47 
0.126593 -0.41239 1.60281 66 66 58 
-0.149927 0.252169 1.42655 36 33 26 
0.0126352 0.513098 1.14271 63 59 48 
0.294926 0.348718 1.30722 98 89 74 
0.259392 -0.39837 1.65445 50 49 45 
0.292351 0.432636 1.26586 123 114 99 
0.21491 -0.434152 1.64008 61 60 56 
0.248454 -0.398491 1.64896 64 59 56 
-0.0235552 -0.743904 1.87789 43 40 35 
0.129584 -0.709448 1.84357 57 54 47 
-0.0324175 -0.464608 1.62483 98 95 86 
0.322359 -0.110574 1.61108 48 44 33 
0.110129 -0.802974 1.88834 98 94 83 
0.196222 0.406428 1.22059 100 96 87 
0.00187166 -0.751653 1.85618 64 60 48 
0.0184248 0.556649 1.06898 85 82 67 
0.276801 0.186086 1.40014 76 66 54 
-0.147451 0.0377899 1.53374 9 7 8 
0.275063 -0.319779 1.66136 50 45 42 
0.24782 -0.219062 1.58209 96 84 72 
0.220532 0.248097 1.33322 132 124 111 
-0.00162751 -0.67977 1.82166 80 76 67 
0.115833 -0.449056 1.60951 4 0 0 
0.218337 -0.45862 1.64412 116 112 103 
-0.00581794 -0.0537719 1.43572 34 30 27 
0.0265388 0.156048 1.32612 71 64 54 
-0.0185268 -0.580192 1.73201 50 46 43 
0.0993302 -0.740865 1.86176 98 88 79 
0.077976 -0.456623 1.60546 38 35 30 
0.026712 0.552883 1.07847 60 56 45 
0.223675 -0.102983 1.50994 98 88 78 
0.294842 0.245509 1.38744 106 98 85 
0.140855 -0.698564 1.83411 74 72 59 
0.276527 -0.443335 1.68646 49 45 36 
0.0267969 -0.450057 1.60873 3 1 4 
0.182911 -0.419825 1.62634 54 50 41 
0.189709 0.172647 1.3349 98 88 76 
0.233021 0.0710604 1.42635 104 95 78 
0.297483 0.157216 1.43703 122 109 101 
0.025662 -1.07702 2.16412 58 53 47 
0.140982 -0.417787 1.60638 99 95 94 
0.323311 0.100815 1.51924 73 58 39 
0.0671526 -0.625006 1.76848 85 77 74 
0.269933 0.115907 1.43435 92 79 63 
0.228874 0.523346 1.10928 38 33 27 
0.132298 -0.673874 1.81364 63 61 49 
0.150924 -0.475738 1.64626 95 88 82 
0.0993884 -0.427705 1.60055 71 68 63 
-0.0838898 -0.421222 1.63613 61 57 54 
0.0473798 -0.806291 1.89193 36 36 36 
0.0917863 -0.440867 1.60571 62 57 54 
0.0499067 -0.368332 1.59802 52 48 45 
0.104721 -0.670391 1.81083 82 79 74 
0.266347 0.508815 1.18125 55 53 41 
0.0715782 -0.17116 1.49813 79 70 61 
0.0718235 -0.858796 1.91484 103 96 78 
0.153354 -0.682793 1.82769 72 69 60 
0.0418479 -0.800785 1.88364 41 40 38 
-0.109832 -0.437829 1.64697 55 53 41 
0.0468908 -0.88293 1.93062 102 90 74 
0.308644 -0.430258 1.71279 55 52 47 
0.0500788 -0.668723 1.80889 64 61 56 
0.100113 -0.330559 1.55816 53 49 40 
0.12879 -0.446155 1.61898 35 30 26 
0.276266 0.438776 1.24385 115 107 96 
0.00497724 -0.452251 1.60894 44 43 38 
0.00490679 -0.040121 1.42692 58 54 45 
0.143293 -0.558669 1.7223 75 70 64 
-0.0377904 -0.713297 1.84898 82 79 72 
0.0511082 0.367234 1.23697 50 45 41 
0.0493742 -0.491751 1.62899 109 104 101 
0.0512998 -0.825898 1.89652 37 32 26 
0.0935343 -0.76443 1.87479 80 75 71 
0.0178804 -0.69181 1.83031 77 72 66 
0.329634 0.507421 1.23159 76 74 61 
0.27555 0.511622 1.18649 56 52 49 
0.151452 -0.616099 1.76706 62 57 53 
0.0807628 -0.216045 1.50064 52 47 41 
-0.00808091 -0.1602 1.48475 31 26 22 
0.125773 -0.30275 1.53867 46 39 31 
0.0632488 -0.643316 1.79717 67 64 59 
0.297125 -0.424202 1.70612 60 61 53 
0.0328875 -0.426267 1.59888 77 73 70 
0.11984 -0.719057 1.846 91 85 73 
-0.0417054 -0.345844 1.59354 3 3 3 
-0.00700672 -0.289952 1.54412 32 29 24 
0.0519406 0.233734 1.28546 53 41 29 
0.103336 0.507026 1.08957 12 10 0 
0.0569398 0.367267 1.22084 78 74 65 
0.0937934 0.189484 1.28612 106 94 78 
0.166112 0.336398 1.24465 80 77 62 
0.000452046 -0.651956 1.7933 69 66 59 
0.0576656 0.398048 1.20871 69 65 56 
0.17136 -0.439356 1.62352 74 70 69 
0.245735 0.46904 1.18295 58 54 42 
0.123456 0.419276 1.19582 88 80 69 
0.0209206 0.208279 1.31212 119 111 100 
0.108582 0.378176 1.21456 75 66 59 
0.0622278 0.129531 1.32683 56 51 45 
0.131473 0.474199 1.14845 71 67 56 
0.0980395 -0.462315 1.60808 37 36 34 
0.189087 -0.498727 1.67209 105 101 90 
0.0989999 0.520341 1.08123 58 55 38 
0.0127529 -0.374163 1.57805 83 79 76 
-0.045332 -0.433796 1.62101 44 40 37 
0.219233 0.546078 1.09001 96 96 86 
0.134528 0.504911 1.13449 34 30 18 
-0.0527681 -0.0340124 1.46804 33 29 26 
0.184171 0.508665 1.0983 51 47 35 
0.188571 0.480292 1.15782 33 32 30 
0.209938 0.504604 1.1494 77 73 62 
0.183843 0.49429 1.14743 79 76 67 
0.213858 0.504489 1.10968 62 50 36 
0.182811 0.535307 1.08353 66 60 44 
0.167528 0.50225 1.14005 54 51 46 
0.073896 -0.148292 1.46975 49 40 33 
0.160015 0.517116 1.08902 58 56 44 
0.19138 0.509705 1.13708 74 75 59 
0.163332 0.49318 1.14258 41 38 33 
0.0570834 0.157153 1.31974 94 87 79 
0.0939315 0.501471 1.13472 56 49 43 
-0.0416173 -0.367267 1.59428 57 57 47 
0.150266 0.499925 1.13816 37 33 24 
-0.0952057 -0.017705 1.48802 67 63 52 
0.0754841 -0.838424 1.91578 65 61 50 
0.202947 0.525411 1.09637 11 11 3 
0.0126216 -1.01135 1.90486 137 137 137 
0.0654993 0.380204 1.21432 55 50 44 
0.0057322 -1.50921 2.5688 30 29 34 
0.139784 0.457676 1.16574 97 95 83 
0.107703 0.495237 1.1446 61 58 51 
-0.208217 -0.718266 2.04931 29 28 26 
-0.239815 0.302216 1.56489 51 50 46 
0.306751 -0.813676 2.15915 75 76 62 
0.309214 -0.723974 2.0641 26 25 20 
0.407866 -0.246951 1.90281 9 5 2 
0.325372 0.141362 1.486 150 141 124 
0.338364 -0.590109 1.96611 68 68 58 
0.395905 0.394562 1.43422 11 4 0 
-0.21612 -0.538595 1.89217 64 60 57 
0.291905 0.134297 1.44839 136 124 112 
0.306116 0.194863 1.43052 14 4 0 
0.274692 0.348331 1.28694 130 126 115 
-0.20969 -0.748635 2.10211 20 17 12 
0.37488 -0.258282 1.7748 5 3 4 
0.307508 0.133618 1.46511 148 139 124 
0.340881 0.19433 1.47328 154 144 132 
-0.190191 -0.801508 2.10663 59 59 51 
0.362859 -0.251755 1.7487 23 15 12 
0.201928 0.22846 1.32091 123 113 101 
0.287577 0.153171 1.43218 15 3 0 
0.308207 0.232347 1.40964 152 143 126 
0.313562 0.202957 1.43774 127 117 105 
0.271071 0.406924 1.25897 46 40 28 
0.12413 -0.626161 1.76165 109 104 98 
0.210329 0.196914 1.35691 115 106 89 
0.280321 0.258207 1.36807 144 134 124 
0.353216 0.467843 1.29372 29 15 2 
-0.231879 -0.823433 2.1846 225 227 226 
0.353565 0.328684 1.41525 86 77 60 
0.271202 0.184726 1.39642 38 26 12 
0.292418 0.369298 1.29853 142 134 123 
0.259728 0.331842 1.2895 18 10 0 
0.285034 0.228943 1.39244 32 26 12 
0.301372 0.25028 1.38671 27 15 1 
0.23779 0.275091 1.33336 45 33 21 
0.334147 0.304259 1.40291 140 131 114 
0.25142 0.0254248 1.47833 140 127 111 
0.347067 0.104562 1.53316 76 63 47 
0.306344 0.486418 1.2171 138 130 117 
0.34327 0.323978 1.40097 45 37 18 
0.366119 0.188807 1.52548 65 57 38 
-0.216409 0.378969 1.46922 39 36 31 
0.284183 -0.337576 1.6638 3 5 4 
0.202982 -0.14561 1.52124 110 108 96 
0.210865 0.218169 1.33607 63 56 48 
0.2783 -0.00116882 1.50383 126 113 97 
0.345268 0.352587 1.3624 48 40 27 
0.190599 0.0433504 1.39564 145 135 126 
0.208225 0.130769 1.3835 127 124 107 
0.30732 0.165398 1.46716 127 118 101 
0.27733 0.0126768 1.49695 103 91 79 
0.106638 -0.289278 1.52517 120 115 109 
0.260373 -0.339997 1.63651 2 2 2 
0.370404 -0.33776 1.76602 97 94 87 
0.342537 0.315085 1.40877 163 151 135 
0.328443 0.261279 1.41815 72 62 50 
0.285059 -0.245046 1.63509 135 125 113 
0.376621 0.377335 1.393 20 11 0 
0.367581 0.195439 1.53594 131 118 102 
0.239954 0.203444 1.37118 147 136 118 
0.318426 -0.181785 1.63974 31 17 4 
0.331219 -0.596463 1.95369 76 68 57 
0.305899 0.217848 1.41832 38 28 16 
0.260372 0.00592598 1.49015 102 89 73 
0.025697 -0.486073 1.62297 139 135 124 
0.344602 0.460136 1.29789 45 32 15 
0.361442 0.100868 1.5642 144 132 108 
0.244573 0.418923 1.2397 139 130 115 
0.262487 0.227033 1.37683 166 157 142 
0.295802 0.292602 1.3609 22 14 0 
0.257125 0.216424 1.37191 145 134 116 
0.358299 0.0743891 1.57784 53 40 23 
0.217489 0.18061 1.36469 10 0 0 
0.0728813 0.501884 1.08234 37 26 8 
0.252724 -0.246231 1.60291 55 45 35 
0.177624 0.121317 1.37059 29 21 10 
0.290645 0.354635 1.30594 140 131 116 
0.241968 0.238377 1.35613 57 49 36 
0.323859 0.220175 1.43608 142 131 111 
0.35793 0.164773 1.52311 142 127 106 
0.24793 0.164677 1.39612 86 74 60 
0.322721 0.34371 1.34224 94 85 70 
0.203526 0.165538 1.36746 49 45 36 
0.322072 0.314398 1.37624 42 32 20 
0.283451 0.0736643 1.47218 33 24 7 
0.252086 0.0579306 1.45375 61 49 33 
0.283 0.316442 1.32444 74 68 56 
-0.0413799 0.517952 1.10562 40 38 26 
0.272699 0.278148 1.34706 136 127 110 
0.0538324 0.194559 1.30536 101 97 88 
0.365422 0.251242 1.48049 146 137 122 
0.243501 -0.138566 1.54008 126 113 96 
0.249981 -0.0740594 1.50796 124 112 96 
0.266252 0.379004 1.2712 68 58 46 
0.37253 0.26859 1.49981 171 158 141 
0.25777 -0.0132211 1.49709 40 28 14 
0.203164 0.290907 1.28581 115 108 90 
0.364168 0.219044 1.49901 77 64 45 
0.123056 0.514635 1.08895 114 108 94 
0.348095 0.16525 1.50005 141 129 113 
0.347225 -0.276454 1.72198 98 91 81 
0.180802 -0.712086 1.85699 99 95 83 
0.274366 0.227727 1.38042 23 20 5 
0.286743 0.199006 1.40795 144 128 115 
0.0416384 0.32041 1.24539 41 38 29 
0.310231 -0.237087 1.65526 138 131 121 
0.208947 0.205782 1.35193 58 54 43 
0.263084 0.296516 1.33228 81 69 53 
0.207179 0.157995 1.37651 32 23 14 
0.357895 0.269116 1.45848 48 39 24 
0.255455 -0.0423678 1.51299 110 101 86 
0.324788 0.146808 1.47541 129 119 109 
0.227464 0.327024 1.28374 69 60 45 
-0.0823738 -0.351337 1.60975 59 56 51 
0.214101 0.0890037 1.41596 55 41 28 
0.405738 0.396012 1.46608 94 84 72 
0.252366 -0.0322475 1.49972 90 78 62 
0.356797 0.376078 1.35452 130 122 103 
0.226769 0.125675 1.40402 155 145 135 
0.0281074 0.497727 1.1376 124 115 106 
0.266159 -0.228063 1.6086 114 110 98 
-0.213238 -0.583894 1.93112 58 57 55 
-0.00321338 0.515926 1.1311 159 144 121 
0.248807 0.214629 1.36567 169 157 141 
0.0258315 -0.639904 1.77596 112 108 99 
0.251743 -0.560139 1.80042 54 49 43 
0.197934 0.109124 1.38396 131 122 107 
0.204835 0.0849789 1.41506 97 87 77 
0.307524 0.317073 1.35196 156 148 127 
0.40196 0.401158 1.44344 145 135 123 
0.34271 0.449814 1.30852 133 124 109 
0.299198 -0.286259 1.67019 98 94 85 
0.382123 -0.0318918 1.68603 120 108 94 
0.358202 0.367043 1.37147 63 56 40 
0.223365 0.0954721 1.42945 136 124 110 
0.289758 0.390874 1.28334 139 130 115 
0.291625 0.451991 1.23555 123 111 99 
0.348632 -0.126184 1.66673 127 119 108 
0.218996 -0.0447674 1.47932 85 75 65 
0.217954 0.133754 1.3991 128 115 106 
0.30958 0.309765 1.36873 42 33 16 
0.258383 -0.292791 1.63031 90 81 72 
0.33239 0.350212 1.34297 142 130 114 
0.209527 0.237134 1.33485 58 54 45 
0.265824 -0.215589 1.59961 106 99 93 
0.263139 0.0548705 1.46811 121 107 94 
0.318556 0.448674 1.27214 104 95 80 
0.203278 0.181329 1.34057 113 105 94 
-0.0156556 0.551795 1.07168 7 4 0 
0.241607 -0.281397 1.61459 97 94 85 
0.286005 -0.108983 1.5815 127 120 101 
0.260276 0.3443 1.27903 117 109 98 
0.313927 0.178902 1.45237 101 91 79 
0.227788 0.455043 1.18266 38 34 22 
0.348737 0.350773 1.37229 143 135 122 
0.224718 0.00310908 1.4738 126 118 105 
-0.000107734 -0.536243 1.6853 132 125 117 
0.29953 0.130548 1.45627 123 111 97 
0.284214 -0.270611 1.64413 60 54 42 
0.320407 -0.262614 1.68457 89 81 70 
0.307472 -0.124916 1.59928 9 4 1 
0.0444902 -0.580746 1.73251 53 50 41 
0.352054 0.241303 1.4568 133 121 109 
0.0311174 0.308853 1.24998 105 101 90 
0.328069 -0.589056 1.97685 48 40 29 
0.222229 -0.646538 1.8481 59 52 46 
0.325586 0.468925 1.25719 42 34 23 
0.191147 -0.220668 1.54136 35 30 26 
0.31022 0.101869 1.51066 100 48 35 
0.186421 -0.573862 1.72248 127 118 109 
0.311325 0.259378 1.39804 129 120 105 
0.184068 0.204251 1.32761 47 35 23 
0.301083 0.22881 1.40215 118 109 94 
-0.0233314 0.518534 1.13908 139 128 110 
0.336253 0.340687 1.36495 93 83 71 
0.328158 -0.0861694 1.6026 123 113 101 
0.189186 -0.0546926 1.45278 57 50 40 
0.327894 -0.570244 1.91166 92 83 74 
0.278855 0.445014 1.23464 116 109 91 
0.232089 0.112519 1.41731 135 125 113 
0.18117 0.50696 1.1219 114 107 91 
0.0455399 0.452008 1.16493 82 75 69 
-0.0427282 -0.296718 1.58231 38 37 33 
-0.0158366 0.503858 1.14349 22 15 5 
0.199354 -0.0576916 1.47989 98 88 78 
0.190904 -0.214617 1.55303 41 32 27 
0.287096 0.182476 1.41301 110 100 88 
0.338997 -0.0933523 1.63026 21 13 0 
