ply                 
format ascii 1.0    
element vertex 240
property float x    
property float y    
property float z    
property uchar red  
property uchar green
property uchar blue 
end_header          
-0.16206 0.564028 1.17994 97 93 84 
-0.0107837 -1.5694 2.54512 224 230 230 
-0.0349837 0.552987 1.10021 106 102 91 
-0.0684439 0.314437 1.3061 93 86 78 
0.0098131 0.311286 1.26357 4 1 0 
0.00680912 0.218263 1.30827 8 0 0 
-0.106813 0.552864 1.13738 90 87 78 
0.047351 0.451261 1.17359 18 13 10 
-0.114312 0.577896 1.12978 128 119 102 
-0.107015 0.552943 1.13759 94 91 82 
-0.0524355 0.406826 1.24426 12 3 4 
-0.0345348 0.253344 1.32689 64 55 48 
-0.04586 0.516622 1.12743 35 35 23 
0.0390888 0.507575 1.148 108 98 88 
-0.0569653 0.461022 1.20407 26 16 15 
-0.0842407 0.557727 1.1215 31 21 12 
-0.0151909 0.540582 1.10145 18 10 7 
-0.0683343 0.507559 1.18435 41 34 26 
-0.0504674 0.441398 1.21802 9 5 2 
-0.152076 0.58333 1.16175 26 18 7 
-0.085508 0.0732092 1.43758 15 10 4 
-0.030201 0.504911 1.16755 92 85 77 
-0.0607397 0.530483 1.12323 14 9 6 
-0.0258931 0.50308 1.16659 19 9 7 
0.0118638 0.373342 1.23518 24 19 15 
-0.0819655 0.166238 1.39215 32 24 22 
0.0446531 0.217708 1.30396 86 83 74 
-0.0358602 0.248641 1.32936 58 55 50 
-0.0732633 0.243944 1.35115 13 3 1 
0.0190092 0.375387 1.23215 80 75 71 
0.019817 0.302067 1.26646 20 15 11 
-0.0793091 0.369228 1.27488 27 23 20 
-0.0108607 0.385565 1.23643 32 29 24 
-0.0921713 0.522189 1.19235 27 18 13 
0.0102309 0.328631 1.25448 37 34 29 
-0.0830666 0.125628 1.41313 9 4 1 
-0.00174683 -0.102365 1.46467 101 94 84 
0.026619 0.39056 1.22455 93 88 84 
-0.0866868 0.222452 1.36961 30 25 21 
-0.00663887 0.46051 1.17937 89 82 74 
-0.131528 0.543084 1.16113 76 69 59 
-0.0873268 -0.0375065 1.49034 75 70 67 
0.0158548 0.382054 1.23098 45 37 35 
-0.105708 0.548643 1.13848 24 14 13 
-0.135109 0.545272 1.16322 65 62 53 
-0.162584 0.580834 1.17445 32 28 17 
-0.00302174 0.484006 1.16778 45 34 32 
-0.0405891 0.337852 1.26798 3 0 0 
-0.0603113 0.523164 1.12775 10 6 5 
0.0375065 0.536895 1.09578 76 70 58 
-0.0351777 0.495897 1.17318 78 69 60 
-0.0203076 0.501708 1.16394 24 15 8 
-0.110033 0.569883 1.13188 89 83 71 
-0.075669 0.552305 1.1198 82 76 64 
-0.0457343 0.468557 1.19176 88 84 73 
-0.0389074 -0.0817495 1.48642 6 5 3 
-0.0920982 0.529173 1.18816 48 41 33 
0.0317165 0.538126 1.0973 86 73 64 
0.00491548 0.40432 1.22331 74 71 66 
-0.0771793 0.549288 1.12238 15 10 6 
-0.0429279 0.387088 1.24821 83 75 73 
-0.0714486 0.246517 1.3488 94 86 83 
-0.0890466 0.12289 1.41723 88 83 79 
-0.00602605 0.371305 1.24092 70 67 62 
-0.0741663 0.552461 1.12007 85 81 69 
-0.0150234 0.543183 1.1001 75 70 64 
-0.0886063 0.530193 1.18659 95 87 76 
-0.0155234 0.382974 1.23873 64 56 53 
-0.0820818 0.120801 1.41361 69 61 58 
0.0140982 0.0703787 1.3783 81 77 68 
-0.0450683 0.505371 1.17342 61 50 44 
-0.0850292 0.568063 1.1162 4 1 0 
-0.0927187 0.478874 1.21371 32 29 24 
-0.0392434 0.055845 1.42142 45 40 36 
-0.0294913 0.435841 1.21169 43 40 35 
-0.0340341 0.14162 1.37885 78 69 62 
-0.170081 0.558707 1.19209 23 16 10 
0.00602549 0.448551 1.18515 33 29 18 
-0.00938043 0.496788 1.16341 87 77 67 
0.0460004 0.448353 1.17481 75 70 64 
0.0297572 0.290166 1.26979 37 28 21 
-0.048529 -0.0740983 1.48596 33 33 31 
-0.0887308 0.539664 1.1324 74 69 66 
-0.152579 0.55773 1.17654 7 2 0 
0.0198059 0.455235 1.17612 27 23 14 
-0.0830949 0.50753 1.19359 33 29 20 
-0.0211739 0.542597 1.10365 34 26 23 
-0.0673388 0.356208 1.27405 52 49 44 
-0.151724 0.25912 1.41316 29 26 17 
-0.0571572 0.513439 1.17499 47 43 34 
-0.0266953 0.469782 1.18193 37 32 29 
-0.0700022 0.51168 1.18266 53 45 43 
-0.0735246 0.537359 1.12489 61 52 47 
-0.0291369 0.114772 1.39166 55 51 48 
-0.0170527 0.543502 1.10081 69 64 58 
-0.0385463 -0.318448 1.59675 60 56 55 
-0.0268013 0.469721 1.18185 37 32 29 
-0.0390564 0.537944 1.11003 44 44 36 
-0.0773973 0.521404 1.18319 100 93 83 
0.00342644 0.518522 1.10832 43 43 35 
-0.00664065 0.535846 1.10232 69 61 50 
0.000156066 0.11798 1.35732 79 69 60 
-0.0791797 0.51953 1.18519 55 48 42 
-0.0295521 0.274217 1.31392 63 58 52 
-0.0621411 0.461466 1.20655 22 18 15 
-0.0652156 0.538748 1.12083 25 20 16 
-0.121479 0.179383 1.41554 36 31 28 
-0.0984436 0.241852 1.37056 46 39 31 
0.0122029 0.506126 1.11267 52 48 37 
-0.00278897 0.352768 1.24576 73 72 67 
-0.0271117 0.545645 1.10279 64 57 49 
-0.017165 0.543451 1.10072 70 65 59 
-0.0019938 0.508942 1.15633 37 27 18 
-0.0375292 0.0295197 1.43274 83 74 69 
-0.0819251 0.14971 1.39849 51 46 42 
-0.0710473 0.515163 1.18275 27 18 11 
-0.0373681 0.378345 1.25086 72 65 57 
-0.0680483 0.117052 1.40768 34 23 19 
-0.0335978 -0.0422633 1.46556 57 53 50 
-0.073238 0.537449 1.12516 63 54 49 
-0.0720647 0.548639 1.12041 21 17 8 
-0.0519556 0.542822 1.11347 21 20 18 
-0.105891 0.525009 1.20179 26 16 14 
-0.0703224 0.51148 1.1816 47 39 37 
0.0123392 0.368473 1.23693 69 64 60 
-0.0796427 0.420318 1.2537 67 59 56 
-0.0217518 0.473422 1.1777 35 27 24 
-0.0319291 0.473387 1.18208 65 60 56 
-0.0230859 0.535995 1.10624 29 25 22 
-0.02104 0.192818 1.34963 31 23 21 
-0.0226586 0.504264 1.16403 76 69 61 
-0.061646 0.549085 1.11538 18 14 5 
-0.0638608 0.488462 1.192 50 39 33 
-0.0211709 0.510484 1.16012 56 47 40 
-0.0101151 0.48526 1.17061 53 45 42 
0.0111809 0.493099 1.16076 37 30 22 
-0.0350953 0.3992 1.23956 72 62 53 
0.0161737 0.495665 1.15921 78 71 61 
0.000894239 0.346205 1.24814 38 35 26 
-0.008655 -1.4916 2.56445 121 117 108 
-0.0352729 0.0226399 1.43668 26 22 19 
-0.100038 0.543169 1.13846 60 57 48 
-0.117948 0.540914 1.20415 82 73 58 
-0.0688346 0.378921 1.26421 36 32 29 
-0.0450627 0.556936 1.1022 76 63 55 
-0.0620384 0.516477 1.17522 82 78 67 
-0.0618115 0.0645365 1.42725 42 39 34 
-0.0903768 0.526101 1.14268 58 54 42 
-0.0674152 0.496835 1.18813 74 64 63 
-0.0410183 0.394821 1.24456 85 76 69 
-0.0204014 0.257947 1.31951 65 56 49 
-0.0755533 0.359684 1.27592 30 26 23 
0.0345837 0.488522 1.15761 57 50 42 
-0.0755262 0.140409 1.40012 49 42 36 
-0.0397278 0.544731 1.10746 22 19 14 
-0.0711397 0.558383 1.11289 73 65 52 
-0.016714 0.527997 1.1083 37 28 21 
-0.0402356 0.544389 1.10711 25 22 17 
0.0298869 0.485113 1.16035 81 75 63 
-0.0825002 0.267611 1.34578 51 41 39 
-0.116759 0.384915 1.29473 10 7 2 
-0.036872 0.544414 1.10655 27 22 19 
0.0190397 0.46512 1.17055 57 54 45 
-0.021894 0.459408 1.18647 40 35 32 
-0.118602 0.420446 1.2811 73 65 62 
-0.0348091 0.382509 1.24669 55 45 46 
-0.0203093 0.534891 1.10619 15 5 4 
0.039368 0.504769 1.14991 49 41 30 
0.0397949 0.427304 1.19147 61 56 50 
-0.106484 0.493161 1.21453 32 27 24 
-0.111793 0.543908 1.14568 28 18 17 
-0.156029 0.583579 1.16532 43 34 25 
-0.0251199 0.523653 1.11363 18 15 10 
-0.0158847 0.548091 1.09681 45 40 34 
-0.0348221 0.43741 1.21282 40 35 31 
-0.0752097 0.53417 1.12827 34 29 25 
-0.178031 -0.0881022 1.60447 56 49 43 
-0.0721052 0.54674 1.11982 25 21 12 
0.0296131 0.395411 1.22103 82 78 69 
-0.0353766 0.242988 1.3326 66 62 53 
0.0151814 0.490147 1.16036 53 49 38 
-0.00777511 0.52703 1.10527 33 28 22 
-0.111228 0.345261 1.31616 30 29 25 
-0.0405674 0.50116 1.17271 48 39 32 
-0.0415731 0.526857 1.11721 31 28 21 
-0.0726493 0.287375 1.3321 55 47 45 
-0.0681381 0.529364 1.1266 39 32 26 
-0.126249 0.502626 1.22716 48 39 32 
0.0193037 0.233637 1.29922 76 69 59 
-0.00683917 0.503947 1.1585 77 68 61 
-0.0639792 0.547863 1.11693 45 42 35 
-0.0765065 0.407335 1.25732 49 45 42 
-0.0944711 0.280639 1.34957 54 51 44 
-0.102093 0.348765 1.30182 47 43 42 
-0.00475702 0.476967 1.17263 55 45 43 
-0.0104581 0.348564 1.25164 44 39 35 
-0.0945551 0.518078 1.19445 62 49 41 
-0.0745708 0.397847 1.26004 40 36 33 
-0.0831601 0.540655 1.12754 31 25 25 
-0.0991939 0.221254 1.37751 72 67 63 
-0.0606029 0.195807 1.36515 81 76 70 
0.0439896 0.247176 1.28879 61 50 46 
-0.0293555 0.343087 1.26055 38 34 31 
-0.046093 0.3449 1.26721 52 48 45 
-0.0095483 0.539218 1.10196 63 56 48 
-0.0702952 0.0671066 1.43073 30 26 25 
-0.0533787 0.42349 1.23532 58 54 51 
-0.0476518 0.55645 1.10324 68 64 53 
-0.038568 0.334895 1.26715 42 35 29 
-0.0434979 0.545374 1.10752 18 14 13 
-0.0195798 0.240287 1.32788 59 52 42 
0.0351482 0.350632 1.23979 76 67 60 
-0.173211 0.563015 1.19437 47 42 36 
-0.149962 0.578689 1.16142 58 51 41 
-0.00819891 0.532699 1.10157 72 68 57 
-0.0458539 0.436651 1.217 38 33 30 
-0.00399334 0.46445 1.17547 46 39 33 
-0.0857876 0.0267317 1.46306 74 69 65 
-0.0480257 0.492099 1.18061 66 57 52 
-0.0448936 0.203199 1.35312 31 26 22 
-0.0543182 0.416973 1.23882 48 43 40 
-0.108511 0.506562 1.21227 42 34 31 
-0.0393231 0.385179 1.24732 62 55 45 
-0.00745963 0.46871 1.17613 43 41 29 
-0.102346 0.184523 1.39766 75 68 62 
-0.0616305 -0.0499727 1.48211 60 55 51 
-0.0673922 0.477957 1.19751 58 55 50 
-0.0852819 0.472679 1.21214 46 41 37 
-0.0239191 0.498804 1.16677 44 35 30 
-0.0131427 0.393409 1.23336 56 51 47 
-0.0573314 0.331512 1.28466 47 43 40 
-0.0818934 0.143791 1.4041 58 54 45 
-0.0380823 0.354384 1.25742 24 18 18 
-0.0581773 0.47507 1.19244 52 46 46 
-0.0925582 0.542931 1.13316 58 54 51 
-0.0803451 0.380499 1.26643 72 64 62 
-0.00123821 0.19178 1.32552 74 69 65 
-0.0347396 0.20624 1.34834 48 38 36 
-0.0644021 0.493643 1.18731 62 53 48 
-0.0209149 0.3715 1.24555 82 79 74 
