ply                 
format ascii 1.0    
element vertex 1283
property float x    
property float y    
property float z    
property uchar red  
property uchar green
property uchar blue 
end_header          
-0.997462 -3.5809 6.08353 216 201 194 
-0.959974 -3.64025 6.16733 64 48 49 
1.38344 -1.86087 7.83146 211 212 207 
1.35899 -1.822 7.79777 206 208 207 
-0.391161 -4.33369 7.11821 219 170 166 
-0.735449 -3.87702 6.54542 56 31 26 
1.28998 -1.64498 7.85499 180 169 167 
-0.656448 -1.52883 7.66096 18 10 8 
-0.622961 -1.53648 7.69208 20 12 10 
1.49124 -5.0917 8.91982 59 46 30 
1.32227 -1.4755 7.79664 199 198 194 
-1.02609 -3.65428 6.08114 73 48 44 
1.59026 -2.40356 8.18758 206 190 174 
-0.506035 -0.0430987 8.34648 158 145 139 
3.10305 -2.85404 8.80735 83 60 42 
-0.314357 -0.0998482 8.62426 144 131 125 
1.06075 -4.53855 9.30484 79 51 47 
3.02202 -2.85565 8.82932 79 63 48 
2.59778 -2.86979 8.91364 205 217 215 
-0.778204 -0.203526 7.72367 11 8 3 
-0.212196 -3.72242 7.68833 194 175 168 
3.04255 -2.8241 8.78235 186 172 161 
-0.58887 -1.22342 7.91472 159 113 97 
-0.500001 -4.31964 6.93121 63 32 27 
1.44115 -5.17769 8.90367 107 94 86 
2.86279 -2.84173 8.88624 202 190 174 
2.57584 -2.93263 8.94744 206 208 203 
1.09458 -5.34377 8.95467 76 63 54 
-0.763372 -4.00404 6.48292 64 41 35 
2.25706 -3.00314 9.06961 209 190 196 
1.60492 -5.05056 8.76115 105 84 79 
2.42946 -4.02712 8.68812 109 82 75 
1.62644 -5.02655 8.85138 78 60 50 
-0.776303 -3.97799 6.46334 74 55 38 
1.45792 -5.17479 8.84543 59 45 34 
1.55637 -5.08366 8.83962 101 83 71 
-0.613826 0.0731295 8.1459 62 50 36 
2.64611 -3.99688 8.70836 102 81 76 
-0.630691 -3.84726 6.75494 201 195 195 
-0.735931 -3.92035 6.58333 72 52 41 
1.45377 -5.09808 8.8837 77 63 54 
1.55011 -2.28057 8.28453 173 172 170 
1.55912 -5.05761 8.8853 81 63 51 
1.59863 -5.52661 8.64337 27 34 44 
-0.968991 -3.62929 6.1549 176 168 165 
1.63775 -3.94645 9.11638 70 53 46 
-0.770844 -4.1361 6.44711 200 193 187 
1.45665 -5.09525 8.93398 53 34 28 
1.41233 -5.113 8.95431 102 86 71 
2.1746 -3.59878 8.97345 170 173 156 
-0.155117 -3.62727 7.79653 208 175 160 
-0.745054 -1.37458 7.54965 175 118 91 
1.5102 -4.2684 9.12813 186 170 170 
3.02152 -2.7946 8.85809 56 43 27 
2.39295 -3.08195 8.93587 251 196 176 
2.45798 -3.12642 8.96122 177 68 71 
1.40066 -4.43756 9.15361 78 60 46 
2.6442 -3.94528 8.63383 114 96 84 
-0.569904 -4.3552 6.8321 66 42 30 
2.05985 -3.49339 9.07575 212 214 192 
-0.114756 -3.72783 7.86409 189 174 169 
1.44337 -3.38085 9.50374 50 59 54 
1.51479 -5.20324 8.81055 82 65 57 
-1.02114 -3.58105 6.05252 209 196 190 
-0.681056 -3.90473 6.62005 197 192 196 
-0.770762 -0.99853 7.54607 166 110 97 
-0.713681 -1.38689 7.59634 179 112 93 
1.54941 -4.23296 9.10485 186 171 164 
-1.06823 -3.44447 6.01544 57 40 58 
2.84336 -3.96547 8.37569 86 59 40 
-0.0865874 -4.03542 7.80113 66 46 35 
1.54736 -4.4485 9.09359 108 79 81 
3.02136 -2.79845 8.79665 181 170 166 
2.17168 -3.53669 8.9613 202 199 180 
-0.975675 -3.51801 6.13386 72 44 33 
2.51648 -2.89797 8.98088 217 219 205 
-0.663898 -3.81115 6.68618 206 202 191 
2.86048 -2.88311 8.86275 205 189 174 
1.55414 -5.04815 8.80275 49 32 24 
1.36869 -1.80577 7.82092 201 203 202 
-0.818932 -4.06145 6.33318 223 198 194 
1.464 -5.04671 8.90116 34 17 7 
2.33577 -2.93704 9.04594 40 29 23 
3.00555 -2.8269 8.78947 189 175 162 
1.43998 -5.16099 8.87027 55 45 43 
2.53069 -2.87351 8.96336 199 195 184 
1.4269 -5.08925 8.98643 45 35 26 
2.58329 -2.86407 8.92587 48 47 45 
1.44023 -5.0461 8.91029 193 176 160 
2.97311 -2.83198 8.82323 203 191 177 
2.29721 -2.92141 8.99505 31 21 12 
2.57081 -2.85479 8.92554 221 221 221 
-0.634882 -1.55444 7.70375 146 140 140 
2.61089 -2.88299 9.06717 38 38 38 
-0.473702 -1.61838 8.02465 178 170 167 
-0.62281 -1.53903 7.69404 29 24 21 
-0.775715 -4.01237 6.42581 214 195 180 
-0.317419 -0.110809 8.62555 164 150 149 
-0.658298 -1.52804 7.66139 18 13 10 
-0.448872 -0.0680273 8.45354 167 154 146 
-0.763974 -4.00691 6.44191 71 45 48 
-0.665355 -3.93745 6.65067 209 204 200 
-0.793528 0.133982 7.90094 164 165 149 
-0.744221 -4.03828 6.55172 210 186 176 
-0.723979 -4.02888 6.53694 59 37 40 
-1.03196 -3.60339 6.02713 71 52 54 
-0.941193 -3.47874 6.25435 207 190 180 
1.78111 -2.3417 7.9822 199 189 179 
-0.930042 -3.47678 6.26911 212 199 182 
1.34226 -1.47926 7.82681 202 200 188 
2.35398 -2.95898 8.96868 215 207 194 
2.39763 -2.96657 9.01356 208 199 182 
1.05322 -4.06382 9.40107 49 29 31 
2.51235 -2.92568 8.92118 210 210 202 
2.28756 -2.94429 9.00738 206 203 198 
3.0164 -2.88319 8.80363 198 185 169 
-0.843786 0.21137 7.74253 32 21 17 
-0.0872692 -4.02876 7.78186 72 53 39 
1.41216 -5.10987 8.93309 78 62 47 
1.52392 -5.0753 8.88206 60 45 42 
2.64261 -3.98384 8.68298 121 102 98 
2.02136 -3.5796 9.04736 213 213 189 
1.63644 -3.31557 9.34117 73 43 51 
1.11984 -4.27897 9.34673 189 171 157 
-0.850697 -4.05302 6.3023 204 179 175 
-0.618061 -4.29415 6.69662 191 171 162 
1.50534 -5.04538 8.88371 42 24 20 
1.36413 -1.82874 7.8264 180 182 181 
1.44089 -3.36615 9.449 28 39 35 
2.31742 -2.97598 9.00008 192 174 172 
1.20844 -4.28579 9.31477 164 149 144 
2.22752 -3.58871 8.99918 181 190 171 
-0.841641 -4.02293 6.30091 92 72 81 
2.44697 -3.91805 8.80025 108 89 75 
1.558 -2.40061 8.18211 213 203 193 
2.63643 -3.92881 8.60159 118 100 86 
-0.848672 -3.81474 6.35742 205 197 194 
-0.76358 -3.96237 6.47929 71 47 45 
2.93294 -2.82425 8.77757 221 204 176 
-0.958581 -3.63353 6.1628 62 49 56 
-0.717399 -1.13386 7.60313 173 113 87 
-0.695622 -4.07362 6.62048 201 187 184 
2.16763 -3.59058 8.96173 166 169 148 
2.88919 -2.87983 8.83477 202 190 174 
-0.57802 -3.87753 6.85077 209 181 157 
2.05265 -3.52247 9.01529 59 57 42 
-0.610165 -1.50647 7.73711 147 149 144 
-0.830178 0.152676 7.82028 192 190 191 
-1.03373 -3.61005 6.0627 152 132 121 
1.5605 -2.31504 8.25647 209 189 178 
-0.544644 -1.55439 7.89991 168 164 165 
1.58666 -2.31016 8.23984 167 156 152 
2.45011 -4.06547 8.76666 109 82 75 
-0.764073 -4.00398 6.48217 64 41 35 
-0.965842 -3.64743 6.15341 221 200 183 
1.52157 -2.2786 8.33355 36 27 18 
2.06008 -3.49543 9.07694 212 214 192 
-0.308506 -3.61107 7.53431 189 167 153 
-0.740239 -4.04945 6.51623 205 192 183 
-1.02124 -3.5757 6.04008 212 195 185 
2.5987 -2.86609 8.91337 213 224 220 
1.12463 -4.27302 9.27615 62 44 42 
-0.952341 -3.78074 6.17821 95 72 66 
-0.850804 -4.03296 6.30235 111 83 80 
2.45357 -3.11823 8.93717 177 68 71 
-0.152372 -3.6097 7.7529 218 186 173 
2.40474 -3.09233 8.96849 255 200 181 
2.85462 -2.82488 8.84376 206 197 182 
1.59565 -3.94895 9.14672 93 76 66 
-0.775648 -3.97598 6.4642 78 59 45 
-0.565978 -4.34357 6.81435 58 31 24 
-0.492888 -4.37698 6.94551 79 52 45 
2.77571 -4.69789 8.18051 236 217 200 
1.55473 -4.46477 9.13741 81 52 56 
-0.874708 -3.73348 6.31771 204 195 188 
2.95686 -3.7176 8.43442 105 58 38 
1.18161 -4.21569 9.31052 178 162 163 
2.23844 -3.14099 9.0949 158 68 68 
1.47097 -5.08004 8.96727 54 35 28 
1.41571 -5.0438 8.90752 33 23 14 
-0.615886 -4.28621 6.68263 202 182 171 
-0.822962 -4.06471 6.34363 204 183 178 
2.51723 -2.94061 8.96585 220 221 213 
2.35681 -2.94683 9.0835 212 193 186 
2.3886 -2.93794 9.05711 220 213 197 
2.38559 -2.89892 8.95796 38 35 26 
-0.703691 -4.04567 6.59926 68 56 58 
2.50846 -2.89465 8.962 220 222 209 
1.61959 -5.0194 8.81902 54 40 29 
2.97839 -2.84125 8.83921 211 198 182 
2.87594 -2.82696 8.82414 195 182 165 
-0.668858 -3.82459 6.70669 212 207 201 
-0.49306 -4.37867 6.96111 61 35 22 
-0.98524 -3.5129 6.14425 160 144 144 
-0.853547 0.210794 7.77745 38 27 23 
-0.818259 -4.00412 6.39336 209 186 168 
-0.766544 -4.02535 6.46377 81 56 59 
-0.565401 0.0408198 8.19399 192 181 161 
-0.998149 -3.50923 6.12693 93 74 76 
-0.571791 -0.00289453 8.27862 178 164 155 
1.54604 -3.2651 9.4712 42 26 13 
-0.226961 -0.150191 8.81909 138 130 119 
1.40997 -5.09595 8.91962 61 44 34 
-0.851616 -3.2726 6.44954 217 183 158 
-0.77114 -3.97752 6.50367 67 47 49 
2.75646 -4.70711 8.19576 227 208 191 
1.56542 -5.077 8.85264 68 51 43 
-0.396172 -4.34849 7.14509 228 173 170 
1.55479 -2.3985 8.18236 212 189 175 
1.55123 -4.45848 9.12429 94 65 69 
1.63085 -2.41055 8.21626 208 193 172 
1.78771 -2.35748 8.03793 201 189 173 
1.59569 -2.33115 8.28783 179 167 155 
-0.2813 -3.61618 7.52146 78 65 56 
-0.892586 -3.42753 6.30786 49 35 34 
-0.540744 -3.41242 7.14199 205 175 164 
1.43938 -3.37357 9.45864 27 39 35 
2.44622 -4.06242 8.71233 112 84 83 
1.18149 -4.32601 9.33155 194 174 165 
1.54396 -4.21556 9.08015 187 173 162 
1.128 -4.30342 9.34885 55 37 33 
1.20032 -4.24467 9.23108 183 166 159 
1.10254 -4.24337 9.26725 187 170 150 
2.77482 -4.85308 8.14665 230 215 194 
1.3893 -1.88771 7.90776 220 216 215 
2.65059 -4.00272 8.72601 82 62 61 
-0.733291 -1.19287 7.59861 195 105 71 
2.63775 -3.94667 8.63432 79 60 54 
1.43604 -5.15418 8.8454 52 44 41 
-0.836731 -3.77816 6.37071 205 191 182 
1.64145 -3.99544 9.14944 47 30 36 
1.74945 -1.645 7.80113 150 142 129 
-0.628386 -1.39873 7.73544 42 14 13 
-1.02986 -3.56726 6.03547 65 41 37 
-0.997077 -3.58549 6.08708 214 196 186 
1.59011 -3.9581 9.16787 99 82 72 
1.32536 -1.47896 7.80577 196 195 190 
2.21567 -3.76076 8.95142 101 105 78 
-0.494432 -1.63378 8.12341 192 184 181 
-0.657536 -1.51814 7.6166 26 21 18 
1.98076 -3.59918 9.13331 80 82 58 
2.76051 -4.64444 8.14518 223 204 187 
1.50672 -4.34341 9.04212 64 46 46 
1.17919 -4.21534 9.31253 170 154 157 
3.00913 -2.7579 8.7737 117 105 91 
-0.280324 -3.78674 7.48859 64 50 49 
-0.849186 -3.80777 6.34067 201 197 194 
-0.486222 -4.44241 6.9312 45 26 22 
-0.881664 -3.97964 6.21478 85 62 78 
-0.822904 -4.06861 6.35239 224 201 193 
-0.850275 -4.03809 6.31409 77 51 50 
1.10784 -4.31784 9.32614 157 141 142 
1.6283 -3.92533 9.09266 75 57 57 
-0.487181 -4.36532 6.94586 63 35 31 
1.04968 -4.07237 9.40027 40 22 20 
2.00808 -4.46772 8.76299 110 87 79 
-0.783646 -4.0313 6.45993 192 173 166 
-0.726156 -4.03038 6.53779 59 40 46 
1.5415 -4.42895 9.07551 77 47 55 
-0.989721 -3.49687 6.10086 54 35 39 
1.12535 -4.2833 9.31313 53 35 31 
1.54185 -4.23942 9.13207 181 166 159 
1.78638 -2.3659 8.06973 209 197 175 
-0.279558 -3.61392 7.50917 109 99 87 
1.54539 -3.22146 9.31909 200 174 161 
2.3591 -3.08152 8.90419 185 54 60 
2.3997 -3.10973 8.98893 249 170 157 
2.47432 -3.0871 8.92598 242 197 176 
1.54523 -3.27991 9.43552 200 174 161 
1.63321 -2.41959 8.25644 210 196 169 
1.53557 -3.25155 9.43542 45 29 16 
2.01033 -3.94995 8.93263 121 105 89 
1.30711 -1.17839 7.95477 61 62 64 
-0.568189 0.0439875 8.2105 166 155 135 
-0.726292 -1.1889 7.56663 188 95 61 
2.82151 -2.84593 8.90037 200 186 175 
2.8928 -2.78162 8.83978 162 149 132 
-0.805934 0.132009 7.91762 186 181 175 
2.42979 -4.03791 8.70123 128 101 94 
-0.890036 -3.41876 6.28234 43 39 40 
1.4226 -5.07523 8.97034 56 45 39 
1.10687 -4.2668 9.31752 192 176 153 
-0.475241 -1.65089 8.00858 195 189 177 
-0.73654 -3.88431 6.57362 52 36 37 
2.62629 -3.96469 8.64491 102 81 76 
-0.617668 -1.54517 7.65095 21 20 18 
-0.194501 -3.51236 7.79677 220 171 157 
-0.475167 -1.6184 8.00686 186 179 173 
-0.666128 -1.52788 7.5969 181 177 176 
-0.668352 -1.49868 7.60339 195 191 188 
2.28577 -3.15153 8.97422 247 191 174 
-0.548213 -1.5528 7.88568 80 72 70 
1.17795 -4.20031 9.27714 178 162 163 
2.00788 -3.58011 9.04451 141 141 117 
1.30695 -4.34138 9.2528 197 180 170 
-0.620737 -4.29255 6.69756 199 179 170 
-0.155744 -3.65967 7.84076 177 147 139 
1.51819 -3.26536 9.44734 169 147 133 
1.5616 -5.06502 8.82235 59 42 34 
2.33217 -3.03247 9.01108 228 136 141 
2.49477 -3.14813 8.93503 247 199 185 
2.893 -3.4416 8.59641 198 119 115 
-0.606046 -1.50088 7.70468 155 158 151 
-0.564014 -4.35549 6.84149 64 35 37 
-0.815198 -3.96695 6.32322 210 187 169 
-0.75756 3.26642 7.23144 182 165 157 
-0.830109 -4.05526 6.37744 65 49 49 
2.00882 -4.44016 8.71906 88 68 59 
-0.851771 0.208182 7.7892 34 24 22 
1.16206 -4.30604 9.30258 192 171 166 
-0.834296 0.158895 7.71502 89 80 81 
1.54353 -4.23159 9.13111 183 167 151 
-0.630348 0.068649 8.12829 150 140 130 
-0.564362 0.0411115 8.18684 190 179 161 
1.10691 -4.26883 9.31786 195 179 154 
-0.463416 -0.063521 8.52683 166 152 143 
2.61355 -3.9193 8.56178 102 83 79 
1.47511 -5.09052 8.98987 55 36 29 
2.20409 -3.73295 8.90357 70 76 48 
2.27609 -3.36517 8.88524 68 71 44 
2.49465 -3.14091 8.92726 238 192 177 
1.44359 -0.684424 7.93432 137 137 125 
2.23563 -5.02461 8.40403 65 49 52 
1.59799 -2.372 8.08463 206 195 167 
1.55912 -2.33511 8.30342 210 184 161 
1.32592 -1.09932 7.98901 162 157 161 
1.2946 -1.10949 7.91677 155 155 157 
1.66705 -2.29195 8.33415 17 20 13 
1.56574 -1.18526 7.76859 17 17 9 
1.83541 -1.82686 7.74231 13 15 14 
1.8276 -1.85767 7.91649 184 172 158 
-1.16128 -1.49696 6.50375 37 36 41 
-0.476454 -1.64858 8.00504 191 184 174 
-0.476382 -1.61935 8.00345 113 104 99 
1.32988 -1.47348 7.78311 196 194 181 
-0.659524 -1.55711 7.73684 202 194 192 
1.55535 -3.25815 9.40275 214 188 173 
2.50994 -3.03285 9.02304 242 195 179 
1.10784 -4.31784 9.32614 157 141 142 
-0.292899 -3.76889 7.49095 203 181 158 
-0.376364 -3.55519 7.16014 63 52 60 
1.1409 -4.33531 9.31625 59 43 43 
-0.312735 -0.108257 8.67625 160 143 133 
2.01763 -3.96047 8.94879 128 112 86 
2.38394 -3.116 9.00648 185 54 60 
2.40207 -3.11061 8.9915 253 192 173 
1.33871 -0.526551 8.06397 160 159 155 
2.30674 -2.91664 9.00608 40 36 27 
1.35435 -5.04207 8.9184 54 38 23 
-0.566635 -0.00275775 8.20628 174 157 150 
1.31125 -4.21931 9.2291 200 183 173 
-0.350236 -3.56633 7.34986 64 50 49 
-0.222081 -4.02349 7.57068 101 56 59 
2.22065 -3.55896 8.97802 96 84 68 
2.14592 -3.5367 8.99963 194 195 177 
-0.706669 3.58111 6.84953 242 233 204 
-0.691255 3.53958 6.85909 254 241 224 
-0.309518 3.16313 6.37993 87 71 48 
2.00142 -3.51224 9.02752 63 66 45 
-0.840991 0.143903 7.8046 18 13 17 
-0.783178 0.136328 7.89154 125 125 117 
2.22799 -0.592648 7.72749 152 142 133 
-0.644426 0.0688793 8.11271 158 145 137 
2.26503 -0.598417 7.7822 44 27 17 
1.56424 -5.07838 8.82995 174 156 146 
-1.0073 -3.54963 6.1414 225 196 182 
-0.834821 0.158901 7.81975 169 169 169 
2.17993 -0.608917 7.76415 75 60 39 
-0.553801 0.0460566 8.20277 162 150 134 
-0.560346 -4.35586 6.79469 58 38 27 
-0.567565 0.0125076 8.19873 169 152 145 
-0.575819 -0.00704955 8.19634 161 148 139 
-0.489994 -0.0266027 8.35558 165 147 137 
-0.476761 -0.0337497 8.36913 159 140 126 
-0.455462 -0.0452836 8.45109 187 164 156 
-0.440997 -0.0510763 8.45016 162 151 145 
-0.484161 -0.0493999 8.3529 175 164 158 
-0.440928 -0.0654733 8.44853 149 148 146 
1.51041 -5.03903 8.92295 59 40 33 
-0.326047 -0.110293 8.61258 151 141 139 
-0.21027 -0.146573 8.79852 158 154 145 
1.61563 -5.0342 8.83045 65 51 42 
-0.218483 -0.159186 8.65012 139 131 120 
2.068 -3.56955 9.13265 69 66 49 
-0.772428 -0.207585 7.69644 14 11 4 
2.98968 -2.89801 8.87204 197 185 171 
1.5538 -0.279866 7.97281 57 33 7 
-0.937335 -3.53849 6.2237 62 35 42 
1.33362 -0.36984 8.16339 30 27 12 
-0.569414 -4.37252 6.79107 77 53 43 
-0.771574 -4.1456 6.43736 194 185 178 
1.35753 -0.541771 8.15625 128 126 127 
-0.527687 -1.61119 7.86224 61 57 48 
3.05159 -2.88999 8.822 153 139 130 
1.34718 -0.61394 8.07667 171 162 155 
2.20798 -0.594709 7.73104 132 125 117 
-0.455637 -0.0466167 8.35281 72 50 39 
2.20323 -0.630335 7.8384 147 136 130 
2.1525 -0.632541 7.86891 24 2 0 
2.51325 -2.87015 8.99166 213 207 195 
2.18744 -0.643148 7.76246 158 148 149 
2.25838 -0.642676 7.70408 135 131 120 
3.03641 -2.8972 8.84902 202 188 175 
-0.607434 -4.30146 6.72271 76 52 42 
1.59719 -2.07127 8.07476 178 178 170 
1.44014 -5.08676 8.92229 190 170 169 
2.20533 -0.682293 7.74026 186 174 162 
1.32269 -0.752239 8.11634 191 174 166 
1.60388 -5.58957 8.76739 170 171 173 
2.173 -0.73133 7.86501 19 5 4 
-0.618213 -1.52112 7.78509 90 93 84 
1.43251 -5.16744 8.8378 76 63 44 
2.34296 -2.98377 9.07079 185 171 170 
2.18669 -3.5644 9.00362 80 71 54 
-0.696131 -3.91448 6.67261 176 169 177 
1.45957 -5.16977 8.83679 57 40 30 
1.44384 -5.0353 8.92674 67 49 29 
1.35024 -0.955168 8.01419 134 125 120 
1.42101 -5.08381 8.74782 57 42 35 
1.58301 -5.1263 8.83393 62 48 39 
-0.954993 -3.60766 6.21204 183 169 182 
1.53615 -5.05655 8.73811 184 166 152 
-0.991209 -3.56497 6.14601 217 205 189 
1.53008 -5.04719 8.73752 85 66 49 
-0.967907 -3.61881 6.14503 199 196 191 
-0.872459 -3.66329 6.34164 190 178 182 
1.60306 -5.08281 8.82736 71 57 54 
-0.70298 -3.84819 6.67414 185 179 181 
1.58806 -5.07712 8.82794 37 24 18 
-0.68721 -3.93173 6.67447 172 167 171 
-0.771159 -3.84908 6.5326 180 172 169 
-0.874066 -3.73497 6.33598 193 183 174 
1.52402 -5.13035 8.932 98 81 73 
-0.622384 -3.89301 6.76663 195 182 189 
1.61334 -5.07019 8.83478 182 170 172 
1.41589 -5.0578 8.82729 63 50 44 
1.49957 -5.11498 8.93187 192 177 170 
1.58764 -5.05434 8.82538 37 23 20 
1.61755 -4.99731 8.72476 78 60 50 
-0.62998 -4.2713 6.59591 54 36 22 
1.53275 -5.11022 8.9292 178 162 165 
1.60417 -5.05768 8.83414 59 47 47 
1.33293 -1.1179 7.94334 157 152 156 
-0.977529 -3.53283 6.15356 76 46 36 
1.56371 -5.04912 8.82671 197 180 172 
1.41711 -5.04578 8.83575 34 18 21 
1.52347 -5.09751 8.92844 69 52 45 
-1.02395 -3.59007 6.07633 177 167 166 
1.46992 -5.14706 9.03248 70 49 44 
1.33063 -1.17794 7.94602 186 186 188 
1.32294 -1.1892 7.94885 154 156 155 
1.33102 -1.25703 7.94862 173 172 170 
1.33623 -1.26497 7.94727 6 4 5 
1.57457 -4.975 8.73563 45 29 16 
1.55724 -5.02019 8.82399 65 49 36 
1.60776 -5.01738 8.81941 190 176 165 
1.58857 -5.01947 8.83114 184 168 155 
-0.682683 -3.77743 6.63267 169 165 162 
1.49607 -5.02091 8.83835 42 24 20 
-0.768532 -4.02078 6.45122 65 43 45 
1.47311 -5.07119 8.93883 27 13 2 
1.52144 -5.06581 8.93514 186 168 166 
1.38047 -5.05708 8.93209 32 16 1 
-0.398392 -4.41415 7.10647 211 173 172 
1.3804 -5.11029 9.03288 183 167 154 
1.34044 -1.48707 7.79685 202 194 191 
-0.947554 -3.53042 6.22077 204 193 191 
-0.676813 -1.49531 7.63464 167 165 168 
-0.6627 -1.51036 7.62426 24 19 15 
-0.836376 -3.94097 6.3781 80 58 44 
-0.361514 -4.43953 7.19345 192 170 157 
-0.559968 -1.55119 7.78877 197 186 184 
-0.668716 -1.53418 7.69353 73 68 65 
-0.742601 -4.05627 6.57502 186 169 161 
1.48017 -5.0371 8.92475 41 23 13 
-0.747138 -3.91042 6.53676 212 191 172 
1.42871 -5.03587 8.92763 35 23 9 
3.00928 -2.76323 8.82174 85 72 64 
-0.629522 -1.55584 7.69634 181 180 178 
-0.477806 -1.59699 7.8793 46 37 30 
-0.470628 -1.62178 7.94312 61 50 44 
1.34121 -1.6027 7.80182 146 138 136 
1.30894 -1.60352 7.79919 69 56 50 
1.29583 -1.65257 7.883 153 144 145 
-0.674987 -3.76696 6.69305 199 194 191 
-0.645154 -3.80501 6.76443 194 189 186 
1.85788 -1.82155 7.80896 37 19 5 
1.38932 -1.86895 7.87988 171 171 169 
2.07974 -3.57137 9.12932 70 68 53 
-0.927407 -3.49443 6.28795 79 56 38 
-0.940844 -3.46283 6.2337 204 190 181 
-0.608366 -1.53759 7.82962 21 16 10 
1.58931 -2.06627 8.07686 181 180 175 
1.59297 -2.07869 8.05261 159 158 153 
-0.643997 -4.28357 6.64785 61 42 28 
1.60641 -2.18612 8.1652 166 166 164 
-1.17384 -1.76517 6.45342 35 26 19 
-0.870397 -3.29768 6.5108 168 139 133 
1.66246 -2.24414 8.15245 212 200 188 
1.55602 -2.2817 8.28644 165 166 168 
1.67261 -2.25095 8.16222 44 26 12 
1.66594 -2.27039 8.23963 52 47 27 
1.60055 -5.03056 8.73011 105 84 79 
-0.733561 -3.92273 6.59696 77 51 36 
1.63328 -2.40141 8.17484 192 181 163 
1.33851 -0.538898 8.17803 25 24 19 
-0.249998 -3.75091 7.57551 179 174 171 
2.93716 -2.77172 8.86872 183 168 161 
2.90513 -2.77132 8.8722 195 189 173 
2.95229 -2.77187 8.85941 195 175 168 
2.9997 -2.78184 8.84779 108 91 75 
2.97535 -2.78005 8.84674 47 31 18 
3.01983 -2.7739 8.81726 85 73 57 
2.92318 -2.81059 8.90108 87 69 47 
2.99904 -2.80095 8.83623 96 79 69 
2.91185 -2.81896 8.89365 195 180 159 
3.05466 -2.82996 8.92001 88 73 66 
3.03351 -2.80698 8.83153 182 171 167 
2.58976 -2.88414 9.06647 56 58 45 
2.57762 -2.85966 8.95854 206 206 204 
2.8369 -2.85976 8.94568 200 186 175 
2.96106 -2.83809 8.86766 215 200 181 
2.94107 -2.84223 8.88072 212 199 183 
2.84733 -2.861 8.93993 84 66 54 
2.98361 -2.83661 8.85341 200 188 176 
2.58069 -2.86886 8.95857 200 200 200 
3.05032 -2.82869 8.80944 186 172 163 
2.40753 -2.90274 9.04566 173 174 168 
3.06995 -2.82757 8.79646 210 197 189 
3.02862 -2.85017 8.84387 69 53 38 
2.57336 -2.88629 8.96515 49 51 46 
-0.501324 -4.33307 6.94699 97 67 59 
2.27915 -2.89214 8.97715 27 28 23 
3.0951 -2.83808 8.7823 77 54 36 
2.91319 -2.89024 8.90724 80 64 49 
2.99612 -2.87939 8.85464 60 43 33 
2.86596 -2.89927 8.92096 202 188 175 
2.35233 -2.91403 8.96426 56 47 38 
3.0626 -2.86807 8.81013 72 52 41 
2.34527 -2.95426 9.08055 35 24 18 
1.46246 -4.40624 9.09871 66 45 24 
2.90716 -2.86675 8.79571 196 182 169 
2.92474 -2.86634 8.78512 194 172 159 
2.31687 -2.95815 9.07795 39 30 21 
3.09953 -2.86943 8.7864 86 62 52 
3.00888 -2.8967 8.86619 201 189 177 
2.53495 -2.93808 8.99244 157 160 151 
2.55419 -2.94467 8.98431 180 179 175 
2.42924 -2.96786 9.04603 61 55 41 
2.5383 -2.9538 8.99345 211 213 210 
1.33928 -0.622878 8.1642 28 19 12 
2.30347 -2.95641 8.97637 196 187 192 
2.29271 -2.99421 9.0932 64 59 55 
-0.845822 -3.80827 6.33536 189 184 180 
2.2704 -3.00386 9.10363 77 71 73 
2.23975 -2.97177 9.00441 198 196 199 
1.50828 -5.24389 8.75093 42 32 30 
2.3823 -2.99103 9.0551 201 196 190 
2.30952 -2.97169 8.97609 210 188 190 
2.26234 -3.01806 9.10888 195 180 185 
-0.111934 -3.7511 7.90572 189 174 171 
-1.01858 -3.64582 6.06869 74 48 31 
2.18581 -0.617886 7.83272 133 126 108 
-0.877129 -3.78111 6.32632 195 187 185 
2.83997 -3.34351 8.82163 102 75 48 
2.04925 -3.47099 9.02119 167 171 148 
2.02918 -3.47674 9.02807 171 174 153 
2.01635 -3.54032 9.04019 195 198 179 
2.03387 -3.5447 9.03558 207 210 191 
2.18032 -3.54178 8.98906 177 179 158 
2.17599 -3.58509 9.10072 63 64 46 
2.22002 -3.53944 8.97536 70 63 45 
1.4564 -3.86573 9.27689 73 56 38 
2.21839 -3.57629 8.99474 62 55 37 
2.13086 -3.6316 9.13546 189 193 176 
-1.02264 -3.63291 6.06824 216 198 196 
2.23012 -3.5877 8.99244 193 205 185 
2.17917 -3.5982 9.01094 201 203 181 
2.76737 -3.53679 8.77234 222 196 181 
2.01418 -3.55639 9.02956 197 190 172 
-0.598434 -0.983789 7.92203 45 0 0 
-0.517397 -1.02462 8.09092 147 112 110 
1.36236 -0.605246 8.17018 144 140 139 
1.57334 -5.00081 8.83034 65 47 35 
1.50599 -4.25248 9.07817 158 143 140 
-0.714851 -1.38424 7.56918 178 120 106 
2.16653 -3.55677 8.99576 57 59 38 
-0.640617 -0.782903 7.87596 164 132 137 
-0.747393 -4.0465 6.51763 91 71 64 
-0.473303 -4.37814 6.95377 192 171 168 
1.35184 -0.859228 8.02496 162 161 166 
-0.671704 -3.91637 6.68014 171 164 172 
1.63974 -5.13296 8.83008 66 52 39 
-0.946254 -3.31712 6.35967 173 120 102 
2.1618 -0.615006 7.77549 46 38 19 
2.26226 -2.97513 8.99589 122 102 101 
1.38778 -5.14838 8.94084 85 65 54 
-0.629253 -1.13639 7.82984 147 113 103 
-0.809078 -3.8197 6.40617 174 165 160 
-0.52564 -4.50544 6.79426 99 78 77 
-0.460874 -4.43245 7.01805 171 152 145 
-0.494323 -4.37914 6.9474 61 34 23 
2.43175 -2.93088 8.91704 115 105 95 
-0.722577 -1.0402 7.73904 138 109 101 
-0.202361 -3.70597 7.64931 172 157 154 
-0.277576 -3.78867 7.48255 71 56 53 
-1.00152 -3.53034 6.14512 96 67 61 
2.27728 -0.594345 7.68772 142 133 128 
2.30664 -2.97611 9.09995 196 193 188 
2.17107 -0.750318 7.86777 125 109 109 
2.17752 -0.715515 7.7745 69 42 35 
2.07755 -3.59811 9.13361 74 73 52 
1.53763 -3.9231 9.26974 152 138 125 
1.30735 -4.52963 9.21297 76 54 41 
-0.598605 -1.16079 7.91738 145 116 102 
1.60915 -5.17226 8.74568 120 93 84 
1.33128 -1.26103 7.8689 142 140 141 
1.67894 -2.25481 8.23416 68 56 42 
2.20842 -3.53129 8.97811 161 163 142 
-0.723738 -1.21269 7.58454 56 0 0 
-0.844245 -4.05618 6.30376 195 179 189 
1.51884 -5.22064 8.84867 111 93 83 
2.63582 -2.90996 9.04434 213 224 220 
1.36001 -0.367324 8.23961 137 138 132 
2.53677 -2.90784 8.87924 135 135 127 
-0.60125 -1.3466 7.73939 179 122 105 
2.91335 -2.78262 8.86951 113 101 85 
-0.917718 -3.47408 6.41661 222 163 123 
-0.820332 -4.06591 6.37042 92 71 70 
2.71725 -3.51986 8.78474 91 61 50 
1.34895 -0.47462 8.17346 147 142 146 
-0.585598 -1.45676 7.95713 57 0 0 
-0.978208 -3.755 6.07493 102 73 57 
-0.501299 -1.60604 7.95313 75 66 59 
-0.816215 -3.92559 6.39145 82 63 49 
1.64771 -3.31092 9.33624 75 43 46 
-0.704819 -1.14879 7.74757 27 0 0 
1.59931 -5.20096 8.74042 197 178 171 
2.79805 -3.50063 8.75561 226 200 185 
1.33399 -1.89085 7.80663 150 154 155 
1.59416 -4.99963 8.82842 80 62 52 
2.68721 -3.53655 8.81534 113 82 64 
-0.760588 -3.97615 6.51734 110 77 62 
-1.03487 -3.58816 6.06742 66 39 30 
-0.272341 -0.414644 8.75704 16 0 0 
-0.350409 -3.64915 7.40217 198 174 164 
-0.568276 -3.58781 6.93586 194 183 179 
-0.91592 -3.70423 6.26538 211 195 195 
1.66351 -2.28505 8.24165 187 177 165 
2.99435 -2.76315 8.83123 173 161 149 
-0.359992 -3.69366 7.39103 170 155 158 
-0.644998 -3.90953 6.68867 171 160 174 
1.3623 -0.580175 8.16981 123 119 118 
1.45381 -3.90569 9.28095 64 47 37 
-0.902599 -4.03199 6.16944 183 170 164 
-0.604927 -3.37882 6.95068 88 65 51 
-0.619424 -3.93014 6.75966 203 161 147 
-0.518641 -3.48079 7.17077 169 160 165 
-0.467037 -3.47988 7.2483 189 187 192 
-0.274038 -4.39101 7.43309 200 156 147 
1.12434 -4.38364 9.31408 187 172 167 
-0.475317 -4.51154 6.87569 68 47 52 
2.09199 -3.55694 9.01955 184 181 162 
-0.785634 -0.93921 7.53605 148 116 119 
2.56772 -2.8762 8.93514 30 35 31 
1.56575 -5.05532 8.79043 70 53 43 
-0.526319 -1.60844 7.84297 18 15 6 
-0.478973 -0.0546362 8.40203 165 154 148 
3.04202 -2.82545 8.78862 200 186 175 
3.08537 -2.82418 8.77913 201 189 177 
1.56008 -5.03347 8.80007 199 182 174 
2.35474 -2.89357 9.01824 191 193 188 
-0.59653 0.0637169 8.22081 32 22 12 
2.32179 -2.90609 9.03421 177 182 178 
-0.477281 -4.57532 6.95887 177 161 162 
2.28504 -2.91125 9.05035 188 203 196 
1.621 -5.13307 8.91812 54 38 38 
2.8498 -2.84974 8.9109 188 171 163 
2.97682 -2.83173 8.83113 200 188 174 
1.33561 -0.620647 8.14844 28 19 12 
2.54369 -2.92785 9.08665 201 199 186 
3.01227 -2.82417 8.80733 215 201 190 
2.17723 -0.609375 7.7487 41 29 7 
2.56883 -2.85254 8.91241 200 200 200 
2.83773 -2.85598 8.91904 76 56 45 
2.95279 -2.83288 8.8462 213 197 174 
2.98683 -2.84903 8.82857 89 75 64 
2.50124 -2.85579 8.94576 213 207 195 
1.40741 -5.02355 8.90864 51 38 30 
2.32743 -2.97543 9.04201 65 53 57 
1.67867 -2.26027 8.1979 44 26 12 
2.34213 -2.91485 9.02684 207 194 188 
-0.943557 -3.55855 6.25858 62 35 42 
3.06569 -2.88684 8.80572 203 187 174 
-0.821339 3.63327 6.91389 32 19 13 
3.06594 -2.8783 8.78479 173 157 144 
1.53249 -4.98713 8.78543 59 39 32 
2.8424 -2.8863 8.92228 80 61 44 
2.98887 -2.76621 8.69675 182 171 167 
2.90609 -2.81135 8.87012 207 188 173 
2.98537 -2.89276 8.85755 197 185 171 
-0.634256 -4.2911 6.62667 70 53 37 
2.90162 -2.89791 8.89021 180 168 152 
3.02163 -2.7956 8.81433 86 73 67 
2.96869 -2.79466 8.82847 56 43 37 
2.91071 -2.89606 8.88447 183 171 155 
1.58457 -5.0088 8.79531 45 29 16 
2.91684 -2.80577 8.88157 87 69 47 
2.97349 -2.79029 8.84364 188 174 163 
2.10914 -3.56597 9.06219 90 87 70 
1.40829 -5.08613 8.9149 48 31 23 
1.56774 -4.93269 8.56193 63 44 40 
3.00694 -2.81193 8.94335 64 48 35 
3.02488 -2.80813 8.93116 89 72 56 
2.90433 -2.83503 8.87596 192 180 158 
2.94317 -2.76894 8.83897 197 174 166 
2.97747 -2.77725 8.87686 198 184 171 
1.51197 -5.03856 8.79252 175 158 164 
1.05972 -4.51382 9.25666 84 57 50 
2.90382 -2.88187 8.88569 95 82 66 
1.4268 -5.10903 8.91636 39 26 20 
1.59936 -5.03909 8.79746 45 35 36 
2.8118 -2.85549 8.80234 203 190 174 
2.14421 -3.58103 9.05317 98 97 77 
2.41516 -2.91571 8.99499 49 51 37 
2.40531 -2.9172 8.99961 210 210 200 
1.90709 -2.53691 8.22543 70 58 32 
1.58588 -5.09424 8.90464 55 41 32 
1.56909 -5.04348 8.78883 183 170 162 
-0.981266 -3.54143 6.17191 64 35 27 
1.6047 -5.0454 8.7861 193 178 181 
3.02786 -2.90981 8.95108 60 43 33 
2.87993 -2.89449 8.90223 201 184 174 
2.19024 -3.52007 8.90633 199 190 173 
2.33293 -2.93954 9.03439 35 24 18 
1.41925 -5.08967 8.91474 141 126 129 
2.94686 -2.88858 8.86132 212 188 176 
2.22939 -3.55733 9.02153 68 61 43 
2.30971 -2.94676 9.04522 28 18 9 
2.09184 -3.56822 9.06788 195 188 170 
-1.00505 -3.56639 6.16122 78 57 52 
-0.528481 -4.36473 6.8836 61 34 23 
3.0913 -2.8609 8.76443 86 62 52 
1.55556 -2.40042 8.16807 165 155 146 
1.56864 -2.36983 8.06165 185 169 153 
1.41545 -5.07806 8.91375 73 59 56 
2.96504 -2.88866 8.85031 181 172 157 
2.995 -2.88615 8.83133 190 178 166 
2.18651 -3.61076 9.04371 201 203 181 
1.33687 -1.12274 7.97723 160 155 159 
-0.995363 -3.57564 6.164 179 165 152 
3.03026 -2.89082 8.82914 202 188 175 
2.54277 -2.9227 8.9369 209 211 198 
2.52348 -2.92587 8.94666 202 204 193 
-0.652382 -3.90604 6.73681 202 194 192 
-0.631681 -3.84909 6.75311 187 181 183 
2.04289 -3.5626 9.08201 207 210 191 
1.52032 -5.06209 8.90594 121 104 97 
1.61304 -5.03417 8.8532 191 177 166 
1.5058 -5.05882 8.90657 86 69 62 
3.04552 -2.88287 8.79888 176 159 149 
2.02525 -3.5569 9.0865 200 203 184 
-0.860786 -3.27131 6.45583 205 175 164 
2.57651 -2.93293 8.94035 206 210 209 
1.46588 -5.05268 8.90843 30 13 3 
1.43393 -5.11787 9.03129 77 67 58 
1.51644 -5.04654 8.9045 186 168 166 
1.56539 -5.05324 8.91361 197 180 172 
1.37691 -5.03897 8.89963 68 52 36 
1.47163 -5.18997 8.92257 38 25 16 
1.5647 -2.31194 8.38182 172 171 166 
2.01426 -3.53853 9.08734 63 66 45 
1.35317 -5.04477 8.91312 44 26 12 
2.3991 -3.0053 9.14652 206 199 189 
-0.779789 -4.03545 6.45637 203 189 188 
1.36408 -5.04445 8.91265 179 163 150 
-0.821319 -3.99077 6.38529 55 37 23 
2.07689 -3.58182 9.20072 177 174 157 
-0.952421 -3.54729 6.24995 204 193 191 
2.29745 -2.9836 9.05562 189 184 180 
1.56879 -5.04126 8.91202 66 49 39 
-0.584293 -3.91787 6.91524 217 186 165 
1.31974 -1.16827 7.87239 176 176 178 
1.4466 -5.21836 8.9267 48 36 22 
2.37106 -2.98074 9.02428 217 210 200 
1.4256 -5.02681 8.90802 38 26 12 
2.25394 -2.99748 9.0752 165 160 164 
-1.00409 -3.58751 6.09297 210 195 192 
2.93237 -2.90037 8.74104 181 165 139 
1.59437 -2.08157 8.07373 179 178 173 
-0.645297 -3.80599 6.75133 186 181 178 
2.19246 -0.688308 7.74618 54 37 27 
-0.358832 -4.42713 7.17258 166 143 135 
2.2019 -0.681599 7.72228 189 175 162 
-0.87237 -3.72751 6.32115 210 200 191 
1.32542 -1.2563 7.88895 6 4 5 
1.34696 -1.27668 7.97927 141 137 138 
-0.663747 -3.93049 6.6553 201 195 197 
-0.741652 -4.03488 6.54268 212 192 181 
-0.91953 -3.49267 6.27197 182 158 148 
-0.658928 -3.75474 6.75001 182 178 167 
2.20543 -0.647955 7.83856 130 120 121 
-0.723482 -4.02779 6.54919 94 65 59 
-0.65625 -3.74421 6.75135 212 205 187 
-0.738637 -3.88981 6.5655 58 33 26 
2.17628 -0.625584 7.73286 171 157 156 
-0.730743 -3.90709 6.56703 58 35 19 
1.35436 -0.540243 8.14037 128 126 127 
1.34622 -1.47779 7.78261 23 17 17 
1.40066 -1.88257 7.89562 192 197 193 
1.33715 -1.48473 7.78564 189 184 180 
1.37649 -1.85073 7.79277 200 200 198 
-0.84613 0.177885 7.76209 188 184 185 
-0.669933 -1.48665 7.57512 191 187 186 
1.3508 -1.82156 7.81228 46 48 47 
1.86399 -1.82848 7.83952 37 19 5 
1.3638 -1.79321 7.79315 184 186 185 
1.56123 -0.283056 8.03391 39 19 0 
-0.646318 0.0693382 8.12651 155 144 138 
-0.606116 0.0660959 8.1674 195 185 173 
-0.615423 -1.53264 7.75038 186 178 175 
-0.652286 -1.5185 7.65995 73 65 63 
-0.657537 -1.50226 7.57522 24 19 15 
-0.56598 0.0299808 8.21674 164 152 138 
-0.535191 -3.40798 7.14437 204 174 166 
-0.62109 -1.52848 7.66268 20 12 10 
-0.664683 -1.52753 7.65768 73 68 65 
-0.57581 -0.00699089 8.21225 161 148 139 
1.79714 -1.69113 7.94267 11 1 0 
-0.496347 -0.0270963 8.40539 173 155 145 
-0.852449 -3.82585 6.38552 209 199 197 
-0.480382 -0.0357274 8.42186 185 165 154 
-0.692727 -4.00605 6.64207 191 186 182 
-0.481633 -1.61211 7.95213 46 37 30 
-0.507937 -0.0459992 8.42093 173 160 152 
-0.437651 -0.0512918 8.40174 145 141 132 
1.28684 -1.63753 7.81163 158 148 147 
1.60091 -5.22149 8.68699 59 46 40 
-0.84453 -3.80123 6.32566 207 202 198 
1.49829 -5.21065 8.69212 70 60 59 
2.83528 -2.89603 8.94708 171 152 137 
2.77842 -3.55234 8.81159 222 196 181 
-0.675601 -4.35224 6.60317 177 167 157 
-0.377079 -3.74743 7.31623 104 73 52 
-0.555392 -1.54639 7.75557 186 175 173 
2.90214 -2.85104 8.88048 73 60 41 
1.40846 -5.09787 8.91608 61 45 32 
1.35055 -0.54604 8.26326 36 29 21 
1.3601 -0.602937 8.1568 144 140 139 
-0.452708 -0.0461234 8.42025 187 164 156 
-0.258041 -3.7426 7.52514 179 170 173 
2.30768 -0.601618 7.77051 72 61 55 
-0.63053 -1.50966 7.66322 184 180 177 
-0.751544 -3.92185 6.55933 225 203 182 
2.18831 -0.619706 7.84654 133 126 108 
1.51347 -4.23996 9.10544 181 165 166 
2.37841 -2.90566 9.00973 206 201 182 
-0.999242 -3.59819 6.09388 92 74 64 
-0.699672 -4.07188 6.62942 78 63 58 
2.1739 -0.714747 7.75949 69 42 35 
2.16806 -0.748902 7.85495 125 109 109 
1.56813 -2.32328 8.29118 170 152 148 
-0.276047 -3.76159 7.42808 71 56 53 
1.19147 -4.24999 9.24545 169 153 153 
2.62607 -3.97353 8.70179 192 172 161 
2.02586 -3.58048 9.08939 197 190 172 
3.0489 -2.80691 8.91546 78 66 50 
-0.307131 3.1505 6.35843 85 69 46 
-0.649249 -4.31454 6.69643 61 42 28 
-0.736858 -0.984878 7.72885 125 93 82 
2.96692 -2.80452 8.96685 169 154 147 
2.07168 -3.59448 9.0776 177 185 162 
-1.00529 -3.54179 6.16318 135 105 97 
1.61657 -5.56944 8.71594 27 30 39 
1.51017 -4.26386 9.10829 174 158 158 
1.56828 -5.11881 8.90878 61 45 32 
2.84628 -2.90117 8.92297 197 185 169 
3.01795 -2.86951 8.81346 81 65 50 
2.0643 -3.57963 9.07784 67 66 45 
2.11373 -3.60482 9.06612 189 193 176 
2.18846 -3.56312 9.03617 201 198 179 
2.92883 -2.89234 8.87295 187 174 158 
-0.54231 -4.36777 6.87915 88 62 47 
1.3429 -1.08312 7.97401 152 147 151 
-0.626765 -1.41376 7.77279 49 6 0 
1.63098 -2.39647 8.16054 192 181 163 
-1.03447 -3.61768 6.079 224 203 186 
1.54891 -5.00684 8.79801 69 52 42 
1.05962 -4.49796 9.25552 210 182 178 
-0.959066 -3.62586 6.24135 178 162 173 
-0.686178 -3.79468 6.6627 169 165 162 
1.5808 -4.99735 8.79435 171 155 140 
2.05649 -3.54908 9.07612 69 66 49 
1.63084 -5.11018 8.79137 68 54 43 
2.30269 -0.617821 7.77523 130 122 119 
2.51978 -2.89866 8.81676 179 185 183 
1.61851 -5.20861 8.80383 91 62 56 
-0.33012 -4.40813 7.18843 199 165 166 
1.46628 -4.41566 9.11452 84 63 44 
-0.744753 -4.03699 6.47466 188 173 166 
2.05838 -3.48981 9.06768 167 171 148 
2.78795 -3.55426 8.80737 105 78 59 
1.44412 -0.751745 8.02739 129 120 115 
1.26697 -1.31116 7.90856 154 155 150 
-0.82969 -3.84302 6.39225 198 177 160 
-0.767912 -4.01682 6.46796 112 88 78 
-0.742244 -4.02183 6.47641 91 71 64 
-0.518899 -1.32325 8.08047 147 110 91 
-0.269097 -4.36114 7.38127 206 163 156 
-0.738958 -4.06176 6.54203 198 189 180 
1.30442 -4.51776 9.18716 76 54 41 
-0.685411 -1.20084 7.61269 161 121 111 
-0.495958 -1.2776 8.08599 169 117 106 
-1.01631 -3.56434 6.03078 177 167 166 
-0.667576 -1.16744 7.80524 56 9 3 
-0.854153 -3.97186 6.29827 100 71 65 
1.61889 -5.22817 8.80607 84 55 47 
-0.158569 -3.63089 7.81832 191 157 148 
1.54647 -5.48091 8.60335 178 179 183 
1.34725 -0.473072 8.15993 147 142 146 
1.57094 -4.29071 9.22474 189 174 167 
-0.745392 -4.00077 6.41102 73 59 58 
2.62984 -3.91549 8.57287 118 100 86 
-0.496777 -3.52839 7.13908 179 173 177 
2.97763 -2.83809 8.80539 95 81 70 
-0.570014 -4.34847 6.77762 99 81 79 
1.06735 -4.5505 9.3306 88 61 54 
2.21319 -3.53282 8.96207 58 53 34 
1.26753 -4.43978 9.18251 73 54 40 
2.12365 -3.55456 8.99458 199 198 178 
-1.00776 -3.54997 6.12498 67 46 43 
-0.113386 -3.73538 7.87886 189 174 169 
1.51724 -4.28542 9.16083 186 170 170 
1.52137 -4.2661 9.15834 181 165 166 
1.57295 -4.97564 8.76593 195 179 164 
-0.556626 -1.55036 7.77285 186 175 173 
1.59655 -2.40326 8.18284 210 192 172 
-0.646705 -4.2979 6.67014 61 42 28 
1.5451 -5.08878 8.78062 198 181 165 
-0.709172 3.58587 6.85885 240 230 203 
-0.996329 -3.54925 6.12922 101 82 75 
2.04022 -3.60684 9.15749 204 196 177 
2.16192 -3.59079 8.96829 190 193 176 
2.01237 -3.56797 9.01109 204 206 182 
2.00712 -3.5264 9.00721 200 201 183 
2.0197 -3.45561 8.96345 202 204 182 
2.27849 -3.03895 9.17182 195 180 185 
2.96128 -2.9301 8.83468 181 165 139 
2.34753 -3.0244 9.14137 200 181 183 
2.35773 -2.96519 8.97284 217 210 200 
2.38126 -2.95704 8.96148 220 213 203 
2.35725 -2.95131 8.97096 199 195 184 
2.38077 -2.94317 8.95958 216 209 193 
2.55479 -2.97376 9.06239 220 221 215 
3.01941 -2.88862 8.82652 193 179 166 
-0.824306 -4.08266 6.36343 218 194 192 
-0.730939 3.25709 7.23215 21 10 4 
2.98358 -2.87868 8.81025 186 174 162 
-0.773501 -4.14392 6.46389 201 194 188 
1.50996 -5.1137 8.90511 201 184 174 
2.94046 -2.88314 8.83748 198 176 165 
3.13024 -2.89712 8.88223 89 65 53 
2.3296 -2.97489 9.14153 40 30 21 
2.30854 -2.92582 8.98783 218 211 205 
-0.612342 -4.32708 6.76481 76 52 42 
-0.923105 -3.46434 6.25055 203 193 183 
3.05305 -2.86426 8.78595 65 45 34 
2.35371 -2.9667 9.13012 34 25 20 
-0.920083 -3.47386 6.25083 105 87 73 
2.40109 -2.93613 9.10491 192 191 171 
2.98278 -2.86489 8.80784 51 34 24 
3.01107 -2.85879 8.78889 71 55 40 
2.38573 -2.95729 9.11489 44 35 28 
2.3793 -2.9016 8.9539 33 29 18 
2.43002 -2.88929 8.92934 212 209 192 
2.8959 -2.86899 8.86121 60 42 28 
3.02588 -2.89683 8.94953 205 188 178 
2.47675 -2.9293 9.06964 46 43 26 
2.83724 -2.87598 8.89666 72 53 38 
3.1354 -2.87802 8.89787 77 54 36 
2.28371 -2.90142 8.99465 18 19 13 
2.5075 -2.90561 9.05143 212 207 201 
2.89465 -2.84593 8.85732 67 54 35 
3.06102 -2.82069 8.77138 210 197 189 
3.07837 -2.81681 8.75916 201 189 177 
2.42038 -2.91438 9.09297 203 204 198 
2.96972 -2.82581 8.8077 200 188 174 
2.47174 -2.90183 9.06758 34 29 25 
2.50996 -2.84435 8.88485 214 212 200 
2.87389 -2.89496 9.0409 84 66 54 
2.9266 -2.83013 8.835 212 196 180 
2.99149 -2.87105 8.96551 197 181 156 
-0.676339 -3.77911 6.71253 199 194 191 
2.59816 -2.88647 9.0265 205 205 203 
2.82228 -2.87421 8.90483 143 121 108 
2.48655 -2.83885 8.89512 213 207 195 
2.86095 -2.834 8.87475 203 191 177 
2.93627 -2.87301 8.99964 195 182 163 
2.97405 -2.75441 8.65545 181 170 166 
2.95974 -2.77687 8.80374 188 174 163 
2.23781 -0.673719 7.74504 20 5 0 
3.06671 -2.80851 8.92785 192 182 172 
2.34286 -2.87911 8.96638 131 133 128 
1.35213 -5.03939 8.90546 44 26 12 
-0.857118 0.180676 7.85118 188 184 185 
1.51541 -5.04891 8.91204 175 157 157 
-0.853743 -3.59819 6.3315 204 193 199 
-0.822837 -3.98457 6.37774 70 48 34 
-0.781062 -4.04543 6.47489 211 193 181 
-0.855771 0.144476 7.83642 159 148 146 
1.61118 -4.9734 8.76226 54 35 28 
-0.794002 0.136463 7.95382 173 174 158 
1.4655 -5.04961 8.90096 62 45 35 
-0.630211 0.0829408 8.05968 156 154 142 
-0.635325 -3.87072 6.80495 205 200 197 
-0.639906 0.0693446 8.07744 156 143 135 
1.50696 -5.06344 8.91418 86 69 62 
-0.666565 -3.82299 6.71309 209 205 196 
-0.398545 -4.38831 7.06002 211 180 177 
1.61787 -5.09408 8.89482 60 50 51 
1.59862 -4.98346 8.76456 191 177 166 
2.4493 -2.85411 8.9366 218 217 212 
-0.768847 -4.02599 6.48034 81 53 49 
1.66864 -2.39271 8.16047 207 194 177 
-0.744173 -4.02769 6.48868 72 53 47 
-0.563808 0.0102826 8.18299 180 161 154 
1.55863 -2.29078 8.32742 166 166 166 
3.00459 -2.84466 8.95176 161 152 147 
-0.712099 -4.05901 6.57832 205 196 187 
-0.480273 -0.0381369 8.41098 185 167 157 
-0.734988 -4.00435 6.49314 212 192 181 
-0.778237 -3.98974 6.47935 86 65 46 
1.58864 -2.07223 8.03786 179 178 173 
-0.999458 -3.52226 6.13032 96 67 61 
1.58097 -2.05669 8.03908 181 180 175 
-0.319076 -0.109601 8.52101 158 147 143 
2.93582 -2.80036 8.8233 207 185 174 
1.50989 -5.02999 8.77672 175 158 164 
1.42497 -5.11375 8.92407 53 38 31 
-0.944581 -3.75052 6.12477 113 89 79 
1.38992 -1.87469 7.8519 210 212 209 
1.34899 -1.81256 7.74867 213 215 214 
1.37461 -1.80906 7.85255 184 186 185 
-0.58398 0.0183716 8.18391 139 99 87 
-0.696816 -3.82132 6.62091 199 193 195 
-0.938868 -3.54288 6.23136 62 35 42 
1.29205 -1.64577 7.86755 188 174 171 
1.34564 -0.36243 8.16941 155 155 147 
1.34731 -1.61522 7.85046 207 197 195 
1.56349 -5.07016 8.91084 81 63 51 
1.29994 -1.58017 7.75115 173 167 167 
-0.613469 -1.57189 7.76505 133 129 126 
-0.627852 -1.54758 7.6603 187 183 184 
-0.672703 -1.53912 7.65569 181 177 176 
1.46793 -0.477676 8.00138 171 171 159 
1.35725 -0.538524 8.16683 167 166 164 
-0.755808 -4.08865 6.56177 188 173 166 
2.24074 -0.589949 7.71438 29 13 13 
1.51769 -5.05675 8.89835 121 104 97 
1.32839 -1.47474 7.73833 189 184 180 
1.31016 -1.46422 7.74327 193 191 192 
2.21471 -0.638403 7.88164 167 156 154 
-0.604311 0.046579 8.18727 31 17 6 
2.16834 -0.634804 7.78377 168 160 157 
1.42326 -5.10171 8.77543 57 44 38 
1.52619 -5.04692 8.89667 79 62 46 
-0.845071 0.14198 7.84636 14 9 13 
1.58179 -4.99374 8.76719 47 30 20 
1.39804 -5.00207 8.78043 94 80 79 
-0.693668 -4.00932 6.65098 187 182 176 
-0.627891 -1.27725 7.80545 45 10 4 
1.46807 -5.21453 8.91831 52 38 29 
1.44626 -5.21525 8.91937 76 63 44 
2.21204 -0.686465 7.76188 186 174 162 
1.32671 -1.2545 7.84149 157 153 152 
-0.993801 -3.5629 6.05695 218 205 197 
-0.69508 -1.21485 7.69889 163 114 97 
2.19904 -0.690935 7.77009 54 37 27 
1.31819 -1.24023 7.86184 202 195 189 
-0.897283 -3.73506 6.34981 185 175 174 
1.57526 -1.17217 7.75176 49 37 15 
1.34089 -1.19684 7.94951 180 173 167 
-0.745816 -1.13213 7.5987 154 114 106 
-0.679779 -3.89817 6.61363 174 164 172 
1.33116 -0.755991 8.17988 189 169 158 
-0.872719 -3.72596 6.30843 204 195 188 
1.4432 -0.749889 8.01753 142 132 123 
1.47691 -5.08829 8.9187 193 182 164 
-1.03194 -3.57019 6.03509 82 54 43 
1.33578 -1.12308 7.96763 157 152 156 
1.51032 -5.18215 8.77939 72 53 46 
1.33663 -1.0832 7.9471 170 165 169 
1.40725 -5.09552 8.92305 102 86 71 
1.45872 -5.03724 8.91444 41 21 12 
-0.600041 -0.853856 7.95638 157 119 118 
3.00493 -2.7726 8.79719 69 56 40 
1.42162 -5.0231 8.90066 49 39 30 
2.99515 -2.7886 8.80677 74 58 45 
3.00738 -2.82991 8.94689 68 53 46 
-0.484079 -4.5324 6.88436 54 35 39 
3.05772 -2.82382 8.91343 83 70 64 
-0.451266 -0.0464586 8.40959 183 160 152 
2.94231 -2.84811 8.9909 195 180 159 
3.03651 -2.84807 8.95581 201 188 179 
2.54509 -2.82503 8.88629 42 42 34 
2.52835 -2.82293 8.87244 206 208 195 
2.85238 -2.78344 8.71338 180 168 146 
2.84291 -2.8422 8.88683 188 171 163 
-0.468063 -4.38688 6.90261 54 35 28 
3.0051 -2.81829 8.78401 215 201 190 
2.40842 -2.91617 9.0986 38 39 33 
2.39402 -2.87158 8.9428 30 35 29 
1.52279 -5.03402 8.77625 67 53 40 
2.62594 -2.90057 9.01493 213 224 220 
3.04444 -2.82361 8.76002 98 78 69 
1.50585 -5.04411 8.7785 68 50 46 
1.61251 -5.04321 8.77015 54 35 29 
2.85997 -2.88553 8.88547 204 191 175 
3.00259 -2.92517 8.97366 184 170 157 
1.60418 -5.05302 8.77199 63 44 40 
2.90052 -2.88671 8.86203 196 184 168 
3.07537 -2.86771 8.74971 201 185 172 
1.77079 -1.66763 7.82419 12 2 1 
3.05452 -2.87243 8.76424 204 188 175 
1.32566 -1.61335 7.74533 112 108 105 
2.5361 -2.91869 8.88459 212 214 211 
1.35331 -0.375344 8.2917 30 27 12 
1.53397 -5.06466 8.765 85 68 50 
-0.85528 -1.47591 7.28411 135 117 105 
-0.609847 -1.5342 7.76858 19 11 8 
2.40599 -3.09313 8.97187 255 200 181 
1.50451 -4.92929 8.49777 144 128 113 
1.35744 -0.622732 8.16805 186 176 166 
1.3236 -0.61495 8.05869 51 44 36 
-0.266703 -4.35087 7.36571 206 166 158 
2.04279 -3.46116 8.988 204 206 184 
1.99382 -3.49523 9.00711 192 191 170 
1.98955 -3.51051 9.02957 188 187 169 
1.46763 -5.1862 8.91532 44 31 22 
2.18331 -0.63824 7.75371 164 154 155 
2.04518 -3.54983 8.99901 55 57 35 
2.19334 -0.649256 7.7486 29 20 13 
2.45574 -4.07735 8.80205 121 94 83 
2.52052 -4.04711 9.0858 130 111 96 
-0.754291 -3.93317 6.57954 225 203 182 
-0.416205 -1.30875 8.17142 157 109 99 
-0.920133 3.50377 6.89638 28 16 20 
1.35466 -0.95878 8.05525 148 138 129 
2.62474 -2.38726 7.7848 234 219 200 
1.2606 -1.30425 7.86328 176 175 170 
1.34224 -0.574959 8.05138 141 137 136 
1.61311 -5.1913 8.77352 91 62 56 
2.14492 -3.58861 9.12282 83 84 66 
2.31241 -0.606908 7.81759 129 119 117 
-0.659256 -1.13237 7.81608 161 108 100 
-0.369405 -1.2342 8.29785 144 115 109 
-0.523409 -1.48812 7.90551 168 117 98 
-0.597817 -1.27529 7.91693 162 115 99 
-0.58784 -3.33989 6.96976 215 192 186 
-0.822884 0.154875 7.74598 188 186 187 
-0.663338 -1.09046 7.81977 63 7 0 
-0.483443 -1.63303 8.01266 21 12 7 
-0.528835 -3.36973 7.06232 204 174 166 
1.4625 -5.05355 8.93734 45 25 18 
-0.947172 -3.56747 6.27778 63 42 49 
-0.856549 -3.26439 6.44223 213 182 164 
1.54303 -4.97114 8.7623 194 177 169 
-0.691516 3.53252 6.84464 244 233 213 
1.5307 -5.06758 8.93441 60 44 29 
1.44574 -4.9757 8.7696 27 13 2 
1.50991 -5.07421 8.93657 86 69 62 
2.95141 -3.70693 8.41498 107 59 39 
1.6269 -3.93837 9.02475 54 34 33 
1.42117 -5.09469 8.94378 47 33 32 
-0.673573 -3.8513 6.74323 197 192 186 
-0.642149 -4.33899 6.69854 60 42 28 
-0.94782 -3.49148 6.28358 204 190 181 
2.18619 -3.63187 9.06703 190 193 176 
2.2399 -3.60715 9.04553 181 190 171 
1.43613 -5.02051 8.77474 188 170 166 
2.20454 -3.58372 9.054 69 60 43 
-0.573938 -4.39606 6.83091 68 45 37 
-0.774547 -4.14742 6.44541 201 191 181 
-0.823265 -4.0747 6.35028 175 153 155 
2.29581 -2.94692 8.92704 171 159 159 
2.41329 -2.99286 9.09439 196 188 175 
3.06673 -2.85944 8.71729 196 182 173 
2.27113 -2.92268 8.93369 183 178 174 
-0.819777 -4.05343 6.35294 97 76 75 
-0.993124 -3.52473 6.07899 50 31 33 
3.09481 -2.92702 8.93549 197 181 168 
3.02625 -2.92404 8.95051 178 166 154 
-0.84926 0.174826 7.79216 179 167 167 
3.03658 -2.84955 8.73451 77 57 46 
-0.792485 0.131329 7.91423 183 184 170 
2.30367 -2.89595 8.91635 40 29 23 
2.82132 -2.88315 8.87095 178 165 146 
-0.654017 -3.90946 6.74608 211 203 201 
-0.63427 0.067259 8.03957 149 136 128 
1.36819 -5.06243 8.94289 206 188 174 
2.41149 -2.94222 9.08742 32 28 16 
-0.557844 0.0447011 8.17108 189 178 160 
-0.564665 0.0328729 8.19379 200 188 172 
-0.49517 -0.0299243 8.32515 175 157 147 
2.48751 -2.93051 9.05103 221 217 205 
2.96787 -2.84224 8.77609 205 188 178 
-0.448519 -0.0697878 8.4639 165 156 151 
2.26989 -2.88409 8.92868 30 27 22 
-0.169533 -0.138432 8.74799 36 25 5 
-0.216027 -0.14866 8.74996 139 132 122 
-0.226348 -0.158938 8.74955 142 135 125 
2.82927 -2.86484 8.86289 72 55 39 
3.10444 -2.87374 8.91742 204 186 176 
3.06331 -2.80479 8.70743 211 193 179 
2.58478 -2.89219 8.99801 46 48 45 
1.53443 -0.278909 7.89154 28 6 0 
2.98757 -2.88781 8.99484 124 106 84 
-0.773773 -4.02952 6.47384 77 51 50 
2.45788 -2.90129 9.06011 204 203 198 
2.47659 -2.89276 9.05012 195 192 187 
2.58871 -2.87467 8.9931 205 205 203 
2.86411 -2.88914 9.04075 172 160 148 
1.34555 -0.53484 8.10618 167 166 164 
1.35013 -0.548579 8.25289 24 25 20 
1.46205 -0.541808 8.06164 195 182 173 
2.56023 -2.86254 9.00518 209 211 200 
2.94772 -2.79093 8.77784 161 152 147 
1.33214 -0.616357 8.11214 28 23 20 
2.26489 -0.600622 7.80544 29 13 13 
2.19635 -0.61786 7.82295 15 7 0 
2.15289 -0.633645 7.85023 21 4 0 
-0.71431 -4.07126 6.598 205 196 187 
1.42755 -5.13765 8.78709 45 35 23 
2.20087 -0.645438 7.82256 164 154 155 
2.08605 -2.44445 7.97264 238 210 189 
2.20986 -0.695974 7.82155 37 20 12 
2.19054 -0.720133 7.83524 38 13 9 
1.59116 -2.0715 8.0921 181 180 175 
-0.958884 -3.63569 6.16066 64 48 49 
-1.03515 -3.57952 6.05016 82 54 43 
0.733026 -2.0772 8.57994 181 167 154 
1.34779 -1.80834 7.73348 206 208 207 
-0.391488 -4.33653 7.12402 219 170 166 
1.32591 -1.8051 7.73932 220 222 219 
-0.667612 -3.93302 6.64017 208 203 199 
-0.73232 -3.85967 6.51664 56 31 26 
1.78152 -1.69349 7.87429 128 116 118 
1.77704 -1.67274 7.85265 11 1 0 
1.2901 -1.64305 7.85411 180 169 167 
1.34184 -1.63727 7.86005 143 138 132 
1.29384 -1.5898 7.73813 39 28 22 
1.28836 -1.61219 7.87407 178 168 169 
1.31945 -1.60574 7.86504 173 167 167 
-0.841795 -3.79457 6.38041 210 195 190 
-0.607194 -1.5646 7.72397 188 184 181 
-0.668909 -1.53035 7.59516 127 123 122 
-0.474073 -1.61447 8.01489 187 179 176 
-0.651204 -1.51747 7.5984 18 10 8 
-0.625395 -1.54168 7.72383 20 12 10 
-0.607376 -1.52403 7.72731 19 14 10 
1.49469 -5.10326 8.94067 59 46 30 
1.30758 -1.45857 7.70823 199 198 194 
-0.666518 3.49301 6.75337 16 8 6 
1.32357 -1.45918 7.72403 201 199 187 
1.30821 -1.16724 7.85163 172 172 172 
1.57301 -1.17721 7.76022 25 18 2 
1.47007 -1.19659 7.79878 160 146 135 
1.31739 -1.24132 7.8512 199 195 192 
1.60471 -2.42731 8.26379 206 190 174 
-0.313917 -0.101027 8.60549 144 131 125 
-0.640091 0.0834727 8.17546 148 144 133 
-0.673091 -3.75393 6.65854 212 202 201 
2.56826 -2.83865 8.81171 205 217 215 
-0.848816 0.142577 7.78767 136 125 123 
-0.780692 -0.205698 7.74515 11 8 3 
3.02556 -2.80761 8.73246 186 172 161 
1.33279 -0.359855 8.08391 131 132 124 
-0.860046 -4.10123 6.42903 85 60 63 
1.32593 -1.18505 7.8466 175 166 159 
1.44775 -5.1091 8.78321 38 25 16 
-0.863639 -3.63485 6.40313 215 204 210 
-0.886863 -3.99125 6.24091 101 77 67 
1.44908 -5.20719 8.95405 107 94 86 
