ply                 
format ascii 1.0    
element vertex 1283
property float x    
property float y    
property float z    
property uchar red  
property uchar green
property uchar blue 
end_header          
2.38784 -2.8774 9.02295 27 30 23 
-0.814386 -4.00283 6.48618 119 94 74 
-0.768385 -4.04126 6.54801 203 189 188 
2.51381 -2.86214 8.98698 214 210 199 
-0.764808 -4.04939 6.5859 77 51 50 
2.98791 -2.81802 8.83113 212 198 187 
2.41849 -2.86271 9.00134 204 203 198 
2.44161 -2.87688 9.04828 34 29 25 
2.46686 -2.86435 9.02533 37 36 34 
2.86481 -2.82182 8.87891 200 187 168 
2.48771 -2.85301 9.00595 219 215 203 
2.46857 -2.81642 8.88101 55 54 50 
2.92506 -2.78523 8.81146 161 152 147 
2.87076 -2.79247 8.86551 204 187 167 
-0.703536 -4.08429 6.70287 205 196 187 
-0.727596 -4.03985 6.63411 216 194 181 
-0.714087 -4.04634 6.6527 73 48 51 
-0.992587 -3.60755 6.20023 216 201 194 
-0.954187 -3.66586 6.28393 64 48 49 
1.38783 -1.8781 7.91511 211 212 207 
1.36362 -1.83978 7.88223 206 208 207 
-0.377485 -4.34299 7.22593 219 170 166 
-0.72596 -3.89726 6.6601 56 31 26 
1.29533 -1.66413 7.93883 180 169 167 
-0.633584 -1.54924 7.7607 18 10 8 
-0.60005 -1.55666 7.79079 20 12 10 
1.49198 -5.04871 8.96082 59 46 30 
1.32737 -1.49665 7.88216 199 198 194 
-1.02127 -3.68094 6.19787 73 48 44 
1.59161 -2.41158 8.25785 206 190 174 
-0.47705 -0.0796493 8.43068 158 145 139 
3.07316 -2.84275 8.82561 83 60 42 
-0.285517 -0.136655 8.70038 144 131 125 
1.06926 -4.49663 9.33603 79 51 47 
2.99374 -2.84443 8.84855 79 63 48 
2.57811 -2.85922 8.93902 205 217 215 
-0.75256 -0.236123 7.82239 11 8 3 
-0.194299 -3.72499 7.78526 194 175 168 
3.01445 -2.8141 8.80353 186 172 161 
-0.563852 -1.24595 8.00911 159 113 97 
-0.487611 -4.33253 7.04181 63 32 27 
1.44276 -5.13404 8.94599 107 94 86 
2.83754 -2.83078 8.9068 202 190 174 
2.55638 -2.92063 8.9719 206 208 203 
1.10197 -5.29762 8.9998 76 63 54 
-0.754633 -4.02524 6.59822 64 41 35 
2.24339 -2.98945 9.09517 209 190 196 
1.60404 -5.01187 8.8066 105 84 79 
2.41448 -4.00149 8.72324 109 82 75 
1.62502 -4.98585 8.89324 78 60 50 
-0.767708 -3.99945 6.57866 74 55 38 
1.45935 -5.13282 8.89003 59 45 34 
1.55615 -5.04265 8.88283 101 83 71 
-0.585376 0.0359427 8.23524 62 50 36 
2.62663 -3.96989 8.73799 102 81 76 
-0.61925 -3.86429 6.86767 201 195 195 
-0.726077 -3.93999 6.69793 72 52 41 
1.45521 -5.0561 8.92664 77 63 54 
1.55181 -2.28913 8.35225 173 172 170 
1.55874 -5.01567 8.9265 81 63 51 
1.59812 -5.48484 8.69356 27 34 44 
-0.96333 -3.65505 6.27152 176 168 165 
1.63567 -3.91709 9.14801 70 53 46 
-0.762577 -4.15779 6.56257 200 193 187 
1.45795 -5.05188 8.97474 53 34 28 
1.41435 -5.06889 8.9947 102 86 71 
2.16284 -3.57611 9.00271 170 173 156 
-0.136765 -3.62878 7.89067 208 175 160 
-0.722407 -1.39656 7.65124 175 118 91 
1.51045 -4.2338 9.1611 186 170 170 
2.99319 -2.78436 8.87708 56 43 27 
2.37728 -3.06816 8.96397 251 196 176 
2.44086 -3.11132 8.98727 177 68 71 
1.40286 -4.39983 9.18682 78 60 46 
2.6256 -3.92099 8.66727 114 96 84 
-0.558254 -4.36983 6.94405 66 42 30 
2.0499 -3.47138 9.10326 212 214 192 
-0.0962832 -3.72738 7.95643 189 174 169 
1.4447 -3.35599 9.52289 50 59 54 
1.51529 -5.16143 8.85544 82 65 57 
-1.0166 -3.60804 6.1692 209 196 190 
-0.670946 -3.92385 6.73413 197 192 196 
-0.747679 -1.02367 7.64786 166 110 97 
-0.690843 -1.40867 7.69716 179 112 93 
1.54892 -4.1991 9.13774 186 171 164 
-1.06396 -3.47165 6.13211 57 40 58 
2.8233 -3.94484 8.41455 86 59 40 
-0.0690223 -4.03354 7.89471 66 46 35 
1.54687 -4.41118 9.12668 108 79 81 
2.9935 -2.78872 8.81744 181 170 166 
2.16001 -3.51523 8.99097 202 199 180 
-0.970155 -3.54395 6.25045 72 44 33 
2.49809 -2.88647 9.00551 217 219 205 
-0.653061 -3.82938 6.79969 206 202 191 
2.83543 -2.87167 8.88402 205 189 174 
1.55403 -5.00869 8.84748 49 32 24 
1.37325 -1.82362 7.90506 201 203 202 
-0.811844 -4.08514 6.44942 223 198 194 
1.46524 -5.005 8.94328 34 17 7 
2.32071 -2.92469 9.07145 40 29 23 
2.97825 -2.81698 8.81135 189 175 162 
1.44167 -5.11859 8.91409 55 45 43 
2.51213 -2.86262 8.98846 199 195 184 
1.42864 -5.04461 9.02535 45 35 26 
2.56375 -2.8534 8.95073 48 47 45 
1.44186 -5.00419 8.95227 193 176 160 
2.9461 -2.82159 8.84418 203 191 177 
2.28323 -2.91011 9.02325 31 21 12 
2.55176 -2.84463 8.95165 221 221 221 
-0.611733 -1.5744 7.8022 146 140 140 
2.58958 -2.86997 9.0854 38 38 38 
-0.44902 -1.63639 8.11559 178 170 167 
-0.599957 -1.55929 7.79328 29 24 21 
-0.767587 -4.03448 6.54138 214 195 180 
-0.288535 -0.147462 8.70172 164 150 149 
-0.635411 -1.54846 7.76112 18 13 10 
-0.419635 -0.104649 8.5346 167 154 146 
-0.75572 -4.02888 6.55753 71 45 48 
-0.655002 -3.95608 6.76457 209 204 200 
-0.765534 0.0972184 7.99627 164 165 149 
-0.73476 -4.05823 6.66644 210 186 176 
-0.714761 -4.04923 6.65182 59 37 40 
-1.02774 -3.63073 6.14382 71 52 54 
-0.934237 -3.50309 6.37066 207 190 180 
1.7806 -2.3522 8.05602 199 189 179 
-0.92296 -3.50102 6.3855 212 199 182 
1.34718 -1.50027 7.91165 202 200 188 
2.3389 -2.94701 8.99633 215 207 194 
2.38139 -2.95374 9.03867 208 199 182 
1.06214 -4.02877 9.42931 49 29 31 
2.49431 -2.91426 8.94751 210 210 202 
2.2737 -2.93246 9.03525 206 203 198 
2.98848 -2.87182 8.82385 198 185 169 
-0.816832 0.174521 7.84028 32 21 17 
-0.0698332 -4.02719 7.8757 72 53 39 
1.41422 -5.06646 8.97447 78 62 47 
1.52414 -5.03328 8.92382 60 45 42 
2.62346 -3.95768 8.71388 121 102 98 
2.0123 -3.55672 9.07665 213 213 189 
1.63417 -3.29415 9.3652 73 43 51 
1.12738 -4.24089 9.37616 189 171 157 
-0.843848 -4.077 6.41847 204 179 175 
-0.607611 -4.31141 6.80995 191 171 162 
1.50586 -5.00378 8.92555 42 24 20 
1.36874 -1.84636 7.91055 180 182 181 
1.4424 -3.34267 9.47134 28 39 35 
2.30285 -2.96336 9.02692 192 174 172 
1.21424 -4.24784 9.344 164 149 144 
2.2145 -3.56542 9.02611 181 190 171 
-0.834852 -4.0471 6.4173 92 72 81 
2.43075 -3.89164 8.83033 108 89 75 
1.55967 -2.40857 8.25221 213 203 193 
2.61814 -3.90525 8.63595 118 100 86 
-0.841017 -3.83788 6.47348 205 197 194 
-0.754829 -3.9836 6.5945 71 47 45 
2.90725 -2.81475 8.80114 221 204 176 
-0.952875 -3.65928 6.27952 62 49 56 
-0.694314 -1.15782 7.70402 173 113 87 
-0.685612 -4.09256 6.73481 201 187 184 
2.15615 -3.56845 8.99203 166 169 148 
2.86385 -2.86876 8.85679 202 190 174 
-0.565849 -3.89313 6.96268 209 181 157 
2.04315 -3.50103 9.04547 59 57 42 
-0.586875 -1.52674 7.83478 147 149 144 
-0.802552 0.11607 7.91662 192 190 191 
-1.02909 -3.63692 6.17946 152 132 121 
1.5621 -2.32342 8.32486 209 189 178 
-0.520387 -1.57357 7.99396 168 164 165 
1.58795 -2.31875 8.30852 167 156 152 
2.43403 -4.03728 8.79777 109 82 75 
-0.755347 -4.02521 6.59751 64 41 35 
-0.960207 -3.67319 6.26997 221 200 183 
1.52351 -2.28664 8.3996 36 27 18 
2.0501 -3.47331 9.10424 212 214 192 
-0.29112 -3.61693 7.63491 189 167 153 
-0.731205 -4.07004 6.63119 205 192 183 
-1.01688 -3.60292 6.15686 212 195 185 
2.57897 -2.85553 8.93856 213 224 220 
1.13203 -4.23658 9.30866 62 44 42 
-0.946537 -3.80625 6.29471 95 72 66 
-0.843977 -4.05705 6.41871 111 83 80 
2.43671 -3.10365 8.96431 177 68 71 
-0.134415 -3.61218 7.84825 218 186 173 
2.38857 -3.07779 8.99486 255 200 181 
2.83011 -2.81498 8.86681 206 197 182 
1.59436 -3.91929 9.17818 93 76 66 
-0.767048 -3.99744 6.57954 78 59 45 
-0.554522 -4.35858 6.92646 58 31 24 
-0.480421 -4.38943 7.05591 79 52 45 
2.75911 -4.6729 8.22807 236 217 200 
1.55406 -4.4263 9.16886 81 52 56 
-0.867378 -3.75714 6.43388 204 195 188 
2.93388 -3.69858 8.46856 105 58 38 
1.18798 -4.17941 9.34092 178 162 163 
2.22489 -3.1244 9.11913 158 68 68 
1.47196 -5.03586 9.0063 54 35 28 
1.4178 -5.0023 8.95033 33 23 14 
-0.605607 -4.30383 6.79618 202 182 171 
-0.815736 -4.08817 6.45979 204 183 178 
2.49879 -2.92836 8.99042 220 221 213 
2.34094 -2.93354 9.10645 212 193 186 
2.37228 -2.9251 9.08076 220 213 197 
2.37002 -2.88813 8.98586 38 35 26 
-0.693872 -4.06501 6.71377 68 56 58 
2.49018 -2.88322 8.98669 220 222 209 
1.61833 -4.97954 8.86197 54 40 29 
2.95104 -2.83041 8.85918 211 198 182 
2.8512 -2.81725 8.84772 195 182 165 
-0.657817 -3.84254 6.82022 212 207 201 
-0.480449 -4.39086 7.07142 61 35 22 
-0.979612 -3.53876 6.26102 160 144 144 
-0.826222 0.17381 7.87537 38 27 23 
-0.810395 -4.02667 6.50918 209 186 168 
-0.758033 -4.04687 6.57921 81 56 59 
-0.537173 0.00382545 8.28274 192 181 161 
-0.992685 -3.53523 6.24362 93 74 76 
-0.542584 -0.0396886 8.36471 178 164 155 
1.54527 -3.24259 9.49 42 26 13 
-0.197835 -0.186911 8.88958 138 130 119 
1.41213 -5.05338 8.96204 61 44 34 
-0.842429 -3.29473 6.56505 217 183 158 
-0.762116 -3.99834 6.61884 67 47 49 
2.73994 -4.68155 8.24281 227 208 191 
1.56497 -5.03551 8.89485 68 51 43 
-0.382208 -4.35712 7.25235 228 173 170 
1.55659 -2.40666 8.25313 212 189 175 
1.55065 -4.42044 9.15635 94 65 69 
1.6315 -2.41792 8.28436 208 193 172 
1.78695 -2.36724 8.11007 201 189 173 
1.59673 -2.33893 8.35463 179 167 155 
-0.264243 -3.62223 7.62215 78 65 56 
-0.88511 -3.45141 6.42417 49 35 34 
-0.525403 -3.42507 7.2499 205 175 164 
1.44079 -3.3494 9.47938 27 39 35 
2.43067 -4.03552 8.74587 112 84 83 
1.18783 -4.28724 9.36079 194 174 165 
1.54359 -4.18242 9.1139 187 173 162 
1.13536 -4.26472 9.3778 55 37 33 
1.20622 -4.20905 9.26359 183 166 159 
1.11032 -4.2075 9.30002 187 170 150 
2.75857 -4.82704 8.19523 230 215 194 
1.39358 -1.90417 7.98943 220 216 215 
2.63085 -3.97522 8.75478 82 62 61 
-0.710125 -1.2163 7.6995 195 105 71 
2.6191 -3.92207 8.66714 79 60 54 
1.43781 -5.11247 8.89007 52 44 41 
-0.828906 -3.8011 6.48663 205 191 182 
1.63922 -3.96461 9.17966 47 30 36 
1.75008 -1.66426 7.88169 150 142 129 
-0.604897 -1.42002 7.83343 42 14 13 
-1.0255 -3.59444 6.15213 65 41 37 
-0.992187 -3.61215 6.20387 214 196 186 
1.58879 -3.92759 9.19779 99 82 72 
1.33046 -1.50007 7.89122 196 195 190 
2.20303 -3.7352 8.97982 101 105 78 
-0.468568 -1.65116 8.21219 192 184 181 
-0.635167 -1.53887 7.71745 26 21 18 
1.97209 -3.57456 9.15951 80 82 58 
2.74439 -4.62089 8.19386 223 204 187 
1.50709 -4.30919 9.07811 64 46 46 
1.18558 -4.17888 9.34254 170 154 157 
2.98215 -2.7496 8.797 117 105 91 
-0.263643 -3.79214 7.58972 64 50 49 
-0.841739 -3.83123 6.45688 201 197 194 
-0.473965 -4.45495 7.0417 45 26 22 
-0.875783 -4.00512 6.33147 85 62 78 
-0.815547 -4.09183 6.46836 224 201 193 
-0.843275 -4.06185 6.43022 77 51 50 
1.11557 -4.27949 9.3565 157 141 142 
1.62645 -3.89682 9.12543 75 57 57 
-0.474736 -4.37783 7.05627 63 35 31 
1.05869 -4.03728 9.42881 40 22 20 
2.00029 -4.43564 8.80203 110 87 79 
-0.775097 -4.05271 6.57522 192 173 166 
-0.716934 -4.05074 6.65273 59 40 46 
1.54115 -4.39239 9.10944 77 47 55 
-0.984567 -3.52322 6.2175 54 35 39 
1.13275 -4.24581 9.34388 53 35 31 
1.54149 -4.20507 9.16433 181 166 159 
1.78549 -2.37519 8.14073 209 197 175 
-0.262628 -3.62021 7.61014 109 99 87 
1.54496 -3.20224 9.34521 200 174 161 
2.34426 -3.06822 8.93391 185 54 60 
2.38348 -3.09459 9.01448 249 170 157 
2.45712 -3.07312 8.95317 242 197 176 
1.54459 -3.25784 9.45648 200 174 161 
1.63378 -2.42652 8.32354 210 196 169 
1.53512 -3.23002 9.45645 45 29 16 
2.00177 -3.92253 8.96538 121 105 89 
1.31241 -1.20193 8.03679 61 62 64 
-0.542003 0.00655595 8.30656 166 155 135 
-0.703556 -1.21246 7.66817 188 95 61 
2.79697 -2.83483 8.92101 200 186 175 
2.86734 -2.7722 8.86166 162 149 132 
-0.777619 0.0951938 8.01268 186 181 175 
2.41457 -4.01157 8.73522 128 101 94 
-0.882834 -3.44292 6.39859 43 39 40 
1.42444 -5.03128 9.01002 56 45 39 
1.11462 -4.22952 9.34823 192 176 153 
-0.450727 -1.66865 8.1 195 189 177 
-0.726756 -3.90414 6.68823 52 36 37 
2.60795 -3.93998 8.67827 102 81 76 
-0.595307 -1.56555 7.75089 21 20 18 
-0.175722 -3.51478 7.89109 220 171 157 
-0.450639 -1.63649 8.09819 186 179 173 
-0.644799 -1.54918 7.70113 181 177 176 
-0.645926 -1.51952 7.7039 195 191 188 
2.27189 -3.1362 9.00212 247 191 174 
-0.524093 -1.5721 7.98032 80 72 70 
1.18436 -4.16496 9.30892 178 162 163 
1.99909 -3.55729 9.07406 141 141 117 
1.31088 -4.30353 9.2834 197 180 170 
-0.610292 -4.30989 6.81105 199 179 170 
-0.137038 -3.66018 7.9339 177 147 139 
1.51807 -3.24341 9.46804 169 147 133 
1.5613 -5.02464 8.866 59 42 34 
2.31736 -3.01887 9.03784 228 136 141 
2.47682 -3.1325 8.96027 247 199 185 
2.86996 -3.42477 8.62724 198 119 115 
-0.584189 -1.52207 7.80699 155 158 151 
-0.552302 -4.36999 6.9534 64 35 37 
-0.808164 -3.99083 6.43949 210 187 169 
-0.73411 3.20335 7.33158 182 165 157 
-0.822453 -4.07808 6.49342 65 49 49 
2.00124 -4.40955 8.7599 88 68 59 
-0.82426 0.17115 7.88644 34 24 22 
1.16877 -4.26836 9.33347 192 171 166 
-0.807853 0.122727 7.81364 89 80 81 
1.54309 -4.19719 9.16294 183 167 151 
-0.601923 0.0316016 8.21843 150 140 130 
-0.536262 0.00414838 8.27612 190 179 161 
1.11466 -4.23151 9.34856 195 179 154 
-0.43333 -0.100459 8.60643 166 152 143 
2.59614 -3.89699 8.59853 102 83 79 
1.47606 -5.04588 9.02851 55 36 29 
2.19214 -3.70918 8.93508 70 76 48 
2.26303 -3.34779 8.91721 68 71 44 
2.47696 -3.12582 8.95369 238 192 177 
1.44756 -0.71322 8.0165 137 137 125 
2.22611 -4.99296 8.45323 65 49 52 
1.5994 -2.38132 8.15749 206 195 167 
1.56054 -2.34257 8.36951 210 184 161 
1.33106 -1.12365 8.07036 162 157 161 
1.30007 -1.13387 8.00013 155 155 157 
1.66694 -2.29956 8.39812 17 20 13 
1.56848 -1.20921 7.85268 17 17 9 
1.83524 -1.84463 7.82293 13 15 14 
1.82688 -1.87387 7.99235 184 172 158 
-1.14837 -1.52124 6.61764 37 36 41 
-0.452005 -1.66646 8.09694 191 184 174 
-0.45192 -1.63752 8.09528 113 104 99 
1.3349 -1.49469 7.86875 196 194 181 
-0.635805 -1.5769 7.83488 202 194 192 
1.55461 -3.23708 9.42535 214 188 173 
2.49106 -3.01799 9.04463 242 195 179 
1.11557 -4.27949 9.3565 157 141 142 
-0.276114 -3.77446 7.59233 203 181 158 
-0.361918 -3.56714 7.26715 63 52 60 
1.14801 -4.29685 9.34676 59 43 43 
-0.283449 -0.145116 8.75062 160 143 133 
2.00894 -3.93273 8.98123 128 112 86 
2.36778 -3.10032 9.03091 185 54 60 
2.38566 -3.09521 9.01632 253 192 173 
1.34386 -0.557142 8.1443 160 159 155 
2.2923 -2.90495 9.03272 40 36 27 
1.35743 -5.00035 8.9613 54 38 23 
-0.538195 -0.0392765 8.29392 174 157 150 
1.31509 -4.18392 9.26035 200 183 173 
-0.334178 -3.57523 7.45368 64 50 49 
-0.205256 -4.02592 7.66994 101 56 59 
2.18102 -3.49468 8.8965 96 84 68 
2.10842 -3.4728 8.91784 194 195 177 
-0.685443 3.50903 6.92783 242 233 204 
-0.670243 3.4683 6.93811 254 241 224 
-0.298342 3.11684 6.48648 87 71 48 
1.96887 -3.4501 8.94942 63 66 45 
-0.80811 0.106734 7.84637 18 13 17 
-0.749859 0.0988341 7.92553 125 125 117 
2.20751 -0.617928 7.74795 152 142 133 
-0.611022 0.0317146 8.13328 158 145 137 
2.24339 -0.623557 7.79999 44 27 17 
1.5471 -4.98544 8.77862 174 156 146 
-1.0051 -3.5879 6.2809 225 196 182 
-0.801502 0.121339 7.85782 169 169 169 
2.15971 -0.633801 7.78241 75 60 39 
-0.521002 0.00896947 8.21462 162 150 134 
-0.549479 -4.37406 6.91167 58 38 27 
-0.534553 -0.0238498 8.21111 169 152 145 
-0.542679 -0.0429834 8.20902 161 148 139 
-0.456912 -0.0626458 8.3572 165 147 137 
-0.443636 -0.0696699 8.36677 159 140 126 
-0.421935 -0.0811857 8.44273 187 164 156 
-0.407834 -0.086844 8.44193 162 151 145 
-0.451266 -0.0849263 8.35489 175 164 158 
-0.407799 -0.100897 8.44053 149 148 146 
1.49412 -4.94343 8.8652 59 40 33 
-0.294079 -0.145085 8.59232 151 141 139 
-0.179496 -0.18082 8.76013 158 154 145 
1.59674 -4.94097 8.77624 65 51 42 
-0.188834 -0.192832 8.62454 139 131 120 
2.03117 -3.5008 9.04008 69 66 49 
-0.742367 -0.238539 7.74343 14 11 4 
2.92271 -2.84844 8.77265 197 185 171 
1.5443 -0.310684 7.98976 57 33 7 
-0.933725 -3.57463 6.36115 62 35 42 
1.32709 -0.398893 8.16867 30 27 12 
-0.558536 -4.39058 6.90785 77 53 43 
-0.765114 -4.17699 6.56851 194 185 178 
1.35075 -0.567454 8.16319 128 126 127 
-0.501141 -1.61996 7.90721 61 57 48 
2.98406 -2.84212 8.72728 153 139 130 
1.34119 -0.638439 8.08998 171 162 155 
2.18834 -0.620089 7.75347 132 125 117 
-0.423393 -0.082215 8.35482 72 50 39 
2.18148 -0.654635 7.85142 147 136 130 
2.13147 -0.656768 7.8811 24 2 0 
2.46274 -2.82297 8.89962 213 207 195 
2.16718 -0.667464 7.78099 158 148 149 
2.23819 -0.667317 7.72749 135 131 120 
2.96777 -2.84749 8.749 202 188 175 
-0.597277 -4.32217 6.84232 76 52 42 
1.58647 -2.06866 8.08635 178 178 170 
1.4261 -4.99133 8.86757 190 170 169 
2.18585 -0.706255 7.763 186 174 162 
1.31625 -0.773528 8.12227 191 174 166 
1.58626 -5.48722 8.72094 170 171 173 
2.15182 -0.753831 7.87789 19 5 4 
-0.591051 -1.53196 7.83451 90 93 84 
1.41905 -5.07311 8.78883 76 63 44 
2.29776 -2.93298 8.97844 185 171 170 
2.14704 -3.49808 8.91722 80 71 54 
-0.686039 -3.93646 6.79322 176 169 177 
1.4454 -5.07535 8.78757 57 40 30 
1.42936 -4.93981 8.86949 67 49 29 
1.34449 -0.973503 8.03118 134 125 120 
1.40821 -4.99469 8.70465 57 42 35 
1.56522 -5.03155 8.78133 62 48 39 
-0.95146 -3.64371 6.34873 183 169 182 
1.52051 -4.96846 8.69482 184 166 152 
-0.988932 -3.60329 6.28547 217 205 189 
1.51463 -4.95944 8.69449 85 66 49 
-0.965828 -3.65805 6.28557 199 196 191 
-0.86706 -3.69644 6.47569 190 178 182 
1.58488 -4.98973 8.77569 71 57 54 
-0.692892 -3.87056 6.79545 185 179 181 
1.5703 -4.98424 8.77649 37 24 18 
-0.677118 -3.9536 6.7949 172 167 171 
-0.762919 -3.87591 6.65901 180 172 169 
-0.868672 -3.76795 6.4693 193 183 174 
1.50708 -5.03123 8.87198 98 81 73 
-0.611091 -3.91117 6.88193 195 182 189 
1.59439 -4.97559 8.77972 182 170 172 
1.40318 -4.96756 8.78099 63 50 44 
1.48334 -5.01645 8.87238 192 177 170 
1.56996 -4.96232 8.77448 37 23 20 
1.60005 -4.91146 8.68241 78 60 50 
-0.621507 -4.29729 6.72117 54 36 22 
1.51563 -5.01189 8.86962 178 162 165 
1.5855 -4.96354 8.77943 59 47 47 
1.32809 -1.13393 7.9663 157 152 156 
-0.975185 -3.57117 6.29343 76 46 36 
1.54668 -4.95728 8.77607 197 180 172 
1.40393 -4.954 8.7861 34 18 21 
1.50664 -4.99966 8.86921 69 52 45 
-1.02294 -3.63057 6.21778 177 167 166 
1.45375 -5.043 8.96441 70 49 44 
1.32585 -1.19294 7.96909 186 186 188 
1.31829 -1.20399 7.97187 154 156 155 
1.32626 -1.27068 7.97182 173 172 170 
1.33138 -1.27849 7.97051 6 4 5 
1.5577 -4.88798 8.69047 45 29 16 
1.54047 -4.92943 8.77407 65 49 36 
1.58968 -4.92676 8.76928 190 176 165 
1.57044 -4.92678 8.77743 184 168 155 
-0.6731 -3.80093 6.75482 169 165 162 
1.48039 -4.9281 8.78514 42 24 20 
-0.761831 -4.05166 6.58224 65 43 45 
1.45723 -4.97231 8.87682 27 13 2 
1.50425 -4.96716 8.87295 186 168 166 
1.36764 -4.96075 8.87475 32 16 1 
-0.384531 -4.41923 7.2075 211 173 172 
1.36685 -5.00768 8.96631 183 167 154 
1.33657 -1.4986 7.83081 202 194 191 
-0.943983 -3.56655 6.35824 204 193 191 
-0.65066 -1.50802 7.69277 167 165 168 
-0.637142 -1.52345 7.68546 24 19 15 
-0.830638 -3.97377 6.51117 80 58 44 
-0.346792 -4.43933 7.28719 192 170 157 
-0.533744 -1.56168 7.83824 197 186 184 
-0.642156 -1.54616 7.75059 73 68 65 
-0.734063 -4.0824 6.70093 186 169 161 
1.46471 -4.94155 8.86723 41 23 13 
-0.738864 -3.93698 6.66258 212 191 172 
1.41463 -4.94035 8.87047 35 23 9 
2.94339 -2.71947 8.7286 85 72 64 
-0.603552 -1.56759 7.75345 181 180 178 
-0.451731 -1.60542 7.92091 46 37 30 
-0.444137 -1.62955 7.98318 61 50 44 
1.33733 -1.61241 7.83566 146 138 136 
1.30602 -1.6138 7.83628 69 56 50 
1.29264 -1.66104 7.91477 153 144 145 
-0.664653 -3.7888 6.81345 199 194 191 
-0.633833 -3.82379 6.88063 194 189 186 
1.84416 -1.82637 7.83191 37 19 5 
1.38412 -1.87333 7.90807 171 171 169 
2.04257 -3.50261 9.03681 70 68 53 
-0.922658 -3.52832 6.42309 79 56 38 
-0.936933 -3.49814 6.37032 204 190 181 
-0.58081 -1.5477 7.87631 21 16 10 
1.57873 -2.06373 8.08842 181 180 175 
1.58283 -2.07675 8.0675 159 158 153 
-0.634813 -4.30753 6.77121 61 42 28 
1.59467 -2.1797 8.16997 166 166 164 
-1.16316 -1.791 6.5754 35 26 19 
-0.861574 -3.32346 6.63551 168 139 133 
1.64963 -2.23672 8.15719 212 200 188 
1.54379 -2.2704 8.2799 165 166 168 
1.65894 -2.24244 8.16325 44 26 12 
1.65218 -2.26078 8.23784 52 47 27 
1.58337 -4.94347 8.68706 105 84 79 
-0.724507 -3.94748 6.72098 77 51 36 
1.62081 -2.39051 8.17805 192 181 163 
1.33155 -0.56441 8.18062 25 24 19 
-0.231908 -3.73969 7.6425 179 174 171 
2.87291 -2.72706 8.77346 183 168 161 
2.84302 -2.7278 8.78088 195 189 173 
2.88769 -2.72733 8.76455 195 175 168 
2.93252 -2.73596 8.74924 108 91 75 
2.91016 -2.73541 8.75233 47 31 18 
2.95364 -2.72986 8.72418 85 73 57 
2.85771 -2.76304 8.79986 87 69 47 
2.9332 -2.75578 8.74201 96 79 69 
2.84799 -2.77242 8.79676 195 180 159 
2.98479 -2.7815 8.81654 88 73 66 
2.96541 -2.76049 8.73339 182 171 167 
2.53518 -2.83426 8.96563 56 58 45 
2.52547 -2.81328 8.86795 206 206 204 
2.7747 -2.81116 8.84606 200 186 175 
2.89592 -2.79128 8.77165 215 200 181 
2.87639 -2.79511 8.7841 212 199 183 
2.78486 -2.81244 8.84055 84 66 54 
2.91794 -2.79004 8.75802 200 188 176 
2.52842 -2.82218 8.86787 200 200 200 
2.98315 -2.78298 8.71603 186 172 163 
2.35975 -2.85373 8.95108 173 174 168 
3.00234 -2.78208 8.70362 210 197 189 
2.96041 -2.80209 8.74467 69 53 38 
2.52122 -2.83895 8.87397 49 51 46 
-0.488712 -4.34483 7.05618 97 67 59 
2.23764 -2.84682 8.8951 27 28 23 
3.02687 -2.79244 8.68993 77 54 36 
2.84895 -2.84116 8.80889 80 64 49 
2.92994 -2.8314 8.75867 60 43 33 
2.80418 -2.85093 8.82602 202 188 175 
2.30778 -2.867 8.87832 56 47 38 
2.99494 -2.82107 8.7162 72 52 41 
2.29904 -2.90306 8.98398 35 24 18 
1.44576 -4.31861 9.02303 66 45 24 
2.84557 -2.82121 8.70757 196 182 169 
2.86274 -2.82095 8.69742 194 172 159 
2.27247 -2.90809 8.98564 39 30 21 
3.03102 -2.82272 8.69345 86 62 52 
2.94089 -2.84677 8.76544 201 189 177 
2.48362 -2.88868 8.89954 157 160 151 
2.50233 -2.89516 8.89165 180 179 175 
2.38065 -2.91671 8.95065 61 55 41 
2.48682 -2.90386 8.90032 211 213 210 
1.33294 -0.646977 8.17149 28 19 12 
2.26111 -2.90907 8.89357 196 187 192 
2.24886 -2.94275 8.99986 64 59 55 
-0.840621 -3.84207 6.46961 189 184 180 
2.22715 -2.95193 9.00978 77 71 73 
2.19906 -2.92353 8.92041 198 196 199 
1.49326 -5.15082 8.70691 42 32 30 
2.33599 -2.94023 8.96326 201 196 190 
2.26696 -2.92386 8.89312 210 188 190 
2.21927 -2.96559 9.01466 195 180 185 
-0.0928524 -3.72919 7.9521 189 174 171 
-1.01786 -3.68724 6.21102 74 48 31 
2.16524 -0.64265 7.8493 133 126 108 
-0.872032 -3.81493 6.46071 195 187 185 
2.77983 -3.28328 8.73112 102 75 48 
2.01465 -3.40891 8.93983 167 171 148 
1.99512 -3.41436 8.94643 171 174 153 
1.98245 -3.47562 8.95722 195 198 179 
1.99947 -3.47993 8.95266 207 210 191 
2.14186 -3.47788 8.9075 177 179 158 
2.136 -3.51634 9.00884 63 64 46 
2.18047 -3.47585 8.89423 70 63 45 
1.43857 -3.78709 9.18477 73 56 38 
2.17781 -3.50971 8.9084 62 55 37 
2.0911 -3.55918 9.03761 189 193 176 
-1.02194 -3.67431 6.21067 216 198 196 
2.18917 -3.52078 8.90599 193 205 185 
2.13961 -3.53061 8.92378 201 203 181 
2.71183 -3.47434 8.69137 222 196 181 
1.98113 -3.49275 8.9507 197 190 172 
-0.569362 -1.00181 7.96034 45 0 0 
-0.487629 -1.04069 8.11572 147 112 110 
1.35501 -0.629451 8.17351 144 140 139 
1.55568 -4.9088 8.77714 65 47 35 
1.48843 -4.17063 9.00558 158 143 140 
-0.688947 -1.39905 7.63098 178 120 106 
2.12839 -3.49226 8.91377 57 59 38 
-0.610978 -0.804219 7.91396 164 132 137 
-0.739627 -4.07448 6.64527 91 71 64 
-0.460755 -4.38943 7.06234 192 171 168 
1.34546 -0.878914 8.03769 162 161 166 
-0.661617 -3.93835 6.80076 171 164 172 
1.62043 -5.03798 8.77698 66 52 39 
-0.940079 -3.34804 6.49174 173 120 102 
2.14183 -0.639777 7.79349 46 38 19 
2.22096 -2.92691 8.91216 122 102 101 
1.37451 -5.04855 8.88134 85 65 54 
-0.600901 -1.15246 7.87404 147 113 103 
-0.802726 -3.85094 6.5375 174 165 160 
-0.514973 -4.52348 6.91108 99 78 77 
-0.447657 -4.44091 7.12352 171 152 145 
-0.48172 -4.39043 7.056 61 34 23 
2.38613 -2.88519 8.83674 115 105 95 
-0.693499 -1.0579 7.78573 138 109 101 
-0.184298 -3.69447 7.71517 172 157 154 
-0.260224 -3.78162 7.55805 71 56 53 
-0.999284 -3.56863 6.28485 96 67 61 
2.25679 -0.619768 7.71123 142 133 128 
2.26143 -2.9239 9.00235 196 193 188 
2.14993 -0.772483 7.88068 125 109 109 
2.15749 -0.738613 7.79314 69 42 35 
2.04036 -3.52836 9.04054 74 73 52 
1.51718 -3.84256 9.17664 152 138 125 
1.29478 -4.43511 9.13049 76 54 41 
-0.569479 -1.17549 7.95357 145 116 102 
1.59127 -5.0799 8.6992 120 93 84 
1.32702 -1.27534 7.89753 142 140 141 
1.66496 -2.24558 8.2326 68 56 42 
2.16921 -3.46793 8.89704 161 163 142 
-0.697392 -1.22967 7.64545 56 0 0 
-0.839827 -4.09229 6.43986 195 179 189 
1.50245 -5.12225 8.79422 111 93 83 
2.57885 -2.8583 8.94019 213 224 220 
1.35242 -0.39641 8.23893 137 138 132 
2.48744 -2.86221 8.79659 135 135 127 
-0.574653 -1.36019 7.78939 179 122 105 
2.851 -2.73877 8.77817 113 101 85 
-0.910382 -3.50238 6.54436 222 163 123 
-0.814794 -4.09932 6.50371 92 71 70 
2.66376 -3.45862 8.70597 91 61 50 
1.34171 -0.501424 8.17567 147 142 146 
-0.55659 -1.46643 7.99336 57 0 0 
-0.977261 -3.79654 6.21645 102 73 57 
-0.473951 -1.61337 7.98985 75 66 59 
-0.810146 -3.95747 6.5232 82 63 49 
1.62232 -3.24491 9.23038 75 43 46 
-0.676256 -1.16512 7.79645 27 0 0 
1.58212 -5.10952 8.69681 197 178 171 
2.74148 -3.43909 8.67428 226 200 185 
1.33063 -1.89669 7.84307 150 154 155 
1.57595 -4.90769 8.77514 80 62 52 
2.63321 -3.47284 8.7314 113 82 64 
-0.752856 -4.00446 6.64574 110 77 62 
-1.03424 -3.6295 6.21019 66 39 30 
-0.240455 -0.441747 8.72394 16 0 0 
-0.333064 -3.64617 7.48289 198 174 164 
-0.554875 -3.60146 7.04389 194 183 179 
-0.911748 -3.73968 6.40162 211 195 195 
1.64979 -2.2751 8.23972 187 177 165 
2.92881 -2.71927 8.73768 173 161 149 
-0.342771 -3.69129 7.47374 170 155 158 
-0.634919 -3.93157 6.80939 171 160 174 
1.35492 -0.604877 8.17297 123 119 118 
1.43597 -3.82556 9.18809 64 47 37 
-0.900523 -4.07328 6.31064 183 170 164 
-0.590848 -3.39201 7.05649 88 65 51 
-0.608377 -3.94913 6.8764 203 161 147 
-0.502209 -3.48566 7.26311 169 160 165 
-0.450197 -3.4829 7.33748 189 187 192 
-0.257585 -4.38139 7.51337 200 156 147 
1.11711 -4.29052 9.22615 187 172 167 
-0.46382 -4.5261 6.98851 68 47 52 
2.05592 -3.49202 8.93688 184 181 162 
-0.758834 -0.960069 7.59908 148 116 119 
2.51562 -2.82912 8.84418 30 35 31 
1.54893 -4.96488 8.74261 70 53 43 
-0.500103 -1.61768 7.89017 18 15 6 
-0.445646 -0.0901861 8.40047 165 154 148 
2.97585 -2.78061 8.69797 200 186 175 
3.01651 -2.77809 8.68408 201 189 177 
1.54285 -4.94146 8.74848 199 182 174 
2.30957 -2.84621 8.92877 191 193 188 
-0.562552 0.0261935 8.23117 32 22 12 
2.27747 -2.85809 8.94398 177 182 178 
-0.464801 -4.58607 7.06775 177 161 162 
2.24171 -2.86286 8.95943 188 203 196 
1.60088 -5.03228 8.85456 54 38 38 
2.78806 -2.80243 8.81478 188 171 163 
2.91212 -2.7861 8.7386 200 188 174 
1.32944 -0.644832 8.1569 28 19 12 
2.48965 -2.87548 8.98218 201 199 186 
2.94679 -2.77912 8.71591 215 201 190 
2.15729 -0.634295 7.76803 41 29 7 
2.51819 -2.80797 8.82754 200 200 200 
2.77626 -2.80836 8.82251 76 56 45 
2.88865 -2.78701 8.75302 213 197 174 
2.92181 -2.80288 8.73594 89 75 64 
2.45232 -2.81065 8.85955 213 207 195 
1.39407 -4.92932 8.85345 51 38 30 
2.28274 -2.92507 8.95065 65 53 57 
1.66441 -2.25072 8.1956 44 26 12 
2.29723 -2.86668 8.93679 207 194 188 
-0.939068 -3.59254 6.39294 62 35 42 
2.99693 -2.83833 8.70875 203 187 174 
-0.797549 3.55703 6.98765 32 19 13 
2.99895 -2.83181 8.69363 173 157 144 
1.51675 -4.8992 8.73941 59 39 32 
2.78068 -2.83763 8.82523 80 61 44 
2.92552 -2.72448 8.61196 182 171 167 
2.84316 -2.76585 8.7762 207 188 173 
2.91847 -2.84333 8.75828 197 185 171 
-0.625399 -4.31602 6.75099 70 53 37 
2.83838 -2.84931 8.79437 180 168 152 
2.95438 -2.74996 8.71811 86 73 67 
2.90437 -2.75027 8.73651 56 43 37 
2.84726 -2.8476 8.78889 183 171 155 
1.56677 -4.91773 8.74416 45 29 16 
2.85204 -2.75888 8.78232 87 69 47 
2.9074 -2.74442 8.74622 188 174 163 
2.07164 -3.49886 8.97396 90 87 70 
1.39475 -4.98952 8.85826 48 31 23 
1.55298 -4.85607 8.53382 63 44 40 
2.9386 -2.76399 8.8399 64 48 35 
2.95613 -2.76048 8.82829 89 72 56 
2.84133 -2.78868 8.78149 192 180 158 
2.87956 -2.72523 8.74687 197 174 166 
2.9115 -2.73192 8.77955 198 184 171 
1.49659 -4.94871 8.74542 175 158 164 
1.05466 -4.41928 9.17471 84 57 50 
2.8406 -2.83386 8.79024 95 82 66 
1.41269 -5.01155 8.85906 39 26 20 
1.58108 -4.9469 8.74551 45 35 36 
2.7537 -2.81093 8.71695 203 190 174 
2.10566 -3.51356 8.96496 98 97 77 
2.3683 -2.86797 8.90615 49 51 37 
2.3587 -2.86934 8.91058 210 210 200 
1.88761 -2.52102 8.21848 70 58 32 
1.56752 -4.99739 8.84668 55 41 32 
1.55223 -4.95348 8.74128 183 170 162 
-0.978623 -3.57921 6.31123 64 35 27 
1.58691 -4.95535 8.7383 193 178 181 
2.95849 -2.85847 8.84605 60 43 33 
2.81723 -2.84583 8.80592 201 184 174 
2.1524 -3.45888 8.83079 199 190 173 
2.28821 -2.89046 8.94375 35 24 18 
1.4054 -4.99294 8.85794 141 126 129 
2.88257 -2.84069 8.76681 212 188 176 
2.18853 -3.4912 8.93464 68 61 43 
2.2656 -2.89729 8.95408 28 18 9 
2.05483 -3.50094 8.97945 195 188 170 
-1.00251 -3.60411 6.30014 78 57 52 
-0.516541 -4.37888 6.99574 61 34 23 
3.02384 -2.81526 8.67435 86 62 52 
1.54527 -2.39063 8.17574 165 155 146 
1.55901 -2.36275 8.07683 185 169 153 
1.40174 -4.98176 8.85725 73 59 56 
2.90032 -2.84092 8.75627 181 172 157 
2.92959 -2.83875 8.73811 190 178 166 
2.14665 -3.54243 8.95529 201 203 181 
1.33166 -1.13835 7.99725 160 155 159 
-0.992786 -3.61338 6.3029 179 165 152 
2.96231 -2.84185 8.73111 202 188 175 
2.49253 -2.87555 8.85022 209 211 198 
2.47373 -2.87848 8.85957 202 204 193 
-0.641552 -3.92599 6.85492 202 194 192 
-0.620576 -3.86815 6.86964 187 181 183 
2.00729 -3.49528 8.99327 207 210 191 
1.50383 -4.96643 8.84914 121 104 97 
1.59383 -4.93932 8.79601 191 177 166 
1.48971 -4.96329 8.84993 86 69 62 
2.97896 -2.83603 8.70707 176 159 149 
1.99018 -3.48969 8.99773 200 203 184 
-0.853012 -3.29933 6.58381 205 175 164 
2.52397 -2.88394 8.8485 206 210 209 
1.45088 -4.95736 8.85219 30 13 3 
1.41885 -5.01496 8.96416 77 67 58 
1.50011 -4.95149 8.84809 186 168 166 
1.54706 -4.95553 8.85229 197 180 172 
1.3649 -4.94656 8.84873 68 52 36 
1.45607 -5.08937 8.86305 38 25 16 
1.55185 -2.29874 8.37012 172 171 166 
1.97957 -3.47194 8.99883 63 66 45 
1.34123 -4.94973 8.85782 44 26 12 
2.3502 -2.95095 9.04374 206 199 189 
-0.773014 -4.06611 6.58721 203 189 188 
1.35185 -4.94943 8.85728 179 163 150 
-0.815256 -4.02241 6.51633 55 37 23 
2.03857 -3.50999 9.10024 177 174 157 
-0.948331 -3.58237 6.3862 204 193 191 
2.25356 -2.93278 8.96364 189 184 180 
1.55041 -4.94401 8.85096 66 49 39 
-0.571188 -3.93055 7.02349 217 186 165 
1.31602 -1.18443 7.90333 176 176 178 
1.43164 -5.11666 8.86668 48 36 22 
2.32516 -2.93047 8.93353 217 210 200 
1.41176 -4.93246 8.85264 38 26 12 
2.21122 -2.94591 8.98231 165 160 164 
-1.00288 -3.62796 6.23467 210 195 192 
2.87124 -2.85524 8.65755 181 165 139 
1.58409 -2.07932 8.08755 179 178 173 
-0.634177 -3.82533 6.8683 186 181 178 
2.17244 -0.711931 7.76607 54 37 27 
-0.344508 -4.42938 7.26994 166 143 135 
2.18289 -0.705682 7.74682 189 175 162 
-0.867416 -3.76177 6.45637 210 200 191 
1.32105 -1.27043 7.91573 6 4 5 
1.34162 -1.28962 7.99963 141 137 138 
-0.654109 -3.95375 6.77758 201 195 197 
-0.733575 -4.06221 6.66983 212 192 181 
-0.914951 -3.52679 6.40707 182 158 148 
-0.647793 -3.77441 6.8675 182 178 167 
2.18367 -0.671949 7.85168 130 120 121 
-0.71538 -4.05517 6.67646 94 65 59 
-0.645118 -3.76396 6.86894 212 205 187 
-0.729945 -3.91537 6.69021 58 33 26 
2.15752 -0.650541 7.75679 171 157 156 
-0.722042 -3.93257 6.69158 58 35 19 
1.34774 -0.565987 8.14848 128 126 127 
1.34276 -1.4901 7.82008 23 17 17 
1.39506 -1.88635 7.92206 192 197 193 
1.33381 -1.49692 7.82305 189 184 180 
1.37251 -1.85734 7.82958 200 200 198 
-0.813474 0.140284 7.80402 188 184 185 
-0.64477 -1.50031 7.63771 191 187 186 
1.34664 -1.82764 7.84497 46 48 47 
1.84979 -1.83271 7.8603 37 19 5 
1.36003 -1.80069 7.83009 184 186 185 
1.55119 -0.313874 8.04719 39 19 0 
-0.612441 0.0320818 8.14324 155 144 138 
-0.572532 0.0287286 8.18075 195 185 173 
-0.588844 -1.54388 7.80291 186 178 175 
-0.626283 -1.53085 7.71768 73 65 63 
-0.632564 -1.51575 7.63786 24 19 15 
-0.532764 -0.00681218 8.22772 164 152 138 
-0.518946 -3.41432 7.23853 204 174 166 
-0.595542 -1.54075 7.72043 20 12 10 
-0.63852 -1.53974 7.71545 73 68 65 
-0.542475 -0.0429781 8.22382 161 148 139 
1.78351 -1.6968 7.95954 11 1 0 
-0.462548 -0.0632797 8.40335 173 155 145 
-0.846491 -3.858 6.51819 209 199 197 
-0.446535 -0.0717574 8.41498 185 165 154 
-0.683085 -4.02883 6.76349 191 186 182 
-0.454693 -1.6195 7.98951 46 37 30 
-0.47345 -0.081776 8.41418 173 160 152 
-0.405287 -0.0869318 8.40022 145 141 132 
1.28406 -1.64696 7.84716 158 148 147 
1.58415 -5.13213 8.64781 59 46 40 
-0.839479 -3.83537 6.46025 207 202 198 
1.48412 -5.12168 8.6539 70 60 59 
2.7721 -2.84523 8.84391 171 152 137 
2.72168 -3.48811 8.7268 222 196 181 
-0.667053 -4.37809 6.72867 177 167 157 
-0.360473 -3.74669 7.40223 104 73 52 
-0.529728 -1.55753 7.80811 186 175 173 
2.83911 -2.80411 8.78563 73 60 41 
1.39488 -5.00082 8.85917 61 45 32 
1.34272 -0.5712 8.25885 36 29 21 
1.35279 -0.62718 8.16051 144 140 139 
-0.419551 -0.0819147 8.4136 187 164 156 
-0.240399 -3.73386 7.59657 179 170 173 
2.28449 -0.626483 7.78517 72 61 55 
-0.604821 -1.52216 7.7209 184 180 177 
-0.74286 -3.94724 6.68369 225 203 182 
2.16675 -0.644183 7.85926 133 126 108 
1.49512 -4.15637 9.028 181 165 166 
2.33257 -2.85803 8.92044 206 201 182 
-0.99801 -3.63865 6.23551 92 74 64 
-0.690327 -4.09555 6.75217 78 63 58 
2.15416 -0.737916 7.77919 69 42 35 
2.14703 -0.771094 7.8682 125 109 109 
1.55537 -2.31068 8.28285 170 152 148 
-0.259235 -3.75668 7.50669 71 56 53 
1.18246 -4.16315 9.16281 169 153 153 
2.57686 -3.90272 8.63074 192 172 161 
1.9907 -3.51242 9.00016 197 190 172 
2.97958 -2.75951 8.8133 78 66 50 
-0.296213 3.10519 6.46614 85 69 46 
-0.639234 -4.33556 6.81626 61 42 28 
-0.707632 -1.00349 7.77601 125 93 82 
2.89959 -2.75651 8.86243 169 154 147 
2.03516 -3.52614 8.98848 177 185 162 
-1.00275 -3.57952 6.30234 135 105 97 
1.59882 -5.46923 8.67209 27 30 39 
1.49186 -4.17937 9.03036 174 158 158 
1.55032 -5.021 8.85033 61 45 32 
2.78438 -2.852 8.82571 197 185 169 
2.9521 -2.82291 8.7212 81 65 50 
2.02803 -3.5118 8.98895 67 66 45 
2.07597 -3.53633 8.97714 189 193 176 
2.14872 -3.49655 8.94875 201 198 179 
2.86496 -2.84416 8.7779 187 174 158 
-0.530343 -4.3819 6.99127 88 62 47 
1.33756 -1.09942 7.99399 152 147 151 
-0.599391 -1.42602 7.82105 49 6 0 
1.61859 -2.38581 8.16429 192 181 163 
-1.03343 -3.65807 6.22018 224 203 186 
1.53206 -4.91582 8.7471 69 52 42 
1.05459 -4.40402 9.17388 210 182 178 
-0.955008 -3.66083 6.37682 178 162 173 
-0.676245 -3.81745 6.78427 169 165 162 
1.56314 -4.90671 8.74349 171 155 140 
2.02055 -3.48231 8.98777 69 66 49 
1.61215 -5.01772 8.74186 68 54 43 
2.27959 -0.642405 7.78987 130 122 119 
2.4725 -2.85537 8.74138 179 185 183 
1.59981 -5.11238 8.75201 91 62 56 
-0.315739 -4.40905 7.28344 199 165 166 
1.44952 -4.32768 9.03853 84 63 44 
-0.737587 -4.06644 6.60367 188 173 166 
2.02257 -3.42519 8.9805 167 171 148 
2.73096 -3.49003 8.72269 105 78 59 
1.43609 -0.773553 8.04013 129 120 115 
1.26357 -1.32425 7.93498 154 155 150 
-0.823667 -3.87514 6.52484 198 177 160 
-0.760797 -4.04634 6.59712 112 88 78 
-0.735074 -4.05135 6.6056 91 71 64 
-0.489396 -1.33382 8.10621 147 110 91 
-0.253171 -4.35371 7.46411 206 163 156 
-0.730872 -4.08895 6.66888 198 189 180 
1.29227 -4.42526 9.10841 76 54 41 
-0.659075 -1.21756 7.67029 161 121 111 
-0.466819 -1.28901 8.11144 169 117 106 
-1.01611 -3.60637 6.17376 177 167 166 
-0.638654 -1.18275 7.84826 56 9 3 
-0.84978 -4.00792 6.43462 100 71 65 
1.60011 -5.13118 8.75377 84 55 47 
-0.139533 -3.61432 7.87248 191 157 148 
1.5316 -5.38923 8.57045 178 179 183 
1.34005 -0.499892 8.16253 147 142 146 
1.54979 -4.20078 9.13524 189 174 167 
-0.739123 -4.03245 6.54221 73 59 58 
2.58307 -3.85092 8.51304 118 100 86 
-0.481081 -3.53485 7.23479 179 173 177 
2.91346 -2.79289 8.71511 95 81 70 
-0.559313 -4.36723 6.89517 99 81 79 
1.06185 -4.45212 9.24221 88 61 54 
2.17307 -3.46822 8.87794 58 53 34 
1.25625 -4.34872 9.10241 73 54 40 
2.08595 -3.48869 8.90916 199 198 178 
-1.00582 -3.58869 6.26481 67 46 43 
-0.0945314 -3.71524 7.92842 189 174 169 
1.49815 -4.19788 9.0771 186 170 170 
1.50221 -4.17929 9.075 181 165 166 
1.556 -4.88771 8.71913 195 179 164 
-0.530733 -1.56124 7.82432 186 175 173 
1.58504 -2.39265 8.18748 210 192 172 
-0.637049 -4.32 6.79105 61 42 28 
1.52851 -4.99662 8.73133 198 181 165 
-0.687826 3.51355 6.93706 240 230 203 
-0.994329 -3.58799 6.26914 101 82 75 
2.00399 -3.53631 9.06313 204 196 177 
2.12432 -3.5262 8.88883 190 193 176 
1.97898 -3.50343 8.93085 204 206 182 
1.97401 -3.4633 8.92773 200 201 183 
1.98717 -3.39655 8.88971 202 204 182 
2.2336 -2.98369 9.07007 195 180 185 
2.89703 -2.88152 8.74201 181 165 139 
2.30071 -2.97008 9.04099 200 181 183 
2.31333 -2.91704 8.88792 217 210 200 
2.33626 -2.90931 8.87708 220 213 203 
2.31291 -2.90362 8.88628 199 195 184 
2.33583 -2.89591 8.87542 216 209 193 
2.50075 -2.92049 8.95973 220 221 215 
2.9529 -2.8408 8.73206 193 179 166 
-0.819014 -4.1169 6.49786 218 194 192 
-0.704487 3.17656 7.29238 21 10 4 
2.91907 -2.83212 8.71926 186 174 162 
-0.766568 -4.17393 6.59354 201 194 188 
1.49396 -5.01753 8.8498 201 184 174 
2.87694 -2.83605 8.7453 198 176 165 
3.05851 -2.84718 8.78039 89 65 53 
2.28345 -2.92224 9.04176 40 30 21 
2.26558 -2.8787 8.90282 218 211 205 
-0.601622 -4.34604 6.88264 76 52 42 
-0.918767 -3.49873 6.38576 203 193 183 
2.98499 -2.81677 8.69039 65 45 34 
2.3069 -2.91449 9.0309 34 25 20 
-0.915737 -3.50825 6.38597 105 87 73 
2.35307 -2.88529 9.00707 192 191 171 
2.91836 -2.8188 8.71712 51 34 24 
2.94603 -2.81316 8.69904 71 55 40 
2.33806 -2.90561 9.01639 44 35 28 
2.33454 -2.85574 8.87045 33 29 18 
2.38398 -2.84417 8.84697 212 209 192 
2.83351 -2.82203 8.76821 60 42 28 
2.95662 -2.84595 8.84474 205 188 178 
2.42667 -2.87919 8.9733 46 43 26 
2.77625 -2.8283 8.80209 72 53 38 
3.06151 -2.82673 8.78968 77 54 36 
2.24149 -2.85499 8.90968 18 19 13 
2.45667 -2.85655 8.95611 212 207 201 
2.8324 -2.79978 8.76477 67 54 35 
2.99301 -2.77482 8.67698 210 197 189 
3.00999 -2.77123 8.66533 201 189 177 
2.37189 -2.86444 8.99588 203 204 198 
2.90581 -2.78098 8.71747 200 188 174 
2.42189 -2.85266 8.97165 34 29 25 
2.46204 -2.80126 8.8047 214 212 200 
2.80847 -2.84287 8.93208 84 66 54 
2.86367 -2.78479 8.74358 212 196 180 
2.92321 -2.82082 8.86033 197 181 156 
-0.665677 -3.79997 6.83159 199 194 191 
2.54328 -2.83663 8.92639 205 205 203 
2.76166 -2.82648 8.80995 143 121 108 
2.43924 -2.79578 8.81464 213 207 195 
2.79957 -2.78799 8.78162 203 191 177 
2.86936 -2.82224 8.89293 195 182 163 
2.91193 -2.71388 8.57394 181 170 166 
2.8963 -2.73366 8.71427 188 174 163 
2.21642 -0.697422 7.76243 20 5 0 
2.99485 -2.75917 8.81916 192 182 172 
2.29913 -2.83378 8.88273 131 133 128 
1.34056 -4.946 8.85295 44 26 12 
-0.822861 0.142562 7.8869 188 184 185 
1.49872 -4.95231 8.85291 175 157 157 
-0.848501 -3.63175 6.46617 204 193 199 
-0.817171 -4.01769 6.51107 70 48 34 
-0.773785 -4.07439 6.60333 211 193 181 
-0.821544 0.10705 7.87104 159 148 146 
1.59325 -4.88559 8.71531 54 35 28 
-0.759574 0.0986781 7.98368 173 174 158 
1.45088 -4.95586 8.84745 62 45 35 
-0.597751 0.0457057 8.08361 156 154 142 
-0.623611 -3.88837 6.92015 205 200 197 
-0.606675 0.0322694 8.09615 156 143 135 
1.49046 -4.96628 8.85475 86 69 62 
-0.655909 -3.84358 6.83172 209 205 196 
-0.38513 -4.39492 7.16249 211 180 177 
1.59905 -4.99871 8.83934 60 50 51 
1.58098 -4.89526 8.71744 191 177 166 
2.4013 -2.80828 8.84846 218 217 212 
-0.761549 -4.05504 6.60904 81 53 49 
1.65582 -2.38261 8.16568 207 194 177 
-0.736827 -4.05675 6.61742 72 53 47 
-0.530962 -0.0259783 8.19508 180 161 154 
1.54603 -2.27855 8.31792 166 166 166 
2.93613 -2.7955 8.84753 161 152 147 
-0.703615 -4.08536 6.70446 205 196 187 
-0.4467 -0.074085 8.40716 185 167 157 
-0.727628 -4.03353 6.62217 212 192 181 
-0.770964 -4.01895 6.60841 86 65 46 
1.57868 -2.07061 8.05364 179 178 173 
-0.99747 -3.561 6.27048 96 67 61 
1.57115 -2.05534 8.0549 181 180 175 
-0.28826 -0.144221 8.50948 158 147 143 
2.87282 -2.75613 8.73273 207 185 174 
1.4944 -4.94 8.72902 175 158 164 
1.41056 -5.01464 8.86401 53 38 31 
-0.942764 -3.79064 6.26511 113 89 79 
1.38512 -1.87973 7.88335 210 212 209 
1.34556 -1.82014 7.78745 213 215 214 
1.37006 -1.81514 7.88415 184 186 185 
-0.550673 -0.0180579 8.19583 139 99 87 
-0.687239 -3.84445 6.74226 199 193 195 
-0.935036 -3.57845 6.36795 62 35 42 
1.28882 -1.65429 7.8991 188 174 171 
1.33858 -0.391567 8.17252 155 155 147 
1.34323 -1.62439 7.8824 207 197 195 
1.54542 -4.97276 8.85091 81 63 51 
1.29726 -1.59116 7.79018 173 167 167 
-0.58675 -1.58237 7.81663 133 129 126 
-0.602238 -1.55958 7.71812 187 183 184 
-0.646446 -1.55117 7.7135 181 177 176 
1.45957 -0.504703 8.01542 171 171 159 
1.35019 -0.564159 8.17152 167 166 164 
-0.747372 -4.11482 6.68749 188 173 166 
2.2206 -0.615406 7.73693 29 13 13 
1.50166 -4.96275 8.84436 121 104 97 
1.3253 -1.48739 7.77763 189 184 180 
1.30733 -1.47697 7.78246 193 191 192 
2.19173 -0.662321 7.89016 167 156 154 
-0.570484 0.0095428 8.19869 31 17 6 
2.14781 -0.659111 7.7999 168 160 157 
1.41048 -5.0119 8.73177 57 44 38 
1.50997 -4.9533 8.84286 79 62 46 
-0.81118 0.104597 7.88276 14 9 13 
1.56456 -4.90514 8.71992 47 30 20 
1.38552 -4.91307 8.73408 94 80 79 
-0.683867 -4.03161 6.77176 187 182 176 
-0.599951 -1.29125 7.85114 45 10 4 
1.45289 -5.11445 8.86086 52 38 29 
1.43167 -5.11515 8.86207 76 63 44 
2.191 -0.70993 7.7789 186 174 162 
1.3229 -1.26939 7.87341 157 153 152 
-0.99292 -3.60363 6.19823 218 205 197 
-0.667373 -1.23056 7.75072 163 114 97 
2.17819 -0.714313 7.78693 54 37 27 
1.31381 -1.25457 7.88852 202 195 189 
-0.891661 -3.76747 6.48266 185 175 174 
1.56771 -1.18886 7.78554 49 37 15 
1.33612 -1.2117 7.97373 180 173 167 
-0.718612 -1.1497 7.65612 154 114 106 
-0.670563 -3.92238 6.7367 174 164 172 
1.32482 -0.777347 8.18567 189 169 158 
-0.867953 -3.76059 6.44398 204 195 188 
1.43559 -0.771959 8.03307 142 132 123 
1.46115 -4.99016 8.85888 193 182 164 
-1.03171 -3.61206 6.178 82 54 43 
1.33034 -1.13848 7.9863 157 152 156 
1.49507 -5.08935 8.73324 72 53 46 
1.33188 -1.09997 7.97106 170 165 169 
1.39337 -4.9971 8.86353 102 86 71 
1.4436 -4.94106 8.85594 41 21 12 
-0.570406 -0.873909 7.9921 157 119 118 
2.93846 -2.72794 8.70225 69 56 40 
1.40825 -4.93034 8.84806 49 39 30 
2.92882 -2.74329 8.71123 74 58 45 
2.93893 -2.78132 8.84305 68 53 46 
-0.472425 -4.54632 6.9965 54 35 39 
2.9881 -2.7759 8.81115 83 70 64 
-0.418401 -0.0822207 8.40596 183 160 152 
2.87538 -2.79831 8.88488 195 180 159 
2.96518 -2.797 8.84537 201 188 179 
2.4947 -2.78083 8.80045 42 42 34 
2.48005 -2.78067 8.79301 206 208 195 
2.79475 -2.74288 8.63485 180 168 146 
2.78193 -2.79576 8.79309 188 171 163 
-0.456187 -4.40049 7.01393 54 35 28 
2.94041 -2.77402 8.69487 215 201 190 
2.36026 -2.86609 9.00125 38 39 33 
2.34897 -2.82683 8.86013 30 35 29 
1.50695 -4.94389 8.72838 67 53 40 
2.57026 -2.85042 8.91514 213 224 220 
2.97885 -2.7795 8.67182 98 78 69 
1.49042 -4.9536 8.7305 68 50 46 
1.59432 -4.9528 8.72154 54 35 29 
2.79837 -2.83769 8.79126 204 191 175 
2.93164 -2.87091 8.86075 184 170 157 
1.58617 -4.96224 8.7232 63 44 40 
2.83794 -2.83916 8.76878 196 184 168 
3.00885 -2.82234 8.66138 201 185 172 
1.75935 -1.67573 7.85152 12 2 1 
2.98843 -2.8267 8.67524 204 188 175 
1.32261 -1.6239 7.78446 112 108 105 
2.48725 -2.87327 8.80355 212 214 211 
1.34535 -0.404187 8.28587 30 27 12 
1.51849 -4.97625 8.72148 85 68 50 
-0.832038 -1.49283 7.36429 135 117 105 
-0.583128 -1.54523 7.82004 19 11 8 
2.35987 -3.04087 8.88534 255 200 181 
1.49205 -4.85678 8.47723 144 128 113 
1.35046 -0.646713 8.17333 186 176 166 
1.318 -0.639382 8.07221 51 44 36 
-0.25095 -4.34417 7.44944 206 166 158 
2.00889 -3.40051 8.91006 204 206 184 
1.96117 -3.43316 8.92812 192 191 170 
1.95579 -3.44553 8.94386 188 187 169 
1.45254 -5.08723 8.85856 44 31 22 
2.16395 -0.662879 7.77558 164 154 155 
2.01094 -3.48609 8.91938 55 57 35 
2.17388 -0.673723 7.77067 29 20 13 
2.41041 -4.00156 8.72683 121 94 83 
2.46696 -3.95964 8.97952 130 111 96 
-0.745494 -3.95865 6.70457 225 203 182 
-0.387639 -1.31875 8.18991 157 109 99 
-0.895268 3.42915 6.97006 28 16 20 
1.34879 -0.97697 8.07082 148 138 129 
2.59408 -2.37926 7.7894 234 219 200 
1.25785 -1.31821 7.89479 176 175 170 
1.33626 -0.600142 8.06481 141 137 136 
1.59518 -5.09818 8.72648 91 62 56 
2.1057 -3.5193 9.02977 83 84 66 
2.28802 -0.631456 7.82769 129 119 117 
-0.630545 -1.14853 7.86088 161 108 100 
-0.34044 -1.24466 8.30739 144 115 109 
-0.496168 -1.49794 7.94527 168 117 98 
-0.568989 -1.28841 7.9557 162 115 99 
-0.573647 -3.35298 7.07521 215 192 186 
-0.790857 0.117736 7.78856 188 186 187 
-0.63448 -1.10725 7.86428 63 7 0 
-0.455684 -1.63905 8.04462 21 12 7 
-0.513761 -3.37947 7.162 204 174 166 
1.44733 -4.95671 8.87831 45 25 18 
-0.942327 -3.60071 6.41126 63 42 49 
-0.848984 -3.2928 6.57067 213 182 164 
1.52716 -4.88448 8.71784 194 177 169 
-0.670777 3.46219 6.92504 244 233 213 
1.51363 -4.97023 8.87463 60 44 29 
1.43233 -4.8888 8.7256 27 13 2 
1.49339 -4.9766 8.87676 86 69 62 
2.89777 -3.65061 8.36033 107 59 39 
1.60608 -3.86642 8.95449 54 34 33 
1.40701 -4.99626 8.88406 47 33 32 
-0.66247 -3.87066 6.8604 197 192 186 
-0.63226 -4.36062 6.81937 60 42 28 
-0.942965 -3.52482 6.41775 204 190 181 
2.1457 -3.56164 8.97507 190 193 176 
2.19797 -3.53813 8.95463 181 190 171 
1.42284 -4.93197 8.72979 188 170 166 
2.16369 -3.51537 8.96323 69 60 43 
-0.562407 -4.41158 6.94456 68 45 37 
-0.767819 -4.1778 6.57517 201 191 181 
-0.818114 -4.10916 6.48474 175 153 155 
2.25466 -2.90139 8.84958 171 159 159 
2.36399 -2.9392 8.99307 196 188 175 
3.00159 -2.81547 8.633 196 182 173 
2.2307 -2.87781 8.85628 183 178 174 
-0.814618 -4.08797 6.48766 97 76 75 
-0.991745 -3.56429 6.21914 50 31 33 
3.02162 -2.87352 8.82497 197 181 168 
2.95726 -2.87258 8.8465 178 166 154 
-0.815944 0.137096 7.83086 179 167 167 
2.97215 -2.80565 8.64964 77 57 46 
-0.758572 0.0938094 7.94589 183 184 170 
2.26247 -2.85214 8.83988 40 29 23 
2.76172 -2.83629 8.78007 178 165 146 
-0.642931 -3.92842 6.86265 211 203 201 
-0.601932 0.0304068 8.06413 149 136 128 
1.35557 -4.96524 8.88429 206 188 174 
2.36241 -2.89036 8.98699 32 28 16 
-0.525493 0.00777614 8.18711 189 178 160 
-0.531512 -0.00391473 8.20325 200 188 172 
-0.462103 -0.0657912 8.3258 175 157 147 
2.43638 -2.87956 8.95221 221 217 205 
2.90502 -2.798 8.68961 205 188 178 
-0.415031 -0.105147 8.4546 165 156 151 
2.22961 -2.84048 8.85191 30 27 22 
-0.140375 -0.172856 8.71675 36 25 5 
-0.185634 -0.182804 8.71873 139 132 122 
-0.195694 -0.192809 8.71844 142 135 125 
2.76956 -2.81869 8.77256 72 55 39 
3.03132 -2.82233 8.8084 204 186 176 
2.99854 -2.76267 8.62423 211 193 179 
2.53116 -2.84326 8.90181 46 48 45 
1.52563 -0.309627 7.9123 28 6 0 
2.91726 -2.83483 8.88214 124 106 84 
-0.766714 -4.05946 6.60387 77 51 50 
2.40766 -2.85118 8.96128 204 203 198 
2.42589 -2.84308 8.95179 195 192 187 
2.53505 -2.82639 8.89731 205 205 203 
2.79937 -2.8376 8.93323 172 160 148 
1.33886 -0.560555 8.11363 167 166 164 
1.34244 -0.573735 8.24972 24 25 20 
1.45319 -0.567442 8.07044 195 182 173 
2.50737 -2.81448 8.90904 209 211 200 
2.88558 -2.74829 8.69192 161 152 147 
1.32579 -0.640495 8.12004 28 23 20 
2.24133 -0.625239 7.81581 29 13 13 
2.17545 -0.642569 7.83898 15 7 0 
2.13261 -0.658054 7.86563 21 4 0 
-0.705388 -4.09608 6.72206 205 196 187 
1.41415 -5.04479 8.73951 45 35 23 
2.17995 -0.669678 7.83876 164 154 155 
2.06506 -2.43424 7.97759 238 210 189 
2.18888 -0.719358 7.83808 37 20 12 
2.16985 -0.743085 7.85154 38 13 9 
1.58038 -2.06856 8.10238 181 180 175 
-0.956521 -3.67446 6.30063 64 48 49 
-1.03454 -3.62052 6.19189 82 54 43 
0.738691 -2.06647 8.56288 181 167 154 
1.34425 -1.81588 7.77177 206 208 207 
-0.377368 -4.34069 7.22313 219 170 166 
1.32269 -1.81263 7.7775 220 222 219 
-0.657817 -3.955 6.75986 208 203 199 
-0.724302 -3.88684 6.64298 56 31 26 
1.76805 -1.69919 7.89181 128 116 118 
1.76486 -1.68004 7.8764 11 1 0 
1.28744 -1.65241 7.88967 180 169 167 
1.33756 -1.64566 7.8899 143 138 132 
1.29112 -1.60052 7.77659 39 28 22 
1.28492 -1.62086 7.90363 178 168 169 
1.31552 -1.6146 7.8948 173 167 167 
-0.835789 -3.82644 6.5125 210 195 190 
-0.581098 -1.57568 7.77809 188 184 181 
-0.643513 -1.54321 7.65653 127 123 122 
-0.446456 -1.62082 8.04677 187 179 176 
-0.626027 -1.53051 7.65973 18 10 8 
-0.598998 -1.55306 7.77789 20 12 10 
-0.581217 -1.53567 7.7813 19 14 10 
1.4785 -5.00451 8.88026 59 46 30 
1.30546 -1.47235 7.75272 199 198 194 
-0.647217 3.42614 6.83715 16 8 6 
1.32041 -1.47194 7.76276 201 199 187 
1.30439 -1.18319 7.8812 172 172 172 
1.56514 -1.19354 7.79195 25 18 2 
