ply                 
format ascii 1.0    
element vertex 1294
property float x    
property float y    
property float z    
property uchar red  
property uchar green
property uchar blue 
end_header          
-1.5704 0.406986 3.3239 64 70 94 
-0.000260941 0.538534 4.38526 42 24 36 
-0.992953 0.45601 3.67949 68 88 123 
-0.87396 0.474982 3.76072 69 84 117 
-1.28758 0.652635 4.96983 82 98 131 
-0.884405 0.491494 3.72249 68 87 120 
-0.870475 0.495636 3.74865 81 100 132 
-0.892169 0.499597 3.71519 16 25 56 
-0.873538 0.500515 3.71887 27 31 60 
0.006014 0.5953 4.42003 19 17 28 
0.0168506 0.596926 4.42772 20 18 29 
-0.946786 0.502485 3.64562 78 94 130 
0.0595588 0.616911 4.48033 81 94 126 
-1.26097 0.488493 3.48132 68 80 106 
-0.980692 0.512272 3.65584 18 28 55 
-1.24096 0.489703 3.48656 63 75 101 
-0.946966 0.516927 3.67874 22 30 53 
-1.17172 0.498586 3.53451 68 82 111 
-1.15417 0.50095 3.54501 68 79 107 
-0.68504 0.526298 3.72018 93 111 149 
-0.973088 0.521944 3.66196 71 84 116 
-0.95585 0.524353 3.67219 69 83 110 
-0.849983 0.536974 3.73315 69 76 104 
-0.654107 0.535972 3.6744 14 20 36 
-0.180587 0.595654 4.08391 94 110 143 
-1.22324 0.519765 3.50866 74 80 106 
-0.181248 0.606228 4.05071 14 16 31 
-0.93648 0.554487 3.68979 79 83 110 
-0.170823 0.613113 4.08234 29 39 66 
-7.14657 3.49766 22.453 71 80 109 
-0.880884 0.579592 3.69787 64 75 103 
-0.667988 0.585656 3.71832 22 25 56 
-7.11204 3.62513 22.3418 73 79 111 
-0.936033 0.599739 3.68025 75 85 110 
-1.22293 0.586131 3.49306 67 74 100 
-0.866788 0.626119 3.71006 57 72 95 
-0.229889 0.724778 4.14695 7 15 36 
-1.18887 0.622784 3.49747 5 14 21 
-0.882916 0.676539 3.68768 92 107 140 
-0.867177 0.679334 3.70142 90 106 139 
-1.56052 0.653209 3.23895 80 93 146 
-0.275749 0.891489 4.02721 85 99 134 
-0.244637 0.898518 4.06207 86 103 133 
-0.236476 0.905172 4.04206 16 21 41 
-0.256346 0.919516 4.01225 15 21 43 
-1.0958 0.839596 3.47147 16 14 15 
-1.25432 -1.47655 5.21732 147 161 210 
-1.1881 -1.434 5.28018 42 51 94 
-0.652719 -1.39499 5.74368 166 196 250 
-4.07724 -2.43268 27.75 27 39 65 
-1.7785 -1.53002 4.95214 36 41 73 
-1.55162 -1.50138 5.07687 156 181 237 
-1.26139 -1.54993 5.25761 183 198 253 
-1.53513 -1.49029 5.09259 43 52 85 
-1.27817 -1.53991 5.26963 49 53 114 
-1.26087 -1.51729 5.25164 183 200 252 
-1.38159 -1.4781 5.18821 170 195 251 
-1.25692 -1.4892 5.23391 179 202 255 
-1.27206 -1.44393 5.11802 28 50 99 
-1.36473 -1.46758 5.21193 29 37 76 
-1.14634 -1.39256 5.0771 179 201 251 
-1.13078 -1.43775 5.37797 32 41 80 
-0.966581 -1.42304 5.47006 175 205 255 
-0.577244 -1.38323 5.78731 174 201 254 
-0.849466 -1.02034 4.62039 95 114 154 
-1.30968 -0.758635 3.66426 55 66 96 
-1.6849 -0.71147 3.47258 49 54 84 
-0.699764 -0.885854 4.30416 16 23 42 
-0.750355 -0.887069 4.33687 100 123 177 
-0.45892 -0.962159 4.88107 107 124 168 
-8.18903 -3.53405 19.4782 32 25 33 
-0.0800896 -0.920698 5.19507 94 116 155 
-7.18473 -3.46447 20.7993 33 30 41 
-11.0404 -3.44445 21.5332 102 122 155 
-6.3939 -3.37569 21.4669 34 26 37 
-1.00566 -0.598702 3.8582 51 41 50 
-1.76618 -0.510019 3.42337 110 125 158 
-0.999958 -0.578751 3.87622 34 30 44 
-1.70443 -0.482076 3.40868 35 24 32 
-7.07779 -2.92304 20.9473 105 123 159 
-8.39639 -2.66861 19.3781 45 64 104 
-8.1734 -2.65403 19.7456 44 64 101 
-8.2285 -2.58927 19.384 112 126 155 
-1.45898 -0.467898 3.58354 120 135 168 
-0.957225 -0.510696 3.92068 51 65 104 
-6.92647 -2.69456 21.0939 110 120 156 
-6.909 -2.61208 20.8762 50 64 103 
-0.873397 -0.499966 3.98189 53 68 107 
-6.59802 -2.642 21.2407 112 128 161 
-4.69121 -3.42445 27.6825 28 42 69 
-4.59575 -3.39537 27.6423 33 42 71 
-4.47692 -3.4016 27.9168 30 45 76 
-7.05286 -2.54047 20.9826 47 65 103 
-4.44144 -3.42 28.1887 31 45 74 
-4.53587 -3.3213 27.7297 94 112 148 
-1.22682 -0.435952 3.72201 117 128 156 
-4.36798 -3.28693 28.0535 97 113 147 
-4.03711 -3.43393 29.237 25 35 62 
-4.06448 -3.51027 29.9866 33 40 68 
-1.14939 -0.435993 3.77197 57 72 113 
-0.649238 -0.236814 2.07117 117 133 166 
-4.57406 -3.15516 27.4744 29 43 72 
-1.3059 -0.591205 5.19448 107 126 159 
-4.40662 -3.162 27.9397 30 41 69 
-0.94625 -0.438905 3.90398 109 124 157 
-0.696992 -0.455731 4.09396 29 44 75 
-0.686804 -0.455233 4.1103 33 44 76 
-4.25426 -3.21168 28.9506 30 40 67 
-4.15917 -3.18915 28.8623 30 40 67 
-4.48032 -3.05525 27.8689 31 42 70 
-3.99243 -3.16769 28.9097 28 42 71 
-6.25662 -2.26109 21.0337 47 30 40 
-4.2523 -3.09399 28.9061 30 40 67 
-4.16912 -3.0807 28.9128 28 38 65 
-0.277712 -0.470932 4.42083 102 111 140 
-3.98437 -3.03992 28.8179 29 43 72 
-4.09924 -3.1722 30.1773 34 45 75 
-0.327493 -0.463406 4.41316 27 37 64 
-0.977212 -0.402805 3.87366 117 133 166 
1.42688 -0.515384 4.95856 21 18 35 
-0.869922 -0.399988 3.95301 58 77 110 
-0.686383 -0.416303 4.10126 36 50 85 
-0.891294 -0.39156 3.93004 120 133 165 
-3.99119 -2.87067 28.845 21 34 66 
-0.858928 -0.387299 3.9522 117 128 158 
-0.410459 -0.421219 4.3294 32 42 67 
-0.642829 -0.399179 4.12094 100 113 147 
-4.29491 -2.52262 26.7239 28 41 73 
1.44801 -0.471025 4.91825 11 15 27 
-0.838029 -0.365723 3.92178 43 28 35 
-4.08291 -2.70686 28.8551 108 124 157 
-4.50473 -2.45094 26.6053 37 53 87 
-0.292086 -0.407099 4.41757 38 51 83 
-4.45532 -2.53679 28.1413 21 27 51 
-4.00523 -2.60917 28.8823 26 33 61 
-0.410126 -0.381876 4.3206 30 37 63 
-0.639866 -0.357538 4.11174 109 121 147 
-0.294653 -0.376453 4.34822 37 46 75 
0.0984095 -0.413837 4.75536 31 43 67 
1.48562 -0.423092 4.81575 13 15 27 
-4.21265 -2.40339 27.9789 109 103 115 
-0.294706 -0.363449 4.34514 36 49 81 
-0.557526 -0.346898 4.17687 114 124 151 
-0.539209 -0.325788 4.1435 57 41 52 
-0.339882 -0.316344 4.3064 111 105 115 
-0.277855 -0.3116 4.38845 113 122 155 
1.45676 -0.351535 4.87306 101 126 166 
1.12203 -0.394493 5.54491 84 103 133 
0.506044 -0.352996 5.12565 101 120 152 
1.47694 -0.325439 4.85867 16 13 22 
1.45802 -0.304472 4.8665 104 127 168 
0.895274 -0.317207 5.51644 77 91 126 
1.48521 -0.26545 4.81625 92 108 144 
1.45494 -0.26795 4.89697 22 28 50 
-1.62091 -0.174359 3.38926 35 28 36 
1.46398 -0.259735 4.85946 111 129 169 
0.164423 -0.238631 4.73496 64 52 62 
1.09824 -0.275059 5.60288 22 25 42 
1.12464 -0.265057 5.52891 89 108 141 
-14.1653 -1.48575 34.5398 55 44 52 
1.38208 -0.215812 4.92334 47 42 64 
0.528424 -0.198396 5.08807 59 46 55 
-1.29762 -0.132255 3.56537 48 41 48 
-1.10524 -0.12624 3.68746 56 59 90 
0.783601 -0.165793 5.30103 63 47 58 
-1.49146 -0.0977984 3.48211 9 15 27 
-1.47662 -0.0963065 3.49575 9 12 21 
1.1186 -0.160467 5.5408 18 24 40 
-1.50073 -0.0898719 3.4773 104 118 157 
1.15922 -0.143072 5.37379 49 40 57 
-1.61503 -0.0815444 3.40621 8 14 26 
-1.59839 -0.0796606 3.41761 13 12 20 
-1.19305 -0.0849875 3.66591 11 14 21 
-1.52501 -0.0700641 3.45536 8 12 21 
1.05117 -0.107794 5.58246 48 40 61 
-12.0747 -0.613887 37.2053 15 19 28 
-1.61544 -0.0535927 3.40103 12 18 30 
-1.17145 -0.0574218 3.664 7 14 22 
-2.10033 -0.0653232 4.54839 13 17 28 
-4.34317 -0.342152 24.805 50 35 42 
-0.509756 -0.0512141 4.09883 68 73 105 
-15.7764 -0.361839 34.9274 106 114 150 
-1.47512 -0.0363612 3.4814 16 16 26 
-15.8432 -0.331424 35.7519 91 105 132 
-7.92038 -0.254028 31.8174 11 17 31 
-1.56327 -0.0272781 3.42581 13 16 23 
-3.4873 -0.218869 26.962 52 39 46 
-7.79706 -0.240765 31.8247 18 17 31 
-7.33433 -0.193424 31.4706 15 21 35 
-1.50776 -0.0201228 3.45588 20 20 32 
-7.16029 -0.160623 32.0761 13 19 33 
-0.875458 -0.0116052 3.8577 99 115 151 
-1.59675 -0.00400917 3.4006 10 14 23 
-1.56396 -4.11196e-05 3.42153 14 17 26 
-3.69356 -0.0086325 27.4439 91 100 129 
-1.27147 0.000715498 5.08981 12 15 22 
-0.255816 0.00291765 4.31 52 37 42 
-2.11269 0.00934301 4.5302 107 123 156 
-4.17266 0.0529291 25.498 16 20 29 
-4.12602 0.061175 25.6971 19 19 27 
-1.55591 0.0104885 3.42183 102 115 147 
-1.47446 0.0107898 3.47077 18 17 31 
-0.606859 0.0139404 4.0447 21 25 37 
-4.22257 0.109399 25.3119 105 124 156 
-3.7924 0.125802 26.9322 18 20 33 
-3.76736 0.132969 27.3051 24 24 34 
-1.57936 0.0176929 3.40348 13 20 28 
-12.2181 0.189871 36.9327 18 24 38 
-1.56306 0.0198787 3.41631 16 16 24 
-11.8599 0.252011 37.62 21 19 32 
-3.86365 0.187118 26.8303 99 115 151 
-0.2765 0.0347394 4.31142 100 105 134 
0.00459502 0.035855 4.49949 50 34 44 
-4.36271 0.237983 25.184 13 16 23 
-1.70172 0.0472819 4.77713 11 15 24 
-4.1086 0.280805 25.5599 16 16 24 
-0.908072 0.044335 3.8286 95 93 114 
1.43713 0.0537409 4.88501 28 33 53 
-3.93284 0.329459 26.7556 20 18 29 
-1.59713 0.043787 3.3917 15 15 25 
-1.68894 0.0623713 4.77873 109 124 155 
-1.1907 0.0461494 3.63573 22 23 28 
-3.78885 0.345951 26.8699 17 19 31 
-1.57928 0.0458658 3.39785 14 18 30 
-3.74412 0.358927 27.0869 28 28 40 
-1.56331 0.0482025 3.41063 15 18 27 
1.44481 0.0637814 4.856 83 98 127 
-15.6301 0.552647 35.322 12 18 30 
-12.6622 0.586682 36.205 12 19 29 
-4.36184 0.398773 25.1428 12 15 22 
-12.2939 0.59609 35.677 17 17 29 
-4.14871 0.442608 25.7836 15 16 21 
-12.3396 0.669857 37.1827 14 18 29 
-12.0166 0.679795 36.7806 18 20 32 
-8.03563 0.580723 30.8452 17 21 32 
-3.95909 0.482608 26.3581 16 20 31 
-3.91625 0.496294 26.6268 19 21 33 
-0.970363 0.0713332 3.77746 20 20 28 
-1.17002 0.0693752 3.63477 18 21 28 
-3.79379 0.51763 26.8619 18 20 32 
1.49593 0.0854047 4.74912 27 34 53 
-11.8558 0.733813 37.5126 19 19 27 
-4.27862 0.499135 25.5926 104 115 143 
-3.73048 0.526827 26.9817 26 28 41 
-0.327542 0.084442 4.22592 17 17 25 
-0.291634 0.0902906 4.30822 25 29 40 
0.535958 0.105941 5.03656 48 32 42 
-1.28622 0.11226 5.0656 110 123 155 
1.49247 0.100299 4.77557 91 110 152 
-3.67814 0.612539 27.081 105 120 153 
1.43701 0.106145 4.8719 36 40 65 
-12.4067 0.80952 34.8281 10 12 24 
-4.14427 0.594018 25.7277 15 18 23 
-3.937 0.635589 26.1886 16 21 27 
-1.20513 0.0917564 3.6138 15 19 31 
-3.7843 0.673462 26.7686 17 21 32 
-3.72334 0.684803 26.9083 26 32 44 
-14.1116 0.898833 33.7589 35 23 27 
-12.4858 0.929751 35.3297 120 135 168 
1.42733 0.12386 4.87468 88 104 140 
0.768202 0.138531 5.22558 55 40 45 
1.48133 0.125301 4.78969 29 33 58 
-4.18087 0.724773 25.4183 19 18 24 
-4.138 0.739051 25.6615 20 17 24 
-12.0805 1.07868 37.2346 114 127 159 
-3.90941 0.777632 25.9807 17 20 27 
-3.79082 0.823704 26.7808 20 23 32 
-3.72797 0.8341 26.9119 31 35 47 
-7.97074 0.969209 30.5553 20 23 32 
-4.09867 0.823704 25.813 103 117 146 
-3.84427 0.889183 26.6039 103 120 146 
-4.2299 0.823457 24.4509 15 19 28 
1.11249 0.182956 5.5004 69 85 110 
-4.13065 0.889777 25.5952 18 18 26 
-6.98582 1.11394 31.5816 31 38 56 
-1.12543 0.129742 3.6165 38 26 30 
-3.77715 0.978014 26.6546 18 22 34 
-3.70581 0.987701 26.736 31 34 49 
-7.17138 1.18288 31.4436 109 124 155 
-8.00443 1.21554 30.4617 41 31 40 
-4.37905 1.02973 25.6117 16 17 22 
-4.22356 1.0432 25.6062 15 18 25 
-3.76622 1.13837 26.5516 17 21 33 
-3.73361 1.15606 26.8977 30 36 48 
-4.32142 1.11091 25.7019 98 114 150 
-0.82212 0.167263 3.81936 45 33 43 
1.13469 0.235971 5.44228 90 104 141 
1.49495 0.210285 4.7637 89 108 140 
-3.81387 1.19421 26.3273 105 121 155 
-3.63489 1.26144 26.5699 115 128 160 
-4.21129 1.14802 24.1072 42 30 42 
-0.294663 0.208581 4.22514 26 32 48 
1.10209 0.273123 5.50315 25 28 45 
-3.5497 1.38505 26.7996 45 32 42 
1.12401 0.300795 5.46326 21 27 43 
1.10432 0.307374 5.50644 26 29 48 
1.13827 0.308996 5.43988 89 105 139 
-0.260328 0.245573 4.25114 42 29 39 
1.14471 0.321346 5.40109 17 20 37 
1.49823 0.293046 4.71305 17 22 41 
1.48584 0.299716 4.76163 15 18 35 
0.498018 0.323253 4.9979 27 33 49 
1.4472 0.316172 4.86087 32 36 63 
1.49596 0.308811 4.73862 80 98 136 
1.47419 0.317056 4.77938 96 111 150 
1.4332 0.334652 4.84972 108 117 148 
1.50988 0.323543 4.66566 51 50 66 
1.14667 0.382013 5.39692 11 14 29 
0.802442 0.382034 5.28452 80 99 132 
0.531209 0.360687 4.97943 52 37 44 
1.10314 0.397934 5.48187 25 27 48 
1.14811 0.414314 5.39412 16 19 38 
1.13752 0.433164 5.41322 83 99 135 
1.11639 0.441843 5.45878 81 100 133 
1.16847 0.440625 5.28779 49 43 53 
1.05744 0.479219 5.48514 48 39 56 
-1.28163 0.365503 3.46038 36 29 36 
-1.10909 0.387667 3.5746 47 32 39 
-0.993561 0.400178 3.6376 42 29 36 
-0.98986 0.439576 3.6576 18 22 33 
-0.903654 0.452927 3.71534 14 20 34 
-0.974568 0.456099 3.67913 58 75 105 
-0.884793 0.468893 3.72923 53 68 99 
-1.6289 0.413787 3.28824 9 15 27 
-0.895796 0.480404 3.72992 21 33 59 
-0.87859 0.482302 3.74083 21 35 61 
-1.5423 0.430514 3.3301 75 82 108 
-1.48015 0.438316 3.37269 68 75 103 
-0.969133 0.476411 3.65953 67 83 117 
-0.904524 0.490069 3.72397 77 100 132 
-0.868142 0.492898 3.73928 75 95 128 
-0.847899 0.506492 3.75523 26 27 48 
-0.986941 0.496886 3.64562 77 91 130 
-0.971165 0.500004 3.65891 73 89 125 
-0.900252 0.509477 3.70432 83 99 135 
-1.58064 0.458804 3.31407 10 11 16 
-1.48937 0.469125 3.36722 14 13 18 
-0.963023 0.512713 3.6629 21 25 52 
-1.22317 0.491003 3.4979 70 80 107 
-0.893926 0.523818 3.71331 18 23 52 
-0.661076 0.526707 3.71832 97 111 146 
-0.936904 0.526615 3.67873 67 78 108 
-0.885844 0.534543 3.71871 66 71 100 
-1.23448 0.506812 3.51222 8 11 20 
-1.18951 0.510083 3.52619 7 14 24 
-1.14765 0.517935 3.57043 11 14 21 
0.0126242 0.628983 4.33573 16 16 24 
-0.206798 0.597488 4.09485 93 113 150 
1.31315 0.697397 4.73479 78 96 134 
-0.206291 0.605967 4.04582 14 16 37 
-1.23266 0.530897 3.50431 9 13 22 
1.33103 0.722484 4.77813 12 19 38 
-1.19045 0.534551 3.52155 7 14 24 
1.50073 0.709194 4.63818 5 6 10 
-1.28503 0.531819 3.46149 68 78 105 
-1.22464 0.541588 3.50582 67 80 112 
-7.13504 3.48189 22.4073 64 74 101 
-0.93802 0.575735 3.68676 68 79 109 
-0.850404 0.586523 3.74006 70 84 110 
-0.683784 0.584921 3.71677 18 28 55 
-1.18962 0.554525 3.51531 8 12 23 
-1.21875 0.553438 3.49133 7 10 19 
-0.947079 0.586826 3.68485 14 13 19 
-0.860645 0.597841 3.74144 14 20 32 
-0.900255 0.589997 3.67918 12 16 28 
1.31603 0.768674 4.78579 20 28 51 
-0.209235 0.672789 4.11022 83 101 137 
-1.1896 0.577327 3.5096 7 13 25 
-0.899413 0.606096 3.67493 8 15 25 
1.37876 0.793845 4.82104 10 11 39 
-7.2136 3.71982 22.1497 53 68 89 
-7.72168 3.57678 20.9535 8 15 25 
-1.1858 0.59643 3.49812 8 12 23 
-0.947194 0.631201 3.67814 13 14 19 
-7.76308 3.7443 21.0442 4 11 21 
-7.58098 3.83307 21.5117 12 12 20 
-0.986767 0.645302 3.62241 10 13 20 
-0.948484 0.655378 3.67447 11 14 19 
-7.62586 3.83792 20.986 82 102 135 
-1.187 0.637785 3.49644 80 94 131 
-1.16938 0.639064 3.50516 83 99 135 
-1.15306 0.642898 3.51756 84 103 136 
-0.971917 0.664045 3.63223 93 109 143 
-0.95382 0.665753 3.64105 90 104 139 
-1.13409 0.647132 3.52423 86 93 122 
-0.849074 0.682314 3.70967 89 100 128 
-0.986926 0.673667 3.58765 36 23 32 
-0.827539 0.695723 3.69661 39 22 30 
-0.264454 0.900812 4.00781 16 20 32 
1.30184 1.04867 4.65079 15 14 19 
-0.247156 0.908761 4.01108 90 110 163 
-0.236785 0.920587 4.01324 24 30 56 
-0.296947 0.929953 4.01015 78 62 75 
-0.642712 0.887154 3.79451 91 80 96 
-0.895481 0.86684 3.60242 21 12 17 
-0.918787 0.897585 3.61645 8 11 18 
-0.954438 0.886941 3.56971 10 10 18 
-1.15944 0.865144 3.44645 3 10 16 
-1.25394 -1.67191 5.27584 182 203 255 
-1.59859 -1.39754 4.5077 166 192 249 
-1.24942 -1.6152 5.25204 180 201 255 
-1.65244 -1.52031 5.01456 171 196 252 
-1.61756 -1.51451 5.03553 176 199 253 
-1.25175 -1.55692 5.24793 181 200 255 
-1.41208 -1.48412 5.1634 173 198 252 
-1.24896 -1.48983 5.22464 178 199 254 
-1.40294 -1.4722 5.18893 41 48 76 
-1.27045 -1.46666 5.20615 25 44 76 
-1.27904 -1.41563 5.09725 18 24 50 
-1.30875 -1.39732 5.06504 105 128 170 
-0.688744 -0.902522 4.28497 106 134 171 
-1.34093 -0.759628 3.65683 55 70 101 
-0.756756 -0.910916 4.44917 100 122 180 
-1.72415 -0.678682 3.45857 31 28 37 
-0.461112 -0.961609 4.86847 90 105 148 
-1.51125 -0.649781 3.57498 31 26 33 
-1.4808 -0.645484 3.58593 36 26 35 
-1.72946 -0.50607 3.44128 99 114 145 
-6.9683 -3.0633 21.0126 52 70 106 
-1.15752 -0.53405 3.79482 59 72 114 
-1.51482 -0.477121 3.5575 106 119 151 
-7.7072 -2.58177 19.3601 52 70 106 
-1.56655 -0.462645 3.4802 34 24 32 
-0.991121 -0.509686 3.87723 56 70 109 
-1.42553 -0.465248 3.6066 110 121 153 
-0.906572 -0.497887 3.93531 51 69 107 
-0.877016 -0.495848 3.97019 48 68 105 
-4.62601 -3.42334 27.5434 33 43 70 
-1.40515 -0.440644 3.57114 38 25 34 
-0.658504 -0.506498 4.13423 31 45 72 
-7.04081 -2.47247 20.7544 126 139 173 
-4.51268 -3.29348 27.6029 91 109 145 
-1.15673 -0.443819 3.77618 57 73 109 
-1.13971 -0.426526 3.77709 111 124 156 
-3.94445 -3.34261 29.581 98 111 146 
0.239909 -0.547697 4.85027 34 40 62 
1.46734 -0.534664 4.86576 16 15 29 
-0.960708 -0.417969 3.89318 48 64 98 
-4.00922 -3.15399 29.2861 30 39 68 
-0.560227 -0.428377 4.19859 109 124 155 
-4.37407 -2.73071 28.1567 107 120 155 
-3.98636 -2.83932 29.068 21 32 62 
1.45226 -0.479247 4.94038 13 15 27 
0.009744 -0.379954 4.65202 28 40 64 
-0.278831 -0.352693 4.39086 113 128 159 
0.0104479 -0.33614 4.6388 24 31 50 
0.421962 -0.365908 5.06087 97 111 140 
-0.265267 -0.290536 4.36832 56 43 53 
0.781538 -0.348692 5.38902 21 21 33 
0.510535 -0.303448 5.10453 109 122 154 
1.47898 -0.282174 4.85216 22 23 41 
1.45878 -0.276183 4.91741 19 24 44 
0.78145 -0.296005 5.37674 22 24 37 
1.49531 -0.249765 4.75039 53 44 61 
-1.31187 -0.169616 3.55075 91 110 152 
-16.9705 -1.3703 38.8294 9 14 18 
-1.61252 -0.116229 3.41536 9 16 24 
-1.57778 -0.111804 3.43528 13 17 26 
-1.59132 -0.0997789 3.42792 72 86 125 
1.13102 -0.15489 5.50699 89 108 140 
1.15806 -0.143381 5.38703 50 38 50 
-1.57662 -0.0747483 3.42636 12 11 17 
-1.56955 -0.0726724 3.43943 10 9 14 
-1.1768 -0.0780608 3.70941 11 16 20 
-1.5129 -0.0663033 3.46382 10 11 15 
1.05338 -0.109516 5.56913 47 36 50 
-1.47939 -0.0620632 3.4868 9 10 12 
-11.7761 -0.610737 37.2953 11 14 19 
-8.0921 -0.470936 31.4801 15 17 29 
-1.62269 -0.044286 3.39421 94 105 135 
-1.18269 -0.0474659 3.66215 80 93 137 
-1.48489 -0.0425895 3.46839 10 13 18 
-1.60041 -0.0270959 3.40282 13 20 28 
-12.9038 -0.286661 39.2795 12 13 18 
-7.29769 -0.214811 31.5651 17 21 32 
-1.17201 -0.021889 3.69213 12 13 18 
-0.961226 -0.0210571 3.80143 81 99 139 
-0.859317 -0.0229556 3.87458 20 24 35 
-4.3264 -0.112513 25.2364 14 17 22 
-7.11563 -0.061394 31.4387 96 114 152 
-0.974452 -0.00041307 3.77212 15 16 21 
-4.3375 0.00431066 25.3036 16 17 22 
-1.62246 0.00290698 3.38451 101 112 144 
-0.262738 0.00490735 4.32 59 43 46 
-1.18084 0.0109916 3.64608 108 125 155 
-3.94757 0.0745087 26.6067 18 24 36 
-3.76584 0.105413 27.0442 21 24 31 
-1.61015 0.0186694 3.38398 14 21 31 
-4.21531 0.121421 25.2723 84 102 138 
-1.59999 0.0200212 3.39262 11 14 19 
-11.6901 0.293565 36.8688 15 20 26 
-1.52268 0.0296801 3.43794 16 20 29 
-0.86076 0.0333504 3.86856 23 27 38 
-4.32157 0.261258 25.1695 15 16 21 
-0.928213 0.039993 3.80839 105 118 152 
-0.875507 0.0479071 3.84712 106 123 151 
-12.3493 0.501438 36.152 101 112 144 
-1.51218 0.0515731 3.44091 15 22 32 
-12.2385 0.541717 36.5913 98 100 123 
-11.7238 0.610489 33.8789 15 18 27 
-3.76792 0.481418 26.9736 24 27 36 
-4.09131 0.5237 25.8593 104 117 149 
-1.60367 0.0734972 3.33555 39 33 37 
-11.7897 0.790451 34.0138 12 17 21 
-3.65196 0.609161 26.9343 105 120 153 
-0.874891 0.0946449 3.83595 104 119 150 
-0.97591 0.097451 3.76254 21 22 27 
-3.93616 0.685599 26.4233 16 19 24 
-4.33311 0.665134 25.1598 18 19 21 
-3.73315 0.71732 26.6943 24 28 37 
-4.1683 0.694885 25.6174 18 19 24 
-3.93186 0.752908 26.3775 15 20 26 
-3.74434 0.782992 26.752 26 29 38 
-0.0611936 0.0279281 0.948062 109 122 154 
-4.26377 0.794626 25.4552 105 121 147 
1.1301 0.176418 5.44426 94 113 145 
-4.17427 0.92751 25.62 14 17 24 
-3.86982 0.981055 26.0121 13 16 23 
-3.71759 1.01824 26.5178 29 31 44 
-7.9646 1.23334 30.3907 51 41 49 
-4.30388 1.1098 25.6036 98 114 150 
-4.22254 1.17437 24.2756 57 45 57 
-0.538539 0.208684 4.03051 55 42 51 
0.494745 0.258526 4.97703 24 30 44 
0.837834 0.282035 5.3187 101 112 140 
0.782196 0.302652 5.272 24 23 37 
0.824587 0.308724 5.34928 19 22 27 
1.15094 0.40734 5.38366 9 21 37 
0.957648 0.427677 5.44411 55 39 49 
-1.32721 0.28498 3.44084 11 20 37 
1.16539 0.442631 5.29791 56 46 54 
1.51249 0.613883 4.70794 7 12 18 
1.47534 0.644547 4.57501 6 9 14 
-1.62773 0.470586 3.26795 70 81 113 
-1.6095 0.471291 3.28156 72 90 126 
-0.67403 0.533057 3.71799 19 32 49 
-1.27746 0.501656 3.47665 6 14 17 
-0.686575 0.540491 3.70136 9 16 34 
-0.985614 0.536067 3.65051 12 15 20 
-0.66195 0.54719 3.73643 23 28 50 
-0.953946 0.544537 3.69572 12 15 20 
-0.8979 0.54638 3.70661 14 18 27 
-0.866195 0.555157 3.7559 14 19 25 
1.30409 0.709355 4.75769 20 29 44 
-1.23881 0.528466 3.51481 7 10 17 
-0.205466 0.608537 4.05657 15 20 42 
-0.178813 0.615818 4.10151 20 27 46 
-0.987641 0.554459 3.65007 10 15 21 
-0.956934 0.564503 3.70658 11 14 21 
1.50039 0.714974 4.6493 2 5 10 
1.42835 0.732821 4.72818 5 3 6 
-0.986176 0.583361 3.64194 11 14 19 
-0.19248 0.654213 4.07866 37 42 64 
-1.28704 0.57693 3.45365 83 88 107 
-7.57352 3.81298 21.4119 7 10 15 
-0.979073 0.642983 3.61419 9 12 17 
-1.3262 0.618056 3.36889 11 19 32 
-1.27968 0.629414 3.4428 88 94 126 
-1.27102 0.640686 3.40622 42 31 37 
-6.96298 4.15602 21.9755 42 29 36 
-1.43389 0.649386 3.31511 6 6 8 
-1.32636 0.712678 3.34952 9 15 29 
1.29348 1.04681 4.88971 11 17 31 
-0.215807 0.924434 4.0237 92 95 128 
-0.303024 0.932649 4.02036 88 70 82 
-0.240154 0.956243 4.03603 13 15 27 
-1.41765 0.787432 3.29555 84 76 89 
-1.12621 0.870956 3.48996 3 10 16 
-1.27392 -1.59625 5.26756 63 62 120 
1.46078 0.0229795 4.79883 85 103 139 
-0.947418 0.859511 3.55395 29 28 34 
-1.26539 -1.64024 5.24306 34 33 90 
-1.58066 -1.38368 4.58854 48 53 82 
-1.53299 -1.46691 5.0615 41 46 76 
-1.34322 -1.41893 5.08181 47 51 86 
-1.12888 -1.39228 5.06262 182 202 255 
-1.15903 -1.4648 5.41381 177 203 254 
-1.11344 -1.4185 5.25512 176 204 254 
-1.13364 -1.4038 5.21456 36 41 71 
-0.996688 -1.26836 4.74857 37 42 72 
-1.0289 -1.42737 5.46482 21 26 56 
-0.868116 -1.32091 5.16826 38 44 76 
-1.30763 -0.752186 3.67307 56 69 103 
-1.33562 -0.738104 3.66696 17 24 40 
-1.33849 -0.619532 3.64491 26 40 67 
-1.18501 -0.608971 3.74934 64 52 56 
-1.47761 -0.572401 3.59745 55 74 114 
-1.1375 -0.602548 3.79417 59 48 54 
-8.25123 -2.9044 19.2322 49 68 110 
-1.15604 -0.528202 3.78484 54 72 110 
-1.47644 -0.488699 3.57767 56 74 110 
-0.68762 -0.555973 4.06288 52 41 49 
-1.44154 -0.484402 3.59747 55 70 109 
-0.660401 -0.248957 2.07108 56 72 106 
-0.641099 -0.486426 4.12966 91 105 140 
-4.64919 -3.1241 27.5236 29 43 70 
-0.613128 -0.455649 4.1759 29 41 67 
-1.12356 -0.401507 3.74127 54 39 44 
-0.985399 -0.382996 3.80524 56 40 50 
-0.672645 -0.401309 4.09112 108 126 162 
-0.361225 -0.402046 4.34323 115 128 160 
-4.27506 -2.47056 27.9949 90 86 103 
-0.361251 -0.36382 4.32665 114 131 161 
0.421512 -0.364296 5.02779 98 107 138 
1.13222 -0.366387 5.4076 39 47 68 
1.47584 -0.286124 4.82038 22 29 48 
0.851896 -0.304971 5.40862 87 83 98 
-1.54716 -0.156259 3.4345 38 23 26 
1.131 -0.239502 5.38687 66 74 97 
1.09939 -0.231054 5.55654 41 49 70 
-1.54573 -0.127033 3.45612 70 66 83 
1.14085 -0.183403 5.43624 47 60 79 
-15.7054 -1.12434 36.0408 11 14 21 
-1.48391 -0.104206 3.49136 9 14 17 
1.09815 -0.170227 5.53021 52 63 85 
-1.46847 -0.0805108 3.49777 87 106 139 
-1.20067 -0.069694 3.65689 11 16 19 
-15.6938 -0.644624 35.9165 12 12 14 
-1.16482 -0.0652405 3.67454 12 15 24 
-1.33112 -0.0510625 3.5113 12 29 49 
-1.58908 -0.0404119 3.4129 103 122 152 
-7.46652 -0.37584 31.2505 82 76 90 
-7.97752 -0.351592 31.0042 16 20 32 
-1.49918 -0.0293284 3.46184 95 114 144 
-0.894097 -0.0327845 3.85391 17 21 33 
-1.46591 -0.0257548 3.4824 96 112 145 
-0.544236 -0.0287054 4.09754 56 41 46 
-1.57177 -0.0116057 3.4188 14 17 24 
-0.689987 -0.00563857 4.00686 17 17 25 
-3.97282 0.0368362 26.6804 20 22 34 
-1.58712 0.00674643 3.40028 97 110 142 
-1.14841 0.014376 3.66742 102 117 150 
-15.3672 0.197101 35.5371 99 113 140 
-4.21634 0.123155 25.2951 84 102 138 
-4.09857 0.165424 26.0184 81 93 133 
-3.86196 0.199216 26.8316 88 104 140 
-4.00357 0.204921 26.0257 91 85 99 
-0.994691 0.0331918 3.77019 91 93 114 
-1.60322 0.0361137 3.3823 11 16 20 
1.46925 0.0550588 4.81832 99 117 153 
-3.98071 0.398724 26.6533 17 20 25 
-1.18063 0.0576642 3.6359 103 121 145 
-1.54478 0.0570865 3.42212 91 88 97 
-0.894726 0.0692765 3.83566 18 22 31 
1.13945 0.0987636 5.37678 41 33 44 
-4.05695 0.554087 26.2736 89 85 99 
-7.94471 0.656985 30.1243 99 100 121 
-0.927005 0.0867221 3.79865 106 119 153 
1.08196 0.123041 5.56787 35 20 25 
-0.842814 0.0979093 3.85894 105 119 154 
-3.96566 0.722184 26.5067 13 21 24 
0.779653 0.138687 5.23647 54 39 44 
-3.66658 0.739262 26.31 24 31 41 
-12.0521 1.07639 37.1578 114 129 160 
-7.88921 0.886144 30.4334 19 22 31 
0.00993941 0.14193 4.54264 20 19 27 
-3.94796 0.845985 25.6345 95 89 103 
-0.287879 0.149429 4.24272 26 33 43 
0.843153 0.222902 5.36732 86 91 123 
-4.27892 1.10022 25.4758 98 114 150 
-0.830678 0.168782 3.82517 45 34 42 
-0.20155 0.101373 2.26507 16 16 24 
1.14654 0.267885 5.36287 53 61 80 
1.48405 0.286718 4.73653 18 27 44 
1.10765 0.348276 5.45876 48 65 85 
0.161944 0.307797 4.61992 54 38 48 
0.437707 0.344362 4.8873 40 27 36 
0.523034 0.358443 4.94642 45 30 37 
1.15043 0.39648 5.35867 39 51 67 
1.39342 0.355473 4.81534 42 36 46 
0.938605 0.416 5.29654 48 36 46 
-1.21761 0.384265 3.51499 40 28 32 
-1.17739 0.388541 3.52517 48 36 38 
-0.984452 0.432687 3.66312 23 23 31 
-0.942671 0.440309 3.7001 13 18 22 
-0.893821 0.444547 3.71076 22 23 28 
-0.85671 0.452975 3.75867 10 15 19 
0.0118073 0.538092 4.38246 41 29 31 
-1.62167 0.40588 3.2883 9 14 18 
-1.58985 0.412213 3.32462 9 12 17 
1.42667 0.630128 4.73771 12 11 17 
-0.19273 0.60571 4.09316 36 47 65 
-0.951426 0.550525 3.67959 15 18 23 
-1.4601 0.502602 3.33095 37 25 27 
1.42867 0.735452 4.71495 4 4 6 
-0.673055 0.583249 3.70887 36 46 71 
-1.27306 0.557107 3.4696 5 8 13 
-1.18119 0.56611 3.51288 12 11 17 
-0.951513 0.596442 3.67166 14 19 23 
-1.20297 0.586257 3.47624 78 75 84 
-0.719327 0.645357 3.77182 7 12 31 
-1.243 0.615554 3.49155 9 14 18 
-1.2707 0.609293 3.45327 10 15 19 
-1.12039 0.661696 3.51292 44 29 34 
-1.32733 0.748997 3.34198 7 13 25 
-0.271752 0.908991 4.01135 15 17 30 
-1.3274 0.778494 3.34213 5 10 14 
-1.15074 0.857356 3.44085 5 11 11 
-1.31733 0.857228 3.30571 5 10 16 
-1.11854 -1.39891 5.0691 181 200 255 
-0.749785 -0.896351 4.37729 99 124 181 
-1.30301 -0.683477 3.67307 85 104 144 
-1.52183 -0.653465 3.57007 34 28 28 
-1.46861 -0.647254 3.59175 42 35 42 
-1.42699 -0.644839 3.62691 63 54 59 
-1.27546 -0.620618 3.70352 55 46 47 
-1.1781 -0.605525 3.75582 43 32 36 
-0.959874 -0.577401 3.9249 36 31 37 
-1.56054 -0.46205 3.49053 39 28 32 
-4.08926 -3.68506 29.9582 35 42 70 
-0.412019 -0.495515 4.32902 39 45 71 
-0.993993 -0.387271 3.84266 46 31 38 
0.895125 -0.351221 5.44483 44 50 64 
-1.61201 -0.127612 3.42485 10 15 21 
-1.51668 -0.115888 3.4635 10 15 21 
-1.28376 -0.088025 3.59313 8 15 21 
-1.56685 -0.0638779 3.423 11 14 19 
-1.52115 -0.0575093 3.45993 11 12 17 
-1.31927 -0.0597405 3.60978 92 88 103 
-1.54577 0.0107156 3.41459 80 95 128 
-1.21248 0.00705725 3.60539 90 89 105 
1.47561 0.00665518 4.72717 30 35 55 
1.43603 0.0219755 4.86827 33 38 58 
1.09441 0.126813 5.52391 51 50 66 
1.46846 0.110655 4.80783 101 119 159 
-1.29574 0.140167 3.48288 92 110 150 
0.368057 0.334736 4.76646 54 41 50 
1.07013 0.475679 5.48016 51 38 45 
-1.29602 0.317294 3.44538 90 107 150 
-1.44727 0.344204 3.36813 40 25 28 
-1.26793 0.385222 3.48523 22 20 25 
-1.23148 0.390959 3.5185 22 19 26 
-1.17083 0.395634 3.53266 27 24 31 
-0.979362 0.424496 3.65946 12 13 18 
-0.884152 0.435784 3.70827 11 12 17 
-1.54949 0.467487 3.30864 73 64 81 
-1.27122 0.510073 3.48277 10 13 18 
-1.23712 0.512731 3.48985 10 11 16 
-0.981892 0.54035 3.66031 13 18 24 
-0.863822 0.553306 3.74022 18 23 29 
-1.2133 0.539877 3.50992 68 62 74 
1.43072 0.738684 4.68751 7 7 7 
-0.720068 0.635096 3.77823 4 11 29 
1.37756 0.817532 4.82631 25 30 50 
-0.229529 0.706697 4.14951 6 13 32 
-1.27016 0.603822 3.46191 11 12 17 
-1.23266 0.605528 3.46646 6 11 15 
-1.17733 0.612923 3.50683 9 14 18 
-0.94623 0.638908 3.64758 12 17 23 
-1.20484 0.627221 3.48312 80 77 88 
-0.912055 0.658927 3.65543 85 79 91 
-0.199089 0.916781 4.01427 90 104 141 
-1.29883 0.787124 3.35146 78 93 132 
-0.266935 0.998771 4.16079 15 19 31 
-0.913376 0.878499 3.59971 8 7 12 
-1.31203 0.815579 3.3115 5 8 13 
-1.11368 0.854116 3.46598 9 8 13 
-1.21898 -1.48485 5.18159 109 131 191 
-1.27093 -1.4309 5.1774 24 36 60 
-1.3701 -0.745156 3.65587 67 85 121 
0.604578 -1.3501 6.93637 170 191 248 
-1.526 -0.655267 3.45993 57 51 53 
-1.52961 -0.650094 3.56383 39 37 51 
-1.45868 -0.640917 3.59108 36 29 37 
-0.851107 -0.57076 3.9642 58 47 53 
-0.676648 -0.52756 4.03882 48 45 64 
-0.578895 -0.520267 4.1734 44 42 56 
0.254117 -0.587678 4.83807 29 26 35 
-0.643787 -0.487071 4.14758 90 104 139 
-6.19051 -2.22437 20.7184 49 34 39 
0.02494 -0.448296 4.62072 47 39 52 
-0.408613 -0.34366 4.31791 28 36 59 
-0.318585 -0.331052 4.36185 22 33 63 
0.0206963 -0.307357 4.8717 16 23 42 
0.129295 -0.277533 4.69363 28 36 59 
-1.2909 -0.173214 3.55481 96 118 159 
0.375656 -0.249968 4.93589 16 19 36 
-1.49755 -0.151971 3.45597 53 41 43 
0.910272 -0.191263 5.48481 22 27 46 
1.15146 -0.173026 5.52178 12 20 39 
-1.27344 -0.0968078 3.59025 12 15 20 
-1.17849 -0.0844061 3.63827 15 14 28 
-1.3012 -0.0583199 3.55938 91 87 102 
-0.864716 -0.0487392 3.82676 62 70 91 
0.191507 0.00382415 4.79436 106 123 167 
0.132169 0.0772259 4.59449 36 39 48 
-7.98617 0.802609 31.2678 24 22 35 
-4.37812 0.866561 25.7025 16 19 28 
-1.28711 0.150414 3.48128 90 107 150 
-1.25547 0.378519 3.47057 45 34 38 
-1.13747 0.395341 3.56907 47 32 35 
-1.24246 0.392845 3.52023 25 28 35 
-1.16023 0.40407 3.54204 23 29 41 
-0.956001 0.416268 3.6152 24 23 28 
-0.86604 0.435805 3.7042 12 13 18 
-1.52286 0.454008 3.37391 17 26 33 
-0.51065 0.559498 3.97335 12 11 16 
-0.970614 0.545298 3.67408 38 44 56 
-0.87571 0.553012 3.71884 17 26 43 
-1.26674 0.602511 3.5004 41 49 60 
-0.836161 0.69909 3.71194 41 24 30 
-0.188176 0.914817 4.00663 92 105 140 
-1.36746 0.78094 3.33454 75 90 131 
-1.2896 0.78163 3.35005 78 93 134 
-0.922455 0.864131 3.5477 12 10 15 
-1.13323 0.846088 3.44016 15 15 17 
-1.32302 -0.78076 3.66665 19 20 25 
-1.39054 -0.72833 3.64872 79 96 139 
-1.27586 -0.705916 3.68873 80 98 138 
-1.4381 -0.646981 3.61993 62 56 58 
-1.14914 -0.605787 3.79014 57 51 55 
-0.871213 -0.570193 3.97704 60 51 54 
1.252 -0.592402 5.16746 33 29 30 
-0.575642 -0.374781 4.14515 23 33 60 
0.88274 -0.468086 5.50366 86 102 138 
-0.389916 -0.344386 4.21431 79 93 120 
0.0345495 -0.302814 4.57286 23 35 61 
-1.27167 -0.186596 3.56317 99 118 160 
0.388948 -0.26496 4.88247 81 93 119 
-1.16878 -0.0939229 3.66798 46 48 63 
-0.854369 -0.0577208 3.84778 44 44 56 
-0.292715 0.0216688 4.28273 30 30 38 
-0.678313 0.101515 3.97785 21 19 22 
-0.860806 0.117351 3.80991 18 25 43 
-0.670512 0.143414 3.93094 15 15 25 
-0.299106 0.148208 4.25714 24 27 42 
-0.57468 0.158731 4.04742 15 19 31 
-0.386945 0.178999 4.09169 76 83 102 
0.0320145 0.189173 4.36469 78 86 107 
-1.27217 0.169899 3.48611 94 111 155 
0.489048 0.311799 5.02321 26 32 54 
0.82525 0.33778 5.34962 46 51 70 
-1.27105 0.308943 3.4571 93 110 153 
-1.2513 0.394002 3.49048 22 26 35 
-0.854814 0.440862 3.72913 11 12 17 
-0.97826 0.643994 3.66734 17 16 24 
-0.301306 -0.342908 4.37199 41 56 89 
-0.311704 0.195111 4.31186 46 53 81 
-1.25682 -0.703661 3.69262 83 101 141 
-1.04486 -0.653048 3.81049 92 109 152 
1.25476 -0.593926 5.18423 32 28 29 
-1.25871 -0.34209 3.61415 101 120 163 
-0.466589 -0.443408 5.36621 24 35 65 
0.0507888 -0.308809 4.69888 30 40 65 
-1.25522 -0.19795 3.57464 102 119 163 
-1.25608 0.157458 3.49869 92 109 152 
-1.14891 0.415282 3.56401 31 43 57 
-1.24807 0.554856 3.44684 11 12 17 
-0.859226 0.593675 3.71067 20 30 42 
-0.97577 0.589125 3.64453 14 17 24 
-3.84718 0.207158 9.60688 111 131 166 
-0.678748 -0.883841 4.22929 70 93 134 
-0.739538 -0.882368 4.2695 95 117 166 
-0.683413 -0.87155 4.23546 15 20 39 
-1.56526 -0.686544 3.46093 41 57 90 
-1.40402 -0.630625 3.5969 36 25 39 
0.738451 -0.671898 4.9394 58 76 112 
-0.917726 -0.568456 3.93647 36 33 44 
0.687494 -0.639267 4.96007 111 132 177 
-4.57729 -1.22315 7.88104 34 23 31 
-1.54779 -0.458271 3.44059 33 26 34 
-0.638216 -0.516233 4.13203 100 109 142 
-2.08672 -1.24596 9.32975 34 49 80 
-3.36237 -1.16293 8.46124 55 67 107 
-3.41234 -1.11564 8.43538 50 69 109 
-3.36356 -1.10834 8.45146 52 67 106 
-3.49479 -1.06696 8.32221 40 33 41 
-2.0877 -1.12259 9.30844 33 48 77 
-2.00986 -1.11179 9.35169 32 47 78 
-1.96956 -1.1058 9.37094 34 47 79 
-1.87964 -1.09177 9.41117 32 43 73 
-1.84294 -1.08735 9.43819 33 40 68 
-0.662925 -0.428876 4.097 38 53 86 
-1.75952 -1.07459 9.45726 36 45 76 
-0.555081 -0.424082 4.17008 105 118 153 
-0.577208 -0.416145 4.14895 27 41 67 
-0.324343 -0.420487 4.30323 29 35 61 
-0.648166 -0.407681 4.11046 31 45 74 
-0.363995 -0.406474 4.2866 32 39 68 
0.0167574 -0.403599 4.48408 32 38 64 
-1.86722 -0.949405 9.34409 31 41 66 
-0.844692 -0.368748 3.94713 44 31 38 
-0.595952 -0.380586 4.14123 30 42 68 
-0.300889 -0.387722 4.31353 108 124 158 
0.0616047 -0.397942 4.51987 27 38 68 
-0.695267 -0.37364 4.06534 40 53 87 
-0.562135 -0.375393 4.15788 34 41 67 
-0.362897 -0.348277 4.27341 22 33 55 
-0.269082 -0.345488 4.32294 111 126 159 
1.00245 -0.343301 4.81706 18 21 38 
-0.363228 -0.328209 4.2707 21 29 50 
1.02356 -0.330803 4.78706 19 24 43 
0.0636786 -0.327195 4.50621 25 30 52 
1.00177 -0.322701 4.81087 16 22 38 
0.983328 -0.316895 4.83171 19 21 34 
0.77651 -0.304885 4.81528 87 97 122 
-0.250439 -0.28637 4.30398 54 38 51 
0.983732 -0.285594 4.82554 19 22 39 
0.154965 -0.285309 4.54019 98 115 145 
0.806193 -0.280712 4.79608 13 13 23 
1.00129 -0.262509 4.79436 20 25 44 
0.982959 -0.256352 4.81796 23 24 42 
0.67551 -0.635063 10.6107 14 17 32 
-1.67572 -0.202417 3.2943 35 34 52 
0.437185 -0.239271 4.64301 100 98 111 
1.00209 -0.230296 4.78736 21 25 50 
0.983962 -0.224839 4.81309 21 22 42 
-1.61396 -0.193173 3.34622 35 50 79 
0.982865 -0.204477 4.80607 21 23 38 
0.495476 -0.197962 4.68 106 113 141 
0.774304 -0.194627 4.79301 97 114 142 
0.98376 -0.174426 4.79987 22 25 44 
0.512058 -0.178315 4.66338 47 37 46 
1.02362 -0.16758 4.74712 17 20 39 
0.744211 -0.160875 4.7761 96 110 137 
0.982841 -0.154164 4.7939 22 23 41 
0.842937 -0.156039 4.82309 18 26 45 
-3.07744 -0.241023 5.1689 13 12 28 
1.02441 -0.136036 4.74121 18 19 39 
-3.06353 -0.238876 5.19121 6 17 37 
-4.41477 -0.349451 7.25538 17 13 27 
1.00167 -0.128417 4.76322 22 27 49 
1.01358 -0.125975 4.74845 95 111 144 
1.04698 -0.118776 4.68006 51 48 65 
0.983802 -0.123052 4.78757 19 24 44 
-1.5651 -0.10617 3.40161 12 19 37 
-3.08226 -0.194752 5.16546 12 10 21 
-1.54751 -0.10427 3.41708 18 17 33 
-3.06858 -0.192646 5.18878 7 15 28 
-1.98608 -0.131747 4.08292 113 129 163 
-1.51523 -0.0999134 3.44221 7 16 31 
-3.06739 -0.203901 6.24528 110 126 160 
-0.810362 -0.0907477 3.92375 59 64 96 
-1.59627 -0.0813867 3.37356 8 16 27 
-1.5785 -0.0791966 3.38806 13 10 19 
-0.718902 -0.0782173 3.98021 51 59 95 
-0.827283 -0.0750268 3.91066 50 35 40 
-3.08285 -0.164937 6.23265 12 11 17 
-3.06219 -0.161808 6.25636 5 12 22 
-4.47862 -0.201319 7.19041 105 119 154 
-0.705826 -0.0571796 3.99266 47 36 42 
-1.59644 -0.0503444 3.36768 8 17 32 
-1.19061 -0.0501927 3.6802 110 124 159 
-1.22209 -0.0253332 2.96222 18 17 31 
-3.07728 -0.155944 9.4297 12 18 40 
-1.54249 -0.0354188 3.40858 99 109 144 
-5.05266 -0.172495 8.96324 8 20 36 
-1.46723 -0.0334407 3.46954 19 19 31 
-2.93968 -0.138325 9.49005 16 18 33 
-2.7279 -0.113279 9.50484 14 19 38 
-0.245691 0.00204027 4.25314 56 43 50 
-1.30595 -0.00437378 3.58614 95 110 141 
-0.696531 0.00402999 4.00188 14 16 28 
-1.57967 -0.00116214 3.37503 19 18 32 
-1.93979 -0.0306655 9.06621 19 17 30 
1.35022 0.0444625 4.29757 33 37 62 
1.36014 0.0501554 4.2785 90 107 135 
-1.77349 -0.00961376 9.14516 16 20 32 
1.32993 0.0504559 4.32254 28 35 61 
-1.59767 0.0117079 3.35716 10 23 42 
-1.57953 0.014136 3.37181 21 23 35 
-1.79741 0.00713855 9.14391 105 121 155 
1.30693 0.0568861 4.35062 32 30 52 
-1.54927 0.0182832 3.3959 15 15 23 
1.31725 0.062204 4.33275 87 108 137 
-3.11877 0.00482546 5.11135 8 20 36 
-1.49839 0.0250046 3.43472 21 23 36 
-0.891889 0.0364529 4.80016 18 16 27 
1.32943 0.0672325 4.31671 23 35 59 
-3.08576 0.00901671 5.13085 16 15 29 
-1.97969 0.0375725 9.03674 15 17 29 
-1.77379 0.0618985 9.13193 16 16 28 
-1.59851 0.0432786 3.35207 9 21 43 
0.0758377 0.0760166 4.42447 97 104 133 
-1.56762 0.0475254 3.3752 9 17 36 
-2.06343 0.0949002 8.99711 15 17 29 
-1.54992 0.0501591 3.39024 16 15 29 
-1.98335 0.104904 9.03332 14 18 27 
-1.94175 0.109643 9.05022 15 17 29 
1.3067 0.102041 4.33811 33 35 60 
-0.524735 0.0829537 4.99263 18 20 35 
0.518598 0.0982608 4.61058 45 32 39 
-0.564191 0.0817288 4.08223 17 16 22 
-0.292593 0.0863726 4.22352 16 20 31 
1.36585 0.110642 4.24766 24 31 50 
0.964284 0.112205 4.74204 26 15 19 
-0.948034 0.0780607 3.83142 18 17 23 
-2.02415 0.142832 9.01457 18 18 26 
1.34898 0.115986 4.27777 27 31 56 
-0.663604 0.0866988 4.00693 15 18 33 
-1.94673 0.15245 9.05963 20 19 27 
-0.555079 0.0913885 4.07867 100 113 145 
-1.29998 0.082478 3.57322 17 28 50 
1.3051 0.129263 4.32919 31 33 54 
-1.80782 0.135984 6.62492 105 120 151 
-3.91282 0.1802 9.55543 13 19 33 
-0.862371 0.106692 3.887 25 27 40 
1.00241 0.149897 4.70025 19 27 48 
0.984203 0.155195 4.72474 20 21 39 
0.149478 0.141532 4.45547 24 28 40 
0.99441 0.160214 4.71222 71 85 111 
1.30647 0.156311 4.32634 32 34 57 
-0.278759 0.135565 4.23172 27 33 45 
-3.07337 0.24237 9.33998 15 21 37 
-3.02936 0.24869 9.37387 17 16 30 
1.34863 0.160584 4.26758 27 31 58 
-0.872587 0.152517 4.78896 17 20 29 
1.3288 0.166676 4.29132 27 37 62 
-2.73708 0.279033 9.45328 16 24 43 
-0.577603 0.144176 4.04893 19 19 31 
1.30458 0.173175 4.31764 29 31 54 
-3.71221 0.282935 9.62794 41 28 37 
1.02409 0.195826 4.66133 17 19 34 
1.00216 0.202123 4.6871 22 30 53 
1.32897 0.193133 4.28639 24 31 47 
0.984121 0.207501 4.71254 27 29 50 
1.01372 0.205509 4.67255 86 104 140 
1.30928 0.198661 4.32135 30 27 44 
-1.77225 0.346966 9.07124 17 19 31 
0.0186936 0.198331 4.37156 15 14 22 
1.03779 0.218023 4.62707 16 19 36 
1.02369 0.223032 4.65522 20 21 39 
1.3051 0.215384 4.30646 28 26 47 
0.105169 0.209242 4.40362 15 15 23 
-2.0612 0.378513 8.89566 42 32 41 
1.00154 0.230238 4.67848 24 31 50 
0.0737941 0.213937 4.39842 99 118 148 
0.983359 0.235641 4.7044 23 25 38 
-0.535777 0.206693 4.04327 47 34 43 
-0.410821 0.221057 4.10936 45 32 41 
0.381591 0.249919 4.53172 93 112 142 
1.00236 0.263968 4.67263 22 28 52 
1.30583 0.25759 4.29748 30 29 47 
0.12661 0.268176 4.41519 99 118 151 
0.0214989 0.273639 4.33202 44 28 38 
1.30777 0.284188 4.28956 24 30 46 
1.02459 0.308491 4.63781 15 17 30 
1.00252 0.314961 4.66117 23 31 50 
0.984123 0.320062 4.68615 30 26 49 
0.494681 0.313779 4.57162 110 117 146 
1.00244 0.367613 4.64854 26 33 52 
0.984659 0.372622 4.67381 23 26 45 
1.04816 0.378917 4.56319 35 28 44 
-0.840891 0.429307 3.81611 46 29 35 
-1.5643 0.383434 3.31897 67 73 97 
-1.54294 0.386515 3.33876 68 82 108 
-1.62641 0.396591 3.27016 65 76 98 
-1.48096 0.417114 3.3796 68 73 95 
-0.998154 0.457329 3.69299 71 91 124 
-1.26749 0.562093 4.52644 69 88 121 
-1.62561 0.419895 3.26618 67 78 110 
-1.61094 0.4246 3.28952 77 83 99 
-0.95958 0.490141 3.74065 74 89 120 
-0.899139 0.496808 3.76477 74 95 126 
-1.29523 0.595039 4.4827 23 34 66 
-1.625 0.441589 3.26013 63 74 96 
-0.910062 0.505754 3.76612 22 28 60 
-0.99561 0.511963 3.72 90 111 142 
-0.887675 0.525548 3.78355 80 99 132 
-1.2788 0.493328 3.51756 66 77 105 
-0.984596 0.519999 3.72023 23 28 47 
-1.20703 0.502143 3.5686 71 86 115 
-0.999939 0.518323 3.70606 19 25 51 
-0.69853 0.532733 3.80645 24 21 50 
-1.17614 0.507595 3.59388 64 78 105 
-1.15698 0.508148 3.59785 75 86 114 
-0.709427 0.537391 3.80399 92 112 147 
-1.60243 0.470969 3.27231 76 92 125 
-1.00844 0.526508 3.70318 70 83 115 
-0.68797 0.538277 3.80667 95 108 143 
-0.686971 0.551704 3.78938 13 16 33 
-0.923224 0.551881 3.75912 10 20 32 
-0.677096 0.556531 3.80777 23 29 55 
-1.23994 0.524862 3.54371 77 81 110 
-0.954293 0.561422 3.7383 80 85 114 
-0.866175 0.573427 3.79668 77 84 112 
-1.21613 0.549994 3.55649 76 82 108 
-1.1761 0.556019 3.58923 60 71 93 
-1.21134 0.559188 3.55979 10 14 25 
-0.9016 0.588136 3.75707 64 78 105 
-1.21705 0.573183 3.55184 79 87 108 
-1.17614 0.599751 3.58094 66 72 94 
-0.975348 0.624198 3.70864 59 73 86 
-1.2114 0.602963 3.55104 7 16 25 
-0.954986 0.65313 3.72253 81 83 106 
-1.24909 0.626616 3.52242 7 10 15 
1.24566 0.734526 4.24054 8 10 33 
-0.993745 0.675696 3.69133 92 107 140 
-0.975504 0.677002 3.69489 91 104 136 
-0.902813 0.686238 3.7442 93 106 140 
-0.886501 0.688785 3.75727 90 106 139 
1.53256 0.901472 3.87651 13 13 49 
-0.727645 -0.868264 4.25094 91 114 166 
0.303816 -0.415854 2.36482 177 203 254 
-0.697376 -0.859474 4.23683 94 116 173 
-1.63933 -0.694649 3.39953 55 58 91 
-1.65481 -0.678936 3.38865 65 53 57 
-1.55177 -0.667679 3.47065 61 56 62 
-1.54456 -0.646176 3.48626 30 27 36 
-3.79261 -1.55624 8.21281 35 27 40 
-1.02444 -0.620354 3.85903 59 69 104 
-1.1937 -0.60434 3.74705 32 25 33 
0.736188 -0.677431 4.96194 51 71 104 
-0.941553 -0.573501 3.92786 38 26 38 
-1.71064 -0.495257 3.33909 122 136 171 
0.666542 -0.648506 4.95725 111 141 195 
-1.66472 -0.471726 3.34687 34 23 31 
-4.06317 -1.17868 7.93885 115 129 164 
-3.42554 -1.19096 8.43231 113 129 163 
-2.05601 -1.24465 9.35981 36 47 75 
-0.979369 -0.482312 3.89713 106 122 158 
-2.00284 -1.23657 9.37223 34 49 78 
-1.1709 -0.467595 3.7575 109 123 158 
-2.02929 -1.21523 9.35669 97 112 151 
-1.87668 -1.21817 9.43663 32 43 71 
-0.894649 -0.471253 3.95474 106 125 158 
-0.246913 -0.494867 4.34704 57 42 47 
-2.08165 -1.16859 9.31446 32 48 74 
-0.957819 -0.451821 3.91175 49 69 106 
-2.00254 -1.15805 9.35869 35 46 74 
-3.36 -1.0921 8.49363 112 123 151 
-3.16314 -1.08742 8.58145 55 75 112 
-0.979323 -0.442872 3.88939 109 123 158 
-1.7922 -1.12632 9.44999 36 47 75 
-0.957767 -0.429818 3.90737 51 66 107 
-1.95082 -1.08165 9.37088 106 121 152 
-0.574668 -0.437153 4.1528 33 44 74 
-2.05974 -1.07122 9.33977 33 47 76 
-3.11174 -1.01611 8.57245 47 31 41 
-2.00867 -1.06201 9.35662 34 53 85 
-1.82508 -1.06297 9.45097 108 127 157 
-1.00315 -0.389254 3.83546 42 32 40 
-0.447552 -0.233806 2.58718 119 135 168 
-1.88175 -1.00757 9.41461 31 44 76 
-0.280193 -0.414846 4.33557 38 49 77 
-0.37485 -0.409168 4.26678 32 42 67 
-2.07925 -0.977663 9.26411 38 53 86 
-2.06026 -0.978989 9.32391 37 51 86 
-0.387152 -0.399463 4.26677 109 125 158 
-2.01132 -0.972537 9.34801 35 47 87 
-2.08082 -0.940302 9.26316 39 54 87 
-2.06015 -0.940173 9.31621 38 52 87 
-0.673826 -0.362869 4.08565 114 128 157 
-1.86373 -0.906311 9.33553 33 43 70 
-1.75492 -0.891094 9.3887 32 39 65 
0.151612 -0.369546 4.55628 96 115 147 
-0.587364 -0.350044 4.13701 119 135 160 
1.02445 -0.354055 4.79584 15 22 41 
0.14327 -0.338086 4.5573 28 39 67 
1.00997 -0.332967 4.80268 75 94 127 
-0.352767 -0.317065 4.26914 104 110 136 
-0.333207 -0.312462 4.26535 110 107 118 
0.490229 -0.318944 4.70274 104 119 152 
-0.267566 -0.305682 4.31783 110 119 150 
1.0243 -0.300946 4.78113 18 19 37 
0.36492 -0.299517 4.5886 27 39 63 
1.01497 -0.287612 4.78618 78 94 130 
0.480645 -0.290057 4.72376 10 13 18 
0.808512 -0.28403 4.82177 13 13 21 
0.743297 -0.283925 4.80335 84 103 136 
0.839544 -0.280703 4.8513 14 20 32 
0.772179 -0.275388 4.81174 94 109 142 
0.493205 -0.274174 4.69674 97 116 148 
0.820501 -0.270637 4.8278 79 94 127 
0.761909 -0.259588 4.81403 17 21 30 
0.730463 -0.249994 4.79342 18 20 32 
1.02433 -0.240535 4.76753 12 18 34 
1.00941 -0.220324 4.77119 83 103 136 
0.851507 -0.219223 4.82836 88 103 134 
1.00157 -0.207779 4.77994 22 28 44 
0.380584 -0.213911 4.63232 103 117 144 
1.02449 -0.190424 4.756 14 20 36 
0.798744 -0.184649 4.78482 88 86 99 
1.00962 -0.170257 4.76373 83 103 136 
0.763315 -0.170627 4.80152 24 28 39 
-1.31722 -0.153824 3.5707 45 52 78 
1.00172 -0.157685 4.77047 18 25 44 
0.81109 -0.161827 4.79412 22 21 35 
0.776555 -0.156386 4.7857 110 122 148 
0.821856 -0.149065 4.79928 82 93 121 
0.854207 -0.146005 4.81332 99 105 129 
-1.11803 -0.127698 3.71821 55 61 87 
-1.01535 -0.117646 3.78182 57 72 105 
-1.136 -0.111681 3.70734 53 38 43 
-3.07824 -0.221197 6.23132 11 14 23 
-1.29763 -0.0988853 3.60827 9 11 23 
-1.46839 -0.0953526 3.48089 14 16 29 
-3.09603 -0.311818 9.39374 44 34 42 
0.943877 -0.0861376 4.79703 47 38 55 
-1.17981 -0.0833432 3.68875 13 13 23 
-4.98675 -0.294184 8.9948 11 12 17 
-3.08601 -0.147164 5.15749 12 13 18 
-4.84085 -0.27081 9.19764 9 14 20 
-4.00977 -0.262845 9.56388 17 14 23 
-1.21344 -0.06237 3.66412 9 16 26 
-1.56392 -0.0481422 3.39156 11 19 30 
-0.434041 -0.0407129 4.14344 66 77 109 
-1.60209 -0.0434496 3.36256 90 110 143 
-4.83656 -0.193427 9.17661 11 15 26 
-1.28461 -0.0399412 3.61144 13 14 19 
-1.98427 -0.0572784 4.06559 104 119 150 
-4.78371 -0.186952 9.19438 13 15 27 
-4.75155 -0.182171 9.24546 13 15 27 
-0.948285 -0.0306493 3.84904 15 19 31 
-2.77046 -0.122035 9.47467 19 21 34 
-0.228232 -0.0130839 4.26147 68 74 106 
-1.91437 -0.0881062 9.08129 92 102 129 
-1.22373 -0.0104599 2.9593 17 21 30 
1.28904 0.0181462 4.36143 29 16 25 
-1.28427 -0.0117518 3.60625 17 20 29 
-1.71194 -0.0608552 9.18792 95 101 127 
-1.25284 -0.00784061 3.63019 17 14 21 
-2.05611 -0.0495509 9.01241 14 17 26 
-4.47203 -0.0692711 7.19229 12 19 29 
-2.02523 -0.0443232 9.03508 16 19 26 
-1.27495 -0.000523265 3.60781 104 121 149 
-1.56398 -0.00133798 3.38244 13 16 25 
-1.97274 -0.0379202 9.0434 15 17 30 
-3.98677 -0.0675434 9.53707 98 111 145 
-1.1687 0.00331189 3.6906 17 20 29 
-0.609483 0.0138442 4.05541 16 18 30 
-1.51507 0.00500642 3.42335 13 17 28 
-1.29867 0.00690006 3.58812 19 26 42 
1.34184 0.0534417 4.30546 94 112 150 
-1.56524 0.0180156 3.3801 9 18 25 
1.35077 0.0630006 4.28972 26 31 53 
1.29935 0.0658842 4.35409 96 109 141 
-2.05917 0.0296387 9.00911 15 15 25 
-1.00318 0.0326054 3.797 100 109 140 
-1.46951 0.0309729 3.4586 20 22 37 
0.181429 0.0564632 4.46493 46 35 41 
-0.940256 0.0402365 3.84001 102 117 150 
1.30677 0.0757531 4.33987 31 36 55 
-1.85566 0.0557323 9.11889 16 16 24 
-1.74106 0.0683183 9.15426 17 18 23 
-0.853673 0.0514446 3.89671 105 119 148 
-1.58068 0.0441092 3.36479 13 15 27 
1.32764 0.0945988 4.31323 27 34 60 
1.36085 0.0946479 4.26734 90 106 142 
-2.02923 0.0944271 9.02293 18 17 23 
-1.98855 0.0566476 4.05012 107 126 158 
-1.85269 0.115853 9.09492 13 13 21 
-4.68974 0.0883904 9.19764 18 20 32 
1.31792 0.106859 4.32096 93 111 149 
-3.07979 0.115133 9.3914 20 26 38 
-1.92413 0.132212 9.05232 102 119 149 
-3.77426 0.119301 9.65663 22 22 32 
1.29885 0.114962 4.33773 86 100 137 
-2.06346 0.143319 9.0002 16 19 26 
-1.97696 0.153112 9.02082 15 18 25 
-1.71635 0.157103 9.13773 100 113 145 
-1.25327 0.0926933 4.58266 104 119 148 
1.32681 0.122926 4.30383 29 34 54 
-3.0663 0.170983 9.34701 18 24 36 
-0.884756 0.0947712 3.86538 105 120 151 
-3.90241 0.176253 9.54331 15 18 33 
1.3516 0.141609 4.27535 26 32 54 
-2.03305 0.203175 9.01409 20 19 27 
-1.97988 0.20864 9.01881 19 19 27 
1.35958 0.1493 4.25401 84 105 136 
1.34164 0.153202 4.28147 99 117 155 
-1.927 0.240403 9.04272 104 118 147 
-1.30011 0.109355 3.5412 38 28 39 
1.36562 0.157625 4.23362 25 33 52 
1.31649 0.161409 4.30653 90 111 142 
-0.949879 0.124158 3.8222 16 16 24 
-2.05329 0.251251 8.94599 16 19 28 
1.29852 0.165351 4.32967 99 109 144 
-1.7191 0.264362 9.12821 101 116 149 
-1.98596 0.261935 9.02992 17 20 29 
-0.895363 0.131316 3.856 21 27 39 
-0.864513 0.135171 3.88165 21 23 36 
-1.7693 0.286146 9.09124 17 16 24 
0.806878 0.190073 4.71417 14 17 24 
0.837689 0.193592 4.74293 15 19 28 
-2.05662 0.310565 8.94753 14 19 25 
-0.994855 0.148037 3.75363 41 30 38 
-2.03885 0.316756 9.01162 16 19 26 
-0.662071 0.161704 3.99255 16 19 28 
-0.270848 0.172838 4.22744 95 110 143 
-0.650926 0.163462 4.01035 19 18 26 
-1.82121 0.340191 9.07045 18 17 23 
-1.74543 0.348197 9.11899 20 19 25 
0.994467 0.2131 4.69801 80 100 133 
1.36566 0.200056 4.22403 25 32 51 
-2.62036 0.363946 9.41729 42 29 36 
1.32731 0.211979 4.28298 22 22 32 
-0.556991 0.191554 4.05884 125 134 165 
-0.116614 0.141633 2.75128 15 18 25 
1.32781 0.233358 4.2794 24 24 36 
0.772341 0.251727 4.69152 88 105 135 
-0.273391 0.226495 4.21842 124 135 167 
1.36566 0.242563 4.21319 24 32 51 
0.984038 0.266601 4.69859 26 27 47 
