ply                 
format ascii 1.0    
element vertex 1334
property float x    
property float y    
property float z    
property uchar red  
property uchar green
property uchar blue 
end_header          
1.61627 -0.821969 8.9086 36 50 95 
1.56238 0.218037 8.2505 14 25 55 
3.08572 0.675653 3.48322 31 31 81 
2.81994 -0.276898 4.75025 26 33 79 
2.85647 -0.334646 4.5727 45 53 99 
2.81751 -0.314909 4.72558 34 47 100 
2.8605 -0.388071 4.49664 48 52 90 
2.83487 -0.396942 4.72956 31 36 78 
2.79273 -0.483167 4.84455 43 49 101 
2.81411 -0.522118 4.84567 22 35 77 
2.90056 -0.567181 4.5854 19 27 74 
2.83313 -0.5697 4.58564 22 32 83 
2.7937 -0.557869 4.75577 27 38 84 
2.84581 -0.579935 4.8487 124 142 180 
2.83428 -0.620173 4.51399 27 27 65 
2.82045 -0.599934 4.69907 7 17 66 
3.24627 -0.94385 2.98628 26 33 77 
3.05147 0.655243 3.46354 22 38 71 
2.82328 -0.318983 4.70429 136 154 192 
3.0327 -0.36947 3.72434 41 54 106 
2.81072 -0.513666 4.83642 108 126 166 
2.84587 -0.598309 4.52631 32 34 72 
2.83269 -0.619471 4.50084 41 36 66 
2.82706 -0.591527 4.8343 21 28 70 
3.27783 -1.03379 2.97457 47 61 100 
3.28212 -1.04637 2.90705 57 76 116 
3.0291 -0.702719 3.80278 28 35 79 
3.00969 -0.673127 3.96376 34 46 86 
2.84988 -0.97679 4.48889 51 58 100 
3.24449 0.000492566 2.65663 252 247 241 
2.86807 -0.285923 4.51271 35 52 98 
2.82717 -0.26854 4.69225 30 38 84 
2.82832 -0.330631 4.70843 38 42 87 
2.85178 -0.615321 4.62784 56 70 115 
2.83526 -0.58814 4.78225 37 41 79 
2.7934 -0.561748 4.78122 16 20 65 
2.82209 -0.558529 4.78257 27 38 84 
2.86256 -0.563253 4.55559 4 10 58 
2.79245 -0.506891 4.79559 31 43 95 
2.80218 -0.392337 4.69519 77 88 134 
2.89305 -0.453055 4.57424 33 40 82 
2.83613 -0.414064 4.76925 50 62 102 
2.79294 -0.220869 4.75381 125 138 170 
2.80311 -0.484694 4.85294 43 49 101 
2.78971 -0.508343 4.81741 123 141 181 
2.78484 -0.557829 4.82028 44 45 89 
3.25715 -0.946431 2.99464 35 42 84 
3.3108 -0.990261 2.80817 29 42 87 
3.27372 -1.04242 2.90326 48 69 112 
2.66635 -1.0639 5.07591 39 45 81 
2.82232 -0.28506 4.72886 80 102 141 
3.03166 -0.888853 3.89515 15 23 59 
2.7442 -1.14702 4.75125 48 40 64 
3.2904 -0.965819 2.7125 41 48 77 
3.27663 -1.05654 2.95635 32 44 84 
2.84514 -0.63741 4.76691 90 104 143 
3.28822 -1.02555 3.03144 45 57 97 
3.26414 -0.962891 2.928 29 33 80 
3.29003 -0.943336 2.84788 45 49 96 
2.68051 -1.06493 5.09561 39 47 83 
3.23443 -0.907262 2.92753 36 47 79 
2.83519 -0.672658 4.64729 22 23 54 
2.83245 -0.455665 4.58147 15 24 65 
2.81653 -0.647034 4.74934 35 48 82 
2.82669 -0.655392 4.64124 123 138 171 
2.86307 -0.660496 4.64066 44 59 102 
2.86234 -0.655482 4.58855 22 26 53 
2.80438 -0.625453 4.76758 18 21 54 
2.88373 -0.423364 4.62432 60 78 128 
2.8244 -0.243624 4.69196 41 48 92 
2.81263 -0.233418 4.75883 14 28 67 
2.8446 -0.272752 4.54816 41 48 94 
2.88377 -0.632937 4.60159 101 112 144 
2.85604 -0.296272 4.56944 52 70 120 
3.07113 -0.627282 3.76863 43 53 88 
2.84344 -0.615992 4.61861 29 41 81 
2.86805 -0.323481 4.49205 38 41 76 
2.84645 -0.621259 4.51687 29 25 52 
2.81063 -0.579458 4.8137 107 125 163 
2.79819 -0.561409 4.83846 30 30 66 
2.82113 -0.304347 4.69834 21 23 62 
2.80839 -0.2939 4.77002 23 35 83 
2.81711 -0.304875 4.75206 49 51 89 
3.02807 -0.681503 3.93428 31 32 62 
2.82492 -0.317889 4.73358 16 29 81 
2.85261 -0.355021 4.54733 27 31 78 
2.80421 -0.336571 4.68537 52 57 95 
2.80244 -0.327251 4.77844 38 51 95 
2.85634 -0.359591 4.58532 55 73 121 
2.81047 -0.510586 4.81394 21 34 78 
2.86666 -0.386872 4.50611 51 53 92 
2.80422 -0.35451 4.78131 21 33 81 
1.6361 -0.239056 5.47731 32 42 77 
2.84411 -0.365017 4.79484 29 33 71 
2.84855 -0.284846 4.7514 32 44 86 
2.80345 -0.540361 4.82181 37 43 77 
3.27859 0.541795 2.55411 21 36 75 
3.2846 -1.08469 2.79152 30 33 74 
3.21425 -1.03756 2.98759 29 35 71 
3.24621 -1.01824 3.00178 37 44 86 
3.28552 -0.989902 2.80089 23 32 71 
3.21534 -0.950868 2.92512 21 33 75 
3.25359 -0.938237 2.82514 40 43 88 
3.19178 -0.901362 2.90322 36 47 79 
3.18382 -0.891062 2.93842 26 29 64 
2.78811 -0.24486 4.71417 21 28 56 
2.86357 -0.294722 4.54355 25 37 77 
2.67276 -1.06127 5.08354 22 26 55 
2.86173 -0.632105 4.58205 104 115 147 
2.79063 -0.59303 4.7953 15 20 52 
2.88038 -0.333353 4.59406 28 35 79 
2.79658 -0.60182 4.67939 10 17 63 
2.79768 -0.356795 4.77106 22 29 75 
2.84671 -0.539266 4.81222 27 24 55 
2.8131 -0.419931 4.52964 23 26 61 
2.81176 -0.390183 4.80609 56 69 111 
2.85603 -0.450914 4.50755 22 25 58 
2.87545 -0.663963 4.73063 47 61 98 
2.9968 -0.672662 3.95313 50 56 92 
2.83076 -0.658842 4.75145 26 32 58 
3.2744 0.553304 2.59897 39 52 94 
2.84045 -0.445764 4.52234 16 27 59 
2.77556 -0.423992 4.68556 27 31 68 
2.99121 -0.348202 3.83376 42 55 90 
2.80197 -0.396328 4.76821 26 26 52 
2.8422 -0.452091 4.58928 13 23 59 
2.81222 -0.402329 4.71326 22 24 49 
2.86989 -0.613988 4.60369 23 21 45 
3.28341 -0.742482 2.84615 32 37 67 
2.79334 -0.387332 4.79112 79 96 140 
2.80293 -0.38824 4.72595 15 27 67 
2.81912 -0.531123 4.79218 22 21 39 
2.84932 -0.564832 4.55041 17 20 55 
2.84866 -0.570717 4.59086 19 26 72 
3.07071 -0.676906 4.01443 51 60 99 
2.86304 -0.296114 4.55394 30 38 77 
3.00195 -0.680174 3.9205 37 34 61 
2.86325 -0.598797 4.55428 26 26 60 
2.80182 -0.277523 4.67337 25 30 62 
2.87198 -0.414785 4.5182 26 30 67 
2.79912 -0.283069 4.70464 32 44 86 
2.81906 -0.630179 4.79152 18 18 42 
2.84895 -0.669031 4.62298 17 26 59 
2.83807 -0.657601 4.73274 24 26 51 
2.84847 -0.672367 4.66374 20 21 52 
3.26589 -0.908857 2.94793 18 22 47 
2.82734 -0.319192 4.45714 38 41 76 
3.32513 0.547163 2.58438 32 40 76 
3.34746 -1.07633 2.78041 22 28 60 
2.81224 -0.297361 4.6959 33 34 64 
3.02298 -0.360322 3.78063 24 29 67 
2.83123 -0.328146 4.54993 27 36 75 
3.01254 -0.722771 3.67368 32 33 54 
2.81379 -0.300575 4.77878 15 28 63 
2.83408 -0.332087 4.73538 21 32 62 
2.82638 -0.327341 4.7767 29 34 56 
2.8403 -0.341048 4.7235 27 33 59 
2.6455 -1.04171 5.05938 29 27 49 
2.86106 -0.368925 4.56345 27 32 61 
2.79263 -0.360448 4.68532 29 32 67 
3.29391 0.543687 2.56381 30 45 88 
2.88344 -0.41977 4.53715 26 31 53 
3.26928 -0.600269 2.84708 20 23 56 
3.22277 -0.734596 2.81012 33 44 76 
3.07197 -0.717306 3.74783 24 27 44 
3.28746 -1.08118 2.86387 32 36 73 
3.25591 -1.05012 3.01294 28 31 66 
3.26569 -1.03206 2.90316 21 35 64 
2.80909 -0.52945 4.781 20 21 42 
2.841 -0.570239 4.57471 16 19 52 
3.04987 -0.685918 3.91464 23 27 56 
2.77323 -0.57002 4.74867 19 24 43 
3.30426 -0.994913 2.81313 28 35 63 
2.83696 -0.598016 4.83284 17 18 46 
2.80366 -0.617272 4.64022 15 20 52 
3.2791 -0.968725 2.92743 24 30 66 
3.26645 -0.953181 2.99305 25 28 61 
2.87498 -0.656577 4.79208 17 21 46 
3.32971 -0.964808 2.74667 12 13 34 
3.24225 -0.90266 2.97043 40 44 79 
3.23734 -0.661413 2.91525 33 37 66 
3.21019 -0.913305 2.84356 41 47 79 
2.82427 -1.15031 4.49703 52 56 91 
3.27892 0.368935 2.63773 40 40 64 
3.23661 -0.766633 2.86 27 29 52 
2.79196 -0.948827 4.45139 148 162 197 
2.88687 -0.626758 4.72189 11 20 49 
2.66131 -1.05784 5.03181 136 151 190 
2.89749 -0.647228 4.63024 18 21 40 
2.86982 -0.588772 4.5576 19 20 38 
2.82483 -0.651254 4.74354 17 19 40 
2.86505 -0.572547 4.59622 17 18 46 
2.83035 -0.532897 4.83933 19 18 36 
2.91807 -0.690525 4.6702 18 20 33 
3.24269 -0.687279 2.81183 24 34 59 
2.75455 -0.512276 4.75303 20 20 44 
3.30648 -0.966157 2.72929 48 55 84 
3.32766 -0.99123 2.868 30 35 75 
3.32813 -1.0086 2.75649 26 33 62 
3.2578 -0.993713 2.74442 28 35 61 
3.25772 -0.991656 2.79614 25 31 57 
3.21618 0.0200012 2.63378 54 64 99 
2.84414 -0.675546 4.67272 25 33 56 
3.07197 -0.717306 3.74783 24 27 44 
3.25743 -0.857217 2.89514 29 38 69 
3.19179 -0.860396 2.81633 35 54 94 
2.78454 -0.418011 4.69795 18 19 39 
2.84421 -0.402697 4.75989 15 26 48 
2.89141 -0.372779 4.86736 16 32 66 
3.27719 0.356584 2.42768 24 27 36 
3.26286 -0.594803 2.753 5 5 41 
2.79402 -0.289234 4.67514 24 24 50 
2.81025 -0.314057 4.44131 29 33 62 
2.98612 -0.88513 3.87489 19 20 41 
2.59581 -0.347657 5.33518 42 49 77 
3.25602 -1.12421 2.92599 23 29 51 
3.1547 -0.659793 2.865 35 37 60 
2.81798 -0.642628 4.79507 21 20 38 
2.77964 -0.275172 4.52174 138 159 204 
3.37959 -0.973583 2.77635 13 14 35 
2.90575 -0.37165 4.55791 24 35 65 
2.85964 -0.621349 4.61933 16 22 46 
2.83465 -0.248835 4.78979 14 28 67 
3.02491 -0.689373 3.86945 29 27 48 
2.84298 -0.58382 4.54053 21 20 34 
2.87879 -0.669075 4.71781 23 27 54 
2.99539 -0.460222 3.81115 18 23 43 
2.78404 -0.641524 4.69809 18 19 39 
2.39662 1.26512 6.10894 42 48 100 
3.05526 -0.304161 4.99456 13 27 76 
2.82149 -0.300143 4.75717 45 50 92 
2.81197 -0.405191 4.77068 28 36 75 
3.03656 -0.697608 3.8624 42 46 84 
2.86834 -0.59827 4.61921 41 55 102 
2.8338 -0.587127 4.77962 32 34 72 
2.85711 -0.620655 4.53404 27 27 65 
2.83507 -0.644168 4.76705 18 32 67 
2.21619 -1.9392 8.97687 176 161 220 
2.61608 -0.159016 5.53376 50 68 118 
2.41411 -0.161717 6.51265 47 70 120 
2.86211 -0.356886 4.59086 65 85 136 
2.86495 -0.325104 4.51892 34 47 91 
2.8149 -0.621614 4.77183 46 57 102 
2.8042 -0.328515 4.78088 38 51 95 
2.80815 -0.365865 4.75572 39 44 84 
2.87269 -0.564625 4.56458 4 10 58 
2.85896 -0.414918 4.56343 18 28 77 
2.35896 -0.127995 6.63074 39 55 104 
2.80608 -0.486085 4.85576 43 49 101 
2.39278 1.32467 6.10003 113 135 195 
3.05354 0.71252 3.46803 38 47 106 
2.38312 1.27938 6.10155 113 138 202 
2.39351 -0.805823 6.74584 30 52 93 
2.83884 -0.35001 4.75991 90 109 149 
2.85954 -0.455089 4.57682 38 37 69 
2.82216 -0.431185 4.72495 30 35 75 
2.85464 -0.656386 4.6662 123 138 171 
2.88851 -0.632958 4.60587 101 112 144 
2.88194 -0.324227 4.50399 38 41 76 
2.88167 -0.602311 4.56465 51 57 93 
2.8346 -0.563092 4.80257 15 20 58 
2.39524 1.29665 6.13118 123 133 192 
2.82835 -0.51154 4.83059 21 34 78 
3.05537 0.694861 3.49494 114 134 197 
2.80694 -0.628464 4.77059 20 19 50 
2.87088 -0.322286 4.49654 43 44 75 
2.79278 -0.592274 4.79727 15 20 52 
2.82536 -0.323411 4.73309 16 29 71 
2.8105 -0.511251 4.81422 17 26 65 
2.41834 0.220548 6.43091 40 66 117 
3.0304 -0.681191 3.9417 37 34 61 
2.83314 -0.632019 4.80442 18 18 42 
2.87532 -0.656868 4.69126 74 80 116 
2.07356 -0.995526 8.10646 12 27 60 
2.86135 -0.674075 4.6751 20 21 52 
2.06885 -0.521528 7.98854 33 47 86 
3.05755 0.719876 3.50083 20 27 71 
2.88084 -0.382796 4.53582 30 34 69 
2.35434 0.225028 6.42601 45 50 88 
2.88193 -0.446883 4.55196 24 28 55 
2.81026 -0.529945 4.83248 17 22 52 
2.87261 -0.574146 4.60256 16 19 52 
3.05054 -0.705379 3.81629 35 43 80 
2.82283 -0.574136 4.79458 19 24 43 
3.04244 -0.725311 3.69515 36 38 63 
2.85235 -0.634245 4.66829 21 26 56 
2.79676 -0.631362 4.7653 18 14 39 
2.8562 -0.65688 4.77496 17 21 46 
2.86106 -0.677135 4.62757 16 21 41 
3.0415 -0.706893 3.78419 31 31 55 
2.05955 -0.512244 8.06373 24 47 88 
2.84815 -0.36288 4.49709 29 36 55 
3.04887 -0.887814 3.92203 19 20 41 
3.0393 -0.665965 3.68268 27 33 57 
2.37149 0.944637 6.18586 34 49 80 
2.34311 1.02268 6.23133 36 41 70 
2.06928 -0.52063 8.07516 26 46 81 
1.42433 0.716553 8.20604 21 33 73 
2.85859 -0.615141 4.57613 40 43 84 
1.47114 -0.27623 8.42065 35 39 87 
2.81453 -1.11217 4.58718 124 121 106 
2.40193 -2.04971 9.06826 56 32 118 
2.80973 -0.381888 4.70375 140 154 193 
1.539 0.728986 8.1416 39 48 89 
2.85128 -0.355063 4.58138 65 85 136 
1.4449 -0.753212 8.54431 63 70 116 
1.59199 -0.386137 8.4028 27 38 83 
1.52664 0.728275 8.15737 23 51 90 
2.81572 -0.36914 4.70608 34 39 81 
2.80613 -0.537756 4.76225 44 45 91 
2.84641 -0.422208 4.58639 19 31 79 
1.54631 0.172498 8.27192 32 41 82 
1.42512 0.734249 8.20261 18 18 54 
2.39376 0.133983 6.41423 37 59 108 
1.55904 0.813115 8.12277 38 50 88 
2.75382 -1.14999 4.75967 48 40 64 
1.44598 0.713388 8.19945 16 39 71 
1.54527 0.254093 8.25283 32 30 69 
2.84871 -0.398028 4.58184 31 40 83 
2.37279 0.898964 6.2846 51 55 90 
1.69144 -3.03987 9.41776 126 163 207 
2.81111 -0.564608 4.79993 33 42 83 
2.83789 -0.658442 4.72997 43 48 77 
2.68763 -0.959692 5.12333 39 29 38 
2.82985 -0.403828 4.72946 22 24 49 
1.41181 0.187801 8.29526 19 29 64 
2.79961 -0.567159 4.77477 17 18 46 
2.86377 -0.6702 4.63614 17 26 59 
1.56072 0.821999 8.11162 14 27 61 
2.37621 -0.801147 6.79079 32 47 88 
2.79603 -0.529109 4.81944 17 22 52 
2.80222 -0.589231 4.75973 21 23 48 
2.80691 -0.648188 4.69917 17 19 40 
2.80316 -0.395345 4.77995 29 30 61 
1.46591 0.277666 8.31073 8 23 54 
2.36009 -0.805086 6.77591 32 54 93 
1.53426 0.83504 8.15124 19 43 77 
1.45735 0.718125 8.17749 42 41 81 
1.5631 -0.869297 8.52032 37 51 96 
1.47078 0.247132 8.3019 41 34 75 
1.44122 0.737348 8.17732 18 31 66 
1.46936 -0.826325 8.53928 35 47 99 
1.41649 0.214061 8.29049 27 32 64 
1.47365 -0.853105 8.56366 34 51 97 
2.20962 -1.92814 8.95944 214 208 255 
1.43127 -0.301737 8.44817 4 20 54 
1.57338 0.846311 8.13966 19 41 80 
2.20665 -1.86908 8.94646 206 204 251 
1.53861 -0.236413 8.37118 15 40 80 
1.52681 0.833812 8.13697 19 43 77 
3.00333 0.822549 1.87347 102 108 134 
2.80679 -0.268619 4.67306 44 50 98 
2.83459 -0.293283 4.55166 30 47 99 
2.79406 -0.26472 4.75954 47 61 106 
3.06553 -0.384809 3.6826 58 73 116 
2.37736 1.32905 6.06844 27 44 100 
3.60153 -0.949625 1.55334 51 67 103 
3.04494 0.751976 3.49012 21 32 88 
3.08506 0.730031 3.39256 10 18 55 
3.28119 0.544406 2.55176 47 69 118 
3.35362 -0.785895 0.715893 37 41 88 
3.28423 0.533784 2.50964 34 42 88 
3.1634 -2.59884 3.09451 106 125 165 
2.32115 -1.64224 8.2456 32 57 98 
2.29618 -0.163325 4.33212 121 134 168 
3.62624 0.233604 1.1325 26 58 97 
2.87034 -0.57288 4.61896 43 56 109 
3.0318 -0.695951 3.85809 25 33 72 
2.80644 -0.558283 4.7674 31 38 84 
3.2866 0.152478 2.59429 42 53 98 
2.79544 -0.577592 4.80216 124 140 176 
3.08624 -2.32652 5.21837 134 152 188 
3.29095 -0.941705 2.84505 33 36 81 
3.62483 -1.16183 1.49027 50 59 102 
3.29644 -0.979869 2.84567 32 42 91 
3.03997 0.669138 3.45255 49 50 94 
3.28811 -1.06237 2.91317 35 48 93 
3.63522 -1.28871 1.4709 42 64 114 
3.63964 -1.24619 1.46331 28 44 80 
2.83927 -1.16489 4.44049 123 123 157 
2.31625 -1.62977 8.26543 93 96 129 
3.6421 -1.08487 1.42485 62 86 132 
3.04909 0.708077 3.50025 28 38 87 
2.83038 -0.254372 4.55013 110 116 150 
2.78776 -0.225568 4.73208 49 53 88 
3.06334 0.743565 3.44993 40 47 102 
2.81471 -0.230061 4.76987 65 86 129 
2.29163 -1.98804 8.98016 100 71 161 
3.03789 0.684031 3.45449 106 125 183 
2.81633 -0.234048 4.66148 121 118 145 
3.27173 -0.902118 2.99238 36 40 78 
2.35804 -2.02928 8.99497 102 72 170 
3.61945 -0.894492 1.44776 50 69 112 
3.0552 0.741722 3.49078 106 121 176 
3.28138 -0.92574 2.87842 43 58 99 
2.31862 -2.02484 8.92191 92 63 145 
2.84439 -0.659503 4.62096 14 23 66 
3.54516 -2.73989 3.39145 112 135 169 
3.55188 -1.22715 1.72038 37 42 82 
3.03664 -0.888654 3.89631 35 47 87 
3.269 0.173166 2.68205 46 61 102 
2.81338 -0.57702 4.76629 73 76 107 
2.62721 0.905535 5.19199 29 41 93 
3.58725 -1.2608 1.5702 32 35 80 
2.59662 -0.421162 5.64343 42 55 100 
2.34002 -0.126048 6.61604 67 89 136 
2.62921 0.926197 5.18843 23 38 95 
4.24016 -3.61437 2.20269 117 121 169 
3.27524 -0.977346 2.83694 32 42 91 
3.27915 -0.970565 2.88779 31 45 90 
3.2881 0.367073 2.59566 24 38 75 
3.60423 -1.05147 1.57442 27 48 95 
2.86449 -0.576466 4.53712 125 135 170 
3.0392 0.662477 3.50422 16 33 76 
3.06652 0.655864 3.47329 21 35 74 
3.27535 0.473906 2.56607 37 36 68 
2.85286 -0.346707 4.51405 42 56 103 
2.28865 -1.62211 8.21972 108 119 151 
2.80992 -0.299981 4.74625 24 21 50 
2.81504 -0.284792 4.72323 80 102 141 
3.28324 -0.589266 2.80593 29 42 94 
3.29833 -0.589243 2.77147 14 14 66 
2.64086 -1.91884 7.02555 133 148 179 
2.04922 -0.59545 7.85709 13 46 91 
2.79708 -0.241618 4.66331 42 47 89 
3.06388 0.738585 3.43036 9 21 59 
2.35657 1.29655 6.10063 24 35 91 
2.01346 -0.760711 8.05313 33 54 101 
3.27488 -1.03618 2.95177 43 52 93 
3.65448 -1.2474 1.46776 17 31 60 
3.06432 0.710699 3.50782 27 35 82 
3.06116 0.370452 3.58184 39 53 98 
2.01964 -0.833323 8.03349 31 35 64 
2.055 -0.860861 7.92634 18 51 92 
3.29182 -0.987255 2.7978 54 71 114 
2.35319 1.3456 6.15029 49 55 103 
3.26984 -1.03906 3.01876 44 52 98 
2.3633 1.32439 6.0514 25 42 98 
2.77578 -0.217301 4.73735 124 131 159 
3.29672 0.53581 2.5149 63 75 123 
2.79613 -0.223383 4.72433 135 141 167 
2.85057 -0.255483 4.56893 119 125 161 
2.0608 -0.91349 7.89931 22 23 67 
2.02801 -0.495575 8.01063 38 59 106 
2.84853 -0.28069 4.47616 45 55 104 
3.60235 0.267299 1.28269 31 62 106 
3.04119 0.710129 3.45987 20 25 81 
2.83637 -0.32292 4.52178 54 58 95 
2.81916 -0.973929 4.46274 32 37 75 
2.30058 -1.63988 8.17481 38 43 83 
3.61528 -1.26497 1.57996 61 69 116 
2.01522 -2.24188 8.7717 86 106 167 
3.03105 -0.682413 3.93194 32 31 62 
2.05229 -0.527636 7.84968 35 68 119 
1.99904 0.265462 7.73955 51 63 101 
3.60969 -0.893924 1.44663 50 69 112 
2.33547 -0.783396 6.7436 57 71 118 
2.02804 0.0457622 7.74659 44 38 84 
2.33938 -1.64844 8.27635 50 79 119 
2.42269 -0.199139 4.18381 97 106 139 
1.61399 0.944258 5.34374 43 48 80 
2.35816 1.25457 6.06161 43 45 94 
2.0763 -0.877864 7.84973 23 32 61 
2.84765 -1.16519 4.4473 133 139 175 
3.59154 -1.32185 1.68371 60 68 107 
2.00887 0.439231 7.71565 39 45 81 
2.04854 -0.68379 7.87708 14 47 90 
2.85453 -0.588889 4.53806 22 20 41 
2.02331 0.0642552 7.73817 33 35 73 
3.39026 0.430594 0.474324 65 100 154 
3.62357 -1.28957 1.47276 21 42 87 
2.36507 -0.242271 6.53778 39 39 75 
2.04563 0.40512 7.57563 14 14 48 
2.84374 -0.563592 4.54474 16 18 59 
2.80329 -0.52317 4.83363 18 30 70 
2.79847 -0.535109 4.7629 18 17 51 
2.8842 -0.575446 4.55484 115 121 157 
2.37097 1.31115 6.11587 14 38 98 
3.05127 -0.704699 3.82062 40 52 92 
2.36599 1.27299 6.08098 114 139 203 
3.30397 0.517054 2.45015 32 37 79 
2.82632 -0.421305 4.57367 27 39 87 
2.34459 -0.794466 6.70916 41 36 77 
2.38432 -0.827904 6.56556 25 27 68 
3.04655 0.685729 3.46403 116 136 197 
2.8353 -0.602156 4.71458 16 20 67 
3.04616 0.661447 3.51174 21 35 74 
2.86447 -0.646828 4.57717 23 24 52 
2.78992 -0.367217 4.74262 42 44 82 
3.95687 -0.215265 5.5365 93 99 133 
3.58189 -0.117266 1.36604 33 54 97 
2.29721 -1.68404 8.1802 24 34 70 
2.01242 -0.772811 7.97056 34 50 86 
2.02177 -0.764468 8.06596 31 55 101 
2.89873 0.936028 2.42519 118 127 156 
3.27437 0.0701692 2.65901 28 42 77 
3.05154 0.367589 3.57803 47 62 105 
2.34563 0.163045 6.42145 46 48 89 
3.25841 -0.842115 2.92423 48 42 76 
3.04854 0.739448 3.48554 98 118 179 
4.52502 0.648092 3.04618 37 49 91 
2.38727 -0.837056 6.50466 39 33 61 
2.03679 0.0311376 7.692 26 59 100 
3.24969 -1.0396 3.01292 34 43 84 
3.62438 -0.0172464 1.18865 37 43 77 
3.60246 -1.26391 1.57702 45 49 97 
3.6123 -0.978286 1.40104 35 53 93 
2.5951 0.745641 5.25654 39 49 84 
2.00413 0.524421 7.68936 39 45 77 
2.33083 0.0870664 6.50605 51 59 95 
2.69617 -1.05028 5.12499 34 46 86 
2.38042 -0.833893 6.52801 18 35 78 
3.28055 0.45316 2.57517 15 24 63 
3.32392 -1.09115 2.81296 33 45 83 
3.62343 -1.26217 1.62899 23 40 84 
3.07236 0.648144 3.45404 2 11 42 
3.28158 0.483956 2.61553 55 54 88 
3.38993 0.424889 0.444762 96 112 174 
2.86887 -0.590782 4.55093 23 22 40 
2.79106 -0.238118 4.71746 29 29 67 
2.78495 -0.235328 4.73628 22 27 56 
3.63078 -0.99989 1.41019 25 47 88 
2.85573 -0.271462 4.55783 49 57 103 
2.8247 -0.258058 4.71637 20 37 80 
2.79054 -0.22729 4.71446 132 141 174 
3.30113 0.504395 2.40227 27 32 61 
2.77896 -0.263304 4.7445 26 35 78 
2.83848 -0.451336 4.55777 26 30 59 
2.86015 -0.321489 4.48479 24 21 50 
2.79036 -0.39839 4.75415 22 24 62 
2.80761 -0.306859 4.68569 27 32 74 
2.78899 -0.327262 4.76642 48 61 105 
3.28564 0.298295 2.61184 35 36 66 
3.31737 -1.00581 2.74325 23 36 80 
3.25917 -0.957245 2.95043 19 32 67 
3.24419 -0.948694 2.98742 28 31 72 
2.62872 -0.522087 5.57695 20 17 44 
3.26399 -0.909889 2.94409 26 31 63 
3.25206 -0.836006 2.96558 39 39 75 
3.31692 -1.06047 2.82938 24 33 64 
3.31549 -1.08773 2.83356 25 38 70 
2.82141 -0.658937 4.68147 18 27 58 
2.0745 -0.724998 7.83517 17 37 70 
2.03759 -0.873743 7.79446 23 32 61 
2.35154 0.22805 6.41125 52 54 103 
2.87161 -0.620247 4.5947 28 26 47 
3.06381 -0.712498 3.78497 25 30 50 
2.99743 -0.678959 3.91727 49 52 83 
3.3878 0.43226 0.473489 64 100 152 
2.90133 -0.575781 4.56943 105 113 150 
2.77125 -0.623634 4.74649 17 20 51 
2.84187 -0.442575 4.56261 25 28 47 
3.0103 -0.62894 3.83627 38 46 83 
3.64229 -1.0004 1.41856 24 37 69 
3.30633 -0.98886 2.85391 29 37 76 
2.36425 1.29031 6.06801 13 19 77 
3.33067 -1.00433 2.79567 25 34 73 
3.64358 -0.0368975 1.20059 16 21 43 
3.07186 0.735608 3.43641 8 14 48 
3.01124 0.763152 3.5661 17 23 45 
2.37766 -0.916015 6.58966 26 32 68 
3.60002 -1.25683 1.6275 16 28 66 
3.06815 0.672299 3.44712 12 12 38 
2.70877 -1.04369 5.11338 58 68 104 
3.04869 0.650298 3.47226 10 13 32 
2.38924 -0.835102 6.53488 17 30 74 
2.80242 -0.402056 4.70326 24 25 55 
3.59409 0.199782 1.30463 17 19 34 
3.2616 0.463108 2.61362 19 25 61 
2.06525 -0.533513 7.84975 10 28 64 
2.8494 -0.380908 4.49077 32 33 64 
2.82196 -0.224777 4.74008 138 144 170 
2.97375 -0.666761 3.94075 30 35 73 
2.81857 -0.956348 4.47382 134 146 184 
3.02431 -0.521183 3.93917 58 67 108 
3.05441 0.662326 3.39897 27 24 41 
3.33763 -1.10176 2.78007 32 37 67 
2.55744 -1.89375 9.20138 195 221 254 
2.28418 -1.62533 8.21221 124 137 171 
3.35867 -0.971272 2.74798 34 38 65 
3.61287 -0.936962 1.59976 36 39 72 
3.27204 -0.964267 2.93036 24 32 71 
3.30109 -1.04797 2.86807 55 62 108 
3.29317 -1.00685 2.73555 25 37 75 
3.30011 -0.991223 2.84618 24 30 62 
2.8159 -0.634473 4.78329 25 22 39 
2.3728 -0.837155 6.50772 19 30 60 
2.82251 -0.447195 4.50715 35 34 66 
3.05389 0.721778 3.3795 9 9 33 
3.05253 0.728097 3.42176 10 11 31 
2.84283 -0.362085 4.73085 29 33 60 
3.30532 -0.595978 2.82122 31 42 72 
3.32353 -0.597012 2.77952 13 12 54 
2.80215 -0.261934 4.73872 28 27 43 
2.83452 -0.268594 4.72039 14 23 54 
3.0167 0.694798 3.54312 16 12 29 
2.22236 -1.95814 8.20635 17 47 109 
3.62118 0.200723 1.30789 17 19 34 
3.3212 -1.06645 2.79711 29 35 67 
3.26087 -1.02922 2.93631 26 31 60 
3.31708 -1.09814 2.80804 27 37 72 
3.25063 -0.958584 2.95517 24 33 64 
3.26698 -0.964848 2.92029 28 34 68 
2.34614 1.30284 5.99018 22 30 49 
3.61822 0.241043 1.20412 16 23 41 
2.64856 -1.00372 5.08006 69 54 85 
3.26971 -0.912634 2.91216 20 21 42 
2.8714 -0.635764 4.68483 22 23 43 
3.56971 -0.954431 1.62072 23 31 54 
3.29494 0.456897 2.48767 17 14 41 
3.04921 0.671306 3.43137 11 10 26 
3.30944 -1.05499 2.82572 25 32 60 
2.80761 -0.581676 4.49426 34 34 70 
3.0289 -0.682625 3.89891 22 27 57 
2.62574 -1.912 9.30514 164 193 235 
3.27968 -0.74178 2.84404 31 37 73 
3.25458 -0.720991 2.93578 32 38 70 
2.36975 -0.890025 6.5094 23 30 58 
3.30053 0.258342 2.56928 31 27 50 
3.27904 -0.578751 2.87802 39 48 77 
3.22275 -0.570452 2.88279 40 46 80 
2.83462 -0.315567 4.48591 25 27 52 
3.29793 -0.685246 2.84099 30 37 66 
2.99904 0.714005 3.63471 22 19 36 
3.6131 -0.942941 1.56034 30 35 55 
3.02511 -0.444453 3.8794 27 32 54 
3.55816 -1.1856 1.70638 28 30 51 
2.84187 -0.640415 4.58064 23 20 37 
2.82841 -0.620567 4.66878 16 22 46 
3.3329 -0.96958 2.74321 23 24 55 
3.08676 -0.711266 3.83751 49 58 97 
3.04517 -0.709523 3.78701 35 40 62 
3.09091 0.72307 3.40712 11 11 23 
3.2689 -0.975468 2.8963 23 33 60 
3.32007 -1.00422 2.77788 26 32 68 
3.02784 0.715437 3.48233 15 23 69 
3.60498 -1.0558 1.42183 26 37 67 
3.56189 0.113726 1.31049 18 35 63 
3.64637 -1.29322 1.48216 14 23 54 
3.02381 0.647124 3.49395 9 12 27 
3.34212 -0.694227 2.86618 23 29 51 
2.39135 -0.967726 6.63431 23 37 66 
3.01709 -0.362138 3.78515 85 81 104 
2.76934 -0.306062 4.73924 23 28 47 
3.3568 -0.62355 2.67612 10 21 51 
2.35603 -0.794313 6.76294 30 43 85 
3.26293 -0.593334 2.7527 10 7 34 
2.36154 -0.809957 6.68371 26 36 72 
2.36705 -0.826352 6.59275 18 47 89 
2.66362 -1.05077 5.12058 143 143 181 
2.81776 -1.15149 4.4976 54 60 86 
2.66236 -0.108876 5.43237 25 36 58 
3.05785 -0.360992 3.83507 53 53 81 
2.00598 0.507305 7.61505 38 36 75 
3.32682 0.25755 2.58017 36 33 54 
3.09276 0.69588 3.50268 115 132 201 
3.31792 0.147434 2.60399 46 50 87 
2.83827 -0.568178 4.57409 20 21 52 
2.85444 -0.583901 4.55163 19 21 34 
3.08073 -0.722152 3.73058 27 28 46 
2.61374 -0.337396 5.45598 49 65 99 
2.66727 -0.350739 5.41107 24 29 49 
2.81794 -0.442206 4.568 21 31 58 
3.27007 -0.913085 2.88913 20 23 38 
3.25994 -0.575965 2.89651 36 42 68 
3.35712 -0.594299 2.85597 26 34 71 
3.31328 -0.59765 2.78007 43 46 91 
2.81138 -0.306082 4.46078 24 23 39 
3.28898 -0.987598 2.84876 55 64 103 
2.38209 -0.828359 6.59436 21 32 62 
2.46732 -2.01281 8.39801 193 223 255 
2.62069 -2.06487 8.64885 130 142 190 
3.26036 -1.02432 2.91505 25 33 52 
3.31643 -1.07908 2.96626 28 33 62 
2.35908 1.29829 6.00852 20 32 48 
3.05915 0.721601 3.38939 9 11 26 
2.04148 0.110677 7.67291 13 37 73 
2.76514 -0.221107 4.76176 130 144 189 
2.82151 -0.232466 4.73074 131 140 181 
2.68431 -1.05973 5.14074 92 78 114 
2.38557 -0.845343 6.51228 26 30 55 
2.82177 -0.648717 4.74044 17 22 42 
2.97056 0.71895 3.59923 12 13 18 
2.00369 -0.824603 8.04889 19 42 76 
3.60266 -0.0650618 1.37247 33 35 48 
2.279 0.944385 6.17015 47 56 87 
3.33255 -1.14361 2.93254 110 132 173 
2.57679 -0.522416 5.51196 124 130 166 
3.30749 0.505129 2.41479 28 35 53 
2.70609 -0.884456 5.07686 40 43 60 
3.03131 -0.891177 3.91735 24 23 37 
3.31774 -1.0568 2.78094 22 30 51 
2.34762 -0.140933 6.613 43 58 91 
2.85612 -0.459777 4.60399 27 41 86 
2.80136 -0.51331 4.8267 109 122 164 
2.80065 -0.288805 4.75949 32 44 94 
2.85927 -0.66082 4.63121 15 27 69 
2.81281 -0.557867 4.77252 31 38 84 
2.82245 -0.413011 4.75411 43 55 95 
2.19367 -0.252355 5.01438 41 60 103 
2.87068 -0.409471 4.54427 59 75 126 
2.7964 -0.336383 4.74262 29 32 73 
3.27682 -1.04181 2.90597 25 39 78 
3.06196 -0.37941 3.69989 52 59 103 
3.29999 -0.988842 2.801 54 71 114 
2.8468 -0.323022 4.52889 54 58 95 
2.83416 -0.976197 4.47309 32 37 75 
2.61595 -0.255821 5.50596 53 60 106 
3.26832 -0.650058 2.86455 67 74 116 
2.8596 -0.445288 4.55787 128 141 173 
2.81198 -0.252785 4.70701 20 38 84 
2.80183 -0.50995 4.80441 7 16 59 
2.87195 -0.576407 4.54691 115 121 157 
3.26503 -0.834094 2.97024 38 37 77 
2.82255 -0.349118 4.74186 52 67 110 
2.84192 -0.359727 4.57041 22 38 87 
2.66524 -1.06434 5.07819 49 62 97 
2.85688 -0.412136 4.49998 64 70 118 
2.81639 -0.181248 4.71341 93 99 133 
3.28219 -0.671087 2.87486 46 58 100 
3.04838 -0.380853 3.69597 45 47 85 
3.26796 -1.02397 3.01741 73 85 125 
3.00432 -0.408436 3.90142 40 52 92 
2.84134 -0.978839 4.48073 53 62 103 
2.86403 -0.575381 4.60888 22 29 81 
3.04659 -0.641466 3.7991 35 48 92 
3.00629 -0.430439 3.90163 27 32 70 
3.27974 -0.680246 2.82715 29 43 82 
3.05239 -0.717014 3.77554 48 56 92 
2.85089 -0.380814 4.55476 28 33 55 
2.86434 -0.271561 4.56727 40 51 96 
3.28997 -1.06898 2.92019 29 38 71 
2.83534 -0.2956 4.52492 32 36 71 
3.05899 0.596566 3.53196 11 17 53 
3.01031 -0.445173 3.83759 23 32 65 
2.80978 -0.321413 4.78979 92 114 161 
2.81386 -0.339661 4.69654 28 31 64 
2.82954 -0.657975 4.7237 38 39 67 
2.05347 0.026825 7.71157 20 48 85 
3.25667 -1.04751 3.01566 31 37 73 
3.06567 -0.548474 3.67622 40 46 80 
3.02095 -0.349561 3.85759 40 54 89 
2.65436 -1.05557 5.07035 26 31 60 
3.03607 0.758544 3.54141 17 21 50 
3.26897 0.494151 2.63791 25 24 40 
3.26688 -0.849835 2.93512 85 64 69 
3.05829 -0.894484 3.91894 21 23 44 
3.27281 -0.967357 2.92287 28 34 68 
3.01368 0.607372 3.55918 8 9 27 
2.80679 -0.261773 4.76793 31 46 89 
3.03967 -0.685497 3.90544 22 27 57 
3.27349 -1.07312 2.91356 29 39 74 
2.85216 -0.429464 4.57367 26 28 49 
3.27301 -0.650126 2.81862 26 35 64 
2.86808 -0.365896 4.57009 30 33 64 
2.84088 -0.673694 4.66893 20 23 42 
3.27559 -0.731298 2.84764 20 24 49 
2.81547 -0.576598 4.79388 13 21 44 
3.06608 -0.713395 3.79894 35 40 62 
3.27594 -0.983539 2.83317 25 30 68 
3.29132 -0.977931 2.90502 23 33 60 
2.82121 -0.532238 4.82933 16 19 34 
2.87776 -0.456365 4.61414 13 25 63 
2.87072 -0.445596 4.53591 27 28 49 
3.26185 -0.626075 2.92458 29 35 71 
3.0509 -0.363042 3.80372 85 81 104 
3.25498 -1.12207 2.92496 26 28 49 
2.85272 -0.317822 4.56359 26 33 61 
2.86346 -0.427587 4.52293 28 28 52 
2.83556 -0.37761 4.81192 23 39 75 
2.86357 -0.377019 4.58442 23 34 62 
3.07872 -0.671088 3.74144 32 39 67 
2.82474 -0.666781 4.66037 20 23 40 
3.05309 -0.379332 3.747 53 62 103 
2.99598 -0.346671 3.86521 44 53 84 
2.3348 0.243439 6.49927 41 50 83 
2.68349 -0.876431 5.05768 40 43 60 
2.70425 -1.02046 5.04391 35 38 57 
2.60177 -0.234311 5.61063 40 55 98 
2.8239 -0.398151 4.71827 26 28 69 
3.00526 -0.336913 4.92692 48 61 105 
3.04632 -0.36937 3.73768 62 71 126 
2.80552 -0.590675 4.8125 15 23 60 
2.67935 -1.03376 5.07783 56 63 105 
2.39289 0.221662 6.39241 47 77 127 
2.35382 -0.221402 6.6477 39 62 104 
2.87695 -0.601867 4.55897 35 40 72 
2.85056 -0.452609 4.56585 26 30 59 
3.00313 -0.606878 3.94197 39 53 92 
2.68774 -0.960468 5.10933 39 28 45 
2.86502 -0.287001 4.48711 31 34 75 
2.82105 -0.957516 4.47569 134 146 184 
3.06906 -0.382226 3.71516 49 49 73 
3.03777 -0.626176 3.89619 31 45 82 
2.87947 -0.453445 4.53019 58 57 91 
3.03806 0.666172 3.56042 9 10 28 
3.05113 -0.651726 3.76489 36 45 74 
3.03702 -0.599752 3.8475 40 49 78 
3.05971 -0.66414 3.73331 33 40 69 
2.84558 -0.623871 4.68105 16 22 46 
2.80522 -0.576462 4.78619 18 20 35 
3.04298 -0.65184 3.79283 37 46 75 
2.18892 -1.85906 8.89993 196 189 243 
2.81277 -0.373437 4.79468 23 39 75 
2.84778 -0.377519 4.57366 23 34 62 
2.20596 -1.84567 8.95249 15 36 81 
2.35984 0.223469 6.44266 42 53 83 
2.60708 -0.143269 5.523 58 72 117 
2.62654 -0.335371 5.47649 39 63 107 
2.79192 -0.515035 4.835 63 71 117 
4.35968 -0.307196 8.7771 39 58 98 
2.80344 -0.578584 4.8053 113 132 165 
2.82055 -0.360844 4.71459 29 33 60 
2.83616 -0.619348 4.67409 16 22 46 
35.6368 8.70874 39.731 19 41 98 
3.05425 0.741795 3.44556 44 55 111 
2.41195 -2.05175 9.07871 57 24 131 
35.2446 8.50488 39.5563 99 120 177 
35.5768 8.55371 39.9558 21 27 85 
2.27699 -1.97057 8.30248 159 199 235 
3.04716 0.68101 3.50776 48 51 96 
3.55048 -2.74986 3.32793 113 137 175 
3.10372 -2.34257 5.16027 136 155 197 
3.07824 -2.32397 5.2123 134 154 191 
2.70787 -1.03256 4.9502 139 130 125 
2.85195 -1.16581 4.44859 142 148 184 
2.65465 0.875414 5.16875 14 30 81 
2.64325 0.88169 5.21193 20 37 91 
2.73719 -1.13504 4.82396 75 73 94 
2.63129 0.884021 5.25586 45 41 78 
2.82379 -0.307763 4.69757 35 37 85 
2.62133 0.867195 5.2515 53 62 105 
3.64117 -0.98459 1.40155 63 88 129 
3.28388 -1.06994 2.86512 42 46 93 
3.04437 0.371315 3.57459 52 68 117 
3.60395 -1.34005 1.59634 50 54 101 
3.61046 -1.93866 1.659 31 23 74 
3.63315 -1.95262 1.62038 39 57 105 
0.179816 -0.50179 1.64557 45 66 113 
2.81921 -0.268512 4.68232 42 50 99 
2.85835 -0.635363 4.57732 122 130 166 
3.07065 -0.728608 3.71058 21 29 66 
3.0945 -0.189663 4.90916 130 138 177 
3.2863 -0.587831 2.76569 28 25 78 
3.24321 -0.897876 2.98044 30 32 70 
3.62666 -0.895743 1.44909 36 54 100 
35.7493 8.6691 40.1904 35 61 118 
2.86818 -0.571398 4.5255 67 81 126 
1.43957 1.28906 4.05066 154 171 197 
2.80479 -0.235564 4.72517 57 60 103 
2.86817 -0.285038 4.51045 44 60 109 
2.80506 -0.217694 4.75643 123 127 156 
3.63096 -0.148565 1.22039 39 64 105 
3.65042 -0.983619 1.40516 20 38 76 
2.2813 -1.98325 8.30232 101 143 191 
3.31433 -0.0270176 2.55924 234 145 131 
3.32788 -1.09691 2.76547 23 36 80 
0.0721687 0.150002 3.92153 52 73 126 
2.64778 0.910111 5.17213 20 30 91 
3.05179 0.654355 3.46589 7 23 59 
3.26667 0.378154 2.63781 41 53 91 
2.37712 -0.221227 6.54065 46 41 82 
2.82877 -0.235402 4.67196 100 101 122 
2.63401 0.946626 5.19092 25 35 94 
2.07744 0.0465966 7.81176 51 48 93 
2.3306 -1.63413 8.28567 90 92 130 
3.04736 0.694602 3.49492 120 136 196 
3.30168 -1.06789 2.80122 53 65 107 
2.72701 -1.13222 4.81601 62 60 74 
35.4246 8.17356 39.6054 42 35 76 
35.5637 8.5821 39.8622 109 129 188 
3.00814 0.783595 3.63645 33 48 91 
2.63675 0.741043 5.23889 31 52 95 
2.75907 -1.14929 4.76268 61 47 70 
2.819 -0.370463 4.7643 27 30 61 
3.06364 0.694307 3.50141 111 129 191 
3.77289 -3.09743 1.55221 5 17 43 
3.26365 -1.05251 2.951 35 44 87 
-0.442235 0.0422895 4.32579 31 28 71 
3.30442 -0.995638 2.78637 55 62 108 
2.83009 -0.244843 4.68821 27 31 68 
2.86043 -0.296518 4.56891 42 58 109 
2.87666 -0.624776 4.55121 38 43 81 
2.80292 -0.552702 4.8479 25 30 70 
2.40769 0.212049 6.36139 44 52 91 
35.0497 8.2277 39.2821 102 131 189 
0.0542229 0.0154418 4.01943 56 63 105 
3.10949 -0.190056 4.91994 120 125 163 
3.2721 0.394207 2.63312 40 41 71 
2.86898 -0.619886 4.53024 23 22 62 
4.06118 -1.19234 3.09087 34 46 88 
2.63467 0.890386 5.19584 126 142 202 
3.04857 -0.717561 3.75029 47 55 94 
35.5475 8.58453 39.8445 109 129 188 
35.1986 8.01234 39.4099 38 46 83 
3.01708 -0.407348 3.90836 55 64 103 
3.3471 -0.967291 0.754119 32 35 78 
2.04974 0.471119 7.8205 46 73 116 
2.05082 0.451827 7.82306 31 58 103 
2.06039 -2.25788 8.82759 192 190 239 
2.87123 -0.287726 4.49037 29 29 57 
2.83567 -0.236105 4.77288 23 32 75 
2.86395 -0.293779 4.53918 33 38 80 
3.31436 -1.09785 2.76249 25 38 80 
2.09352 0.414601 7.67941 24 55 99 
2.8687 -0.349489 4.50364 30 25 55 
3.27577 -0.591035 2.80462 31 46 85 
2.84809 -0.657775 4.62764 27 39 79 
3.64803 -1.29419 1.47787 18 37 79 
3.64543 -1.00126 1.41254 18 35 65 
3.26662 -0.959835 2.95386 19 33 72 
2.82521 -0.370637 4.7131 46 48 89 
2.38841 -0.220921 6.55085 35 33 72 
2.84884 -0.615295 4.57801 41 44 77 
2.89243 -0.628254 4.55745 24 27 68 
2.83094 -0.404528 4.71881 45 49 86 
2.05089 0.360921 7.8409 25 50 91 
2.6554 0.342875 2.4117 19 16 47 
2.63537 0.90484 5.16131 16 25 80 
3.29592 -1.08405 2.82581 25 43 83 
35.2537 8.52907 39.6981 18 43 100 
4.05343 -1.18872 3.0857 28 35 77 
2.06737 -0.520068 7.93785 42 40 89 
2.63397 0.96333 5.18684 30 34 69 
2.71082 -1.13032 4.80355 41 41 69 
2.63464 0.931124 5.18523 117 133 193 
3.26849 0.554501 2.62217 12 19 38 
2.78001 -0.25721 4.75321 20 32 72 
2.81062 -0.294258 4.76955 19 29 64 
2.66485 0.447768 2.39442 45 48 81 
2.82947 -0.300705 4.70576 24 29 69 
2.83698 -0.402733 4.78865 30 36 70 
2.64648 0.888975 5.17794 119 138 204 
3.26084 -1.03125 2.94357 28 35 77 
3.04979 0.71402 3.46004 8 18 79 
3.33728 -1.00894 2.75251 23 31 67 
3.06056 -0.444846 3.72304 33 39 65 
3.06484 -0.374089 3.74956 59 70 116 
3.62743 -0.218536 1.24187 20 22 43 
3.31613 -1.07045 2.76131 21 32 64 
3.02133 -0.673534 3.969 44 56 96 
35.3688 8.58621 39.6617 106 126 189 
2.84804 -0.240416 4.68112 122 128 160 
3.30852 0.450684 2.45937 23 17 43 
3.35231 0.450674 0.442117 11 15 60 
2.82807 -0.28044 4.693 27 31 60 
3.06544 0.690844 3.4803 118 137 205 
2.79495 -0.22297 4.76755 135 152 198 
3.29531 -0.653027 2.82741 15 26 48 
3.3033 0.541472 2.5617 21 34 69 
3.24861 -0.953254 2.98864 21 30 63 
2.83899 -0.629351 4.56776 131 141 176 
3.05947 0.693239 3.49156 119 139 202 
3.32365 -1.01183 2.74711 20 36 69 
43.9735 -1.90401 8.82012 230 197 192 
2.87218 -0.386157 4.51013 60 63 98 
2.39418 -0.259867 6.49507 20 35 64 
3.33549 -0.62005 2.66396 8 18 53 
2.87677 -0.675772 4.63763 21 28 57 
3.04324 0.647014 3.47007 23 29 45 
3.01433 -0.525569 3.92923 42 47 79 
3.01732 -0.704994 3.7712 29 32 51 
3.03637 -0.562076 3.77118 27 33 57 
2.67149 0.937485 5.19416 118 136 200 
3.29794 0.50529 2.40831 15 24 53 
3.25548 -0.96056 2.98975 24 31 57 
3.27141 -1.08066 2.85661 33 38 70 
2.80029 -0.229766 4.71284 137 155 193 
2.84538 -0.641398 4.58329 25 24 42 
3.64011 0.226654 1.14204 14 31 59 
2.65911 0.916814 5.2106 30 47 93 
3.31378 0.520901 2.48231 23 31 54 
2.68725 -0.913282 5.08432 156 173 216 
35.7257 8.56002 40.1909 29 52 106 
2.8721 -0.378953 4.59075 20 38 78 
3.27133 0.521464 2.48474 26 34 57 
3.28359 -0.937752 2.838 10 7 38 
3.0547 -0.717681 3.71606 26 31 50 
3.60635 -1.94915 1.63456 12 18 44 
3.32927 0.508072 2.42166 22 29 48 
3.18763 0.552346 2.63046 21 27 43 
3.30288 -0.783553 2.86852 29 34 53 
3.21711 -0.634208 2.81027 12 26 53 
2.0431 -0.507208 8.01978 32 46 75 
3.35123 -1.0633 2.79402 26 33 59 
3.27193 0.558449 2.66089 28 25 44 
3.60973 0.261102 1.29491 17 19 34 
2.86499 -0.642766 4.59676 23 24 42 
2.62137 0.741555 5.29095 35 46 76 
2.37392 -0.141538 6.63975 41 56 97 
3.2699 -0.577265 2.90062 39 49 76 
2.62896 0.889729 5.18076 121 139 205 
2.67791 -0.351831 5.42031 36 43 71 
3.01377 -0.347148 3.87516 49 62 96 
2.81226 -0.221484 4.78143 133 148 191 
3.04398 -0.665998 3.72226 35 45 70 
2.98838 -0.883462 3.89218 25 25 51 
3.06017 0.738364 3.42912 40 57 101 
3.05799 0.742195 3.44648 44 55 111 
3.08183 -2.32405 5.21379 134 154 191 
3.06047 -0.718541 3.75294 32 40 79 
3.04964 -0.440658 3.75823 53 65 107 
2.84257 -0.256254 4.56146 126 129 162 
2.75168 -0.161738 4.75451 113 122 161 
3.30369 0.524584 2.46641 33 56 98 
3.05783 0.654729 3.46744 7 23 59 
6.84762 -0.0962697 12.5555 33 36 77 
2.8517 -0.597662 4.60468 8 15 59 
4.06261 0.0810973 1.33989 15 23 60 
3.6017 -1.21169 1.61172 28 47 87 
3.25642 -1.02048 3.01147 52 61 104 
2.84756 -0.269642 4.55095 55 55 91 
3.19334 -1.17969 1.54368 32 49 93 
3.29336 0.286212 2.56781 53 49 86 
2.7955 -0.218619 4.75593 113 131 169 
2.80753 -0.228015 4.755 20 27 71 
3.61943 -1.26933 1.58232 73 71 121 
2.81084 -0.24252 4.67872 46 45 85 
3.29431 0.464672 2.52705 36 32 67 
3.27481 -0.769248 2.84646 23 29 61 
2.86796 -0.623365 4.54661 24 27 68 
6.69925 -1.20759 4.82984 36 48 86 
2.84225 -0.571372 4.59531 13 20 64 
3.6074 -0.956701 1.50801 39 40 86 
3.27324 -0.915066 2.91897 35 40 80 
4.06313 0.172392 1.32396 19 22 55 
2.85104 -0.304175 4.56959 69 87 133 
2.81995 -0.269735 4.74937 33 31 53 
2.80696 -0.24639 4.73193 32 30 52 
2.8143 -0.399792 4.77692 37 40 73 
3.04902 0.715993 3.49282 16 25 66 
2.90125 -1.00619 2.74278 57 69 107 
2.78645 -0.26261 4.72927 32 29 46 
2.7779 -0.386602 4.77711 28 33 73 
2.81806 -0.279781 4.68853 27 31 60 
3.58897 -0.0717079 1.35956 29 34 63 
2.83406 -0.613864 4.61311 22 27 57 
2.81306 -0.263783 4.70455 30 35 64 
3.26919 -0.677363 2.86102 21 26 55 
2.84043 -0.295425 4.5342 28 33 63 
3.03961 -0.911005 3.88609 121 137 171 
3.19933 -1.14281 1.51044 27 31 66 
3.26973 -0.732019 2.86999 28 33 62 
3.2897 -0.772927 2.8883 29 31 56 
3.28886 0.522842 2.47901 23 31 54 
2.73341 -1.02725 5.07985 53 69 102 
3.63116 -1.18913 1.45565 14 33 65 
3.04891 -0.691577 3.8788 29 31 54 
2.85532 -0.641808 4.59266 23 24 42 
2.82345 -1.0043 4.48609 94 108 143 
2.86221 -0.684642 4.63698 19 28 57 
3.04459 0.703775 3.49922 39 46 100 
1.43171 1.28604 4.04757 154 171 197 
2.73707 -0.330688 4.44782 36 40 87 
2.81972 -0.250879 4.71481 39 53 100 
3.06701 -0.716367 3.75586 42 51 90 
2.81464 -0.363683 4.76268 25 29 64 
3.03997 -0.436617 3.75582 37 49 89 
3.29972 0.518394 2.47423 19 29 56 
3.03772 -0.637421 3.84846 42 55 90 
2.80856 -0.283331 4.71454 9 21 59 
2.66104 -1.04808 5.12133 137 143 179 
2.80594 -0.359798 4.78312 22 30 66 
3.02512 -0.628657 3.88475 37 50 85 
2.86476 -0.455869 4.60046 27 32 64 
2.64429 -0.337436 5.4646 38 44 76 
3.00368 -0.345616 3.87177 49 62 96 
3.04438 0.66163 3.51072 37 45 84 
2.33107 -1.71513 8.26588 14 22 68 
2.84304 -0.637392 4.65889 23 23 49 
2.7975 -0.630279 4.77764 25 23 37 
2.62569 -0.265647 5.39315 49 63 110 
2.81063 -0.594616 4.81653 24 35 67 
2.84957 -0.348032 4.54204 10 20 71 
2.86777 -0.349189 4.49142 49 60 106 
2.83806 -0.355358 4.57405 17 25 72 
4.06587 -2.97803 8.2018 90 123 174 
2.79722 -0.390366 4.7921 31 38 80 
2.80072 -0.405747 4.76401 41 48 92 
3.62093 -0.980984 1.40232 52 77 117 
2.10088 1.62447 7.37587 12 38 95 
2.77872 -0.511818 4.83004 43 52 95 
3.05527 0.752231 3.49197 21 32 88 
2.82065 -0.651513 4.6508 124 134 170 
2.81575 -0.639186 4.755 18 26 65 
3.2839 0.544175 2.55081 39 65 114 
2.41079 0.222707 6.408 48 73 129 
3.05641 -0.379932 3.69476 46 59 101 
2.56779 0.36873 4.42383 227 225 226 
2.56502 0.393776 4.42782 108 65 56 
2.64862 -1.92948 6.9603 120 146 183 
2.10188 -0.529516 7.91375 40 72 123 
3.05991 -2.31691 5.20291 120 142 179 
3.08115 -2.3418 5.08442 116 139 180 
3.28367 0.153 2.59505 25 29 77 
3.04389 0.670754 3.46032 49 53 91 
3.04952 0.664264 3.5116 36 49 94 
2.67162 -1.04578 5.10711 63 77 122 
3.27688 0.0639593 2.61572 28 35 79 
3.05566 0.740117 3.48924 105 122 178 
3.06572 -0.39353 3.63401 45 56 101 
2.40942 -0.234501 6.51098 39 67 114 
2.83503 -0.637303 4.75092 96 110 149 
3.05056 0.680264 3.50851 48 51 96 
2.76911 -0.508927 4.81022 84 98 135 
3.00075 -0.672765 3.96107 36 44 80 
3.01326 -0.684551 3.89714 30 40 76 
3.02856 -0.703381 3.81056 28 35 77 
2.08292 1.60298 7.38907 97 120 174 
3.04855 0.741813 3.44403 51 60 117 
3.02864 -0.438046 3.75182 52 61 104 
3.37511 0.482086 0.461671 75 103 151 
2.36277 0.25874 6.55242 71 94 138 
3.37998 0.430922 0.476464 51 87 135 
3.00413 -0.33615 3.88689 48 62 101 
3.32736 0.474013 0.436107 71 73 132 
3.47338 0.452466 0.426471 12 26 71 
2.33667 -1.63815 8.28521 108 118 154 
3.0582 0.358149 3.51342 42 59 103 
2.67047 -1.05974 5.07142 58 63 95 
2.97929 0.851078 2.03635 102 128 153 
2.08734 1.54832 7.37387 45 43 80 
2.09175 1.56803 7.38219 90 119 177 
2.44437 -1.86761 6.0908 85 102 128 
3.07931 -2.33579 5.14872 125 147 188 
2.07699 1.61023 7.40491 17 39 97 
2.09492 1.54674 7.43844 45 80 122 
2.04367 0.0728174 7.90909 31 58 101 
3.35197 0.473905 0.431887 82 90 152 
3.34844 0.424348 0.444053 90 100 161 
3.35592 0.431899 0.481581 64 100 152 
2.065 0.0867346 7.92518 39 69 107 
2.67064 -0.890323 5.08657 61 58 89 
2.84619 -0.650643 4.62878 32 45 89 
3.04988 0.370253 3.57688 39 54 97 
3.31386 0.130815 2.49077 37 60 104 
3.30188 0.43001 2.46836 29 41 81 
3.2892 -0.980317 2.8454 53 57 102 
3.07856 -0.394099 3.6364 45 56 101 
2.83363 -0.569007 4.59757 17 25 74 
2.87506 -0.587084 4.54118 21 18 49 
2.83974 -0.524158 4.84884 43 52 95 
2.63137 0.00192352 5.40713 52 75 125 
2.60028 -0.303403 5.63268 28 45 88 
2.81479 -0.234112 4.66565 128 129 160 
2.82123 -0.226691 4.75155 57 66 109 
3.26107 0.557369 2.61584 13 36 80 
3.05916 0.714291 3.46822 29 44 103 
2.84929 -0.285259 4.52731 21 29 76 
3.04801 -0.715473 3.77173 46 55 86 
2.79587 -0.286013 4.76871 52 69 115 
3.33356 -0.774617 2.6963 12 19 47 
3.05867 0.686464 3.46747 117 136 195 
3.05325 0.694337 3.49659 106 132 191 
2.62676 -0.149482 5.48788 53 58 100 
1.63793 0.119126 5.96356 47 49 88 
3.05905 0.673378 3.46387 15 28 80 
3.06229 0.668063 3.44652 52 52 86 
3.01367 -0.337329 3.88891 48 62 101 
3.32091 -1.00659 2.74201 26 39 83 
2.10835 1.62619 7.38232 12 38 95 
2.82559 -0.564378 4.80492 24 31 75 
3.03648 0.748925 3.49016 12 17 72 
2.0894 1.60144 7.40896 12 20 69 
2.10464 -0.630292 7.85733 6 29 73 
3.0347 0.692695 3.49376 106 132 191 
3.60412 -0.894535 1.45211 14 31 74 
3.07998 -2.32833 5.21241 115 135 172 
3.24164 0.495725 2.67594 60 59 90 
2.39934 -0.232443 6.50402 39 67 114 
2.08192 0.519072 7.70326 57 55 102 
2.8225 -0.658959 4.69368 45 59 94 
3.04846 -0.647837 3.75566 33 47 82 
3.02825 -0.993609 8.87658 25 49 93 
2.80513 -0.392903 4.70832 29 31 70 
2.86075 -0.321797 4.48741 34 36 74 
3.2755 0.0706863 2.66056 24 40 76 
3.35537 -0.780115 2.69821 21 25 54 
3.2769 0.0887373 2.6574 48 57 90 
2.81062 -0.409421 4.74691 44 56 94 
3.60063 -0.994248 1.4201 14 23 54 
2.84036 -0.456817 4.59785 19 31 73 
2.84735 -0.331889 4.56648 22 25 60 
2.79196 -0.26344 4.76084 28 42 81 
4.42551 0.364969 2.63294 20 20 48 
3.29155 0.160494 2.6401 20 39 82 
2.85355 -0.630726 4.57797 112 123 151 
3.57337 0.250948 1.24292 22 18 53 
3.57964 0.0839888 1.32865 14 31 59 
3.36856 0.472283 0.428748 86 95 160 
3.01509 -0.990066 8.89594 26 26 64 
3.6143 -0.898414 1.45282 14 27 62 
3.35242 -0.616059 2.68108 13 17 46 
2.63284 -1.91998 7.01772 126 144 180 
3.31165 0.171983 2.48196 40 44 73 
3.33657 -0.684978 2.68435 14 17 34 
3.06089 0.651237 3.47247 25 24 38 
2.77512 -0.48328 4.84108 23 27 72 
3.36874 0.433808 0.477734 64 100 152 
2.84053 -0.284065 4.4823 32 30 54 
2.39648 -0.246404 6.56449 25 32 61 
3.27844 0.547006 2.59745 15 19 46 
2.76862 -0.588832 4.79689 20 24 49 
3.04455 0.653037 3.4714 21 22 42 
2.84595 -0.303838 4.56743 38 53 96 
2.81736 -0.605161 4.67483 18 25 67 
2.46414 -0.29159 4.40203 20 25 65 
2.7783 -0.558541 4.76936 21 19 43 
2.84295 -0.599379 4.60489 12 21 54 
2.83388 -0.295935 4.78025 14 27 71 
2.99779 -0.676206 3.92171 31 34 65 
2.86178 -0.597945 4.5514 23 28 58 
2.82996 -0.510506 4.81749 44 56 106 
2.86477 -0.571943 4.54052 129 143 182 
2.64441 -0.522079 5.58064 18 20 41 
3.20138 -0.937256 2.98833 33 36 77 
3.28151 0.19965 2.58305 32 33 64 
2.36694 -0.0997299 6.51155 46 42 75 
2.78802 -0.558491 4.83512 26 23 50 
2.8062 -0.235612 4.66199 128 129 160 
2.62915 -0.333593 5.47979 31 49 95 
2.08866 1.59022 7.37823 12 19 63 
2.84581 -0.670449 4.6238 23 27 54 
2.86044 -0.646497 4.58033 23 24 44 
2.85097 -0.607868 4.72141 19 22 65 
2.85086 -0.606418 4.60363 18 20 41 
3.02994 0.693472 3.48339 114 133 199 
3.00954 -0.690746 3.85866 29 34 64 
2.83094 -0.421236 4.74976 54 66 106 
3.02501 0.653397 3.50382 20 18 32 
2.84075 -0.367103 4.71905 31 32 62 
2.37367 0.227273 6.44368 42 45 76 
3.29272 -1.34292 0.830864 11 21 48 
3.00779 -0.496408 3.88616 32 39 58 
2.62747 -0.306289 5.64261 28 45 88 
3.00374 -0.684311 3.89036 28 34 66 
3.23159 -0.896149 2.97527 24 24 50 
2.81887 -0.262546 4.53941 34 30 55 
3.30444 0.234679 2.46683 21 38 64 
2.10398 1.59326 7.39308 9 21 69 
3.02277 -0.643842 3.79016 38 47 80 
2.87127 -0.641079 4.67138 23 24 45 
3.26874 -0.955796 2.99213 35 35 69 
2.63963 -0.895255 5.05125 147 169 210 
3.29978 -0.787301 0.716626 20 27 56 
2.80152 -0.651976 4.74032 28 30 55 
3.05006 0.755798 3.54551 11 13 26 
2.79576 -0.586549 4.76939 24 21 38 
2.37234 0.214318 6.38107 27 43 79 
3.25213 -1.00047 2.75206 26 31 60 
2.78905 -0.526328 4.77864 18 20 33 
2.90843 -0.5791 4.61181 13 20 64 
2.81757 -0.566274 4.57211 20 23 38 
3.27123 -1.33623 0.799877 16 17 38 
2.86849 -0.307688 4.54992 23 29 43 
2.11188 -0.551171 7.83928 10 27 57 
2.78564 -0.301374 4.75869 21 28 47 
2.87924 -0.37853 4.52713 23 29 55 
2.6721 -1.05424 5.12068 145 153 190 
2.68224 -1.05216 5.09795 17 24 50 
3.39286 -1.24757 0.940107 19 16 45 
2.78316 -0.363374 4.77243 26 31 51 
3.61381 -0.961288 1.41485 19 22 37 
3.28018 0.124565 2.49802 25 32 58 
2.83151 -0.595493 4.81371 23 25 50 
2.83872 -0.678193 4.66811 31 31 55 
3.28765 -0.578435 2.89875 29 35 61 
2.85629 -0.659348 4.75949 24 26 47 
3.33759 -0.795724 0.709683 25 25 59 
2.36577 -0.308996 6.52947 118 132 177 
3.5994 0.0726506 1.32862 11 24 41 
2.43883 -0.26775 6.53081 18 43 84 
3.26984 0.489104 2.6037 15 12 29 
2.77971 -0.371689 4.78172 17 30 65 
2.86157 -0.423176 4.7449 28 30 55 
2.83962 -0.314219 4.78391 19 25 61 
2.8821 -0.36279 4.51766 22 24 37 
2.85556 -0.278868 4.58152 136 156 206 
2.83058 -0.301373 4.48285 30 29 45 
3.28545 0.55577 2.64361 15 19 31 
2.99545 -0.484779 3.89919 23 30 48 
3.00317 -0.345871 3.87169 42 56 85 
2.98143 -0.667359 3.95427 27 33 65 
3.27185 -1.00352 2.75491 26 33 61 
2.85298 -0.258201 4.58609 135 149 184 
3.29357 0.0292386 2.54107 24 27 36 
2.87612 -0.272708 4.5257 130 138 175 
2.86669 -0.65911 4.76032 24 26 47 
3.61551 -0.0914955 1.23905 24 26 47 
2.41517 -0.316032 6.5688 107 112 150 
2.57924 -1.02566 5.67418 56 74 122 
3.30789 0.229688 2.47893 18 18 26 
3.34888 -0.79777 0.710762 35 33 72 
2.78963 -0.996329 4.47153 69 73 100 
3.05312 -0.556668 3.7351 33 45 85 
3.04358 -0.637354 3.7989 46 54 103 
3.30067 0.143576 2.55234 28 47 89 
3.18995 0.025767 1.31675 43 42 73 
3.04773 0.680997 3.50806 48 51 96 
3.05105 -0.714225 3.77179 23 30 59 
3.01762 -0.685589 3.89788 30 40 76 
3.05448 0.742556 3.44466 51 60 117 
3.37895 0.482185 0.459552 75 103 151 
2.86621 -0.406456 4.51762 26 36 85 
3.56861 0.279792 1.34498 14 38 76 
3.05635 0.734216 3.4541 113 123 182 
3.00005 0.823192 1.87241 113 119 143 
4.03874 -0.229584 1.34339 32 29 56 
2.86482 0.959976 2.56644 110 133 164 
10.4665 -0.0815651 2.27895 19 41 80 
2.62369 0.00988254 5.44924 48 58 107 
6.37281 -0.00675647 8.70356 50 48 95 
2.40203 1.33393 6.09359 4 19 78 
2.40701 1.32641 6.10518 109 135 194 
3.03932 0.762749 3.53446 10 24 69 
2.39857 1.32246 6.14179 22 42 103 
2.3998 1.30537 6.14413 20 27 81 
3.04392 -0.618619 3.79409 54 65 110 
3.05742 -0.650867 3.73706 48 59 104 
10.4709 0.272836 2.07409 52 62 98 
2.40985 1.31826 6.13251 111 126 191 
2.41222 1.32934 6.07845 29 52 94 
2.41189 1.33413 6.10091 13 29 89 
3.26342 0.555519 2.61734 7 23 57 
3.5924 0.183314 1.25602 45 41 78 
10.4957 -0.518818 2.25456 23 39 72 
2.87357 -0.356685 4.49798 20 24 51 
3.0111 0.783382 3.63832 19 24 66 
3.02175 0.775048 3.6008 7 19 67 
3.32466 0.50898 2.41221 9 16 34 
10.5433 -0.0678579 2.16708 25 22 39 
2.38115 -0.150289 6.52806 46 37 82 
3.03385 -0.51344 3.82554 39 41 64 
3.28097 -0.974875 2.8946 31 39 75 
