ply                 
format ascii 1.0    
element vertex 1301
property float x    
property float y    
property float z    
property uchar red  
property uchar green
property uchar blue 
end_header          
1.86841 -2.00428 7.07749 56 42 55 
0.973871 -1.80245 6.3664 65 48 67 
-1.2383 -1.39874 4.55562 56 44 66 
-1.25406 -1.3881 4.53375 68 44 68 
1.67654 -1.78022 6.94223 46 39 55 
1.66092 -1.76186 6.87911 62 50 72 
0.662141 -1.46658 5.64942 78 37 53 
1.50834 -1.6929 6.78984 88 59 79 
0.421403 -1.37619 5.27929 58 27 42 
1.61863 -1.53273 6.85766 67 56 70 
-1.60206 -1.0318 4.24093 68 54 77 
1.21591 -1.3234 6.51985 83 66 84 
0.0157168 -0.996335 5.1285 56 25 31 
1.00842 -1.0966 6.38325 75 61 84 
1.09838 -0.895217 6.41765 76 52 68 
1.44807 -0.900848 6.70903 65 45 57 
0.131558 -0.703732 5.20886 157 141 118 
0.142315 -0.691363 5.22409 40 20 19 
-0.76098 -0.591743 4.61364 72 31 39 
0.675181 -0.649123 5.80154 86 36 45 
1.23049 -0.707762 6.52535 67 49 65 
-0.150923 -0.562913 4.95047 52 23 28 
1.21251 -0.695225 6.51813 153 134 156 
-0.27047 -0.526947 4.88159 49 19 29 
-0.120888 -0.522202 5.00185 55 24 30 
1.65825 -0.522947 6.85714 57 43 58 
0.198747 -0.421259 5.26506 184 167 149 
1.57131 -0.505051 6.79343 66 54 64 
-0.71818 -0.37971 4.68557 54 24 34 
1.89152 -0.49956 7.02677 45 33 43 
1.8448 -0.501624 7.01273 49 39 48 
0.624346 -0.387423 5.76505 62 32 42 
0.620685 -0.252144 5.75062 63 31 44 
1.87918 -0.288603 6.99649 75 59 72 
0.590162 -0.216902 5.73393 64 24 32 
0.59566 -0.202871 5.74133 48 22 31 
0.0628157 -0.157073 5.08191 177 172 168 
4.6599 -0.391939 15.0142 114 124 160 
0.982361 -0.0529709 6.04054 56 24 29 
0.611603 -0.00599022 5.75114 57 26 34 
0.134781 0.00998015 5.05296 95 82 63 
0.462971 0.0108756 5.45994 134 83 92 
0.628518 0.0177917 5.76653 61 28 39 
1.15112 0.0755983 6.0075 76 43 60 
2.13713 0.083427 7.22175 78 59 81 
4.66226 0.19662 15.0013 103 106 147 
0.615479 0.121024 5.75347 85 41 56 
-0.906087 0.125673 4.35882 157 109 123 
1.56715 0.231316 6.73229 136 115 130 
-1.88121 0.189646 3.94216 24 32 97 
1.55056 0.246809 6.73618 59 46 63 
4.68385 0.54315 14.9632 178 200 239 
-1.9373 0.238294 3.90009 26 25 65 
4.66842 0.790048 14.9832 103 108 146 
-0.906935 0.386006 4.07226 117 106 120 
1.98669 0.621731 7.07988 75 60 79 
0.802291 0.522126 5.4675 67 37 45 
0.561332 0.816726 3.75217 85 37 49 
0.911292 0.888429 4.03147 72 40 51 
2.07574 1.27761 6.00509 162 174 200 
0.771837 0.935073 3.91889 83 41 53 
-0.643748 1.24183 4.14837 119 133 172 
1.73333 -2.18483 6.97718 90 65 94 
1.65747 -2.16864 6.9147 139 120 148 
-1.19415 -1.4748 4.58903 70 49 64 
1.63885 -1.75873 6.8962 137 121 147 
1.50599 -1.69163 6.77868 89 62 81 
1.3672 -1.1538 6.64613 150 126 139 
0.673717 -0.647839 5.78846 86 36 45 
1.55202 -0.709702 6.78366 59 43 53 
0.387533 -0.43386 5.41147 62 32 40 
-0.220652 -0.348426 4.92011 60 33 40 
0.808976 -0.136482 5.91222 50 19 27 
0.0899804 -0.0433179 4.99427 63 48 45 
-0.345242 -0.0947056 9.94296 93 52 70 
-0.193982 -0.0147155 4.92598 94 44 47 
0.449767 0.482334 5.17902 81 42 61 
-0.288697 0.473761 4.57809 76 42 59 
0.498786 0.536521 3.6389 87 44 53 
1.19895 0.760444 4.27353 93 43 55 
0.544253 0.795281 3.73733 85 38 48 
1.42627 0.899135 4.45273 90 40 51 
-0.111316 -1.33622 4.85136 104 61 78 
1.85377 -1.76015 7.07342 124 111 137 
-0.0857442 -1.28108 4.87917 148 99 118 
0.483885 -1.30961 5.33764 67 32 36 
0.440685 -1.27908 5.32369 124 71 89 
1.23773 -1.4832 6.55542 78 57 66 
0.0216435 -1.15766 5.13232 68 37 45 
0.417975 -1.14132 5.30657 124 77 95 
1.22226 -1.329 6.54769 49 32 38 
0.0725393 -1.10019 5.16785 76 44 55 
0.108309 -1.00033 5.18413 56 26 28 
0.109083 -1.0091 5.22896 57 25 28 
1.0033 -1.09211 6.35331 77 64 84 
0.260995 -0.940337 5.31686 51 22 27 
-0.0353828 -0.899464 5.07384 57 25 26 
-0.283516 -0.800239 4.87321 128 72 85 
-1.54816 -0.734837 4.26568 118 101 120 
1.27818 -0.932619 6.57876 49 43 53 
-1.5629 -0.560124 4.26607 49 37 49 
1.23224 -0.707871 6.53431 71 53 67 
-0.191423 -0.559123 4.91415 121 86 106 
0.666407 -0.60189 5.75616 60 28 31 
1.58763 -0.677956 6.78144 146 134 154 
-0.438724 -0.488807 4.91517 55 32 42 
-0.604233 -0.423212 4.77891 81 39 43 
0.191243 -0.447805 5.28011 93 48 53 
1.23737 -0.477057 5.97684 156 107 126 
1.75108 -0.515912 6.92996 76 53 61 
0.442998 -0.241499 5.44603 64 32 43 
1.89069 -0.286487 7.03162 88 75 92 
1.61003 -0.0521488 6.81317 144 120 142 
0.230285 -0.0254858 5.01418 107 94 78 
1.93668 -0.0430024 7.03924 128 109 129 
1.88673 -0.0390327 7.0672 147 129 151 
1.66183 -0.0312491 6.82778 136 112 128 
0.152332 -0.010627 5.05471 37 26 22 
0.111016 0.0153306 5.03218 98 84 71 
0.134774 0.0118805 5.05547 89 76 60 
1.63509 0.0596721 6.81776 88 74 89 
1.51767 0.0969961 6.72389 146 123 139 
-1.96209 0.135215 3.86775 29 34 66 
1.57125 0.223231 6.72055 143 119 133 
1.85343 0.231879 6.97234 131 105 118 
1.82943 0.248774 6.96061 76 59 69 
1.5954 0.25238 6.73614 58 41 49 
1.16736 0.316586 5.88238 97 66 71 
-0.881691 0.341832 4.09721 45 30 33 
0.00225874 0.386634 4.8271 90 57 74 
-0.72983 0.365115 4.22226 58 39 45 
-0.677029 0.369061 4.25563 63 31 36 
-0.430217 0.389519 4.46411 141 92 113 
1.36097 0.488308 5.93254 92 48 63 
-0.923237 0.428686 4.05574 113 73 81 
2.10361 0.615457 7.15878 66 42 56 
1.14502 0.527806 5.75883 71 43 57 
0.473918 0.521401 5.20266 79 51 65 
-0.903346 0.468247 4.0729 43 29 28 
0.358005 0.587865 5.0041 59 47 57 
0.9613 0.749432 4.08125 82 46 58 
-0.769666 0.991274 4.14905 24 22 23 
-1.64145 1.17151 3.98609 38 37 43 
0.25751 0.967159 3.71688 55 34 41 
1.26907 1.22262 3.97134 241 244 251 
-0.420488 -1.37788 4.79251 128 75 91 
-0.107506 -1.38245 4.86161 142 94 110 
1.00611 -1.66771 6.37017 98 75 93 
0.536987 -1.27343 5.39853 136 85 104 
-0.0977832 -0.806896 5.02675 138 82 93 
-1.71585 -0.55447 4.10345 52 39 48 
-1.99035 -0.461453 3.9311 61 44 63 
0.397313 0.107609 5.40275 62 31 37 
1.21764 0.132807 6.07647 76 44 49 
-1.96802 0.166178 3.87476 158 177 245 
-0.278101 0.192333 4.79994 162 105 120 
1.82857 0.249735 6.96568 75 54 61 
-1.85443 0.231552 3.79716 23 28 50 
1.10499 0.351307 5.89562 145 102 122 
1.09379 0.475334 5.69887 64 42 45 
1.01119 0.482292 5.63474 109 66 83 
0.675841 0.476907 5.3721 94 57 74 
-0.73976 -1.71566 4.74743 137 109 131 
0.829552 -1.79666 5.63397 45 31 31 
1.90065 -1.76551 7.11536 79 73 99 
0.448146 -1.38676 5.28603 129 72 89 
0.475676 -1.35575 5.31711 81 44 52 
0.448114 -1.33531 5.3105 148 101 121 
-1.95154 -1.12596 3.94531 41 32 59 
-2.05411 -0.536071 3.85589 48 36 60 
-1.75495 -0.544366 4.08449 72 61 77 
-0.229892 -0.5912 4.8718 108 76 99 
0.609617 -0.582967 5.75008 54 27 34 
0.612233 -0.382076 5.74075 72 48 61 
0.127624 -0.0561797 4.97862 147 135 123 
-0.91598 0.340513 4.06238 38 23 26 
-0.67584 0.381695 4.25414 61 49 53 
-0.854479 0.376154 4.11491 38 36 39 
0.336235 0.474514 5.09408 95 66 86 
1.12928 0.506467 5.72524 81 58 64 
0.787934 0.503039 5.44943 73 52 59 
-0.671698 0.463809 4.25989 80 57 65 
0.0709392 0.591031 4.7613 70 49 58 
-1.9139 0.739525 3.89645 65 53 67 
0.728157 0.815961 3.8921 68 38 50 
-0.108654 -1.39251 4.85765 133 76 95 
-1.97563 -0.458128 3.90184 69 56 76 
-0.551371 -0.402164 4.81974 63 33 41 
-1.98054 0.13252 3.86865 24 28 40 
0.263571 0.338815 5.02912 120 137 189 
-1.85438 0.337386 3.91789 19 27 40 
0.881769 0.395427 5.5574 78 55 63 
-0.666144 0.422359 4.26406 136 85 100 
-0.930003 0.454278 4.0504 46 40 42 
-1.5757 -0.960014 4.2517 55 41 54 
-0.0748322 -0.835524 5.04725 38 13 16 
-1.45834 -0.563137 4.33233 76 60 71 
0.0488871 -0.568965 5.17116 93 53 64 
-1.59756 -0.33221 4.21963 52 35 41 
-1.8937 0.167587 3.9317 167 184 254 
1.08585 0.301389 5.90191 56 30 33 
-0.368785 0.298354 4.81397 54 34 35 
0.645423 0.381046 5.35522 75 41 58 
0.527934 0.377639 5.21269 61 41 50 
-0.0605929 0.521531 3.5856 81 40 44 
0.0519205 -0.828812 5.26354 120 70 82 
-1.66879 -0.266325 4.13732 130 116 139 
-1.8644 0.338824 3.94227 20 24 36 
2.11479 0.46746 7.22488 85 58 73 
1.20861 1.21734 4.01316 239 241 253 
-1.51767 -0.560113 4.26428 56 50 60 
-1.96749 0.329472 3.84302 16 24 37 
-0.818192 0.388633 4.14941 52 49 56 
0.25249 -0.224377 5.17221 93 44 47 
-0.0798355 0.648836 4.46184 154 110 127 
-1.30552 -1.19444 4.475 59 41 55 
-1.221 -0.723502 4.52848 81 64 83 
-0.545427 -0.212827 4.72809 82 35 43 
0.225515 -0.142288 5.04365 210 207 200 
-0.095924 0.0129119 11.1833 61 28 39 
-1.89772 0.234826 3.85562 26 25 65 
-1.46055 -1.48419 4.36929 49 38 52 
-2.10103 0.73202 3.74229 122 110 132 
-1.29479 -1.57154 4.51756 60 44 55 
-1.17405 -1.55489 4.6033 64 44 55 
-1.49649 -1.48402 4.3328 69 48 57 
-1.20989 -1.45246 4.5655 134 113 130 
1.88223 -1.76658 7.08845 57 54 63 
-2.07776 -1.13649 3.84114 42 38 55 
-1.85693 -1.15044 4.01219 115 105 132 
-1.8666 -1.12523 4.00899 46 34 56 
1.70557 -1.30284 6.93013 151 124 141 
1.12633 0.253764 5.91674 106 49 55 
-1.94793 0.241393 3.95538 23 34 66 
0.0220959 0.580346 4.73018 73 47 58 
-1.6195 0.759101 4.15995 40 33 41 
-1.89282 0.924927 3.92332 49 45 62 
-1.93654 0.947716 3.88427 119 117 139 
-0.76616 -1.76929 4.93652 107 93 119 
-1.26862 -1.44844 4.51774 136 113 133 
-1.99799 -0.933865 3.88138 68 54 79 
-1.48957 1.1402 4.13788 115 97 111 
-1.25642 -1.48544 4.53414 81 61 72 
-1.1644 -1.08712 4.58155 135 108 123 
-1.75479 -0.557879 4.08317 48 36 46 
-0.954638 1.07684 3.91347 143 98 119 
-2.08388 -0.53958 3.83599 47 37 61 
0.0560827 -0.728288 5.158 135 117 97 
1.15481 1.20499 4.0078 77 84 112 
1.65972 -1.76557 6.89402 53 44 65 
-1.98803 0.426906 3.84696 132 120 142 
-1.97191 0.134297 3.87383 22 26 38 
-1.75861 -0.959874 4.09977 83 66 85 
-1.89277 0.232808 3.91782 25 31 53 
-0.791325 -1.77159 4.92622 47 33 58 
-1.25203 -1.3483 4.55257 35 28 46 
0.102386 -0.719759 5.16658 153 138 115 
0.0126644 -0.591599 5.11445 176 161 142 
-0.0180307 -0.508012 5.07624 158 139 125 
-0.0170816 -0.488105 5.07232 162 143 129 
0.247121 -0.172394 5.09611 205 201 200 
0.343513 -0.175067 5.36644 62 22 33 
0.492478 -0.171869 5.48691 54 18 32 
0.258891 -0.0621742 5.02587 151 146 143 
0.311809 -0.0458836 5.22262 214 206 193 
0.351631 -0.0269141 5.28204 215 209 197 
0.330649 -0.00308667 5.23331 181 168 159 
0.447144 0.00062176 5.44585 58 16 26 
0.481975 0.000757722 5.47463 62 26 30 
0.344742 0.00582421 5.26856 41 20 19 
1.14861 0.0753911 6.02201 77 43 59 
2.253 1.17547 7.11921 21 21 49 
2.23729 1.18847 7.11442 160 181 248 
2.09798 1.18228 7.01096 23 24 44 
2.11489 1.19547 7.01773 152 179 246 
2.09255 1.20336 7.0086 16 23 52 
2.10678 1.2913 7.01374 144 168 228 
2.12992 1.32279 7.02886 139 155 214 
0.87214 -2.00452 6.28305 74 51 71 
0.846777 -1.80053 5.63768 49 36 46 
0.841718 -1.7743 5.63179 136 115 130 
-0.792149 -1.72734 4.91424 52 38 63 
0.759899 -1.81801 6.18162 70 53 69 
-1.0998 -1.65882 4.6747 47 34 60 
0.726135 -1.78351 6.1538 66 49 65 
-1.59194 -1.566 4.25251 51 37 54 
1.66042 -1.76325 6.88594 62 50 72 
-0.108407 -1.35774 4.84579 73 35 46 
-0.0227451 -1.36761 4.93762 127 75 88 
0.522741 -1.36893 5.3606 158 105 123 
0.449985 -1.36291 5.29798 64 24 35 
-2.07869 -1.33923 3.87695 47 35 55 
0.593136 -1.35996 5.43011 144 97 115 
0.51479 -1.34315 5.34457 51 24 31 
1.56046 -1.52298 6.79708 136 124 148 
-1.38326 -1.32553 4.41741 52 35 51 
-1.39322 -1.31033 4.41269 133 119 136 
0.00938451 -1.18755 5.11187 60 30 40 
1.2149 -1.32885 6.54908 55 34 43 
-0.0679118 -0.99109 5.051 64 33 41 
0.860543 -1.10504 6.24564 86 59 76 
1.00967 -1.09313 6.36217 75 63 85 
1.42015 -1.09949 6.6884 55 37 49 
0.979791 -1.06648 6.32539 76 59 78 
-0.0171148 -0.920048 5.097 126 74 87 
1.66095 -0.894758 6.87107 70 46 62 
0.640666 -0.810519 5.75735 133 92 108 
0.0938532 -0.732971 5.16699 59 27 28 
-0.00865135 -0.695216 5.13584 93 75 55 
1.2504 -0.694885 6.53453 129 116 136 
-2.15522 -0.600046 3.76234 57 49 70 
0.689263 -0.625118 5.74444 150 98 111 
-2.15848 -0.58359 3.75759 118 116 140 
0.392531 -0.559779 5.39398 56 21 27 
0.459007 -0.556821 5.44326 57 22 28 
0.626108 -0.49135 5.77197 63 31 42 
0.682979 -0.491541 5.81865 73 37 49 
0.1732 -0.453592 5.25903 209 197 171 
1.57233 -0.504676 6.78605 71 57 72 
1.27847 -0.436736 5.95628 155 104 119 
1.28317 -0.411197 5.97527 141 91 102 
1.38264 -0.453263 6.6298 69 52 71 
0.187747 -0.390428 5.23148 193 185 164 
0.595371 -0.389644 5.74167 57 27 35 
-0.258269 -0.357097 4.88593 52 20 31 
0.35318 -0.347711 5.38028 63 27 37 
0.490619 -0.334352 5.49469 61 29 40 
1.86361 -0.301289 7.0069 130 112 128 
-0.219526 -0.259135 4.91383 57 24 33 
0.124061 -0.261786 5.21979 141 119 95 
1.88051 -0.289797 7.01451 75 54 71 
0.105893 -0.248701 5.20581 73 51 40 
-0.553886 -0.185182 4.71714 79 37 49 
1.3041 -0.154099 6.55677 79 61 75 
0.246836 -0.132357 5.07251 108 103 109 
0.221627 -0.0889104 4.99188 38 27 23 
0.242407 -0.0886508 5.00321 32 20 20 
0.393082 -0.0910018 5.4061 68 30 41 
0.401474 -0.065977 5.41451 71 35 47 
1.44372 -0.0649873 6.66843 75 56 75 
1.90835 -0.0590145 7.05173 63 52 66 
0.334008 -0.0446289 5.2398 110 82 79 
0.877014 -0.0257142 5.89191 62 21 25 
0.334558 -0.0146239 5.23825 118 98 97 
0.314728 -0.0122886 5.22858 93 69 82 
0.353135 -0.0120367 5.24554 213 209 198 
0.419204 -0.00723392 5.41622 92 42 43 
0.125389 -0.00211429 5.03946 27 23 24 
0.305491 0.00491248 5.16847 139 127 149 
-0.565039 0.00724742 4.80165 56 27 32 
1.33922 0.0695372 6.58565 77 55 76 
-0.761408 0.0764003 4.63782 63 29 43 
-0.21723 0.0932389 4.90965 63 25 36 
-0.163972 0.0944816 4.95048 60 23 31 
1.1527 0.104962 6.01835 62 29 38 
1.44719 0.243241 6.66143 48 37 51 
-0.300527 0.211522 4.78805 69 28 34 
1.89702 0.265601 7.00946 134 112 125 
1.12529 0.322853 5.8623 78 41 48 
1.2281 0.388067 5.8119 54 27 34 
0.886968 0.384098 5.53456 66 39 44 
0.956102 0.384894 5.59226 74 41 52 
0.620211 0.380676 5.32311 64 33 48 
1.36458 0.404844 5.92759 65 35 43 
2.05373 0.465553 7.12947 50 38 50 
0.901106 0.402988 5.54813 58 39 45 
1.83937 0.466457 6.97001 71 48 64 
0.566313 0.398045 5.27765 62 35 44 
0.605869 0.397725 5.31061 64 38 51 
0.919794 0.40912 5.55475 146 98 112 
1.01161 0.470465 5.63893 86 39 55 
0.829868 0.468173 5.48964 67 31 43 
0.755858 0.470468 5.42834 55 28 35 
1.40428 0.494011 5.95245 83 47 59 
1.02058 0.491229 5.64601 84 40 55 
1.06156 0.490605 5.67437 64 31 40 
0.816825 0.486613 5.48222 62 34 49 
-0.521279 0.452262 4.39487 66 32 46 
-0.53191 0.472512 4.38567 73 42 57 
-0.87296 0.464358 4.1028 70 37 46 
1.68287 0.988611 6.80873 62 42 53 
1.82784 1.01366 6.94542 39 29 40 
1.76639 1.01686 6.91266 35 28 44 
1.78356 1.02919 6.90193 136 116 128 
0.664198 0.716978 3.84071 64 36 51 
1.35597 0.834157 4.40023 83 50 67 
1.19919 0.874757 4.2685 81 44 61 
2.15649 1.3051 7.02684 35 25 86 
2.25745 1.3264 7.12885 9 14 20 
1.18301 0.966728 4.25214 95 47 63 
0.723576 0.955222 3.87975 86 45 59 
-1.67822 -1.57903 4.21493 50 37 57 
1.05523 -1.67579 6.41351 85 58 77 
-1.2575 -1.45688 4.52813 141 118 138 
-2.00931 -1.3707 3.89517 144 131 148 
-0.944653 -1.44187 4.77824 81 66 89 
0.411668 -1.35624 5.27632 112 66 76 
1.43532 -1.55361 6.71672 59 45 62 
1.4386 -1.487 6.72455 60 41 60 
0.473427 -1.266 5.33189 141 96 116 
-1.30388 -1.21987 4.47874 122 105 121 
1.56644 -1.32228 6.80929 65 50 71 
-1.5968 -0.990933 4.23442 67 54 72 
0.0079197 -0.822091 5.24327 118 72 83 
1.56371 -0.898561 6.79427 72 54 70 
0.109721 -0.532444 5.12414 182 169 150 
0.652136 -0.275027 5.77195 101 53 65 
1.33492 -0.279723 6.57125 70 46 60 
0.154321 -0.0103368 5.04989 37 26 22 
-0.238146 0.000732527 4.89477 130 74 83 
0.373357 0.00816706 5.38731 132 78 91 
1.6585 0.0559345 6.82219 138 121 137 
-1.48891 0.16354 4.27582 43 33 44 
1.30136 0.389454 5.86878 55 32 38 
1.1259 0.492319 5.72497 54 38 41 
0.0466989 0.477942 4.85218 85 47 62 
2.08615 0.997918 7.12989 89 63 72 
1.82928 1.00688 6.92617 46 29 39 
0.962601 0.81227 4.07982 98 48 60 
1.02054 0.824859 4.12466 91 39 52 
1.40756 0.876592 4.44128 82 34 46 
1.35425 0.877585 4.39635 74 42 57 
0.947351 0.870648 4.06577 97 49 63 
0.77557 0.867166 3.92101 68 37 52 
1.20203 0.942001 4.26901 84 41 58 
1.23391 0.944585 4.29616 91 45 56 
1.25204 0.970151 4.30727 99 48 65 
0.756106 0.972477 3.90826 142 97 118 
0.735704 -1.76251 5.4414 52 27 33 
0.849921 -1.7898 5.60525 41 32 35 
0.696276 -1.75412 5.49205 107 60 70 
0.842248 -1.77734 5.64808 140 113 130 
0.807803 -1.75097 5.64775 51 31 33 
-1.61684 -1.62399 4.2353 53 38 57 
0.170181 -1.5744 5.12819 78 42 56 
-1.37505 -1.56786 4.44928 57 44 54 
-2.0625 -1.49571 3.88659 55 38 56 
0.826473 -1.69404 6.23089 77 54 60 
1.67502 -1.74377 6.90574 122 104 126 
0.862072 -1.68619 6.25998 99 75 88 
0.562887 -1.4873 5.41982 126 75 92 
0.676439 -1.51244 5.64218 73 34 39 
-0.00872895 -1.40503 4.92545 118 71 87 
-1.05153 -1.47862 4.68735 88 65 75 
-0.0864404 -1.3823 4.88522 73 37 47 
-0.0113603 -1.38931 4.95233 37 17 18 
1.63598 -1.63009 6.88594 66 56 81 
0.391934 -1.38872 5.26529 39 22 28 
0.517781 -1.36579 5.36044 145 88 105 
1.38841 -1.54531 6.67557 73 59 72 
-1.99095 -1.33318 3.92956 46 33 51 
-1.94512 -1.33528 3.96387 72 60 72 
0.447903 -1.33842 5.29333 139 88 107 
-0.168438 -1.26217 4.84361 83 36 42 
-0.108623 -1.2644 4.88306 82 37 44 
0.855074 -1.31304 5.70816 148 97 112 
-0.181308 -1.23454 4.81796 133 78 97 
0.514341 -1.25008 5.38012 82 39 46 
-0.16613 -1.18635 4.80529 158 105 121 
0.438508 -1.22264 5.3197 137 86 105 
0.530677 -1.23816 5.46498 138 83 102 
-2.0635 -1.14889 3.85528 119 101 127 
1.22428 -1.32713 6.53742 81 69 83 
1.73749 -1.31526 6.94873 50 37 47 
1.70598 -1.30359 6.94726 138 107 123 
-1.77169 -1.10037 4.08049 131 117 140 
0.999767 -1.06386 6.34286 141 117 139 
-1.50802 -0.957123 4.30587 76 53 69 
-1.35199 -0.926769 4.43351 138 113 132 
-0.0777104 -0.815567 5.06446 52 23 27 
-0.100182 -0.80551 5.04266 137 83 96 
0.14512 -0.766011 5.18707 135 121 108 
-1.5411 -0.758182 4.27346 49 36 45 
1.85776 -0.867185 7.02502 120 97 117 
0.102652 -0.74048 5.1658 73 40 47 
0.316315 -0.732148 5.26335 98 62 72 
0.154147 -0.733384 5.23055 57 25 28 
-0.00639558 -0.700509 5.14338 103 82 65 
0.14341 -0.685272 5.22911 40 19 18 
-1.5135 -0.589702 4.29084 113 91 103 
0.108479 -0.569774 5.20706 206 193 176 
0.0626747 -0.566275 5.15907 91 55 65 
0.122034 -0.561849 5.15318 207 196 176 
-1.9443 -0.522675 3.92387 125 103 126 
-0.159818 -0.510366 4.95877 59 29 39 
0.34466 -0.509033 5.374 73 33 44 
0.445215 -0.508705 5.45473 68 41 46 
0.489532 -0.508 5.489 69 37 48 
-0.569138 -0.499076 4.81246 58 31 40 
1.23802 -0.473459 5.9493 158 107 124 
1.48889 -0.507279 6.72737 66 45 52 
1.23819 -0.385755 5.96706 140 90 101 
0.774262 -0.359374 5.88466 66 38 50 
0.114762 -0.281268 5.21311 62 41 24 
-0.581091 -0.277956 4.76352 145 92 108 
0.347276 -0.16642 5.36798 75 35 46 
0.447782 -0.15887 5.44736 78 46 59 
0.590637 -0.154683 5.72936 63 30 37 
-0.531715 -0.125514 4.81668 42 21 28 
0.221863 -0.112944 4.99695 184 178 180 
0.191808 -0.115352 5.12244 213 211 216 
0.691823 -0.0886278 5.79359 36 20 21 
-0.209098 -0.0753129 4.92214 72 34 45 
0.264103 -0.0552473 5.05751 197 191 177 
-0.12426 0.00396257 4.98537 60 33 38 
0.839706 0.00845123 5.92809 52 26 35 
0.396228 0.0105653 5.40187 61 34 41 
-0.0787911 0.0145476 5.0241 26 15 19 
1.21508 0.0454443 6.08369 84 54 66 
1.39567 0.150742 6.60649 104 76 88 
1.14269 0.155147 5.99967 147 99 115 
-1.0222 0.151739 4.23824 63 43 52 
1.3995 0.196617 6.6129 71 50 65 
1.43817 0.214432 6.63841 137 120 139 
-1.48461 0.188812 4.27014 91 72 92 
1.50796 0.236987 6.69967 62 44 56 
1.39794 0.248457 6.63739 55 45 56 
-1.87896 0.20117 3.93039 23 34 62 
1.59706 0.253808 6.78587 57 42 49 
-1.93165 0.237695 3.8862 22 26 51 
1.14025 0.280171 5.87549 149 96 114 
0.666131 0.30654 5.47947 104 58 68 
1.11994 0.315379 5.85866 68 39 41 
1.09102 0.363843 5.70228 64 35 40 
1.03882 0.368086 5.67195 89 58 73 
0.461441 0.360857 5.18138 80 56 70 
0.831467 0.39471 5.491 64 52 56 
1.17473 0.400221 5.74572 71 56 61 
0.921453 0.403818 5.56369 133 82 97 
0.585963 0.398005 5.2938 148 100 122 
-0.524075 0.382791 4.38781 63 46 54 
-0.669589 0.450819 4.25339 65 34 40 
1.88262 0.608213 6.98504 67 44 52 
1.68649 0.616494 6.83939 66 52 69 
1.73275 0.626309 6.88771 97 84 101 
1.7725 0.649553 6.93455 138 115 131 
0.414639 0.552547 5.14579 95 68 75 
1.80304 0.778715 6.95958 76 57 77 
1.93615 1.0195 7.02353 59 48 62 
1.76351 1.01487 6.88694 38 34 49 
1.97122 1.03206 7.04288 139 125 142 
1.72766 1.02726 6.84039 146 138 162 
1.86992 1.03654 6.9406 133 110 126 
1.93045 1.06953 7.00258 94 71 89 
2.25095 1.22294 7.12448 158 172 243 
2.16142 1.25689 7.0613 168 187 255 
0.618301 0.865437 3.80148 73 45 60 
-0.590793 1.23365 4.10866 125 131 165 
0.85194 1.08326 3.90562 65 39 48 
-2.06728 -1.41132 3.85312 77 60 78 
0.516265 -1.36738 5.36515 145 94 109 
-2.06447 -1.33536 3.87202 44 35 56 
0.449717 -1.33032 5.29111 136 88 102 
-0.0703882 -1.17657 4.88621 145 92 110 
-0.0739248 -0.991886 5.04229 66 34 45 
-1.36879 -0.94693 4.42114 77 56 63 
-1.82381 -0.741479 4.01821 93 69 91 
0.149033 -0.735614 5.24575 64 28 28 
-0.0429349 -0.72178 5.11605 114 71 80 
1.58675 -0.683003 6.80485 128 110 126 
0.192615 -0.360474 5.16486 110 90 89 
0.392559 -0.33789 5.40795 67 37 49 
0.352449 -0.0162052 5.26293 193 186 176 
0.304325 0.000996154 5.18272 118 105 125 
-1.87742 0.127888 3.93647 24 33 50 
1.85659 0.28347 6.98489 131 108 124 
-1.97163 0.336132 3.87499 14 18 29 
-0.564783 0.35463 4.37582 77 56 65 
1.3591 0.404433 5.92042 84 58 71 
-0.671331 0.382149 4.24986 68 51 57 
1.35704 0.484879 5.9065 100 64 78 
2.11843 0.617501 7.14406 57 43 60 
1.8235 1.04042 6.92195 117 93 109 
2.26117 1.18507 7.13473 12 15 24 
2.09234 1.19209 7.00424 10 13 20 
-1.10421 -1.6498 4.67697 51 41 65 
-1.37608 -1.57199 4.44974 50 38 48 
0.522148 -1.55774 5.41104 141 92 111 
1.66953 -1.77113 6.92645 61 48 66 
-1.263 -1.44535 4.51031 136 113 133 
-0.155914 -1.37044 4.81694 98 65 76 
0.85668 -1.39063 5.72237 103 46 53 
-1.98867 -1.33284 3.93025 52 38 53 
0.553236 -1.16513 5.38609 151 96 115 
-1.89302 -0.97229 3.9935 131 109 132 
0.0533995 -0.985689 5.15957 49 21 20 
-1.59746 -0.967968 4.25991 59 46 56 
0.219146 -0.946792 5.2894 49 21 20 
0.251719 -0.888281 5.31733 55 24 22 
1.55856 -0.916027 6.78819 76 65 82 
0.139792 -0.765354 5.20836 131 113 99 
-2.15609 -0.733301 3.76336 73 65 86 
-1.50451 -0.588272 4.29781 133 106 123 
0.370045 -0.522506 5.39079 129 75 91 
0.40686 -0.516974 5.4115 60 33 40 
-0.891144 -0.469908 4.22799 92 37 42 
0.394314 -0.420261 5.41263 70 40 50 
1.22844 -0.35294 5.97698 61 29 34 
0.183358 -0.33464 5.23156 135 107 93 
-0.171601 -0.169255 4.95913 66 39 48 
1.11647 0.174902 5.9785 91 39 43 
1.50861 0.202777 6.73781 147 128 148 
1.60273 0.24413 6.74878 80 54 63 
0.666755 0.302867 5.49637 71 48 58 
1.1692 0.313138 5.89301 86 56 56 
-0.299287 0.356859 4.58549 94 63 79 
1.26354 0.394637 5.839 146 97 118 
1.71962 0.574087 6.82641 135 114 131 
2.24009 1.29531 7.12304 163 182 251 
2.35864 1.30007 7.12524 59 80 61 
2.09012 1.31113 7.00013 15 13 24 
0.56382 1.07359 3.66855 97 54 63 
-1.23077 -1.46218 4.54705 85 75 84 
0.788778 -1.30276 5.70972 146 95 110 
0.282401 -0.827868 5.3451 37 13 11 
-0.0697775 -0.830854 5.06868 57 25 28 
1.23209 -0.53535 6.05554 94 35 37 
0.0092484 -0.42648 5.08227 135 110 80 
1.90254 -0.29474 7.03127 75 59 85 
0.230406 -0.12132 5.03501 211 206 212 
0.63478 0.0142864 5.70496 71 38 45 
1.15652 0.0873978 5.99372 136 97 116 
-1.8827 0.166749 3.92148 176 194 255 
-1.99641 0.271071 3.85106 112 93 113 
-1.97463 0.33154 3.85335 28 38 65 
0.882799 0.39358 5.5464 77 51 60 
-0.488847 0.368491 4.4167 40 29 35 
-0.661688 0.421815 4.25761 136 85 100 
2.17482 1.21637 7.06766 20 28 47 
-0.183967 -1.34258 4.78954 123 76 92 
0.570336 -1.35057 5.46792 104 55 77 
-2.06418 -1.1719 3.88099 123 110 138 
-1.76982 -1.12093 4.10316 95 80 103 
-1.78163 -1.08388 4.06494 125 110 131 
0.752375 -1.13636 5.74579 61 29 32 
-0.592943 -0.86706 4.6618 44 19 22 
0.060854 -0.824178 5.22921 114 70 85 
0.175272 -0.423304 5.25875 189 177 153 
1.15241 -0.379093 5.95852 138 85 95 
0.20954 -0.183162 5.10332 196 194 205 
1.15969 0.179649 6.00346 145 91 114 
1.62448 0.261226 6.80325 65 52 59 
-1.95008 0.238808 3.88112 21 26 46 
-0.261368 0.310302 4.70611 157 106 125 
0.792063 0.51596 5.45407 90 62 76 
0.359474 0.53244 3.65658 162 111 128 
0.526562 1.05402 3.6351 153 105 127 
1.11304 1.24381 3.86104 98 101 132 
0.139877 -1.2355 5.17885 135 87 101 
-0.573371 -0.918233 4.64298 136 88 102 
-0.472975 -0.854474 4.90165 64 30 29 
0.410797 -0.512281 5.4453 74 47 56 
0.243121 -0.0735106 5.06519 46 33 40 
1.10044 0.380952 5.69937 96 69 78 
1.20862 0.385788 5.75734 48 33 38 
0.870629 0.381191 5.47912 65 41 54 
0.525454 0.379507 5.24067 53 33 45 
0.761225 0.484038 5.44808 64 39 45 
-0.367703 -1.38193 4.86433 31 16 21 
0.106859 -1.17095 5.18571 76 37 40 
0.110932 -0.702212 5.19803 151 133 111 
1.23856 -0.515971 6.12195 93 37 40 
-0.124772 -0.805722 5.02169 137 76 91 
1.15211 -0.318312 5.98439 41 21 22 
0.160881 -0.031849 4.99601 88 55 38 
0.322665 -0.0326308 5.21084 168 156 142 
-1.83586 0.322198 3.96181 89 84 107 
0.757171 0.362315 5.43051 62 35 42 
-0.243266 -0.00939366 7.10487 55 23 36 
-2.07698 -1.31136 3.83763 66 56 81 
-2.05894 -1.14527 3.84775 120 100 127 
2.397 -0.202973 6.43635 89 90 144 
-0.00711386 -1.38542 4.94225 37 21 22 
0.377028 -0.57729 5.37502 114 81 102 
2.45989 -0.254277 6.48792 195 213 253 
2.544 -0.199679 6.53498 157 170 212 
0.257602 0.34425 5.00883 140 158 206 
1.69827 -1.29265 6.91963 146 118 133 
1.85522 0.284698 6.9982 131 108 124 
-0.213512 -0.0828616 4.91081 65 42 50 
-1.85777 0.335075 3.93608 17 23 35 
0.621958 0.0132636 5.74063 71 38 45 
0.529395 0.378191 5.22772 59 39 51 
0.0894281 -0.72583 5.1917 164 149 130 
-2.08738 -1.15661 3.82766 119 106 124 
-1.90611 0.746993 3.89732 45 41 55 
0.158821 -0.734231 5.22589 64 28 28 
-1.20258 -1.44386 4.57082 123 100 116 
-1.86594 0.155982 3.98837 92 71 86 
-2.21824 -0.561833 3.71574 63 52 69 
-1.95652 -0.520947 3.93073 126 102 124 
1.21118 -1.32716 6.54627 61 38 54 
0.268851 -0.0567912 5.0424 179 173 161 
0.34246 -0.0322747 5.27275 103 84 88 
0.340291 0.00591067 5.27554 41 20 19 
2.09721 1.18471 7.02283 19 22 41 
2.24234 1.31439 7.11639 157 171 232 
1.16722 1.21715 3.96576 40 38 77 
-0.169467 1.1888 2.85632 153 170 188 
1.17284 1.23088 3.9583 42 35 77 
1.92359 1.21737 3.91825 152 168 201 
1.37335 -1.9975 6.69144 51 36 55 
1.33827 -1.98685 6.65641 88 60 82 
0.75131 -1.98265 6.18245 73 55 77 
-0.975312 -1.91643 4.77242 62 36 47 
1.22512 -1.88138 6.56164 71 53 75 
0.773351 -1.86656 6.18678 77 54 74 
-1.21621 -1.79446 4.56969 74 50 64 
-1.07292 -1.77803 4.68677 78 60 76 
-2.15242 -1.74308 3.82322 53 36 54 
0.597809 -1.66568 6.04086 65 47 61 
0.830745 -1.55902 6.22936 65 42 62 
-1.1622 -1.55351 4.59899 67 45 58 
0.609885 -1.39691 5.41568 143 98 118 
0.86775 -1.51936 6.24718 78 59 79 
0.608993 -1.35843 5.43777 45 22 30 
0.588739 -1.32802 5.42341 145 101 118 
-0.537527 -1.33257 4.5355 133 80 88 
0.51211 -1.31605 5.35878 126 84 98 
0.908336 -1.31703 5.6998 140 89 104 
0.498771 -1.18118 5.33901 155 100 119 
0.519296 -1.18214 5.35873 157 103 117 
0.200905 -1.15995 5.27682 60 28 39 
1.34747 -1.16459 6.63675 62 44 58 
-0.0881651 -1.00476 5.04095 58 27 33 
-0.092683 -1.066 5.51545 115 70 77 
0.120238 -0.74738 5.16711 44 18 27 
0.120378 -0.729521 5.17484 148 130 110 
-1.53356 -0.740169 4.28414 47 36 50 
1.55306 -0.709649 6.77906 60 44 57 
1.56291 -0.666399 6.78332 68 51 70 
0.341554 -0.516358 5.37236 53 20 29 
1.31193 -0.516461 6.58644 68 45 53 
0.132439 -0.499398 5.24364 196 185 155 
1.34991 -0.511492 6.63125 56 44 56 
0.156768 -0.479851 5.26391 194 182 156 
1.37241 -0.409208 6.61976 130 107 127 
0.479966 -0.347099 5.48113 54 23 29 
0.69518 -0.269404 5.79829 91 48 57 
0.391858 -0.250019 5.4069 61 28 37 
1.6881 -0.239794 6.86675 42 28 45 
-0.53681 -0.212652 4.71302 85 35 44 
-6.36962 -0.666972 14.5093 62 24 35 
0.23864 -0.150128 5.06049 110 105 102 
0.490637 -0.117481 5.65414 65 27 38 
0.528217 -0.115406 5.68107 58 28 36 
0.786097 -0.112527 5.8962 58 23 30 
1.4774 -0.0747882 6.69925 70 51 73 
1.49683 -0.0729582 6.71374 86 69 87 
0.29383 -0.0461119 5.21143 186 177 168 
0.276467 -0.0406425 5.0814 137 124 118 
0.300717 -0.0280213 5.21731 97 74 66 
0.340919 -0.0147896 5.22438 112 86 87 
0.34743 -0.0130983 5.25517 194 190 179 
0.357129 -0.000147966 5.37122 58 20 31 
0.686116 0.015758 5.81478 60 25 32 
0.401511 0.0208064 5.41371 60 29 37 
0.583036 0.0703681 5.72368 61 21 29 
0.396157 0.0978906 5.40155 62 22 31 
0.446255 0.0982194 5.44325 58 23 29 
1.13271 0.150465 6.0094 143 95 111 
0.280618 0.350541 5.04011 125 137 187 
1.42443 0.371688 5.97009 44 27 37 
1.24409 0.406116 5.8232 59 32 39 
1.26035 0.413324 5.83327 140 94 107 
1.68243 0.542407 6.82881 60 46 63 
0.72672 0.485248 5.40282 60 33 42 
1.55133 0.976433 6.70805 55 35 46 
2.04942 1.00584 7.10753 60 45 64 
1.89654 1.01178 6.99433 48 36 46 
1.81261 1.02768 6.9149 124 106 120 
1.84499 1.0397 6.9395 70 54 67 
0.721498 0.730133 3.8907 70 32 43 
1.44344 1.06562 6.61156 73 61 73 
0.771578 0.821113 3.92413 66 38 53 
2.20363 1.20083 7.10781 18 27 68 
2.14648 1.19905 7.02564 24 21 74 
2.11383 1.32144 7.01504 13 15 28 
0.546781 0.952218 3.73736 75 46 64 
1.97237 1.29598 6.36212 122 130 149 
1.10276 -2.05817 6.46449 139 118 137 
1.35571 -2.02747 6.67013 84 67 85 
1.72685 -1.77971 6.9423 65 56 77 
1.59764 -1.77713 6.85139 53 30 46 
0.713922 -1.75581 6.14819 64 46 62 
-0.202228 -1.461 4.82635 115 65 74 
0.621019 -1.39 5.43183 75 33 45 
-0.151481 -1.27875 4.83562 137 90 106 
-1.90829 -1.12395 3.97701 46 41 63 
1.24718 -1.09871 6.54956 61 45 55 
0.488233 -0.492502 5.66379 65 38 47 
1.36269 -0.377625 6.61752 127 110 128 
1.87932 -0.289102 7.02658 67 51 64 
1.66091 -0.270981 6.86204 64 44 56 
1.29579 -0.112114 6.55524 73 60 77 
-0.146423 0.00475094 4.96934 125 72 80 
1.54348 0.28206 6.70206 19 65 177 
1.17327 0.473371 5.76674 67 37 45 
1.81524 0.636042 6.93639 120 106 123 
1.56262 0.785561 6.73223 59 45 62 
1.58549 1.02082 6.7328 72 57 80 
1.93042 1.04503 7.01078 130 116 142 
1.7366 1.16723 6.7222 65 58 76 
0.893964 0.870563 4.01671 73 41 54 
2.11251 1.32111 7.01662 17 26 55 
1.1709 1.22548 3.92465 64 40 118 
0.720542 -1.80205 5.43744 66 27 30 
0.736767 -1.79674 5.46109 144 99 119 
0.716273 -1.76462 5.41072 113 60 70 
0.783298 -1.893 6.18767 136 114 135 
-0.952591 -1.82927 4.81256 131 112 134 
-1.65717 -1.80422 4.23515 76 52 65 
-0.801078 -1.78145 4.89966 125 102 120 
1.88455 -1.76268 7.07374 55 48 66 
0.728704 -1.75691 6.14406 68 55 72 
1.6763 -1.74198 6.90132 124 106 132 
-2.22665 -1.74663 3.74865 65 49 60 
-2.15988 -1.74548 3.83041 56 35 52 
-1.97682 -1.70949 3.94478 135 109 122 
-0.205172 -1.50066 4.81423 117 67 79 
-2.24575 -1.57237 3.73161 77 59 73 
0.61706 -1.3865 5.61162 38 20 20 
0.957459 -1.47024 6.32268 73 50 66 
0.584525 -1.31769 5.41861 130 83 101 
-0.0349499 -1.32298 4.92161 103 59 72 
0.454397 -1.31211 5.31471 58 27 32 
-0.560895 -1.32064 4.57107 53 18 22 
0.886216 -1.30713 5.71323 67 27 35 
1.23802 -1.36371 6.55466 53 42 48 
0.455261 -1.24993 5.33231 75 35 43 
0.431036 -1.22768 5.33712 130 73 88 
0.449003 -1.17699 5.3077 154 101 117 
0.87149 -1.15608 6.24573 101 78 104 
-2.06378 -1.15034 3.85635 119 101 127 
-1.86441 -1.12387 4.00828 42 33 52 
1.71576 -1.10062 6.92727 58 40 52 
0.756976 -1.11009 6.16398 62 42 53 
2.12324 -1.09235 7.25609 77 52 74 
0.000248555 -0.958018 5.11358 51 21 21 
-2.19641 -0.975984 3.73779 59 50 69 
-1.92393 -0.968538 3.95104 111 97 122 
-1.60711 -0.965527 4.25851 58 45 62 
0.979808 -0.917984 6.32817 72 61 78 
1.77504 -0.863254 6.98302 123 100 120 
-0.238196 -0.74021 4.78589 108 67 85 
-0.0289983 -0.738825 4.95075 103 65 78 
0.3745 -0.733424 5.27837 109 67 81 
0.105016 -0.739462 5.16419 47 27 26 
-1.08738 -0.772817 4.63461 138 111 128 
-0.028041 -0.700823 5.12635 38 19 15 
1.81371 -0.714986 6.98033 79 53 64 
0.0919046 -0.617733 5.17923 76 40 42 
0.078256 -0.562674 5.12926 93 53 64 
0.416371 -0.551719 5.40699 119 84 104 
0.125494 -0.5251 5.23034 175 160 139 
0.133394 -0.508679 5.25238 181 171 146 
1.38274 -0.523803 6.65125 48 35 42 
1.53545 -0.504871 6.76418 57 41 44 
1.26546 -0.463742 5.99023 90 35 40 
1.84246 -0.499404 7.02959 57 43 56 
-0.625811 -0.498804 4.75592 58 32 41 
1.35859 -0.48334 6.62694 140 115 137 
1.27684 -0.431603 5.9778 148 95 111 
0.127029 -0.445949 5.09011 199 186 167 
0.168582 -0.379301 5.12098 230 219 189 
1.33995 -0.395994 6.58492 68 45 51 
-0.627251 -0.39528 4.75064 55 32 40 
1.36011 -0.32812 6.6077 123 101 122 
1.84528 -0.286686 6.99217 81 59 71 
1.93602 -0.27348 7.07387 62 46 59 
1.29394 -0.27789 6.5634 70 53 61 
0.621037 -0.253728 5.73555 96 49 59 
-6.15759 -0.884959 14.5557 65 35 43 
-0.743241 -0.15219 4.64418 52 25 32 
0.276654 -0.0992015 5.11451 223 220 203 
-1.46817 -0.116742 4.28931 48 35 42 
0.238863 -0.0792988 5.01441 22 17 14 
-1.4646 -0.102142 4.31549 122 89 100 
0.116738 -0.011248 5.0361 26 22 21 
0.293753 0.0031522 5.14532 61 36 39 
0.518101 0.0557061 5.65754 59 22 29 
-1.98853 0.144042 3.86436 15 19 31 
-1.01445 0.151645 4.23187 63 43 52 
-1.02779 0.175625 4.22553 137 84 100 
1.13403 0.22215 5.92137 80 33 39 
1.12252 0.315047 5.85245 68 39 41 
1.40092 0.415457 6.62554 64 45 51 
-0.929518 0.343265 4.06612 40 25 28 
0.834777 0.386995 5.49429 57 34 40 
-0.66383 0.379427 4.25763 62 41 48 
-0.528176 0.383243 4.3906 61 42 46 
1.65488 0.483229 6.83071 128 114 137 
-2.18306 0.428632 3.69271 126 116 143 
1.71576 0.64739 6.8682 123 113 140 
1.9983 0.770357 7.09299 68 50 64 
1.80632 0.776352 6.93494 62 48 63 
1.60282 0.782436 6.76747 61 50 66 
-1.88892 0.744152 3.88625 45 41 55 
-2.03951 0.764545 3.81766 112 98 121 
1.43441 0.949011 6.59698 121 97 119 
1.43602 0.9865 6.62566 59 51 62 
1.45676 1.00435 6.62838 130 102 114 
1.66562 1.01108 6.80535 102 98 123 
1.80238 1.05919 6.89855 69 52 71 
2.19533 1.20998 7.10984 17 31 60 
2.08937 1.29427 7.00006 12 15 22 
2.27415 1.30471 7.13751 10 13 20 
1.49095 1.05475 4.47775 114 71 90 
1.18361 1.2236 3.97368 221 233 255 
1.11662 1.22048 3.88177 228 233 255 
-2.0448 -1.73774 3.88446 76 56 68 
-1.58923 -1.56821 4.25045 51 41 50 
1.40358 -1.51193 6.68631 125 108 126 
0.394219 -1.29363 5.33562 27 13 13 
-0.111959 -1.26395 4.89289 55 22 29 
-1.91178 -0.965938 3.94154 109 96 122 
-1.47629 -0.583936 4.27096 108 86 99 
1.22852 -0.401963 5.96303 139 86 102 
0.652958 -0.408152 5.78884 90 44 47 
1.299 -0.127003 3.39462 56 33 41 
-6.147 -0.879233 14.5434 65 35 43 
0.192728 -0.024625 5.00702 62 42 35 
1.52021 0.0979317 6.71484 146 123 139 
1.511 0.23661 6.6929 62 44 56 
-1.91426 0.238172 3.9196 20 28 51 
0.678722 0.301816 5.46503 108 58 67 
0.682706 0.394956 5.37108 84 58 71 
1.16495 0.486822 5.77742 89 62 69 
0.829154 0.480675 5.49028 97 64 75 
1.68343 0.546883 6.81918 70 62 85 
1.43512 0.861659 5.94127 63 37 50 
1.46668 1.0093 6.6427 129 98 114 
1.7359 1.16683 6.72247 68 57 74 
1.53338 0.916789 4.93957 154 106 128 
2.234 1.19573 7.11284 166 186 255 
2.15206 1.20667 7.04412 17 20 39 
2.19939 1.25265 7.07958 168 189 254 
2.16282 1.25558 7.05311 168 187 255 
-1.19172 -1.81143 4.61796 67 49 63 
-2.03575 -1.70426 3.89664 133 119 132 
-1.09489 -1.58497 4.67176 56 42 68 
-1.85555 -1.58062 4.05701 57 41 52 
-2.06726 -1.55472 3.86473 72 55 73 
0.548728 -1.36211 5.37887 78 41 49 
-0.386893 -1.39306 4.81513 42 20 22 
0.423152 -1.17783 5.28994 74 33 37 
1.53122 -1.1179 6.77048 56 39 45 
0.773269 -1.10609 6.16359 61 39 51 
1.56014 -0.91514 6.77786 68 61 77 
0.384239 -0.726491 5.28108 111 75 87 
0.141771 -0.740032 5.2604 57 27 27 
0.127622 -0.630576 5.20704 167 152 129 
-0.209831 -0.526122 4.92763 51 28 34 
-2.09901 -0.540712 3.84752 49 41 64 
0.610718 -0.3894 5.75106 53 30 40 
0.200049 -0.332642 5.19836 136 115 96 
0.268126 -0.0799086 5.06661 63 46 36 
-1.40412 -0.108788 4.32947 109 84 103 
1.20293 0.0300878 6.08111 79 49 59 
1.11284 0.177266 5.99405 87 42 49 
-0.311337 0.160538 4.83827 83 38 41 
1.68772 0.243669 6.85081 63 46 54 
1.33265 0.259548 6.56731 126 106 131 
-1.9742 0.270016 3.83445 108 90 106 
-0.619859 0.322005 4.3054 132 83 104 
1.5339 0.419779 6.71359 69 47 60 
0.338876 0.474642 5.09118 91 63 78 
-0.653622 0.459855 4.23786 79 56 62 
1.69207 0.604696 6.83349 96 76 88 
1.62069 0.948109 6.75497 130 103 118 
1.50585 0.875761 6.02156 47 30 38 
1.48184 0.972487 6.66211 75 52 68 
2.27228 1.31471 7.1353 11 12 17 
0.389822 -1.37664 5.2803 35 20 25 
0.112026 -0.570088 5.18231 220 209 189 
1.87348 -0.0280478 7.04921 126 112 135 
0.231993 -0.0395437 5.01073 98 77 58 
0.262871 -0.0215265 5.03473 67 44 36 
-1.90653 0.167468 3.94014 165 184 253 
1.4166 0.285126 6.6279 129 106 122 
-1.95071 0.23642 3.88107 21 26 46 
-1.89915 0.30878 3.93089 162 176 247 
2.17321 1.20305 7.06124 21 27 43 
2.18545 1.28668 7.06683 14 18 29 
1.5218 1.09165 4.44269 92 52 61 
-2.07199 -1.49806 3.90496 67 47 58 
0.438954 -1.33613 5.28786 138 85 101 
0.700045 -1.31533 5.5461 138 85 103 
1.23936 -1.34461 6.56084 74 64 73 
0.824103 -0.901243 5.75812 142 89 107 
0.102582 -0.750226 5.1618 29 14 17 
-0.883496 -0.49668 4.31613 82 30 32 
0.0153336 -0.485681 5.07028 134 98 74 
0.50576 -0.467716 5.68089 79 53 64 
0.280161 -0.0651994 5.04588 41 29 33 
0.520325 0.0706773 5.66784 87 56 71 
1.19293 0.114654 6.06147 94 71 89 
1.32588 0.386819 5.88102 66 33 40 
-0.835167 0.362185 4.13911 33 24 25 
0.508821 0.528878 3.64732 155 112 132 
1.52204 0.722317 4.99222 143 102 120 
0.163835 -0.491199 5.20364 195 182 150 
0.169535 -0.424734 5.26723 189 177 153 
0.340808 -0.0337889 5.25761 124 109 106 
-1.95342 0.230232 3.86989 15 23 42 
1.20181 0.387775 5.78794 47 27 29 
0.859466 0.383932 5.51314 59 36 44 
0.502757 0.613396 5.09798 58 46 50 
1.8089 1.00837 6.90983 24 26 39 
0.216257 -0.0887488 5.02994 23 15 13 
0.280046 -0.0307055 5.05013 85 53 40 
2.10161 1.15937 7.01338 100 89 97 
-0.114034 -0.804235 5.0032 130 70 82 
1.23619 -0.516892 6.12831 93 37 40 
0.153208 -0.032023 5.01073 78 49 33 
2.20315 1.13308 7.08608 129 122 138 
2.29409 1.16555 7.10692 95 87 100 
2.07317 1.31331 6.9683 101 85 96 
0.389602 -0.347418 5.40634 56 26 36 
-0.267471 -0.518024 4.88334 59 36 44 
0.588215 -1.48213 5.4347 59 22 29 
1.56394 -1.52769 6.80636 133 113 138 
-0.0790567 -1.23841 4.9144 122 74 90 
0.0499352 -0.993159 5.16068 50 21 23 
0.20749 -0.113352 5.0569 198 196 201 
0.174397 -0.010325 4.96979 29 23 25 
-1.73311 0.10972 4.06964 50 49 67 
-2.00629 0.241924 3.96747 20 28 49 
1.87023 1.04151 6.95836 124 102 115 
0.52061 -1.56242 5.42072 137 84 102 
0.187161 -0.334046 5.21549 131 108 92 
1.91042 0.053476 7.04682 75 54 69 
-0.0845152 0.0671314 4.99054 63 27 31 
1.1068 0.305926 5.86257 58 33 39 
-0.63701 0.359782 4.30851 72 52 54 
-0.663908 0.461283 4.24574 79 56 62 
1.84742 -0.461054 7.04139 124 101 117 
-1.92265 0.205924 3.90225 163 180 249 
-1.88825 0.307966 3.92505 162 176 247 
2.15572 1.25605 7.04494 172 187 255 
2.12813 1.29198 7.02884 162 179 249 
1.24098 -1.34475 6.5583 71 66 73 
0.0901218 -0.754056 5.17751 29 14 17 
2.1225 1.21942 7.01542 146 165 233 
0.207999 -0.0770642 5.21682 147 134 128 
0.17346 -0.66043 5.22276 51 22 24 
0.247513 -0.225403 5.19438 69 33 35 
2.1929 1.13812 7.13354 129 122 138 
0.226686 -0.0643807 5.06563 168 165 160 
-1.88422 0.234935 3.85817 17 22 42 
-1.95668 0.263908 3.86961 21 27 51 
0.728625 0.873004 3.88397 81 54 69 
0.180424 -0.462467 5.24559 187 173 147 
0.111488 -0.702588 5.17897 118 94 70 
0.238035 -0.0639104 5.05175 168 165 160 
-1.87179 0.343241 3.94768 24 22 35 
-1.91359 0.271263 3.89569 160 177 249 
0.266101 -1.86672 5.16458 70 22 44 
-1.53363 -1.97425 4.32049 56 41 62 
-0.0157912 -0.468909 5.07205 163 141 128 
0.175995 -0.364508 5.13786 196 189 161 
0.199431 -0.344493 5.19947 183 169 143 
0.512352 -0.138538 5.66743 53 21 32 
2.19195 1.25299 7.06702 159 184 248 
2.21904 1.31145 7.10811 10 27 71 
2.15001 1.31375 7.0416 20 14 60 
0.655874 -2.09625 6.10353 57 42 61 
-0.822706 -2.111 4.91016 70 55 76 
0.736906 -1.9182 6.15752 96 62 86 
-1.76576 -1.95316 4.14194 56 42 59 
1.6355 -1.55256 6.87511 125 120 140 
-0.0239994 -1.38458 4.92379 53 23 35 
0.880264 -1.30933 5.72353 54 21 28 
-0.174988 -1.37004 4.82075 47 21 34 
-0.527229 -1.34407 4.55281 141 91 103 
1.22573 -1.10717 6.65345 71 49 72 
1.26068 -1.08916 6.56865 133 126 142 
0.280508 -0.854185 5.3173 113 68 75 
0.557072 -0.790483 5.72045 53 26 33 
0.070335 -0.738213 5.19274 57 25 28 
0.135422 -0.690488 5.23326 38 17 16 
0.120353 -0.553169 5.14603 197 189 170 
0.104181 -0.521212 5.21274 150 133 103 
0.141483 -0.509882 5.26214 210 200 173 
1.87686 -0.32871 7.02497 87 64 82 
0.444348 -0.346836 5.45126 61 28 37 
1.88863 -0.307309 7.02732 122 105 124 
0.484625 -0.277907 5.65568 62 27 34 
0.73689 -0.152527 5.83764 52 23 28 
0.267001 -0.10938 5.03704 198 196 184 
0.271423 -0.105702 5.07338 186 182 170 
0.256823 -0.0822723 5.01592 18 17 13 
0.263187 -0.0717603 5.03859 16 15 23 
0.276614 -0.0619629 5.07765 44 30 30 
0.309337 -0.06354 5.24241 98 74 62 
0.285919 -0.0282212 5.10673 39 24 21 
0.429307 -0.0238866 5.41779 156 104 117 
0.891505 0.091599 5.97671 59 26 33 
1.14208 0.210528 5.94763 156 104 116 
-1.98153 0.200932 3.87953 17 25 72 
1.14106 0.239479 5.93595 163 109 123 
-0.293778 0.306123 4.69935 72 44 56 
1.31224 0.459132 6.54459 53 39 54 
1.23926 0.909993 5.78602 77 31 44 
1.34861 0.992817 6.54942 106 97 114 
2.04461 0.981268 7.10212 71 51 62 
1.33497 1.01151 6.55495 42 37 57 
2.05106 1.00395 7.09964 65 53 67 
1.50951 0.840571 4.80649 104 51 71 
1.50028 0.903718 4.67273 91 48 67 
1.73085 1.16073 6.72524 64 55 76 
1.51814 0.945373 4.87653 81 39 59 
1.50175 0.95261 4.72389 92 49 68 
1.50518 0.980609 4.7377 81 46 68 
2.14057 1.27996 7.1898 160 183 250 
2.14954 1.31344 7.04349 21 17 67 
1.24406 -1.96176 6.57306 80 61 80 
1.88724 -1.71341 7.08555 62 47 70 
-0.536786 -0.398746 4.82432 53 27 38 
1.37537 -0.343265 6.6296 62 44 68 
0.507881 -0.301329 5.67502 60 27 38 
0.273614 -0.116034 5.09123 121 111 109 
1.25167 0.0707389 6.51935 64 42 54 
1.47401 0.257855 6.6801 129 114 133 
1.89686 0.265289 7.0077 139 117 129 
-0.563499 0.472461 4.34738 64 32 43 
1.3691 0.596407 6.56571 70 46 60 
1.5235 0.624755 6.7039 68 53 74 
1.53793 0.638073 6.711 139 129 154 
1.43465 0.65194 6.63436 132 128 151 
1.59312 1.00362 6.74857 117 105 129 
1.25238 1.0106 5.78826 69 46 54 
0.228453 -1.91449 5.07906 147 100 120 
0.0549966 -1.88569 4.99144 66 36 44 
0.703062 -1.77411 5.43125 114 62 74 
0.622915 -1.79738 6.06313 89 66 84 
-2.25581 -2.03104 3.73726 77 55 78 
-2.05192 -2.00426 3.88618 135 116 136 
-1.11084 -1.80809 4.67268 54 35 41 
-1.30392 -1.796 4.49983 70 54 67 
1.64962 -1.55203 6.90148 73 58 79 
1.5325 -1.55443 6.79456 53 40 50 
0.552756 -1.49368 5.43574 114 66 80 
0.563534 -1.49607 5.47145 55 21 22 
-1.95647 -1.72967 3.95217 52 35 45 
-1.36725 -1.56337 4.4474 57 44 54 
-1.99944 -1.56455 3.91839 49 35 50 
-2.23812 -1.57508 3.72963 82 62 74 
-0.0616768 -1.18515 4.89506 148 95 111 
-0.452802 -1.14482 5.75721 50 22 21 
-1.70991 -1.13402 4.13439 61 47 60 
-2.19863 -1.13656 3.74975 77 63 76 
-1.75705 -1.09696 4.07198 122 107 126 
-0.0422786 -0.901418 5.08693 55 25 27 
1.8843 -0.721568 7.02971 75 58 76 
0.0908878 -0.658974 5.17509 50 24 23 
-1.55121 -0.731938 4.26416 120 101 123 
-1.84469 -0.727011 4.00623 131 107 129 
1.23688 -0.597733 6.51771 73 53 65 
-2.17323 -0.735203 3.76668 79 67 91 
0.0286305 -0.601288 5.13322 136 114 103 
-0.556595 -0.624247 4.72366 126 76 87 
0.120185 -0.585627 5.19394 168 153 132 
-0.558043 -0.589383 4.76682 117 70 78 
1.8636 -0.457362 7.02843 142 126 137 
0.11272 -0.486702 5.09 202 191 169 
0.624599 -0.384333 5.76104 60 32 44 
0.671645 -0.261813 5.7832 156 99 116 
0.7106 -0.24595 5.79636 151 97 113 
0.725829 -0.243738 5.82131 93 46 52 
-1.77428 -0.229844 4.04184 116 102 125 
0.251759 -0.110568 5.00318 195 193 198 
0.984122 -0.0505602 6.04998 61 31 39 
1.89046 -0.0357055 7.03364 129 116 142 
-0.014328 -0.0542225 5.03685 143 129 129 
0.254286 -0.0324299 5.03638 68 41 32 
0.120189 -0.0105654 5.03351 26 22 23 
0.2948 0.00183482 5.18663 119 107 127 
1.92099 0.0661792 7.04358 74 56 68 
1.57095 0.225152 6.73868 126 98 112 
0.644241 0.308048 5.51334 73 50 58 
1.67814 0.500031 6.82641 56 37 56 
1.88794 0.606501 6.96786 74 51 61 
1.75912 0.636788 6.89579 122 107 126 
1.48412 0.645063 6.63152 139 121 147 
-0.0580948 0.540682 3.70609 134 90 105 
1.41016 0.763075 6.62022 77 60 78 
2.00237 0.768469 7.07657 68 57 71 
1.39374 0.782266 6.60558 135 133 155 
1.32708 0.866396 6.52772 128 105 125 
1.41597 0.996472 6.60758 121 111 135 
1.69822 1.0134 6.83921 58 50 65 
1.75641 1.01949 6.91482 38 34 49 
1.43789 1.03582 6.62144 74 56 72 
1.43869 0.96274 5.93519 62 42 51 
1.49417 0.880133 4.63846 81 50 68 
2.19995 1.20303 7.09291 13 20 46 
2.17831 1.2371 7.0682 14 19 41 
2.20942 1.30211 7.09001 12 18 32 
2.12963 1.31181 7.02959 142 161 229 
1.10521 1.22681 3.86503 43 34 51 
1.1657 1.22781 3.93049 51 37 98 
0.285543 -1.86316 5.18167 138 84 97 
-1.64511 -1.79821 4.23372 85 61 74 
-2.03398 -1.70399 3.89627 141 129 143 
0.695274 -0.616657 5.74394 126 72 86 
-0.908025 -0.483811 4.23355 81 33 33 
0.235726 -0.0221438 4.95566 41 26 21 
-0.324184 0.297574 4.70963 91 51 60 
0.346927 0.391971 5.0907 91 63 78 
1.47278 0.646365 6.66359 135 117 143 
1.38429 0.990632 6.5882 123 119 142 
1.38448 1.02565 6.59155 63 48 55 
1.86754 1.04219 6.96067 124 102 115 
0.235584 -1.87135 5.1514 125 74 91 
0.146139 -1.86956 5.06648 130 77 95 
0.0326086 -1.86898 4.97831 129 72 89 
-0.119265 -1.83056 4.71821 130 67 78 
1.89135 -1.75777 7.08558 37 31 45 
1.55633 -1.7737 6.81141 48 31 47 
0.441025 -1.39063 5.29394 129 72 89 
0.402852 -1.37147 5.26264 37 22 25 
-1.28734 -1.57293 4.53167 58 45 55 
0.879238 -1.31798 5.74081 67 35 46 
-2.01645 -1.56598 3.91594 49 35 50 
0.439378 -1.28131 5.34684 122 71 88 
-0.0988677 -1.31131 4.98283 39 18 17 
-1.22531 -1.46042 4.54344 85 75 84 
-0.181269 -1.29462 4.84601 116 67 86 
-0.562318 -1.28118 4.61115 55 20 24 
-0.035407 -1.15279 5.07272 74 44 54 
-0.0328191 -0.692824 5.11608 43 22 21 
0.630129 -0.550015 5.79559 46 30 33 
1.2693 -0.495922 6.01264 139 85 99 
-1.51889 -0.572027 4.26893 42 34 47 
0.159749 -0.338587 5.24987 133 112 91 
1.23536 -0.313945 6.50452 132 110 131 
1.29279 -0.27279 6.55099 57 45 57 
1.63453 -0.0712018 6.82447 72 56 69 
0.315558 -0.0227597 5.30067 144 132 132 
1.6902 0.242605 6.83916 61 44 52 
-0.77983 0.283078 4.28541 78 53 57 
0.836149 0.39927 5.49478 66 54 58 
1.88341 0.607343 6.98406 67 44 52 
1.44355 0.944267 6.60557 124 100 122 
1.4029 0.95749 6.58572 67 49 61 
1.7682 1.01424 6.88553 38 34 49 
1.72317 1.03852 6.86542 140 122 146 
2.09446 1.19085 6.99928 17 19 32 
2.09448 1.30057 6.99444 8 15 21 
1.6695 -1.76602 6.91301 50 39 53 
0.646666 -1.34044 5.63131 136 82 96 
-2.04236 -1.48927 3.88963 60 44 57 
0.122261 -0.518294 5.25391 184 174 147 
1.88091 -0.0254963 7.01319 119 101 123 
0.256273 -0.0211628 5.04281 65 42 34 
1.14402 0.0859719 6.01603 135 93 113 
1.41461 0.378604 5.95601 60 47 54 
1.16539 1.22448 3.89481 84 87 154 
0.42666 -1.36029 5.23038 38 23 28 
0.514561 -0.844255 5.68126 84 43 47 
-0.057323 -0.8336 5.05861 49 23 26 
0.126829 -0.698903 5.16562 116 92 68 
0.6313 -0.565214 5.78692 57 30 35 
-2.07461 -0.540106 3.85594 48 39 58 
1.33296 -0.405616 6.58282 68 49 55 
0.154391 -0.368421 5.1356 209 195 169 
0.294199 -0.0745433 5.20127 156 145 143 
1.15523 0.179241 6.01047 145 91 114 
1.15829 0.263603 5.93984 154 97 112 
1.66781 0.613164 6.90974 82 62 71 
1.53335 1.01132 6.69311 144 119 138 
1.14047 -0.292693 6.05801 36 22 22 
0.217697 -0.0247989 5.01657 132 112 85 
0.135278 -0.438122 5.18072 76 45 24 
2.13764 1.26445 7.04113 148 166 238 
-0.121228 -0.80809 5.01108 127 70 79 
0.128851 -0.670089 5.27849 52 23 25 
0.31613 -0.0541058 5.15371 151 136 129 
0.266202 0.0123549 5.06827 52 34 34 
2.06212 1.32463 7.01278 98 85 95 
1.34832 -1.35203 6.64175 78 56 69 
-0.00184714 -1.02831 5.34007 114 69 76 
0.0912819 -0.733713 5.1752 57 25 28 
-1.47373 -0.808674 7.32459 56 25 33 
0.935479 -0.24829 4.14046 49 22 31 
1.43273 0.024521 6.65708 57 44 61 
-1.83339 0.234758 3.85501 25 24 56 
-2.01156 0.240764 3.94618 14 25 70 
-0.754189 0.389621 4.1892 121 81 90 
0.49443 0.464565 5.21877 75 41 57 
1.15929 0.490026 5.75604 71 38 49 
0.531898 -1.26566 5.38079 137 91 104 
-2.14694 -0.599483 3.75721 63 54 73 
0.71191 -1.76906 5.42277 114 62 74 
0.31659 -0.927819 4.95709 50 21 23 
-2.078 -0.538526 3.83361 44 35 56 
0.596382 -0.20915 5.72673 71 37 51 
0.717837 -0.11035 5.82901 37 16 21 
0.248793 0.34362 5.02463 128 144 193 
-0.507239 0.382978 4.38284 66 49 57 
