ply                 
format ascii 1.0    
element vertex 1230
property float x    
property float y    
property float z    
property uchar red  
property uchar green
property uchar blue 
end_header          
-0.624213 0.433734 1.17871 202 203 205 
-0.62424 0.419421 1.18586 186 188 185 
-0.808059 -0.35284 1.48326 238 238 236 
-0.624041 0.385947 1.19207 205 207 204 
-0.621486 0.406286 1.19151 200 202 201 
-0.610602 0.431158 1.18027 245 247 246 
-0.611645 0.40582 1.19065 204 206 205 
-0.605385 0.423105 1.18446 205 205 207 
-0.608232 0.415446 1.19127 197 199 196 
-0.6036 0.161511 1.16952 134 134 134 
-0.596872 0.155488 1.15728 137 135 136 
-0.588492 0.203947 1.14665 127 126 122 
-0.59626 0.435167 1.17666 201 199 200 
-0.602621 0.132548 1.17805 143 143 141 
-0.596061 0.405605 1.19048 203 205 202 
-0.595385 0.153496 1.17426 222 216 216 
-0.578105 0.20789 1.14458 101 99 87 
-0.593645 0.137294 1.17344 221 213 211 
-0.583022 0.169689 1.16012 146 145 143 
-0.602416 0.0608129 1.19924 148 157 156 
-0.610122 0.044415 1.21522 133 138 134 
-0.575531 0.178639 1.15718 230 231 223 
-0.597845 0.11997 1.20036 188 199 165 
-0.578987 0.151103 1.16553 210 202 199 
-0.60317 0.0563642 1.20975 210 214 215 
-0.607714 0.0123962 1.21699 202 201 197 
-0.564408 0.208189 1.14413 136 136 134 
-0.583557 0.136756 1.17861 209 199 190 
-0.579624 0.127451 1.17292 190 199 170 
-0.571581 0.42842 1.17637 199 201 200 
-0.600599 0.0328099 1.21239 209 215 213 
-0.60109 0.0208448 1.21579 194 189 185 
-0.564762 0.172814 1.1686 86 86 84 
-0.561425 0.423881 1.17819 200 202 199 
-0.586406 0.0280941 1.21414 124 125 120 
-0.586816 0.0166481 1.21762 142 141 139 
-0.550663 0.418574 1.1792 210 212 209 
-0.544307 0.0436847 1.14712 231 236 204 
-0.624023 -0.221606 1.29859 246 241 238 
-0.523067 0.270508 1.11754 223 222 202 
-0.611098 -0.147203 1.27722 52 56 57 
-0.613043 -0.173323 1.28654 42 47 43 
-0.625007 -0.232936 1.31067 88 87 85 
-0.628587 -0.237487 1.31898 79 84 77 
-0.611795 -0.155979 1.28926 167 147 114 
-0.61597 -0.214184 1.30242 36 40 39 
-0.627995 -0.255972 1.32907 131 164 147 
-0.563001 0.0165206 1.2134 100 96 32 
-0.615227 -0.224739 1.31092 133 116 109 
-0.60139 -0.155849 1.28675 211 187 163 
-0.597959 -0.147415 1.28105 151 145 145 
-0.601265 -0.182075 1.2864 167 147 120 
-0.593544 -0.131378 1.27551 35 35 33 
-0.609561 -0.205349 1.30965 172 147 117 
-0.600804 -0.172759 1.2928 141 135 135 
-0.614345 -0.246295 1.31861 14 35 28 
-0.53558 0.389167 1.19154 207 207 205 
-0.503909 0.275759 1.11724 222 224 202 
-0.603738 -0.219559 1.30901 178 163 156 
-0.606462 -0.23477 1.31596 174 197 191 
-0.597918 -0.209095 1.30247 40 33 27 
-0.586562 -0.136268 1.28484 89 68 41 
-0.591322 -0.217701 1.29283 34 33 28 
-0.605253 -0.253526 1.32132 164 192 178 
-0.494867 0.280748 1.11298 218 219 211 
-0.590562 -0.16707 1.29784 76 58 46 
-0.53843 0.0770649 1.1977 185 180 112 
-0.521475 0.399466 1.18096 207 209 206 
-0.517555 0.0726626 1.1619 126 128 115 
-0.56096 0.0206458 1.25752 85 105 33 
-0.598391 -0.262439 1.32424 71 87 76 
-0.583506 -0.135742 1.29939 30 28 7 
-0.590315 -0.20984 1.31154 53 52 50 
-0.485788 0.285174 1.11291 108 85 111 
-0.576778 -0.171227 1.29591 73 60 51 
-0.55744 0.0284951 1.26565 29 20 0 
-0.477838 0.315101 1.10968 220 199 218 
-0.548603 0.018247 1.25508 84 93 30 
-0.534089 0.0953896 1.22712 162 171 152 
-0.55083 0.0389129 1.26336 38 37 7 
-0.529051 0.0921572 1.21819 112 113 95 
-0.540649 0.0215904 1.24271 212 204 155 
-0.580016 -0.15516 1.32257 121 94 51 
-0.582462 -0.198167 1.32672 60 51 44 
-0.536206 0.00343379 1.23561 230 226 201 
-0.50184 0.406395 1.18402 199 199 197 
-0.465202 0.315397 1.0988 221 206 229 
-0.49658 0.423064 1.17923 246 248 245 
-0.582292 -0.198295 1.34351 17 35 23 
-0.574103 -0.1653 1.33846 100 62 59 
-0.520959 0.0977751 1.23353 148 151 140 
-0.604035 -0.4816 1.40908 37 44 37 
-0.56648 -0.183413 1.34369 117 100 74 
-0.477451 0.425757 1.16846 202 204 201 
-0.526004 0.0340188 1.26353 58 106 58 
-0.453948 0.301629 1.10909 198 228 236 
-0.518729 -0.0298592 1.24907 158 56 7 
-0.516441 0.0438491 1.25587 212 216 202 
-0.468244 0.278613 1.15553 53 89 115 
-0.475709 0.408728 1.18219 206 208 205 
-0.471913 0.417111 1.17817 197 199 196 
-0.507176 -0.0146564 1.24027 230 198 15 
-0.500094 0.103859 1.23063 74 84 60 
-0.49655 0.0683504 1.22112 110 155 114 
-0.503745 -0.00167812 1.23575 224 208 110 
-0.51309 0.0237092 1.26179 88 164 99 
-0.512364 0.0352897 1.26288 238 239 233 
-0.440544 0.298816 1.10741 98 137 180 
-0.473713 0.372954 1.19721 215 215 213 
-0.543749 -0.152498 1.33936 141 141 87 
-0.494935 0.0755139 1.23686 113 136 110 
-0.497182 0.106385 1.24908 79 84 52 
-0.496234 0.045403 1.24367 105 134 106 
-0.488986 0.0623571 1.22674 243 255 239 
-0.572055 -0.337972 1.41301 35 50 45 
-0.537501 -0.187002 1.33775 120 128 105 
-0.462834 0.382838 1.18554 219 219 217 
-0.483242 0.0647095 1.21868 117 159 121 
-0.489697 0.0423574 1.23457 213 233 208 
-0.49547 0.0581737 1.25018 195 203 188 
-0.499875 0.0260141 1.26328 75 132 77 
-0.485993 0.077234 1.23259 189 208 188 
-0.497404 0.125113 1.26597 58 84 47 
-0.491089 -0.0158198 1.2428 61 49 35 
-0.535479 -0.195185 1.34675 223 220 151 
-0.488816 0.12734 1.25473 170 190 162 
-0.461718 -0.298556 1.16099 127 131 132 
-0.457958 0.384026 1.19456 201 201 199 
-0.492112 0.0557095 1.263 133 164 132 
-0.462486 0.260381 1.20088 61 62 56 
-0.420415 0.305561 1.10029 96 111 144 
-0.522214 -0.222561 1.33192 166 197 119 
-0.483221 0.137805 1.25949 179 207 166 
-0.479081 0.0181666 1.24169 66 113 61 
-0.449941 0.275274 1.18358 59 93 130 
-0.521248 -0.239627 1.34195 164 165 27 
-0.469122 0.115155 1.23163 73 94 53 
-0.468029 0.0690707 1.22791 136 201 145 
-0.456653 -0.340074 1.17399 96 97 101 
-0.440748 0.393705 1.17944 200 200 198 
-0.484508 0.0252363 1.27262 136 164 126 
-0.410632 0.306684 1.10069 100 114 140 
-0.471109 0.146327 1.25594 115 142 99 
-0.471242 -0.0239735 1.24562 44 140 103 
-0.442956 0.273297 1.1903 56 103 131 
-0.467333 0.04386 1.24062 170 200 164 
-0.51346 -0.251108 1.34481 22 32 5 
-0.435716 0.407502 1.18069 205 205 203 
-0.46876 0.0546706 1.24652 116 149 118 
-0.468679 0.0361136 1.24706 98 152 102 
-0.510867 -0.23263 1.34236 239 222 12 
-0.469636 0.111634 1.25869 68 87 59 
-0.460264 0.0748244 1.23379 109 165 116 
-0.496503 -0.196605 1.31813 236 238 217 
-0.415409 0.295682 1.133 96 136 172 
-0.458493 0.093787 1.23699 104 180 118 
-0.460627 0.0879676 1.24512 206 239 208 
-0.467215 0.0556558 1.26215 185 218 189 
-0.428741 0.400463 1.18247 206 206 204 
-0.452452 0.0741079 1.22565 186 212 185 
-0.400242 0.310125 1.1002 153 173 197 
-0.463749 0.121156 1.26481 194 220 195 
-0.434858 0.271917 1.19672 45 125 176 
-0.451411 0.0822638 1.23247 226 243 224 
-0.433458 0.161464 1.19515 124 172 134 
-0.398909 0.303605 1.11139 46 104 141 
-0.441337 0.150167 1.21842 252 255 250 
-0.451479 0.0717471 1.24239 179 233 184 
-0.487154 -0.203477 1.32412 27 123 161 
-0.483262 -0.183286 1.31493 244 234 48 
-0.453596 0.0575686 1.25217 146 174 149 
-0.418498 0.282193 1.17168 97 161 171 
-0.490595 -0.235636 1.33787 52 56 55 
-0.422715 0.387649 1.19173 200 200 198 
-0.479724 -0.16239 1.31934 231 233 232 
-0.473098 -0.132249 1.30176 211 238 221 
-0.445794 0.0904178 1.24048 99 153 104 
-0.414994 0.40575 1.17574 254 254 252 
-0.465481 -0.0852863 1.28616 32 149 105 
-0.479006 -0.197995 1.31867 46 108 129 
-0.401631 0.296247 1.13544 104 138 175 
-0.468957 -0.122503 1.29678 203 221 207 
-0.450365 0.0386357 1.25683 167 213 166 
-0.439246 0.106909 1.23208 207 234 201 
-0.481848 -0.221077 1.33344 112 192 215 
-0.472533 -0.17855 1.31255 192 181 0 
-0.478725 -0.208749 1.32823 95 198 231 
-0.439039 0.0975912 1.23751 196 242 205 
-0.475771 -0.184077 1.32396 188 180 0 
-0.48139 -0.231291 1.33922 66 121 142 
-0.429647 0.165556 1.21967 78 112 88 
-0.420331 0.185753 1.19487 219 229 218 
-0.422678 0.265522 1.2077 76 154 192 
-0.422975 0.143546 1.20229 249 251 240 
-0.428503 0.101655 1.21972 175 205 171 
-0.4416 0.0604689 1.25523 164 199 167 
-0.44373 0.06979 1.26235 74 136 87 
-0.471586 -0.20152 1.32539 56 105 122 
-0.462524 -0.143558 1.30349 217 32 63 
-0.437844 0.0751717 1.24875 89 167 105 
-0.463674 -0.162042 1.31306 217 32 63 
-0.469963 -0.214992 1.32963 115 205 232 
-0.462336 -0.17742 1.31454 177 170 0 
-0.424701 0.157699 1.22904 218 233 214 
-0.440673 0.0359151 1.26728 63 137 74 
-0.4715 -0.232901 1.34 55 64 63 
-0.469257 -0.223686 1.33499 119 201 225 
-0.41545 0.118588 1.20336 205 206 192 
-0.455113 -0.116629 1.30473 230 231 233 
-0.429521 0.0635206 1.24201 233 240 233 
-0.370558 0.317346 1.08933 152 161 200 
-0.379676 0.300042 1.116 93 135 185 
-0.453027 -0.145642 1.30091 251 205 215 
-0.423407 0.181634 1.23648 223 226 209 
-0.413912 0.195224 1.21244 116 150 126 
-0.462069 -0.207326 1.32894 36 97 126 
-0.454006 -0.158585 1.31251 238 225 234 
-0.440158 -0.263958 1.26582 100 147 113 
-0.431113 0.0441613 1.25936 140 218 156 
-0.467363 -0.244928 1.3475 208 189 113 
-0.389198 0.425432 1.16492 250 250 248 
-0.405994 0.152773 1.19921 155 161 147 
-0.453087 -0.181243 1.31745 184 175 0 
-0.461351 -0.232533 1.33954 195 197 194 
-0.376809 0.1744 1.1241 155 153 138 
-0.36145 0.325296 1.08951 175 199 245 
-0.453682 -0.214722 1.33137 95 206 236 
-0.421823 0.0226494 1.25506 149 179 145 
-0.410196 0.0991031 1.22442 240 251 235 
-0.405843 0.129182 1.21507 151 175 149 
-0.397332 0.153671 1.19388 232 238 228 
-0.398499 0.140037 1.19614 218 221 214 
-0.439303 -0.1387 1.3017 217 33 59 
-0.385762 0.404073 1.17852 249 249 247 
-0.451932 -0.227987 1.33653 56 95 112 
-0.399848 -0.327487 1.17364 15 16 18 
-0.451489 -0.239025 1.339 204 182 80 
-0.44314 -0.180069 1.3173 179 166 0 
-0.431186 -0.259957 1.27719 76 120 84 
-0.39858 0.122014 1.20374 225 227 214 
-0.444249 -0.195126 1.32151 216 47 86 
-0.412088 0.187595 1.25637 193 194 186 
-0.432804 -0.256463 1.29269 171 171 163 
-0.41805 0.0497218 1.26988 224 235 227 
-0.440645 -0.251322 1.31956 135 129 113 
-0.410898 0.0750375 1.25099 162 197 164 
-0.423377 -0.260705 1.26759 77 132 93 
-0.434426 -0.151026 1.31047 170 139 147 
-0.442109 -0.225858 1.33319 86 38 52 
-0.434265 -0.162234 1.31346 218 27 60 
-0.37782 0.411002 1.17972 250 250 248 
-0.41182 0.0502468 1.26046 225 233 222 
-0.387969 0.162205 1.19561 160 166 156 
-0.390487 -0.323928 1.17228 36 37 41 
-0.4434 -0.23272 1.34251 207 213 213 
-0.44126 -0.248717 1.33772 132 122 97 
-0.394986 0.0990513 1.21804 214 218 203 
-0.403888 0.019035 1.24019 92 117 60 
-0.384194 0.150243 1.19015 135 146 138 
-0.375338 0.395303 1.18209 192 192 190 
-0.426676 -0.142718 1.30624 250 201 205 
-0.419989 -0.259429 1.27956 105 112 79 
-0.42255 -0.255119 1.28975 155 157 133 
-0.428986 -0.173521 1.31595 172 157 0 
-0.433817 -0.199343 1.32913 215 89 113 
-0.407673 0.0413805 1.26589 129 176 130 
-0.415898 -0.0830802 1.28474 230 231 233 
-0.391408 0.212021 1.23008 234 238 237 
-0.393972 0.184539 1.23791 110 163 117 
-0.430004 -0.250278 1.32225 123 113 111 
-0.387498 0.0852355 1.2128 225 227 216 
-0.391373 0.0835841 1.22611 163 167 153 
-0.384517 0.112125 1.20726 205 209 195 
-0.406785 0.0327228 1.2741 187 195 174 
-0.400691 0.051925 1.25924 201 210 191 
-0.421525 -0.155211 1.31087 255 208 211 
-0.38502 0.101602 1.21417 167 168 160 
-0.431627 -0.229671 1.34238 60 64 63 
-0.4028 0.0491955 1.27003 115 161 115 
-0.388656 0.202552 1.23577 161 166 162 
-0.393582 0.0170298 1.23901 58 103 46 
-0.404485 -0.0346725 1.26994 231 232 234 
-0.426715 -0.206599 1.33102 112 15 35 
-0.33792 0.314231 1.0854 140 167 210 
-0.427887 -0.245717 1.33674 180 169 139 
-0.392409 0.222701 1.25816 119 123 122 
-0.413509 -0.135452 1.30476 213 30 60 
-0.392055 0.00584347 1.24748 134 152 70 
-0.367395 0.0854991 1.17529 122 127 123 
-0.424726 -0.222189 1.33932 122 5 32 
-0.415259 -0.253332 1.30759 98 83 76 
-0.420582 -0.198784 1.32928 175 72 93 
-0.415791 -0.171603 1.31705 182 161 0 
-0.389621 0.0375832 1.24899 99 95 22 
-0.376717 0.257204 1.22251 72 152 211 
-0.36192 0.388486 1.18309 188 187 183 
-0.392498 -0.0169111 1.25735 69 114 47 
-0.383317 0.218793 1.24369 27 36 31 
-0.41653 -0.249564 1.32008 106 93 84 
-0.367476 0.0939507 1.18653 32 32 34 
-0.385292 0.0546212 1.24268 107 106 88 
-0.352888 0.423789 1.16983 252 252 252 
-0.41967 -0.231888 1.3448 79 84 78 
-0.380697 0.210191 1.24834 191 191 193 
-0.391843 0.0389159 1.27255 111 105 43 
-0.416115 -0.205348 1.33648 179 65 88 
-0.407816 -0.158912 1.31507 211 22 54 
-0.387268 -0.0311717 1.25739 187 177 108 
-0.404551 -0.141027 1.30911 207 39 65 
-0.414561 -0.224729 1.33751 220 209 213 
-0.410341 -0.196065 1.32809 221 40 83 
-0.327068 0.325612 1.08897 89 88 120 
-0.371563 0.0309722 1.22057 23 24 10 
-0.352951 0.401546 1.18659 188 188 186 
-0.398402 -0.258001 1.29381 80 64 41 
-0.36799 0.0420565 1.2147 33 31 32 
-0.347199 0.401704 1.17727 197 197 195 
-0.360107 -0.309763 1.17194 51 53 52 
-0.344074 0.414555 1.17003 200 202 199 
-0.408827 -0.230596 1.34731 21 21 11 
-0.369265 0.014187 1.23073 193 198 201 
-0.396573 -0.153009 1.31505 253 218 212 
-0.357032 0.260998 1.21059 76 161 216 
-0.370242 -0.000624295 1.23979 55 58 49 
-0.346135 0.3917 1.18582 233 232 228 
-0.398805 -0.25442 1.32208 95 80 57 
-0.394339 -0.25727 1.31013 126 115 95 
-0.40102 -0.248288 1.33766 126 112 86 
-0.360524 0.0361183 1.21853 166 142 142 
-0.386776 -0.121869 1.30165 75 154 99 
-0.356652 0.0523789 1.21095 156 124 163 
-0.359524 0.202572 1.23241 224 239 232 
-0.352156 0.0753319 1.19947 162 112 165 
-0.391516 -0.1787 1.31816 233 215 11 
-0.339086 0.40705 1.18034 241 241 239 
-0.333631 0.427144 1.16519 251 251 251 
-0.377051 -0.294919 1.26905 20 24 25 
-0.382722 -0.269928 1.29045 105 101 90 
-0.361824 -0.00956519 1.23699 175 179 182 
-0.34331 0.173011 1.18767 228 231 222 
-0.356077 0.045833 1.22371 147 109 150 
-0.359473 0.0138866 1.23355 189 190 192 
-0.33392 0.398597 1.17144 212 212 210 
-0.360439 0.00201255 1.241 175 161 158 
-0.352558 -0.330198 1.1923 14 19 15 
-0.353733 0.0246581 1.22601 37 38 40 
-0.349504 0.0402818 1.2143 151 129 150 
-0.391581 -0.220515 1.34765 223 200 10 
-0.380395 -0.157252 1.31427 153 104 46 
-0.330748 0.387704 1.17815 228 227 223 
-0.392441 -0.23784 1.35407 186 172 145 
-0.359204 0.00407501 1.2544 42 23 43 
-0.36715 -0.295577 1.26534 87 83 80 
-0.342954 0.0740928 1.20525 29 9 44 
-0.380816 -0.266801 1.31595 48 48 40 
-0.327139 0.412484 1.1736 201 201 199 
-0.343741 0.0650256 1.21229 109 69 121 
-0.367526 -0.290656 1.2745 37 32 28 
-0.371642 -0.283897 1.29048 42 39 34 
-0.36204 -0.049624 1.27767 206 206 204 
-0.341687 0.245281 1.23017 41 146 201 
-0.301515 0.301477 1.09478 75 117 159 
-0.379035 -0.120102 1.35093 69 73 72 
-0.353633 -0.0148447 1.26798 134 76 137 
-0.328155 0.186216 1.1912 201 202 197 
-0.365858 -0.131028 1.31808 87 82 79 
-0.316131 0.406519 1.17478 201 201 199 
-0.374507 -0.26882 1.34258 40 36 33 
-0.315688 0.391596 1.18216 239 238 234 
-0.349724 -0.0482174 1.28063 22 22 22 
-0.323804 0.101242 1.19429 6 10 19 
-0.351363 -0.0599656 1.28674 168 119 166 
-0.33146 0.0566365 1.22093 43 23 58 
-0.310483 0.417232 1.17372 200 200 200 
-0.286672 0.307853 1.07737 162 212 237 
-0.328322 0.229181 1.23548 152 208 223 
-0.342467 -0.0275967 1.27704 172 113 161 
-0.354315 -0.122504 1.32152 164 104 164 
-0.310126 0.140751 1.17162 68 60 81 
-0.312569 0.26978 1.1924 63 152 212 
-0.30541 0.40688 1.17653 247 247 245 
-0.333813 -0.0116254 1.25996 173 56 109 
-0.352296 -0.150328 1.32549 39 33 37 
-0.30037 0.401831 1.16867 246 246 244 
-0.304224 0.385571 1.18293 174 173 169 
-0.315416 0.0761691 1.20832 45 33 69 
-0.295453 0.422898 1.15676 253 253 253 
-0.306915 0.258811 1.20768 74 175 227 
-0.324979 -0.0238729 1.25992 40 35 55 
-0.344693 -0.157394 1.32895 154 118 144 
-0.379293 -0.316356 1.45805 14 18 21 
-0.321889 0.00208538 1.25249 175 18 85 
-0.296831 0.0490127 1.15806 24 20 35 
-0.369399 -0.241845 1.42825 32 41 36 
-0.293594 0.389249 1.17553 244 243 239 
-0.306258 0.255793 1.21802 75 179 234 
-0.293269 0.413492 1.17793 249 249 247 
-0.323881 -0.0142037 1.27224 168 11 78 
-0.339296 -0.132653 1.32627 126 90 136 
-0.377527 -0.362422 1.46545 117 138 123 
-0.340779 -0.134011 1.33783 34 12 50 
-0.328121 -0.080639 1.30227 168 109 165 
-0.322683 -0.0406085 1.28746 115 90 122 
-0.286469 0.0955732 1.14921 1 13 29 
-0.323257 -0.0680194 1.29686 160 132 154 
-0.290787 0.26973 1.1898 42 106 150 
-0.27936 0.0967826 1.13924 90 97 105 
-0.282858 0.27661 1.17059 123 165 215 
-0.321716 -0.110828 1.30515 57 52 75 
-0.260435 0.321078 1.08199 94 81 125 
-0.281193 0.409424 1.17665 253 253 251 
-0.282702 0.0665494 1.15775 14 15 19 
-0.291112 0.258621 1.20746 91 162 208 
-0.296724 0.0831803 1.21911 107 108 112 
-0.338268 -0.210506 1.37547 77 92 89 
-0.363419 -0.376536 1.4683 88 105 86 
-0.280807 0.0569064 1.15469 16 17 19 
-0.325525 -0.149916 1.33045 59 41 67 
-0.326831 -0.164923 1.34162 166 128 167 
-0.327939 -0.176982 1.35094 139 112 143 
-0.355509 -0.347015 1.45893 108 126 114 
-0.333884 -0.201939 1.37865 144 162 166 
-0.354894 -0.362044 1.46329 122 139 123 
-0.273397 0.104044 1.15091 173 171 176 
-0.280514 0.035442 1.17925 34 35 39 
-0.283288 0.228978 1.20809 228 221 211 
-0.272627 0.395907 1.17476 241 240 238 
-0.268567 0.412184 1.15869 201 202 197 
-0.273497 0.27452 1.1764 22 110 160 
-0.348197 -0.354405 1.45813 82 90 77 
-0.288424 -0.0401925 1.22339 28 29 33 
-0.34681 -0.31899 1.4621 66 68 65 
-0.271521 0.392465 1.18548 184 183 181 
-0.3196 -0.186234 1.35385 26 27 31 
-0.274818 0.262778 1.19486 4 103 162 
-0.28242 -0.00576094 1.21113 69 70 74 
-0.273466 0.14582 1.18442 15 14 20 
-0.2654 0.409019 1.17015 245 245 243 
-0.342931 -0.369992 1.45801 117 139 126 
-0.26293 0.274944 1.17369 66 148 208 
-0.261214 0.239393 1.17084 174 195 212 
-0.260265 0.393031 1.17862 236 235 233 
-0.242788 0.295467 1.09303 96 120 190 
-0.27469 -0.0263631 1.22026 85 86 90 
-0.25835 0.104848 1.15606 112 109 154 
-0.270289 -0.00383675 1.21507 97 97 99 
-0.235689 0.31979 1.08131 78 84 134 
-0.26077 0.260487 1.20064 76 143 196 
-0.249373 0.410034 1.16466 252 252 250 
-0.327084 -0.512633 1.46136 79 79 79 
-0.267665 -0.0124023 1.22319 33 34 38 
-0.270247 -0.0479186 1.23151 27 28 32 
-0.26386 0.00743137 1.20759 82 83 85 
-0.252464 0.249984 1.1729 133 165 188 
-0.251721 0.383426 1.18671 169 168 164 
-0.253196 0.162373 1.18219 6 0 42 
-0.252786 0.152261 1.18841 3 0 32 
-0.285567 -0.256733 1.31766 147 148 150 
-0.245182 0.391472 1.17474 205 204 202 
-0.241195 0.408958 1.15697 255 255 253 
-0.240809 0.42189 1.16208 255 255 255 
-0.252562 0.132032 1.20402 0 0 32 
-0.286615 -0.344899 1.3391 35 34 39 
-0.252131 0.117455 1.21379 5 3 27 
-0.24619 0.160889 1.18946 110 100 152 
-0.24326 0.172944 1.17815 4 0 39 
-0.242594 0.269401 1.18249 74 129 183 
-0.257962 -0.0646532 1.23397 34 38 39 
-0.251343 0.00741836 1.21175 206 209 214 
-0.22838 0.288858 1.12048 111 138 183 
-0.23729 0.387243 1.17926 230 229 225 
-0.239342 0.373562 1.18992 203 194 185 
-0.221395 0.29516 1.09635 118 133 192 
-0.232884 0.399969 1.16567 200 199 197 
-0.243566 0.148234 1.2001 8 5 36 
-0.244071 0.138051 1.20205 114 109 141 
-0.212399 0.30908 1.0627 96 86 136 
-0.230371 0.263467 1.15741 49 115 137 
-0.242223 0.130544 1.2085 0 0 23 
-0.2297 0.249715 1.15672 146 181 185 
-0.232808 0.271152 1.17762 40 114 141 
-0.220173 0.288778 1.11436 112 140 187 
-0.241825 0.121257 1.2143 4 0 25 
-0.22714 0.412595 1.16289 202 204 201 
-0.212106 0.317052 1.07832 134 204 214 
-0.228106 0.38826 1.17014 239 238 236 
-0.230224 0.377862 1.18108 216 213 206 
-0.212688 0.29794 1.0878 130 157 200 
-0.223826 0.277908 1.16011 106 172 196 
-0.223614 0.375575 1.17259 211 208 203 
-0.216986 0.286721 1.13401 80 83 134 
-0.220641 0.26899 1.16294 183 221 224 
-0.208881 0.293199 1.10232 95 167 166 
-0.201279 0.314622 1.0727 101 183 197 
-0.203998 0.29991 1.09279 107 178 184 
-0.218512 0.387439 1.1812 232 231 229 
-0.22809 0.018865 1.20843 242 241 246 
-0.255873 -0.316278 1.33501 186 189 194 
-0.232442 -0.0386829 1.22978 89 90 92 
-0.222163 0.149065 1.2033 14 7 51 
-0.212034 0.273841 1.15798 202 231 235 
-0.214797 0.267685 1.17528 196 209 215 
-0.249696 -0.300624 1.33124 39 40 44 
-0.209525 0.41953 1.16765 198 198 196 
-0.209392 0.258448 1.16705 120 133 141 
-0.194502 0.299236 1.08812 39 125 184 
-0.245081 -0.290819 1.33381 22 27 30 
-0.246009 -0.307289 1.34006 180 183 188 
-0.204006 0.278962 1.15534 60 129 158 
-0.211194 0.172909 1.18895 155 146 177 
-0.189676 0.319827 1.07887 74 66 107 
-0.206083 0.38163 1.18389 182 181 177 
-0.20392 0.267488 1.16161 78 100 114 
-0.204135 0.372245 1.17768 214 211 202 
-0.240562 -0.321488 1.3377 183 193 202 
-0.203548 0.250186 1.16871 129 140 146 
-0.198094 0.281426 1.14379 69 153 199 
-0.23971 -0.312753 1.3457 181 185 186 
-0.237058 -0.302477 1.33453 39 45 43 
-0.200391 0.206649 1.16646 177 165 187 
-0.236228 -0.3385 1.33695 38 43 46 
-0.195306 0.426179 1.1635 254 254 254 
-0.204633 0.227169 1.20779 155 170 173 
-0.2002 0.240301 1.18277 95 118 132 
-0.189983 0.285149 1.12677 71 133 190 
-0.195042 0.389674 1.16728 248 247 245 
-0.194435 0.261506 1.16502 70 91 108 
-0.193943 0.375636 1.17745 223 220 211 
-0.196942 0.214831 1.18442 65 76 82 
-0.180349 0.294194 1.09232 89 114 181 
-0.177045 0.314803 1.075 123 118 182 
-0.226313 -0.293889 1.33448 27 36 31 
-0.195053 0.232709 1.18818 103 120 127 
-0.188323 0.27428 1.15177 218 228 240 
-0.198288 0.14464 1.20871 63 69 83 
-0.188891 0.411346 1.17812 246 246 244 
-0.225536 -0.320572 1.34983 33 42 41 
-0.185105 0.417434 1.16091 254 254 252 
-0.239669 -0.571088 1.4223 179 184 187 
-0.177625 0.289544 1.10246 111 155 202 
-0.186485 0.401815 1.17184 242 242 240 
-0.18942 0.165069 1.17889 149 157 178 
-0.184233 0.38668 1.16732 242 241 237 
-0.180774 0.279985 1.13581 177 223 221 
-0.184755 0.234194 1.16269 96 110 121 
-0.170965 0.30792 1.08085 115 125 194 
-0.18921 0.166201 1.19081 87 85 106 
-0.189413 0.156 1.19623 72 71 89 
-0.231555 -0.566499 1.41708 183 185 197 
-0.217851 -0.327215 1.35378 186 189 196 
-0.178747 0.406539 1.1677 204 204 202 
-0.179245 0.392268 1.17544 235 234 232 
-0.185644 0.118607 1.19338 73 71 72 
-0.172869 0.282008 1.12947 182 200 222 
-0.204978 -0.1756 1.30643 66 67 71 
-0.173607 0.261875 1.13488 174 200 213 
-0.163907 0.299367 1.0822 99 127 200 
-0.184741 0.118217 1.21127 145 139 141 
-0.178017 0.381773 1.19488 178 174 171 
-0.207091 -0.295262 1.33805 188 192 191 
-0.206192 -0.311343 1.34528 33 34 38 
-0.178691 0.130517 1.19575 195 191 190 
-0.169269 0.428055 1.1613 201 202 197 
-0.172144 0.381468 1.18042 224 221 214 
-0.177295 0.119006 1.20053 59 59 61 
-0.1708 0.212608 1.16479 162 167 173 
-0.163156 0.280141 1.11902 136 163 184 
-0.219503 -0.422313 1.47419 46 46 54 
-0.1653 0.230961 1.14834 121 134 142 
-0.169604 0.164831 1.17931 237 235 236 
-0.170992 0.127156 1.18458 218 200 186 
-0.16397 0.40732 1.16306 251 253 250 
-0.170855 0.136759 1.18951 242 231 229 
-0.153614 0.302429 1.08423 109 113 174 
-0.16563 0.214728 1.17467 108 116 127 
-0.209606 -0.583825 1.42861 203 207 219 
-0.152301 0.292202 1.08733 112 155 208 
-0.168629 0.119856 1.19556 178 162 149 
-0.163363 0.374237 1.18506 208 205 196 
-0.163659 0.174313 1.17472 227 216 220 
-0.164566 0.152446 1.18321 243 230 214 
-0.155133 0.251079 1.14087 138 168 168 
-0.160821 0.113727 1.18082 101 89 73 
-0.199217 -0.567773 1.41528 156 136 125 
-0.147496 0.285732 1.11269 99 139 188 
-0.159375 0.140767 1.19478 235 216 201 
-0.149608 0.269018 1.1337 121 144 158 
-0.153893 0.205302 1.16496 220 209 207 
-0.156851 0.123271 1.18381 231 217 208 
-0.153377 0.179744 1.17713 237 221 208 
-0.149524 0.243314 1.1555 122 142 143 
-0.149361 0.383066 1.17872 231 227 224 
-0.143477 0.282459 1.12672 98 136 181 
-0.146389 0.224715 1.14919 226 226 226 
-0.150081 0.161981 1.17752 187 162 140 
-0.144517 0.257754 1.14327 83 106 114 
-0.136445 0.297996 1.08105 126 116 176 
-0.147891 0.16805 1.16547 248 222 209 
-0.150948 0.115919 1.18986 62 46 30 
-0.143632 0.392273 1.16165 248 247 242 
-0.148186 0.127289 1.18727 161 147 134 
-0.144889 0.184604 1.16611 201 183 161 
-0.143115 0.204176 1.16609 203 189 176 
-0.137796 0.408818 1.15955 253 253 251 
-0.139575 0.385699 1.17284 255 254 250 
-0.13607 0.277848 1.13403 209 224 231 
-0.142672 0.116319 1.18333 169 160 155 
-0.138994 0.158889 1.17093 243 230 221 
-0.13636 0.19028 1.15811 240 226 215 
-0.138842 0.135134 1.17533 241 228 220 
-0.134213 0.377139 1.17106 232 232 222 
-0.13549 0.17202 1.16452 248 233 226 
-0.133425 0.196575 1.14998 239 228 222 
-0.135783 0.125218 1.18057 162 137 107 
-0.129907 0.263181 1.14296 85 95 105 
-0.134127 0.148597 1.17921 116 99 79 
-0.131065 0.162658 1.15842 255 238 220 
-0.120245 0.31619 1.0743 74 62 100 
-0.169925 -0.425093 1.47599 38 43 47 
-0.128712 0.213605 1.14951 189 176 168 
-0.129647 0.203778 1.15767 148 129 115 
-0.127404 0.241679 1.14328 170 140 114 
-0.130159 0.181211 1.16494 194 175 161 
-0.126131 0.273992 1.14569 197 206 215 
-0.124201 0.277569 1.13616 23 50 80 
-0.130646 0.121281 1.19114 187 163 139 
-0.12747 0.157832 1.17325 181 157 131 
-0.126845 0.155048 1.18489 91 70 53 
-0.125103 0.143746 1.16904 187 158 126 
-0.126506 0.129729 1.18034 165 151 140 
-0.121663 0.2253 1.14596 100 81 75 
-0.122099 0.200909 1.15072 136 118 108 
-0.125537 0.114798 1.18374 46 37 32 
-0.123384 0.169892 1.16861 186 164 143 
-0.118792 0.266211 1.13924 111 107 108 
-0.120045 0.188709 1.14965 225 208 201 
-0.120237 0.210611 1.15971 98 84 73 
-0.117813 0.23749 1.13806 239 221 209 
-0.120261 0.18634 1.16062 208 190 178 
-0.117053 0.252331 1.14183 133 105 81 
-0.111175 0.290282 1.08546 116 133 187 
-0.119271 0.371239 1.18285 168 160 149 
-0.118856 0.195595 1.16473 133 112 91 
-0.121506 0.127885 1.19028 87 74 65 
-0.120421 0.145005 1.18377 107 80 53 
-0.121658 0.0743075 1.21669 30 34 37 
-0.117068 0.157078 1.17917 111 87 63 
-0.10586 0.296991 1.07866 90 119 189 
-0.104912 0.313503 1.06956 124 105 161 
-0.112228 0.229425 1.1484 119 100 86 
-0.112111 0.204615 1.15845 184 158 133 
-0.113037 0.172063 1.1683 118 92 65 
-0.11101 0.212371 1.15099 121 100 81 
-0.110945 0.190883 1.15827 110 88 64 
-0.10815 0.234265 1.1378 236 222 213 
-0.112536 0.123416 1.18915 162 142 118 
-0.108314 0.369952 1.17215 219 215 204 
-0.106906 0.272768 1.14863 21 40 57 
-0.106686 0.253372 1.14779 149 130 116 
-0.110115 0.141504 1.17988 121 97 73 
-0.108194 0.182418 1.16269 195 169 142 
-0.110774 0.133875 1.18889 115 87 66 
-0.105748 0.221227 1.14554 141 128 111 
-0.108745 0.152489 1.18206 144 126 102 
-0.10378 0.251726 1.13765 87 68 51 
-0.104131 0.240646 1.14661 218 201 185 
-0.101915 0.279294 1.13309 97 157 191 
-0.0969847 0.309315 1.07698 119 107 179 
-0.105226 0.160696 1.17573 180 153 124 
-0.102614 0.206306 1.15159 177 155 132 
-0.105361 0.116465 1.18851 54 42 30 
-0.101468 0.190158 1.16208 114 90 78 
-0.101847 0.174874 1.16564 133 107 82 
-0.100369 0.218473 1.15367 213 194 179 
-0.0991272 0.263787 1.15072 91 100 115 
-0.0980767 0.23038 1.14622 166 144 123 
-0.0928312 0.288303 1.08635 113 152 209 
-0.0986282 0.211143 1.16228 186 167 152 
-0.101171 0.131339 1.18981 169 143 118 
-0.0958119 0.24656 1.14603 162 137 115 
-0.0882616 0.293025 1.07588 102 107 171 
-0.0949286 0.197577 1.16126 195 176 161 
-0.0963518 0.153121 1.17817 191 167 139 
-0.0924855 0.219418 1.14686 171 147 121 
-0.0934746 0.167854 1.17314 189 164 142 
-0.0943738 0.142928 1.18735 180 154 129 
-0.0922323 0.183915 1.16698 179 156 138 
-0.0905778 0.372897 1.17308 176 173 164 
-0.0843655 0.314719 1.07426 81 83 104 
-0.0856387 0.297293 1.09027 71 91 162 
-0.0936549 0.120259 1.18919 124 108 93 
-0.0900357 0.209236 1.15358 182 160 137 
-0.0900829 0.185084 1.1568 234 213 192 
-0.0876511 0.27756 1.13493 0 68 121 
-0.0900505 0.171181 1.16323 121 97 71 
-0.0876508 0.229591 1.15086 150 131 116 
-0.0844372 0.286733 1.12252 55 90 148 
-0.0904038 0.130583 1.19251 178 154 130 
-0.0854184 0.206066 1.16208 106 82 58 
-0.0798055 0.286347 1.08559 76 78 93 
-0.0848956 0.194372 1.15703 97 72 50 
-0.0913772 0.0166965 1.24267 131 132 136 
-0.0850001 0.162777 1.17199 141 116 94 
-0.084953 0.115464 1.19071 23 19 16 
-0.0831473 0.148794 1.18019 182 156 129 
-0.0806585 0.221616 1.15514 96 71 49 
-0.0796841 0.25491 1.15148 54 64 73 
-0.0787939 0.24107 1.14554 169 142 115 
-0.0777663 0.274538 1.14332 46 119 174 
-0.0808895 0.135305 1.19072 186 162 134 
-0.0770846 0.231415 1.15284 169 147 123 
-0.0778684 0.180929 1.16756 108 82 55 
-0.0784302 0.158998 1.1799 195 169 142 
-0.0783561 0.135954 1.17542 143 122 95 
-0.0751536 0.211066 1.16179 106 78 54 
-0.0727144 0.391339 1.1633 246 245 241 
-0.0763336 0.124443 1.19016 178 153 123 
-0.0697446 0.250745 1.15599 117 101 86 
-0.0668949 0.302294 1.10998 190 182 145 
-0.071302 0.151421 1.17996 177 152 122 
-0.0689683 0.224833 1.15226 163 137 114 
-0.0697096 0.267848 1.17694 17 35 37 
-0.067936 0.241232 1.15051 97 74 56 
-0.0694411 0.161382 1.17301 167 143 119 
-0.0669191 0.211496 1.15538 165 135 97 
-0.0694073 0.126045 1.19805 77 56 29 
-0.0684308 0.144539 1.19045 172 145 118 
-0.0632065 0.20223 1.1654 137 110 81 
-0.0620373 0.155455 1.17975 123 96 69 
-0.0598531 0.229976 1.15307 82 56 29 
-0.0625172 0.118724 1.19808 39 27 15 
-0.0598267 0.219545 1.15357 106 84 63 
-0.0611618 0.137702 1.18767 109 84 53 
-0.0583158 0.247884 1.1563 133 117 94 
-0.0598316 0.16908 1.18136 97 79 59 
-0.060047 0.129286 1.19435 82 63 46 
-0.0589511 0.16316 1.17253 164 139 109 
-0.0567911 0.181599 1.17459 123 96 66 
-0.0625554 -0.290267 1.2232 222 218 215 
-0.0564746 0.148426 1.18869 156 130 103 
-0.0541502 0.224181 1.16071 174 144 118 
-0.0535548 0.237923 1.15194 171 144 117 
-0.053926 0.139111 1.19509 117 99 89 
-0.0558005 -0.039822 1.2602 210 208 211 
-0.0513191 0.16164 1.18054 149 123 100 
-0.0502207 0.18563 1.16715 95 68 39 
-0.0497802 0.216256 1.16601 96 69 48 
-0.0483847 0.223518 1.1516 159 135 111 
-0.0486992 0.198611 1.1648 157 134 120 
-0.0488613 0.175201 1.18754 92 70 49 
-0.0529494 -0.284621 1.22675 71 30 10 
-0.0462582 0.180736 1.17553 160 136 112 
-0.0454444 0.127774 1.20853 23 17 21 
-0.0431519 0.254681 1.17038 72 61 43 
-0.0426853 0.1943 1.17399 100 81 64 
-0.0417145 0.220904 1.16232 117 90 61 
-0.0391264 0.379578 1.16848 167 164 155 
-0.0459606 -0.277584 1.22909 63 19 0 
-0.0437713 -0.0122746 1.26551 38 39 44 
-0.0390881 0.236758 1.15889 95 73 50 
-0.0399733 -0.0230842 1.27324 54 55 59 
-0.0352329 0.202845 1.17087 160 131 99 
-0.0386262 -0.239523 1.19711 26 20 20 
-0.0348885 -0.01882 1.25241 140 142 141 
-0.0314272 0.226792 1.1599 172 142 116 
-0.0312413 0.219567 1.16953 93 65 41 
-0.0316306 0.189391 1.1833 77 53 43 
-0.0353164 -0.283712 1.24605 62 18 0 
-0.0296172 0.243072 1.16453 147 129 105 
-0.0322029 -0.0622648 1.21354 30 29 27 
-0.030429 -0.00963312 1.27194 233 237 238 
-0.0293568 -0.0213033 1.2767 235 236 238 
-0.0255841 0.207652 1.17375 83 58 38 
-0.0257681 0.17104 1.21822 31 22 15 
-0.0254936 0.178087 1.19844 53 39 26 
-0.0248916 -0.271797 1.246 85 19 20 
-0.0241493 -0.255154 1.2268 126 68 54 
-0.020105 0.224846 1.16589 142 118 90 
-0.0203725 0.160428 1.22014 153 156 175 
-0.022052 -0.243409 1.21636 101 72 58 
-0.0179062 0.243599 1.16476 88 79 64 
-0.0178754 0.148762 1.26574 116 118 141 
-0.018605 0.0145912 1.26526 77 143 69 
-0.0192159 -0.280162 1.26176 83 38 15 
-0.0171609 -0.0268156 1.24313 229 235 235 
-0.019463 -0.375908 1.39971 223 239 236 
-0.0172602 -0.256651 1.23539 135 74 71 
-0.0153891 -0.245324 1.22561 40 13 0 
-0.0115978 0.231985 1.16461 101 77 53 
-0.0135668 -0.0502988 1.19702 128 112 86 
-0.0126044 -0.0617237 1.20125 62 64 63 
-0.0111705 0.0291279 1.25167 212 212 214 
-0.00677131 0.241115 1.16927 116 101 80 
-0.00925959 -0.245913 1.23412 54 12 0 
-0.00799822 -0.256004 1.24793 82 18 19 
-0.00543412 -0.0719293 1.20074 31 31 31 
-0.00361816 -0.0300905 1.24634 60 61 63 
-0.00323271 -0.275992 1.27525 92 22 32 
-0.00034457 -0.056174 1.18939 36 36 36 
0.00203392 0.248179 1.18752 89 78 56 
0.000392961 -0.0611265 1.19886 67 67 67 
0.0012624 -0.285149 1.29171 122 78 43 
0.00421443 0.137516 1.24316 21 21 19 
0.00224911 -0.276832 1.28499 127 71 54 
0.00539109 0.125912 1.2183 76 73 80 
0.00625087 0.0607839 1.22731 87 86 84 
0.00539684 -0.0776855 1.20286 16 16 18 
0.0098387 -0.280636 1.29701 92 19 26 
0.0143303 -0.399944 1.42248 161 185 171 
0.0120001 -0.274576 1.28821 138 75 68 
0.0156654 0.18247 1.24646 177 169 130 
0.0171768 -0.0102783 1.23451 63 65 64 
0.0170642 -0.0535759 1.19314 255 207 89 
0.0205286 0.144421 1.25166 140 142 129 
0.0210973 0.204096 1.2278 97 88 47 
0.021949 -0.279775 1.30649 150 64 73 
0.0228702 -0.270698 1.29864 102 18 33 
0.0215822 -0.105425 1.21277 25 25 27 
0.0216842 -0.0884328 1.20839 30 21 14 
0.0247616 0.155983 1.24376 61 105 106 
0.0215724 -0.0338507 1.18645 158 117 55 
0.0258211 0.136038 1.24654 160 125 132 
0.0263115 -0.148113 1.24229 22 22 20 
0.0294973 -0.286474 1.32397 94 11 21 
0.0300726 0.165113 1.24014 46 121 161 
0.030024 0.175961 1.24057 61 104 123 
0.0295123 -0.126796 1.2186 37 37 37 
0.0315534 -0.157243 1.2427 242 246 245 
0.0304775 -0.10593 1.20722 61 49 1 
0.03258 0.0903898 1.22233 1 2 0 
0.038031 -0.206179 1.37495 30 10 1 
0.0415928 -0.243803 1.39084 37 17 10 
0.0364208 0.0906546 1.20656 135 153 141 
0.0432243 -0.230231 1.3853 46 21 16 
0.0409326 -0.266182 1.30991 92 25 9 
0.0379946 -0.153523 1.23229 195 197 196 
0.0455709 -0.220938 1.38212 104 77 66 
0.0416408 0.183638 1.23895 7 83 133 
0.0404734 0.082982 1.22161 172 48 56 
0.0426444 0.226404 1.21941 58 98 106 
0.0490947 -0.211973 1.37805 75 47 26 
0.0501883 -0.24867 1.39506 64 33 30 
0.0421214 -0.143077 1.22212 34 34 32 
0.0436487 -0.171638 1.24571 18 20 19 
0.0455061 0.0735931 1.24173 0 6 1 
0.047208 -0.254407 1.29997 142 98 61 
0.0463774 0.192768 1.23087 92 177 218 
0.0528339 -0.240624 1.38429 136 103 88 
0.0484347 0.0548206 1.28063 26 26 14 
0.0492305 -0.261938 1.31612 49 18 0 
0.0531123 -0.227974 1.38206 64 30 18 
0.0451033 0.00957718 1.19926 241 242 244 
0.0495659 0.143862 1.25471 240 92 118 
0.0465111 0.0941797 1.20793 13 3 4 
0.0492369 0.204762 1.22931 71 164 208 
0.0504977 0.0659376 1.24923 11 28 18 
0.0462681 -0.0451799 1.18853 147 156 189 
0.0491153 0.232413 1.20095 40 115 172 
0.0532874 -0.252991 1.30845 122 84 75 
0.0533593 0.053046 1.2665 27 35 24 
0.0613367 -0.395871 1.43358 199 204 207 
0.0509424 -0.153002 1.23624 43 30 0 
0.0599533 -0.245702 1.39013 80 51 33 
0.0534096 0.168577 1.23361 132 123 154 
0.0530247 0.0773195 1.23152 3 16 7 
0.0610628 -0.235096 1.3862 160 125 106 
0.0514641 0.249785 1.18364 47 114 166 
0.0530673 -0.0620009 1.19891 43 43 45 
0.0571074 0.051859 1.25599 75 91 80 
0.0602033 -0.262568 1.32832 103 56 48 
0.0561385 0.215636 1.21803 69 156 199 
0.0677705 -0.411191 1.44077 205 242 248 
0.0535228 0.23906 1.16097 26 105 161 
0.0571253 0.207092 1.22314 71 165 203 
0.0577988 0.185666 1.23406 75 163 209 
0.0579508 0.0661763 1.2378 67 86 82 
0.0674519 -0.371879 1.41564 171 165 179 
0.0619349 -0.250191 1.31321 51 2 0 
0.0600369 0.0618517 1.25349 46 61 54 
0.05736 0.245503 1.19196 17 94 148 
0.0626311 0.22866 1.20905 0 35 73 
0.0695107 -0.25189 1.32562 56 4 0 
0.0664467 0.200123 1.22676 59 142 192 
0.068507 0.0482296 1.26416 40 55 52 
0.0619449 0.265151 1.15593 91 153 204 
0.0583178 0.299498 1.09592 192 183 142 
0.0647458 -0.0701466 1.19639 44 54 63 
0.0687307 0.127434 1.23861 191 41 66 
0.0657355 0.247794 1.18693 62 149 203 
0.068382 0.218806 1.2222 53 139 186 
0.0697238 0.159601 1.22753 255 65 99 
0.0719244 0.190442 1.22894 47 139 178 
0.0726697 0.207818 1.2228 11 102 147 
0.0756121 0.122606 1.24642 3 0 0 
0.075532 -0.216069 1.25339 81 77 68 
0.071858 0.254 1.17873 13 105 152 
0.0744464 0.230397 1.20927 24 94 145 
0.0889837 -0.355495 1.40049 91 36 55 
0.0662801 0.283084 1.08784 183 170 164 
0.078572 0.20043 1.22857 71 155 201 
0.0780836 0.215703 1.2188 12 101 143 
0.0765881 0.015588 1.20718 23 19 20 
0.0791647 0.238974 1.20046 77 154 210 
0.0982697 -0.402865 1.44531 54 49 43 
0.0701287 0.293328 1.07871 68 79 97 
0.0760762 0.267539 1.14605 98 137 196 
0.0856459 0.137849 1.2352 42 0 4 
0.0879602 0.103656 1.25846 127 127 125 
0.0842455 0.22874 1.21035 68 141 194 
0.0831247 -0.1245 1.21252 104 125 168 
0.0732573 0.311059 1.0722 167 158 149 
0.0832403 0.248832 1.18243 63 159 210 
0.101118 -0.358717 1.40176 158 84 107 
0.0875912 0.211694 1.22054 67 143 193 
0.0831807 -0.00147709 1.17899 227 227 227 
0.0771267 0.281433 1.08584 121 133 173 
0.0918099 -0.230405 1.26309 248 223 71 
0.0901873 -0.21335 1.24229 239 205 72 
0.109177 -0.410956 1.44246 221 203 201 
0.0912972 0.144333 1.22899 217 95 110 
0.0898659 -0.203893 1.22209 236 203 90 
0.0903803 -0.0981502 1.20823 12 25 34 
0.0948275 -0.222183 1.24872 192 158 51 
0.0954148 -0.232706 1.2511 254 223 107 
0.0926244 0.236866 1.2018 82 149 201 
0.0941591 0.219414 1.2131 10 86 135 
0.0946556 -0.201628 1.23123 239 209 89 
0.0983785 -0.250707 1.26941 127 111 60 
0.112829 -0.363988 1.40704 161 86 109 
0.0924 -0.00388931 1.18582 218 216 217 
0.0955905 -0.136222 1.21954 114 135 188 
0.0941047 0.246733 1.19052 55 141 202 
0.0988363 -0.24194 1.25576 255 228 99 
0.0971835 0.206126 1.22092 129 150 193 
0.116857 -0.421203 1.43297 251 250 245 
0.0992318 -0.20929 1.24131 237 208 104 
0.121322 -0.392441 1.42635 124 112 112 
0.105267 -0.251163 1.2546 175 145 31 
0.101244 -0.0552811 1.20164 190 205 238 
0.105194 -0.216162 1.23377 160 129 13 
0.105704 0.212519 1.21911 47 3 18 
0.0927415 0.280044 1.09288 113 95 155 
0.10661 -0.142802 1.22664 161 179 215 
0.108254 -0.229303 1.24524 224 191 94 
0.107053 0.221518 1.21393 65 139 184 
0.106434 0.233258 1.20517 91 158 201 
0.100409 0.267009 1.1458 35 71 129 
0.112799 0.0976397 1.25978 85 170 149 
0.126037 -0.323399 1.39445 168 74 110 
0.113708 -0.259449 1.26049 173 141 20 
0.112981 -0.253809 1.24667 176 144 35 
0.115476 -0.236505 1.24427 232 202 104 
0.11714 0.0807524 1.24247 38 57 89 
0.111365 -0.0609661 1.19418 119 127 176 
0.117778 -0.245207 1.25176 168 135 38 
0.118311 -0.270661 1.25617 255 232 109 
0.121826 0.103748 1.26614 35 74 55 
0.109342 0.261386 1.15353 2 108 158 
0.116989 0.218804 1.205 208 168 192 
0.116691 -0.085511 1.20564 78 84 132 
0.139126 -0.38017 1.39662 91 22 50 
0.116136 0.248047 1.18484 53 153 212 
0.124851 -0.256379 1.25157 171 139 18 
0.12016 0.236001 1.20091 49 127 176 
0.118945 0.239781 1.18967 64 148 208 
0.122033 0.224051 1.21299 67 127 164 
0.141167 -0.328875 1.38146 76 5 23 
0.127409 -0.275753 1.25651 249 219 85 
0.124751 0.162222 1.22521 207 0 31 
0.126153 -0.248019 1.24537 234 203 51 
0.121718 -0.111062 1.20252 133 140 192 
0.121182 -0.0537064 1.19426 186 200 235 
0.123155 -0.126253 1.20941 140 162 219 
0.126801 -0.191873 1.2352 110 137 192 
0.129687 0.0902263 1.2465 35 60 80 
0.129045 -0.229485 1.24566 123 137 176 
0.127066 -0.0994361 1.21442 157 170 225 
0.149932 -0.363942 1.39413 117 5 45 
0.134634 0.101038 1.26459 0 23 17 
0.127854 0.231017 1.20625 69 151 201 
0.129268 0.214552 1.21381 23 50 71 
0.157611 -0.399891 1.42157 169 100 129 
0.123135 0.267613 1.1431 53 147 199 
0.12109 0.272944 1.12516 72 130 193 
0.128191 -0.0241553 1.17994 23 45 58 
0.158002 -0.437094 1.41579 99 86 70 
0.129903 0.244015 1.18964 61 140 197 
0.133936 0.160861 1.21922 170 47 68 
0.13458 -0.127417 1.22133 83 75 122 
0.126628 0.26184 1.1556 49 153 208 
0.13467 0.22359 1.21549 7 74 126 
0.136939 0.148687 1.23176 137 48 66 
0.135796 -0.15565 1.22636 48 60 76 
0.138023 -0.237218 1.2411 14 13 18 
0.141805 0.116312 1.25845 16 102 101 
0.129756 0.254907 1.16593 45 135 195 
0.139234 0.0967006 1.2365 28 43 62 
0.135956 -0.0878894 1.21196 183 187 235 
0.16556 -0.426448 1.43172 229 250 253 
0.139646 -0.181475 1.23447 176 201 255 
0.144939 0.0646158 1.2699 19 34 57 
0.124064 0.274768 1.10995 84 115 169 
0.136248 0.237115 1.2002 51 124 177 
0.141367 -0.142942 1.23905 163 161 200 
0.139946 0.200591 1.21624 54 74 83 
0.143572 0.0838064 1.24433 121 141 166 
0.147778 0.06547 1.25513 10 32 56 
0.132075 0.267998 1.13621 45 141 189 
0.144076 -0.137036 1.22429 14 10 43 
0.144298 0.22005 1.21569 10 96 145 
0.138189 0.250994 1.17128 56 129 184 
0.140551 0.246603 1.1842 58 127 186 
0.137088 0.26079 1.15678 58 154 205 
0.150063 0.133245 1.24746 90 172 158 
0.147759 0.200302 1.22806 115 180 172 
0.147734 -0.162448 1.229 63 67 92 
0.146606 0.193195 1.2164 121 186 182 
0.146791 -0.120434 1.22083 57 48 93 
0.137087 0.265297 1.14501 70 169 210 
0.147089 0.20797 1.21651 105 187 173 
0.148907 0.189988 1.22812 229 248 242 
0.150663 0.138018 1.23615 106 127 108 
0.129785 0.30285 1.08334 68 173 205 
0.152135 -0.236791 1.24353 231 230 235 
0.151691 -0.192507 1.23516 202 219 249 
0.147936 0.241653 1.19306 60 140 191 
0.154237 -0.21841 1.24017 151 172 227 
0.152681 0.101848 1.227 46 63 83 
0.155409 0.0845396 1.24369 76 108 146 
0.154586 -0.203179 1.24068 184 206 247 
0.15929 0.132985 1.26809 101 134 91 
0.149043 0.227662 1.1939 103 190 173 
0.157412 0.157445 1.24858 148 148 150 
0.153837 -0.134229 1.22468 32 33 63 
0.141948 0.268973 1.13493 57 148 195 
0.136742 0.277018 1.09728 54 139 193 
0.159161 -0.247039 1.24572 3 5 4 
0.154084 0.228427 1.20596 49 134 127 
0.157505 0.181717 1.22339 104 178 181 
0.136221 0.282273 1.07885 64 151 220 
0.15939 0.145259 1.23204 95 136 118 
0.157169 0.209881 1.21619 118 185 176 
0.161981 -0.154754 1.22991 140 133 185 
0.138765 0.291122 1.07353 65 149 219 
0.153397 0.256947 1.16794 86 167 197 
0.163974 -0.23474 1.24045 10 11 13 
0.16567 -0.254033 1.24896 236 238 235 
0.167089 -0.264157 1.24991 4 4 4 
0.171195 0.0505177 1.27224 85 114 112 
0.168507 0.0762937 1.25004 95 117 131 
0.16645 0.170381 1.23227 7 31 35 
0.15995 -0.0572414 1.18856 70 79 110 
0.169362 0.144013 1.24604 67 111 48 
0.166234 -0.143341 1.22764 46 42 79 
0.165524 -0.121202 1.21995 150 142 199 
0.169003 -0.205299 1.23922 129 153 201 
0.16838 0.156491 1.23335 20 24 23 
0.171808 0.16278 1.24167 87 97 98 
0.171515 0.181328 1.2329 100 197 206 
0.175591 -0.313977 1.25492 23 23 25 
0.175432 -0.275478 1.25194 219 218 216 
0.17585 -0.249303 1.24699 220 218 219 
0.174749 -0.222207 1.23976 10 11 16 
0.159967 0.263021 1.14247 87 171 171 
0.178155 0.141659 1.25274 112 140 89 
0.176524 0.075586 1.24075 86 104 124 
0.164959 0.00157802 1.16385 100 132 205 
0.180023 0.0727182 1.25473 97 127 138 
0.180204 -0.294512 1.25362 23 24 18 
0.178499 -0.18773 1.24103 136 159 203 
0.177671 0.171124 1.23446 84 175 180 
0.176154 -0.138823 1.22569 28 32 61 
0.180945 0.158127 1.24334 78 165 172 
0.178309 -0.153616 1.22777 46 51 80 
0.179679 -0.166103 1.23148 136 133 190 
0.183167 -0.264019 1.25155 238 240 239 
0.188106 0.0706811 1.26734 98 120 131 
0.182389 0.097462 1.23069 28 63 85 
0.184729 -0.20884 1.24417 10 11 15 
0.186931 -0.30284 1.25653 232 242 243 
0.188483 -0.283305 1.25374 15 15 17 
0.185684 0.128329 1.23568 41 141 139 
0.189958 -0.32539 1.25976 237 239 238 
0.161669 0.305981 1.09202 66 82 159 
0.188855 -0.225768 1.24424 212 216 215 
0.187599 -0.181416 1.23659 21 33 47 
0.158887 0.295857 1.07069 99 150 215 
0.185673 -0.133865 1.22235 107 105 152 
0.17593 0.0209815 1.15705 153 160 186 
0.195956 -0.23407 1.24665 4 5 7 
0.189511 0.227399 1.20821 91 189 192 
0.198234 -0.308288 1.25565 3 13 12 
0.198904 -0.297069 1.25615 215 216 218 
0.19666 -0.191391 1.2389 141 173 230 
0.19833 -0.245323 1.24925 213 213 213 
0.202029 0.0472465 1.25593 17 19 0 
0.197385 -0.121731 1.22777 12 25 31 
0.197498 -0.158997 1.22671 71 78 107 
0.203094 -0.324968 1.25803 10 16 16 
0.201041 -0.220071 1.24524 231 235 236 
0.213036 0.175957 1.30891 71 165 191 
0.199666 -0.179385 1.23278 22 41 48 
0.19589 0.214437 1.21293 129 146 138 
0.18755 -0.0254295 1.16741 40 52 66 
0.204549 -0.260231 1.25384 210 212 209 
0.206711 -0.289824 1.26323 14 14 16 
0.188988 -0.00585911 1.16791 81 90 105 
0.206043 -0.234057 1.24828 217 218 220 
0.190614 0.0194455 1.16271 170 126 55 
0.211088 -0.37054 1.27007 94 94 94 
0.207011 -0.208029 1.23853 24 24 26 
0.19329 0.00469387 1.16058 84 64 1 
0.204169 -0.119439 1.21719 14 23 32 
0.19311 0.259041 1.15682 59 161 209 
0.212262 -0.248526 1.2519 230 231 233 
0.180517 0.288126 1.08552 93 181 183 
0.198995 -0.0320676 1.1785 119 130 148 
0.20614 0.212063 1.21601 81 176 208 
0.214308 -0.274704 1.25464 4 8 9 
0.215155 -0.263497 1.25305 17 26 23 
0.198529 0.0160621 1.16804 65 40 0 
0.202709 0.0231138 1.17559 74 45 5 
0.208614 -0.132513 1.20272 12 20 23 
0.201888 -0.00568129 1.16874 191 164 97 
0.220477 -0.296479 1.25763 0 9 6 
0.217379 -0.208412 1.23929 234 236 233 
0.222448 -0.316582 1.26131 201 203 202 
0.176911 0.00407516 1.03532 87 60 5 
0.219204 -0.21833 1.24327 9 14 10 
0.217546 0.0568661 1.23295 196 191 48 
0.207361 0.013909 1.17631 164 123 59 
0.209015 -0.0224438 1.18141 92 76 25 
0.189397 0.279972 1.0839 51 150 207 
0.226154 -0.305525 1.26164 221 221 221 
0.225707 -0.274675 1.25913 229 233 234 
0.22322 -0.229184 1.24577 12 14 13 
0.157486 -0.196229 0.922839 14 19 13 
0.226226 -0.285966 1.25684 1 7 5 
0.196806 0.271956 1.11382 52 152 202 
0.220861 0.0736083 1.22905 27 40 74 
0.224729 0.0594737 1.24048 24 25 17 
0.223005 -0.159684 1.22338 161 202 255 
0.227361 -0.207544 1.23896 16 22 22 
0.23234 -0.315544 1.26142 6 4 5 
0.21432 0.00258401 1.17507 71 33 0 
0.214727 0.247562 1.17773 70 169 200 
0.216379 0.0188481 1.17939 214 164 69 
0.233847 -0.296482 1.25827 221 222 224 
0.217164 0.0336502 1.17807 192 145 67 
0.231824 -0.266231 1.24442 13 13 15 
0.242276 -0.431244 1.29324 78 58 33 
0.21944 -0.0425932 1.18418 198 169 109 
0.236138 -0.253961 1.25136 2 2 0 
0.234401 -0.222873 1.24294 14 20 18 
0.222838 -0.0544705 1.18947 137 111 37 
0.220422 -0.00549547 1.1761 168 132 84 
0.224668 0.000552133 1.19069 183 134 67 
0.205811 0.274954 1.10311 62 152 204 
0.235089 0.140225 1.24 89 147 161 
0.222505 -0.0166031 1.17686 100 55 0 
0.237374 -0.235626 1.24439 236 244 246 
0.235688 0.17198 1.23652 93 176 192 
0.231756 0.199051 1.21599 14 98 145 
0.223914 0.00835797 1.17749 205 162 83 
0.229726 0.219845 1.20293 81 173 198 
0.225864 0.0359012 1.18341 78 55 14 
0.234 0.181467 1.22241 24 107 139 
0.230894 0.207787 1.20743 18 104 151 
0.235208 -0.175778 1.22198 183 213 255 
0.229049 0.0560989 1.19295 240 213 194 
0.2333 0.215484 1.21427 0 84 125 
0.246107 -0.381703 1.2663 16 16 16 
0.243514 -0.264115 1.25467 234 233 229 
0.228285 0.0502759 1.18404 187 154 113 
0.230338 -0.0747801 1.19153 165 130 40 
0.245176 -0.283746 1.2575 228 230 229 
0.246209 -0.295739 1.25849 14 14 16 
0.230595 -0.0629449 1.18872 150 116 29 
0.243839 0.152257 1.24541 92 177 197 
0.242508 -0.188651 1.23454 227 198 104 
0.235305 0.229872 1.20612 26 106 141 
0.22975 -0.0824069 1.17801 243 201 89 
0.203913 -0.0065644 1.06329 179 138 76 
0.230129 0.000594129 1.17859 83 55 7 
0.229515 -0.0408343 1.17468 216 157 41 
0.244756 0.13315 1.24416 26 60 70 
0.231158 -0.010946 1.18005 194 151 73 
0.209131 0.27884 1.08128 47 61 122 
0.239851 0.190279 1.21874 58 140 187 
0.243663 0.161217 1.23405 73 157 193 
0.232588 0.0205083 1.18185 68 31 0 
0.250504 -0.306406 1.258 1 1 3 
0.243669 0.176132 1.2309 7 84 130 
0.249015 -0.245824 1.2501 243 247 246 
0.206239 0.302618 1.06115 99 151 208 
0.236412 0.0198984 1.19233 126 95 49 
0.235376 0.0423713 1.18654 41 16 0 
0.2372 0.226357 1.19486 64 125 170 
0.234768 0.239791 1.18324 28 122 156 
0.215516 0.275342 1.09723 49 135 192 
0.242299 0.20325 1.2156 55 137 187 
0.244365 -0.151729 1.21918 136 171 235 
0.25375 -0.274538 1.25667 12 21 20 
0.211234 0.285256 1.07202 36 92 151 
0.237695 -0.0200748 1.18402 214 166 82 
0.253625 -0.259642 1.25237 229 233 232 
0.241491 -0.0596682 1.19971 240 189 48 
0.242873 0.210906 1.20823 47 124 178 
0.240045 0.00706684 1.19179 133 96 54 
0.241565 -0.0843638 1.19644 223 192 110 
0.244029 0.221771 1.20785 2 72 121 
0.24595 -0.0964169 1.20068 143 115 32 
0.244522 0.033702 1.19393 42 24 4 
0.217441 -0.0917757 1.07637 126 93 16 
0.217865 0.283343 1.08041 51 100 158 
0.249746 0.195904 1.21661 8 80 128 
0.260756 -0.30623 1.25562 1 11 10 
0.256835 0.140258 1.24205 65 137 175 
0.252504 0.187378 1.22287 6 84 133 
0.24719 0.0192493 1.19583 130 81 25 
0.256321 -0.190245 1.23247 238 205 66 
0.253353 -0.157706 1.21914 140 175 239 
0.24114 0.248426 1.17035 82 172 207 
0.254781 0.174691 1.22534 86 161 200 
0.261593 0.113941 1.25164 0 0 2 
0.259567 -0.201827 1.23573 97 52 0 
0.252441 0.21339 1.20959 73 132 176 
0.250155 0.00276476 1.19632 154 122 71 
0.249264 0.230658 1.19456 68 121 163 
0.267708 -0.333743 1.26571 218 220 219 
