ply                 
format ascii 1.0    
element vertex 1228
property float x    
property float y    
property float z    
property uchar red  
property uchar green
property uchar blue 
end_header          
0.25012 -0.271274 1.24612 23 25 22 
0.250116 -0.301616 1.24765 219 218 216 
0.256679 0.198336 1.24808 69 139 188 
0.252108 -0.296947 1.24759 4 5 7 
0.251949 -0.257451 1.24314 240 244 245 
0.248904 -0.17151 1.22277 105 139 200 
0.25403 -0.291251 1.24639 225 227 226 
0.250443 -0.169519 1.22215 109 145 207 
0.248288 -0.108996 1.20878 122 96 12 
0.254309 -0.264041 1.24499 233 239 239 
0.252603 -0.192198 1.22955 240 205 87 
0.253706 -0.190825 1.2289 52 19 0 
0.251971 -0.157108 1.21812 137 173 233 
0.254249 -0.192614 1.22992 64 26 0 
0.254162 -0.188986 1.22829 235 208 69 
0.257125 -0.298243 1.24728 227 227 229 
0.254398 -0.184395 1.22608 231 192 11 
0.253243 -0.154284 1.21739 148 179 234 
0.253697 -0.156383 1.21745 57 88 142 
0.253697 -0.156383 1.21745 57 88 142 
0.254526 -0.173881 1.22281 124 149 203 
0.254526 -0.173881 1.22281 124 149 203 
0.252791 -0.115787 1.21123 236 205 125 
0.261481 0.231064 1.23409 25 63 100 
0.255085 -0.171294 1.22181 160 188 236 
0.254211 -0.152484 1.2165 162 186 232 
0.254216 -0.111593 1.21001 224 194 108 
0.25635 -0.168441 1.22016 81 106 147 
0.266766 0.178465 1.25302 85 158 199 
0.257038 -0.174478 1.22275 156 175 217 
0.255861 0.263619 1.19333 7 91 127 
0.259201 -0.194571 1.22972 227 201 117 
0.259697 -0.192572 1.22881 33 7 0 
0.258431 -0.168604 1.22045 135 163 203 
0.260387 -0.205606 1.23211 64 23 0 
0.260387 -0.205606 1.23211 64 23 0 
0.260216 -0.188345 1.22749 78 37 0 
0.260216 -0.188345 1.22749 78 37 0 
0.259302 -0.173287 1.2217 25 46 73 
0.259062 -0.162366 1.21881 153 177 221 
0.259389 -0.169986 1.22052 19 45 78 
0.269568 0.189038 1.2498 98 159 178 
0.269568 0.189038 1.2498 98 159 178 
0.262365 -0.210472 1.23226 79 43 0 
0.262365 -0.210472 1.23226 79 43 0 
0.271653 0.173185 1.25415 13 82 121 
0.263164 -0.196135 1.23015 237 201 63 
0.272373 0.171254 1.25495 86 160 195 
0.273383 0.152447 1.26013 87 166 170 
0.261558 -0.170084 1.22057 142 163 192 
0.258365 0.267653 1.18473 73 161 197 
0.262143 -0.167434 1.21988 152 164 190 
0.264762 -0.197653 1.23008 91 49 0 
0.267304 -0.31168 1.2475 229 230 232 
0.26889 -0.325432 1.24868 217 219 218 
0.264742 -0.172702 1.22187 33 39 39 
0.26777 -0.211142 1.23115 51 19 0 
0.268372 -0.226902 1.23364 99 60 0 
0.268555 -0.221965 1.23253 239 207 70 
0.268746 -0.220071 1.23271 91 57 0 
0.268621 -0.218442 1.23195 61 23 0 
0.268621 -0.218442 1.23195 61 23 0 
0.26897 -0.214489 1.23162 92 59 0 
0.270606 -0.219511 1.23194 230 205 78 
0.271068 -0.214844 1.23147 236 204 83 
0.271527 -0.225495 1.23298 43 13 0 
0.272677 -0.216514 1.23104 85 45 0 
0.272677 -0.216514 1.23104 85 45 0 
0.272884 -0.223082 1.23208 237 210 97 
0.274856 -0.242836 1.23712 229 193 47 
0.277759 0.237279 1.22736 96 156 190 
0.275221 -0.240849 1.23696 59 18 0 
0.275221 -0.240849 1.23696 59 18 0 
0.275212 -0.221313 1.2315 54 16 0 
0.276385 -0.239542 1.23593 215 186 84 
0.278799 -0.318148 1.24867 1 3 2 
0.274611 -0.170418 1.21965 131 108 38 
0.27688 -0.229118 1.23261 233 200 107 
0.276975 -0.222408 1.2314 241 207 48 
0.27515 -0.148509 1.2148 220 182 83 
0.279079 -0.229365 1.23325 54 12 0 
0.279079 -0.229365 1.23325 54 12 0 
0.280488 -0.237396 1.23552 226 199 82 
0.277536 -0.149903 1.21521 95 63 0 
0.282366 -0.16424 1.2188 228 198 102 
0.282642 -0.160252 1.21835 221 183 50 
0.290129 0.229688 1.23239 112 119 111 
0.287241 -0.255905 1.24156 61 28 0 
0.288389 -0.268493 1.24543 63 23 0 
0.288389 -0.268493 1.24543 63 23 0 
0.280895 -0.0328091 1.1984 230 240 250 
0.284165 -0.159489 1.21792 212 178 78 
0.284449 -0.167653 1.21869 224 184 73 
0.290573 -0.268233 1.24554 228 199 82 
0.285179 -0.164135 1.2182 121 94 17 
0.285179 -0.164135 1.2182 121 94 17 
0.287245 -0.189144 1.22596 136 115 24 
0.282981 -0.032891 1.19776 132 160 184 
0.291965 -0.266866 1.24487 47 9 0 
0.287571 -0.169754 1.21949 223 180 49 
0.287318 -0.136392 1.21538 207 165 67 
0.292645 -0.372903 1.2467 7 14 7 
0.29409 -0.263193 1.24344 106 71 0 
0.29409 -0.263193 1.24344 106 71 0 
0.289142 -0.136708 1.21565 107 69 0 
0.291031 -0.19596 1.22585 233 208 124 
0.287661 -0.0495371 1.20473 235 246 255 
0.291369 -0.202035 1.22615 232 208 112 
0.296185 -0.285049 1.24655 62 32 0 
0.285418 -0.017511 1.18792 170 178 189 
0.29256 -0.164432 1.21818 73 55 15 
0.292576 -0.164425 1.21819 73 55 15 
0.298671 -0.290984 1.24709 89 63 0 
0.290967 -0.0387313 1.19842 168 198 236 
0.300348 -0.282258 1.24714 197 172 69 
0.295457 -0.19129 1.22266 172 161 133 
0.288841 -0.013498 1.18635 216 229 238 
0.301046 -0.279609 1.24636 75 38 0 
0.301046 -0.279609 1.24636 75 38 0 
0.301391 -0.297203 1.2483 52 18 0 
0.298008 -0.18204 1.22296 137 129 93 
0.303166 -0.282703 1.24694 108 77 0 
0.303166 -0.282703 1.24694 108 77 0 
0.303579 -0.288667 1.24753 62 33 0 
0.291317 -0.0108575 1.18482 196 206 218 
0.30225 -0.237258 1.23644 230 196 89 
0.298405 -0.136398 1.2165 66 52 7 
0.298405 -0.136398 1.2165 66 52 7 
0.304523 -0.285335 1.24728 101 65 0 
0.305254 -0.300542 1.24883 121 80 0 
0.300685 -0.18641 1.2231 231 228 223 
0.30091 -0.198562 1.22505 117 112 83 
0.312621 0.171431 1.25267 78 141 172 
0.306553 -0.290803 1.24768 103 70 0 
0.30304 -0.208292 1.22776 204 202 187 
0.304123 -0.226875 1.23166 108 102 76 
0.303571 -0.205818 1.22632 19 24 18 
0.30408 -0.209368 1.22757 118 111 92 
0.304615 -0.224229 1.22994 57 57 29 
0.308369 -0.296591 1.24878 226 190 34 
0.305782 -0.225086 1.23071 17 15 0 
0.309823 -0.312262 1.2495 92 66 0 
0.304571 -0.126817 1.21881 67 55 29 
0.318419 0.134257 1.2627 8 17 12 
0.304917 -0.151371 1.21946 83 78 58 
0.307604 -0.224334 1.23059 226 224 209 
0.307227 -0.209829 1.22812 112 101 69 
0.306215 -0.160065 1.22032 125 121 96 
0.31221 -0.312963 1.2496 68 45 0 
0.307994 -0.206266 1.22714 200 201 196 
0.308058 -0.190283 1.2248 90 85 65 
0.311151 -0.238477 1.23563 115 101 64 
0.310102 -0.173737 1.22278 214 218 219 
0.310102 -0.173737 1.22278 214 218 219 
0.312944 -0.234369 1.23448 233 233 231 
0.324711 0.121467 1.26545 107 111 97 
0.310952 -0.178811 1.22395 210 212 199 
0.315235 -0.247266 1.23616 104 102 79 
0.313651 -0.196085 1.22612 95 90 60 
0.316532 -0.247148 1.23594 19 19 0 
0.316395 -0.243207 1.23519 237 237 229 
0.319185 -0.329634 1.24905 217 188 84 
0.319669 -0.327441 1.24856 112 78 0 
0.323935 0.209959 1.24119 77 147 173 
0.315744 -0.182531 1.2246 111 104 76 
0.318261 -0.24415 1.23447 86 88 75 
0.319795 -0.23761 1.23352 26 29 18 
0.322474 -0.338161 1.24878 226 184 10 
0.322474 -0.338161 1.24878 226 184 10 
0.320331 -0.249159 1.23604 222 221 219 
0.320331 -0.249159 1.23604 222 221 219 
0.320541 -0.254105 1.23684 56 52 25 
0.318494 -0.14908 1.22362 55 54 24 
0.324104 -0.280138 1.24344 159 134 44 
0.322846 -0.235256 1.23335 216 225 220 
0.326065 -0.345487 1.24911 223 190 77 
0.324577 -0.256081 1.23762 228 229 221 
0.327418 -0.339397 1.24864 126 86 0 
0.326792 -0.260749 1.23941 219 222 211 
0.3356 0.161571 1.25413 32 95 138 
0.324918 -0.205443 1.22829 221 187 79 
0.324918 -0.205443 1.22829 221 187 79 
0.329121 -0.352511 1.24825 80 51 0 
0.328157 -0.278479 1.24208 233 198 116 
0.328278 -0.258137 1.23819 50 55 58 
0.328188 -0.245055 1.2355 213 213 211 
0.330429 -0.360942 1.24871 217 189 66 
0.301387 0.299897 1.11422 74 145 191 
0.331593 -0.35341 1.2486 195 173 72 
0.340697 0.146643 1.25822 68 105 124 
0.332413 -0.287673 1.24335 214 183 103 
0.333313 -0.367264 1.24854 213 186 73 
0.33046 -0.216826 1.23129 228 188 57 
0.330421 -0.209808 1.22906 94 68 0 
0.339503 0.190781 1.24589 82 157 188 
0.332128 -0.173681 1.22922 18 10 0 
0.333475 -0.259729 1.23809 30 32 29 
0.333475 -0.259729 1.23809 30 32 29 
0.332869 -0.246697 1.23588 54 55 39 
0.334504 -0.260907 1.23869 76 79 72 
0.333006 -0.220837 1.23077 118 85 6 
0.334089 -0.217957 1.231 203 174 72 
0.337241 -0.365555 1.24838 214 185 68 
0.329335 0.0218107 1.20151 112 111 109 
0.336032 -0.231743 1.23295 229 190 71 
0.336983 -0.257072 1.23772 224 226 225 
0.336652 -0.226698 1.2322 123 91 4 
0.337382 -0.229358 1.23251 219 190 86 
0.339287 -0.276055 1.24074 223 223 213 
0.337837 -0.224421 1.23196 183 158 78 
0.338096 -0.235703 1.23364 219 190 90 
0.339171 -0.269993 1.23918 110 99 67 
0.339254 -0.25515 1.2371 24 26 5 
0.349086 0.156163 1.25516 78 175 184 
0.345078 0.212577 1.23947 81 139 177 
0.341652 -0.27557 1.24044 16 14 0 
0.337651 0.0115617 1.21038 94 90 89 
0.331522 0.0301558 1.18681 100 99 97 
0.343072 -0.268612 1.24015 37 32 10 
0.341839 -0.231511 1.23319 186 158 84 
0.342321 -0.23766 1.23388 210 175 81 
0.344296 -0.275673 1.24084 91 89 64 
0.344948 -0.302757 1.24473 219 175 68 
0.344179 -0.260522 1.23833 122 118 81 
0.344523 -0.267029 1.23984 11 9 0 
0.34477 -0.258989 1.23834 117 111 77 
0.345188 -0.280581 1.24115 214 216 215 
0.345188 -0.280581 1.24115 214 216 215 
0.351632 0.198816 1.243 80 144 179 
0.34487 -0.238637 1.23367 90 59 0 
0.334118 0.0342874 1.18297 180 179 177 
0.349724 -0.289099 1.24329 31 29 4 
0.338853 0.0230861 1.19238 65 63 64 
0.342716 0.0141343 1.20108 239 235 234 
0.350723 -0.248209 1.23693 74 49 0 
0.356413 0.205363 1.2401 24 86 123 
0.351615 -0.274843 1.24031 227 227 225 
0.351615 -0.274843 1.24031 227 227 225 
0.357841 0.196931 1.24346 26 86 122 
0.35163 -0.244226 1.23682 164 139 85 
0.342605 0.0194136 1.19501 126 125 123 
0.346662 0.00632709 1.20942 67 66 62 
0.345875 0.0108496 1.20414 107 106 104 
0.348163 0.252918 1.20438 76 137 181 
0.35963 0.18926 1.24495 34 98 126 
0.342516 0.0256397 1.18817 123 122 118 
0.348338 0.0067595 1.20794 110 109 107 
0.347796 0.0107894 1.20419 202 201 199 
0.344857 0.0221857 1.19071 114 112 113 
0.355295 -0.215746 1.23611 68 66 43 
0.356329 -0.272477 1.23903 159 155 130 
0.357343 -0.280559 1.24048 94 96 83 
0.357065 -0.244414 1.23755 89 65 0 
0.366316 0.167862 1.25193 33 92 124 
0.358514 -0.288668 1.24162 47 49 48 
0.360235 0.233412 1.22675 83 160 170 
0.354503 -0.000623503 1.21411 110 108 109 
0.368654 0.15448 1.25434 12 16 17 
0.361383 -0.298338 1.24433 53 49 22 
0.350945 0.0173498 1.19412 103 102 100 
0.357372 0.000713522 1.21193 101 100 98 
0.363887 -0.296075 1.24269 226 228 223 
0.35828 0.00203466 1.20995 231 230 228 
0.372853 0.16098 1.2514 81 167 158 
0.364858 -0.24854 1.23948 52 44 5 
0.365777 -0.252556 1.24064 89 77 19 
0.358984 0.00407499 1.20783 86 85 83 
0.357883 0.0102653 1.20178 242 238 237 
0.366236 -0.2461 1.23943 71 69 46 
0.366867 -0.255321 1.24091 86 71 16 
0.366292 -0.236 1.23883 45 36 0 
0.377831 0.157668 1.25338 15 19 18 
0.361174 0.00981332 1.20127 219 218 216 
0.384978 -0.038359 1.27748 179 184 100 
0.372945 -0.340691 1.24846 126 94 17 
0.386245 -0.0440658 1.27913 45 48 53 
0.381275 0.163309 1.25172 93 156 165 
0.388824 -0.0432277 1.27906 34 36 14 
0.388229 -0.0371071 1.27586 32 38 0 
0.389665 -0.0404856 1.27732 180 188 115 
0.397003 0.165102 1.24979 7 11 12 
0.401523 0.168662 1.2481 159 173 174 
0.398566 -0.324995 1.249 203 153 58 
0.414036 0.176769 1.24619 30 69 98 
0.447582 -0.111358 1.26081 246 235 229 
-0.985606 -0.410456 1.36347 36 35 33 
-0.98535 -0.428812 1.36652 93 92 88 
-0.987627 -0.452999 1.37608 102 101 97 
-0.986309 -0.478377 1.37517 99 95 92 
-0.989271 -0.470059 1.38605 42 37 34 
-0.991597 -0.480652 1.39197 59 52 44 
-0.987294 -0.49596 1.38907 125 121 112 
-0.986119 -0.520594 1.39489 113 106 100 
-0.989872 -0.529611 1.40506 52 48 36 
-0.994783 -0.52548 1.41294 113 111 99 
-0.987701 -0.546704 1.40449 117 108 99 
-0.993123 -0.556896 1.41513 104 101 92 
-0.946567 -0.128322 1.38731 46 45 41 
-0.803515 0.391103 1.20801 176 176 174 
-0.788276 0.421096 1.19691 38 38 36 
-0.942405 -0.177269 1.41139 31 28 21 
-0.767884 0.42741 1.19268 226 226 224 
-0.758763 0.408978 1.20211 186 186 184 
-0.751417 0.424497 1.19416 189 188 186 
-0.757493 0.384342 1.20947 199 199 199 
-0.743159 0.418853 1.19194 198 200 197 
-0.73615 0.43424 1.18611 192 194 191 
-0.748735 0.38138 1.20932 194 194 192 
-0.739015 0.396409 1.20321 205 207 204 
-0.729369 0.420679 1.19454 200 202 199 
-0.725454 0.430762 1.191 191 193 190 
-0.705908 0.41433 1.19004 201 203 202 
-0.696807 0.438301 1.18638 199 201 200 
-0.885053 -0.318999 1.47343 143 144 139 
-0.684151 0.438237 1.18423 191 193 190 
-0.787716 0.0345797 1.34154 186 186 184 
-0.700371 0.337214 1.22419 208 208 206 
-0.675208 0.423771 1.18789 197 199 196 
-0.692643 0.365459 1.21555 172 172 172 
-0.671428 0.432772 1.18507 166 168 165 
-0.670708 0.408503 1.19598 199 199 199 
-0.658024 0.435548 1.18124 198 199 201 
-0.668531 0.357776 1.21008 198 198 196 
-0.649396 0.416623 1.19065 198 200 195 
-0.640548 0.437838 1.181 191 193 192 
-0.648118 0.389134 1.19961 155 157 156 
-0.632892 0.422661 1.18756 238 236 237 
-0.636276 0.389044 1.19957 207 209 206 
-0.622555 0.432972 1.18149 202 203 205 
-0.622513 0.418648 1.18854 186 188 185 
-0.803466 -0.350394 1.48273 238 238 236 
-0.622251 0.385217 1.19462 205 207 204 
-0.619713 0.40551 1.19411 200 202 201 
-0.608968 0.430387 1.18302 245 247 246 
-0.609909 0.405044 1.19325 204 206 205 
-0.603725 0.422323 1.18715 205 205 207 
-0.606503 0.414643 1.19387 197 199 196 
-0.602028 0.161429 1.17189 134 134 134 
-0.59541 0.155444 1.15972 137 135 136 
-0.587135 0.203803 1.14924 127 126 122 
-0.5947 0.434403 1.17945 201 199 200 
-0.600991 0.132531 1.18031 143 143 141 
-0.594374 0.404825 1.19307 203 205 202 
-0.593807 0.153423 1.17658 222 216 216 
-0.576792 0.207737 1.14719 101 99 87 
-0.592077 0.137267 1.17574 221 213 211 
-0.581579 0.169595 1.16255 146 145 143 
-0.600649 0.0609855 1.20127 148 157 156 
-0.608219 0.0446317 1.21711 133 138 134 
-0.57413 0.178524 1.15964 230 231 223 
-0.596077 0.119952 1.20243 188 199 165 
-0.577518 0.151045 1.16789 210 202 199 
-0.601325 0.0565417 1.21168 210 214 215 
-0.605821 0.0127194 1.21884 202 201 197 
-0.563133 0.208029 1.14673 136 136 134 
-0.581982 0.136715 1.18085 209 199 190 
-0.578104 0.127445 1.1752 190 199 170 
-0.570089 0.427661 1.17914 199 201 200 
-0.598755 0.0330626 1.21428 209 215 213 
-0.599224 0.0211362 1.21765 194 189 185 
-0.563306 0.172682 1.17095 86 86 84 
-0.559944 0.423115 1.18092 200 202 199 
-0.584602 0.0283538 1.21602 124 125 120 
-0.584989 0.016945 1.21945 142 141 139 
-0.549203 0.417809 1.1819 210 212 209 
-0.543078 0.0439216 1.14945 231 236 204 
-0.621647 -0.220332 1.29973 246 241 238 
-0.522096 0.270286 1.12043 223 222 202 
-0.608863 -0.146266 1.27852 52 56 57 
-0.610753 -0.172268 1.28776 42 47 43 
-0.622555 -0.231594 1.31171 88 87 85 
-0.626068 -0.236108 1.31995 79 84 77 
-0.609485 -0.154994 1.29047 167 147 114 
-0.613597 -0.212939 1.30352 36 40 39 
-0.625424 -0.254494 1.32995 131 164 147 
-0.561286 0.0168069 1.21524 100 96 32 
-0.61281 -0.223436 1.31195 133 116 109 
-0.599145 -0.154875 1.28798 211 187 163 
-0.595756 -0.146481 1.28232 151 145 145 
-0.599037 -0.180993 1.28762 167 147 120 
-0.591386 -0.130517 1.27683 35 35 33 
-0.607162 -0.204134 1.31068 172 147 117 
-0.598531 -0.171708 1.29397 141 135 135 
-0.6119 -0.244888 1.31958 14 35 28 
-0.534056 0.388388 1.19403 207 207 205 
-0.502982 0.275518 1.12012 222 224 202 
-0.601387 -0.218291 1.31006 178 163 156 
-0.604061 -0.233422 1.31694 174 197 191 
-0.595622 -0.207882 1.30356 40 33 27 
-0.584377 -0.135383 1.28607 89 68 41 
-0.589118 -0.21647 1.29399 34 33 28 
-0.602842 -0.252091 1.32227 164 192 178 
-0.49399 0.280509 1.11589 218 219 211 
-0.588298 -0.166043 1.29896 76 58 46 
-0.536884 0.0771528 1.1997 185 180 112 
-0.520075 0.398715 1.18357 207 209 206 
-0.516297 0.0727917 1.16414 126 128 115 
-0.558968 0.0208926 1.25902 85 105 33 
-0.596002 -0.260965 1.32517 71 87 76 
-0.581248 -0.134849 1.30051 30 28 7 
-0.587995 -0.208615 1.31255 53 52 50 
-0.484932 0.284924 1.11583 108 85 111 
-0.574587 -0.170192 1.29704 73 60 51 
-0.555411 0.0287049 1.2671 29 20 0 
-0.477032 0.314818 1.1127 220 199 218 
-0.546676 0.0184974 1.25659 84 93 30 
-0.532361 0.0953783 1.2289 162 171 152 
-0.548836 0.0390804 1.26482 38 37 7 
-0.527399 0.092166 1.22003 112 113 95 
-0.538831 0.0218307 1.24432 212 204 155 
-0.577643 -0.154165 1.3235 121 94 51 
-0.580079 -0.196976 1.3276 60 51 44 
-0.534454 0.00374085 1.23726 230 226 201 
-0.50047 0.4056 1.18659 199 199 197 
-0.464487 0.315149 1.10187 221 206 229 
-0.495261 0.422258 1.18188 246 248 245 
-0.579809 -0.197081 1.34425 17 35 23 
-0.571662 -0.164244 1.33923 100 62 59 
-0.519234 0.0977396 1.23525 148 151 140 
-0.601298 -0.478905 1.40937 37 44 37 
-0.564056 -0.182274 1.34441 117 100 74 
-0.476266 0.425003 1.17122 202 204 201 
-0.524106 0.0341914 1.26496 58 106 58 
-0.453186 0.301353 1.11205 198 228 236 
-0.516984 -0.0294438 1.25059 158 56 7 
-0.514621 0.0439845 1.25736 212 216 202 
-0.467147 0.27821 1.15809 53 89 115 
-0.47442 0.407922 1.18475 206 208 205 
-0.470666 0.41631 1.18079 197 199 196 
-0.505519 -0.014302 1.24187 230 198 15 
-0.498467 0.103795 1.23237 74 84 60 
-0.495005 0.0684189 1.2229 110 155 114 
-0.502119 -0.00137102 1.23738 224 208 110 
-0.511261 0.0239155 1.26323 88 164 99 
-0.510527 0.0354503 1.26432 238 239 233 
-0.439815 0.298541 1.11035 98 137 180 
-0.472324 0.372151 1.19954 215 215 213 
-0.541431 -0.151515 1.34009 141 141 87 
-0.4933 0.0755398 1.23853 113 136 110 
-0.495455 0.106285 1.25067 79 84 52 
-0.494568 0.0455315 1.24526 105 134 106 
-0.487438 0.0624364 1.22848 243 255 239 
-0.569326 -0.33597 1.41316 35 50 45 
-0.535248 -0.185871 1.3385 120 128 105 
-0.461562 0.38207 1.18802 219 219 217 
-0.481759 0.0647855 1.22046 117 159 121 
-0.488109 0.0425003 1.23623 213 233 208 
-0.493763 0.0582492 1.25173 195 203 188 
-0.498086 0.0262033 1.26468 75 132 77 
-0.48442 0.0772543 1.23429 189 208 188 
-0.495562 0.124916 1.26741 58 84 47 
-0.489476 -0.0154705 1.24436 61 49 35 
-0.533194 -0.194008 1.34743 223 220 151 
-0.487072 0.127148 1.25627 170 190 162 
-0.460783 -0.297382 1.16292 127 131 132 
-0.456631 0.383198 1.19693 201 201 199 
-0.490342 0.0557806 1.26442 133 164 132 
-0.461121 0.259864 1.203 61 62 56 
-0.419768 0.305293 1.10328 96 111 144 
-0.520103 -0.221296 1.33274 166 197 119 
-0.481467 0.137564 1.26099 179 207 166 
-0.47751 0.0183857 1.24328 66 113 61 
-0.448714 0.274767 1.18586 59 93 130 
-0.519098 -0.238272 1.34269 164 165 27 
-0.467597 0.115035 1.23335 73 94 53 
-0.466549 0.0691145 1.22963 136 201 145 
-0.455695 -0.338752 1.17584 96 97 101 
-0.439573 0.392929 1.18197 200 200 198 
-0.482729 0.0254144 1.27395 136 164 126 
-0.409995 0.306404 1.10365 100 114 140 
-0.469417 0.146053 1.25746 115 142 99 
-0.469695 -0.0236062 1.24714 44 140 103 
-0.441707 0.272767 1.1925 56 103 131 
-0.465796 0.0439808 1.24222 170 200 164 
-0.511341 -0.249702 1.34552 22 32 5 
-0.434542 0.406682 1.18322 205 205 203 
-0.467177 0.0547478 1.24807 116 149 118 
-0.467102 0.0362584 1.2486 98 152 102 
-0.508762 -0.231313 1.3431 239 222 12 
-0.467957 0.111487 1.26018 68 87 59 
-0.458774 0.0748373 1.23546 109 165 116 
-0.494566 -0.19549 1.31905 236 238 217 
-0.414576 0.295299 1.13571 96 136 172 
-0.456982 0.093728 1.23863 104 180 118 
-0.459067 0.0879206 1.2467 206 239 208 
-0.465557 0.0557147 1.26359 185 218 189 
-0.427572 0.399642 1.18495 206 206 204 
-0.451037 0.0741283 1.22737 186 212 185 
-0.39963 0.309839 1.10317 153 173 197 
-0.462045 0.120958 1.26622 194 220 195 
-0.4336 0.271366 1.19887 45 125 176 
-0.449953 0.0822468 1.23413 226 243 224 
-0.432238 0.161239 1.19717 124 172 134 
-0.398234 0.303281 1.11426 46 104 141 
-0.439973 0.149937 1.22026 252 255 250 
-0.449978 0.0717572 1.24397 179 233 184 
-0.485234 -0.20233 1.32499 27 123 161 
-0.481393 -0.182239 1.31587 244 234 48 
-0.452039 0.0576219 1.25367 146 174 149 
-0.417429 0.281693 1.17404 97 161 171 
-0.48861 -0.234325 1.33863 52 56 55 
-0.421506 0.386807 1.19409 200 200 198 
-0.477824 -0.161426 1.32022 231 233 232 
-0.471309 -0.131437 1.30281 211 238 221 
-0.444314 0.0903598 1.24209 99 153 104 
-0.413908 0.404951 1.17829 254 254 252 
-0.463775 -0.08468 1.28734 32 149 105 
-0.477145 -0.196882 1.31958 46 108 129 
-0.400812 0.295843 1.13811 104 138 175 
-0.467206 -0.121738 1.29787 203 221 207 
-0.448807 0.0387541 1.25828 167 213 166 
-0.437824 0.1068 1.23376 207 234 201 
-0.479918 -0.219844 1.33423 112 192 215 
-0.470721 -0.177533 1.31351 192 181 0 
-0.476828 -0.207579 1.32907 95 198 231 
-0.437596 0.0975078 1.23914 196 242 205 
-0.473888 -0.183019 1.32482 188 180 0 
-0.479439 -0.230004 1.33997 66 121 142 
-0.428306 0.165266 1.2215 78 112 88 
-0.419148 0.185449 1.19691 219 229 218 
-0.421397 0.264947 1.20974 76 154 192 
-0.421757 0.143356 1.20423 249 251 240 
-0.427187 0.101576 1.22148 175 205 171 
-0.440069 0.0605018 1.25669 164 199 167 
-0.44215 0.0697819 1.26376 74 136 87 
-0.469729 -0.200389 1.32624 56 105 122 
-0.46078 -0.142703 1.30452 217 32 63 
-0.436356 0.0751549 1.25028 89 167 105 
-0.461886 -0.161099 1.314 217 32 63 
-0.468103 -0.213799 1.33045 115 205 232 
-0.46056 -0.176412 1.31547 177 170 0 
-0.423321 0.157411 1.23075 218 233 214 
-0.439093 0.0360309 1.26862 63 137 74 
-0.469594 -0.231612 1.34074 55 64 63 
-0.467378 -0.222446 1.33576 119 201 225 
-0.414254 0.11847 1.20525 205 206 192 
-0.453367 -0.115887 1.30572 230 231 233 
-0.428111 0.0635491 1.24359 233 240 233 
-0.37006 0.317079 1.09236 152 161 200 
-0.379014 0.299695 1.11881 93 135 185 
-0.451338 -0.144787 1.30196 251 205 215 
-0.421988 0.181249 1.23817 223 226 209 
-0.412651 0.194845 1.21434 116 150 126 
-0.460243 -0.206172 1.32976 36 97 126 
-0.452263 -0.157664 1.31345 238 225 234 
-0.438774 -0.262699 1.26712 100 147 113 
-0.429608 0.0442462 1.26077 140 218 156 
-0.465445 -0.243575 1.34817 208 189 113 
-0.388246 0.424644 1.1676 250 250 248 
-0.404848 0.152553 1.20118 155 161 147 
-0.451339 -0.180221 1.31836 184 175 0 
-0.459492 -0.231252 1.34027 195 197 194 
-0.376111 0.174262 1.1266 155 153 138 
-0.360963 0.325011 1.09254 175 199 245 
-0.45189 -0.213539 1.33217 95 206 236 
-0.420383 0.0228133 1.25647 149 179 145 
-0.408927 0.0990171 1.22614 240 251 235 
-0.404621 0.129007 1.21688 151 175 149 
-0.396234 0.153452 1.19587 232 238 228 
-0.397396 0.139858 1.19811 218 221 214 
-0.437668 -0.137883 1.30274 217 33 59 
-0.384732 0.403242 1.181 249 249 247 
-0.45013 -0.226738 1.33729 56 95 112 
-0.399069 -0.326247 1.17548 15 16 18 
-0.449677 -0.237719 1.33971 204 182 80 
-0.441435 -0.179058 1.3182 179 166 0 
-0.429781 -0.258697 1.2784 76 120 84 
-0.397442 0.121877 1.20564 225 227 214 
-0.442533 -0.194046 1.32239 216 47 86 
-0.410606 0.187138 1.25788 193 194 186 
-0.431315 -0.255184 1.29378 171 171 163 
-0.416538 0.0497696 1.27119 224 235 227 
-0.438996 -0.250012 1.32045 135 129 113 
-0.409498 0.0750038 1.25246 162 197 164 
-0.42205 -0.259466 1.26887 77 132 93 
-0.432775 -0.150151 1.31142 170 139 147 
-0.44036 -0.224626 1.33395 86 38 52 
-0.432609 -0.161309 1.31439 218 27 60 
-0.3768 0.41014 1.18219 250 250 248 
-0.410383 0.0502973 1.26185 225 233 222 
-0.386891 0.161953 1.19759 160 166 156 
-0.389741 -0.322707 1.17412 36 37 41 
-0.441614 -0.231447 1.34322 207 213 213 
-0.439519 -0.247385 1.33847 132 122 97 
-0.3938 0.0989659 1.2198 214 218 203 
-0.402604 0.0192102 1.24175 92 117 60 
-0.383157 0.150035 1.19215 135 146 138 
-0.374316 0.394466 1.1845 192 192 190 
-0.425074 -0.141886 1.30722 250 201 205 
-0.418623 -0.258177 1.28077 105 112 79 
-0.421125 -0.253864 1.29088 155 157 133 
-0.427348 -0.172549 1.31686 172 157 0 
-0.432117 -0.198243 1.32994 215 89 113 
-0.406229 0.0414582 1.26722 129 176 130 
-0.414403 -0.0825118 1.28589 230 231 233 
-0.390121 0.211529 1.23181 234 238 237 
-0.392648 0.184124 1.23955 110 163 117 
-0.428389 -0.248975 1.32312 123 113 111 
-0.386363 0.0851974 1.21457 225 227 216 
-0.390167 0.0835385 1.2278 163 167 153 
-0.383412 0.112006 1.20911 205 209 195 
-0.405316 0.0328279 1.27538 187 195 174 
-0.399298 0.0519639 1.26062 201 210 191 
-0.419933 -0.154326 1.31181 255 208 211 
-0.383884 0.101508 1.21595 167 168 160 
-0.429894 -0.228419 1.34308 60 64 63 
-0.401352 0.049237 1.27133 115 161 115 
-0.387356 0.202078 1.23745 161 166 162 
-0.392334 0.0172075 1.24055 58 103 46 
-0.403084 -0.0343051 1.27123 231 232 234 
-0.42504 -0.205468 1.33181 112 15 35 
-0.33749 0.313961 1.08841 140 167 210 
-0.426211 -0.244409 1.33749 180 169 139 
-0.390966 0.222095 1.25963 119 123 122 
-0.411966 -0.13466 1.30575 213 30 60 
-0.390781 0.00605678 1.24894 134 152 70 
-0.366507 0.0854955 1.17733 122 127 123 
-0.423033 -0.220979 1.34004 122 5 32 
-0.413782 -0.252056 1.30858 98 83 76 
-0.418938 -0.197692 1.33008 175 72 93 
-0.414206 -0.170646 1.31794 182 161 0 
-0.388328 0.0376778 1.25044 99 95 22 
-0.3755 0.256576 1.22433 72 152 211 
-0.360929 0.387651 1.18547 188 187 183 
-0.391189 -0.0166161 1.25873 69 114 47 
-0.381992 0.218241 1.24531 27 36 31 
-0.414985 -0.248276 1.32097 106 93 84 
-0.366532 0.0939083 1.1885 32 32 34 
-0.38404 0.0546566 1.2442 107 106 88 
-0.351987 0.422943 1.17238 252 252 252 
-0.417983 -0.230629 1.34547 79 84 78 
-0.379352 0.20965 1.24988 191 191 193 
-0.390432 0.0389896 1.27382 111 105 43 
-0.414464 -0.204222 1.33722 179 65 88 
-0.406266 -0.158015 1.31597 211 22 54 
-0.385987 -0.0308262 1.25877 187 177 108 
-0.403032 -0.140214 1.31006 207 39 65 
-0.412927 -0.223519 1.33825 220 209 213 
-0.408748 -0.194994 1.32889 221 40 83 
-0.326641 0.32531 1.09198 89 88 120 
-0.370477 0.0310999 1.22226 23 24 10 
-0.351959 0.40065 1.18893 188 188 186 
-0.39706 -0.25674 1.29489 80 64 41 
-0.366939 0.0421493 1.21643 33 31 32 
-0.346276 0.40086 1.17971 197 197 195 
-0.359449 -0.308606 1.17378 51 53 52 
-0.343197 0.413723 1.17256 200 202 199 
-0.407178 -0.229347 1.34796 21 21 11 
-0.368148 0.0143654 1.23231 193 198 201 
-0.395071 -0.152145 1.31595 253 218 212 
-0.355944 0.260391 1.21252 76 161 216 
-0.369088 -0.000396778 1.24129 55 58 49 
-0.345164 0.390825 1.18814 233 232 228 
-0.397334 -0.253122 1.32294 95 80 57 
-0.392944 -0.255986 1.31109 126 115 95 
-0.399462 -0.246983 1.33839 126 112 86 
-0.359482 0.036224 1.22022 166 142 142 
-0.385353 -0.121151 1.30265 75 154 99 
-0.355649 0.0524345 1.2127 156 124 163 
-0.358342 0.20209 1.23408 224 239 232 
-0.35121 0.0753227 1.20132 162 112 165 
-0.390042 -0.177728 1.31904 233 215 11 
-0.338161 0.406167 1.18273 241 241 239 
-0.332802 0.426307 1.16778 251 251 251 
-0.375924 -0.293581 1.2703 20 24 25 
-0.381469 -0.268639 1.29155 105 101 90 
-0.360721 -0.00931001 1.23852 175 179 182 
-0.342405 0.172721 1.18969 228 231 222 
-0.355022 0.0458995 1.22536 147 109 150 
-0.35838 0.0140592 1.23511 189 190 192 
-0.333065 0.397787 1.17392 212 212 210 
-0.359316 0.00222461 1.24249 175 161 158 
-0.351854 -0.328935 1.19401 14 19 15 
-0.352688 0.0247941 1.22763 37 38 40 
-0.348517 0.0403706 1.21601 151 129 150 
-0.390004 -0.21932 1.34828 223 200 10 
-0.37897 -0.15638 1.31517 153 104 46 
-0.329865 0.386876 1.18053 228 227 223 
-0.390846 -0.236559 1.35466 186 172 145 
-0.358023 0.00427389 1.25578 42 23 43 
-0.366081 -0.294253 1.26662 87 83 80 
-0.342011 0.0740761 1.20705 29 9 44 
-0.379462 -0.265476 1.31686 48 48 40 
-0.326282 0.411621 1.17606 201 201 199 
-0.342768 0.0650312 1.21402 109 69 121 
-0.366418 -0.289334 1.27572 37 32 28 
-0.370445 -0.282562 1.29159 42 39 34 
-0.360779 -0.0492215 1.27886 206 206 204 
-0.340555 0.244647 1.23187 41 146 201 
-0.3011 0.301161 1.09765 75 117 159 
-0.377421 -0.119357 1.35148 69 73 72 
-0.352426 -0.0145815 1.26925 134 76 137 
-0.327273 0.185869 1.19318 201 202 197 
-0.364462 -0.130272 1.31893 87 82 79 
-0.315297 0.405655 1.1772 201 201 199 
-0.37307 -0.267439 1.34327 40 36 33 
-0.314824 0.390729 1.1845 239 238 234 
-0.348498 -0.0478268 1.28178 22 22 22 
-0.322959 0.101144 1.19618 6 10 19 
-0.350115 -0.0595272 1.28785 168 119 166 
-0.330498 0.0566554 1.22259 43 23 58 
-0.309664 0.416344 1.17615 200 200 200 
-0.28635 0.307583 1.08032 162 212 237 
-0.327225 0.228584 1.23713 152 208 223 
-0.34127 -0.027291 1.2782 172 113 161 
-0.352947 -0.121787 1.32233 164 104 164 
-0.3094 0.140566 1.17369 68 60 81 
-0.311699 0.269182 1.19445 63 152 212 
-0.304594 0.405998 1.17892 247 247 245 
-0.332713 -0.0113835 1.26127 173 56 109 
-0.350944 -0.149491 1.32628 39 33 37 
-0.299607 0.401001 1.17113 246 246 244 
-0.303386 0.384703 1.18521 174 173 169 
-0.314546 0.0761267 1.21006 45 33 69 
-0.294758 0.422096 1.15938 253 253 253 
-0.305999 0.258191 1.20959 74 175 227 
-0.323927 -0.0235908 1.26124 40 35 55 
-0.343371 -0.156532 1.32973 154 118 144 
-0.377378 -0.314489 1.45767 14 18 21 
-0.32086 0.00227157 1.25386 175 18 85 
-0.296232 0.0490908 1.16012 24 20 35 
-0.367604 -0.240427 1.42812 32 41 36 
-0.292818 0.388404 1.17788 244 243 239 
-0.305298 0.255146 1.21982 75 179 234 
-0.292473 0.412574 1.18028 249 249 247 
-0.322772 -0.0139603 1.27345 168 11 78 
-0.337989 -0.131901 1.32705 126 90 136 
-0.37564 -0.36031 1.46506 117 138 123 
-0.339415 -0.13324 1.33849 34 12 50 
-0.326925 -0.0801272 1.30325 168 109 165 
-0.32154 -0.0402643 1.28855 115 90 122 
-0.285918 0.095532 1.15138 1 13 29 
-0.32209 -0.0675623 1.29787 160 132 154 
-0.289994 0.269128 1.19186 42 106 150 
-0.27886 0.0967466 1.14145 90 97 105 
-0.282162 0.27605 1.17279 123 165 215 
-0.320551 -0.110192 1.30609 57 52 75 
-0.260136 0.320759 1.08491 94 81 125 
-0.280439 0.40852 1.17901 253 253 251 
-0.282134 0.066572 1.15981 14 15 19 
-0.290247 0.257992 1.20934 91 162 208 
-0.295872 0.0830926 1.22076 107 108 112 
-0.336822 -0.209348 1.37582 77 92 89 
-0.361617 -0.374361 1.46792 88 105 86 
-0.280261 0.0569571 1.15677 16 17 19 
-0.324276 -0.149095 1.3312 59 41 67 
-0.325542 -0.164024 1.34227 166 128 167 
-0.326615 -0.176016 1.3515 139 112 143 
-0.353761 -0.345017 1.4586 108 126 114 
-0.332443 -0.20082 1.37897 144 162 166 
-0.353146 -0.359961 1.46294 122 139 123 
-0.272865 0.10397 1.15304 173 171 176 
-0.279889 0.0355336 1.18115 34 35 39 
-0.282451 0.228429 1.2099 228 221 211 
-0.27191 0.395041 1.17712 241 240 238 
-0.267928 0.411372 1.16124 201 202 197 
-0.272803 0.273939 1.17854 22 110 160 
-0.346501 -0.35238 1.45783 82 90 77 
-0.287653 -0.0398707 1.22496 28 29 33 
-0.345067 -0.317126 1.46168 66 68 65 
-0.270757 0.391543 1.1877 184 183 181 
-0.318309 -0.185228 1.35438 26 27 31 
-0.274052 0.262168 1.19683 4 103 162 
-0.281694 -0.0055555 1.21279 69 70 74 
-0.272795 0.145577 1.18637 15 14 20 
-0.264714 0.408139 1.17254 245 245 243 
-0.341276 -0.367891 1.45771 117 139 126 
-0.262275 0.274365 1.17584 66 148 208 
-0.260587 0.238913 1.17297 174 195 212 
-0.25956 0.392137 1.1809 236 235 233 
-0.242481 0.295127 1.09581 96 120 190 
-0.273969 -0.0260955 1.22184 85 86 90 
-0.257838 0.104756 1.15814 112 109 154 
-0.269588 -0.00364563 1.21669 97 97 99 
-0.235434 0.319462 1.0842 78 84 134 
-0.260024 0.259856 1.20255 76 143 196 
-0.24875 0.409172 1.16709 252 252 250 
-0.325631 -0.509853 1.46119 79 79 79 
-0.266945 -0.0121853 1.22472 33 34 38 
-0.269516 -0.0475801 1.233 27 28 32 
-0.263202 0.00758465 1.20927 82 83 85 
-0.251855 0.24947 1.17503 133 165 188 
-0.251009 0.382506 1.18888 169 168 164 
-0.252581 0.162073 1.18414 6 0 42 
-0.252156 0.151979 1.1903 3 0 32 
-0.284615 -0.255512 1.31852 147 148 150 
-0.244535 0.390594 1.17704 205 204 202 
-0.24062 0.408132 1.15945 255 255 253 
-0.240211 0.421007 1.16453 255 255 255 
-0.251889 0.131784 1.20578 0 0 32 
-0.285648 -0.34327 1.33982 35 34 39 
-0.251432 0.117237 1.21546 5 3 27 
-0.245573 0.160576 1.19135 110 100 152 
-0.242683 0.172616 1.18013 4 0 39 
-0.241966 0.268795 1.18454 74 129 183 
-0.257274 -0.0642628 1.23543 34 38 39 
-0.250706 0.00756363 1.21336 206 209 214 
-0.228 0.288414 1.12301 111 138 183 
-0.236646 0.386344 1.18149 230 229 225 
-0.238658 0.372648 1.19204 203 194 185 
-0.221109 0.294788 1.09905 118 133 192 
-0.232299 0.399109 1.16804 200 199 197 
-0.242927 0.147937 1.20189 8 5 36 
-0.243428 0.137783 1.20382 114 109 141 
-0.212241 0.308816 1.06563 96 86 136 
-0.229864 0.262949 1.15962 49 115 137 
-0.241568 0.130287 1.21021 0 0 23 
-0.229203 0.249232 1.15892 146 181 185 
-0.232223 0.270551 1.17969 40 114 141 
-0.219832 0.288352 1.11693 112 140 187 
-0.241157 0.12102 1.21596 4 0 25 
-0.226574 0.411716 1.16529 202 204 201 
-0.211898 0.316722 1.0812 134 204 214 
-0.227521 0.3874 1.17245 239 238 236 
-0.229597 0.376974 1.18327 216 213 206 
-0.212449 0.297595 1.09056 130 157 200 
-0.223322 0.277342 1.16231 106 172 196 
-0.223036 0.374729 1.17485 211 208 203 
-0.216589 0.28623 1.13645 80 83 134 
-0.22014 0.268435 1.16511 183 221 224 
-0.208599 0.2928 1.10496 95 167 166 
-0.2011 0.314303 1.07556 101 183 197 
-0.203754 0.299533 1.0955 107 178 184 
-0.217911 0.386517 1.18339 232 231 229 
-0.22754 0.0189611 1.21007 242 241 246 
-0.255035 -0.314799 1.33575 186 189 194 
-0.231843 -0.0383974 1.23126 89 90 92 
-0.22158 0.148747 1.20505 14 7 51 
-0.21157 0.273286 1.16019 202 231 235 
-0.214266 0.267082 1.17731 196 209 215 
-0.248889 -0.299226 1.33201 39 40 44 
-0.208983 0.418597 1.16999 198 198 196 
-0.208912 0.2579 1.16916 120 133 141 
-0.19429 0.298872 1.09084 39 125 184 
-0.244278 -0.289456 1.33455 22 27 30 
-0.245194 -0.305844 1.34075 180 183 188 
-0.203573 0.278403 1.15759 60 129 158 
-0.210679 0.172542 1.19082 155 146 177 
-0.189495 0.319469 1.08168 74 66 107 
-0.20551 0.380702 1.18603 182 181 177 
-0.203469 0.266932 1.16378 78 100 114 
-0.203592 0.371369 1.17986 214 211 202 
-0.23979 -0.319997 1.33843 183 193 202 
-0.203084 0.249653 1.1708 129 140 146 
-0.197708 0.280895 1.1461 69 153 199 
-0.238907 -0.311271 1.34633 181 185 186 
-0.236297 -0.301072 1.33527 39 45 43 
-0.199958 0.206232 1.1685 177 165 187 
-0.235487 -0.33694 1.33767 38 43 46 
-0.194811 0.425245 1.16587 254 254 254 
-0.204052 0.226584 1.20953 155 170 173 
-0.199703 0.239746 1.18472 95 118 132 
-0.189666 0.284664 1.1292 71 133 190 
-0.194551 0.388803 1.16957 248 247 245 
-0.194001 0.260949 1.16714 70 91 108 
-0.193426 0.374746 1.17962 223 220 211 
-0.196466 0.214347 1.18636 65 76 82 
-0.180148 0.293809 1.09498 89 114 181 
-0.176899 0.314462 1.07782 123 118 182 
-0.225594 -0.292527 1.33521 27 36 31 
-0.194559 0.232158 1.19008 103 120 127 
-0.187937 0.273727 1.15399 218 228 240 
-0.197772 0.144316 1.21042 63 69 83 
-0.188369 0.410357 1.18031 246 246 244 
-0.22479 -0.319058 1.35042 33 42 41 
-0.184647 0.416525 1.16328 254 254 252 
-0.238843 -0.568288 1.42253 179 184 187 
-0.177402 0.289128 1.10504 111 155 202 
-0.185994 0.400881 1.17407 242 242 240 
-0.189002 0.164733 1.1808 149 157 178 
-0.183768 0.385805 1.16957 242 241 237 
-0.180454 0.279476 1.13817 177 223 221 
-0.18437 0.233714 1.16482 96 110 121 
-0.170809 0.307552 1.08358 115 125 194 
-0.188761 0.165839 1.19265 87 85 106 
-0.188952 0.155657 1.19801 72 71 89 
-0.23078 -0.56375 1.41736 183 185 197 
-0.217138 -0.325677 1.35437 186 189 196 
-0.178289 0.405615 1.16998 204 204 202 
-0.178765 0.391331 1.17761 235 234 232 
-0.185219 0.11838 1.19514 73 71 72 
-0.172581 0.281506 1.13183 182 200 222 
-0.204349 -0.174775 1.30732 66 67 71 
-0.173314 0.261403 1.1372 174 200 213 
-0.163764 0.299005 1.08492 99 127 200 
-0.184273 0.117965 1.21292 145 139 141 
-0.177489 0.380771 1.19688 178 174 171 
-0.206447 -0.293901 1.33875 188 192 191 
-0.20554 -0.309894 1.3459 33 34 38 
-0.178276 0.130246 1.19749 195 191 190 
-0.168843 0.427106 1.16364 201 202 197 
-0.171675 0.380533 1.18255 224 221 214 
-0.176877 0.118762 1.20223 59 59 61 
-0.170452 0.212164 1.16683 162 167 173 
-0.162919 0.279673 1.12144 136 163 184 
-0.218517 -0.420001 1.47375 46 46 54 
-0.165001 0.23051 1.1505 121 134 142 
-0.169242 0.164483 1.18119 237 235 236 
-0.170634 0.126912 1.18642 218 200 186 
-0.163561 0.406404 1.16534 251 253 250 
-0.170477 0.136476 1.1913 242 231 229 
-0.15348 0.302045 1.08691 109 113 174 
-0.165273 0.214254 1.17666 108 116 127 
-0.208921 -0.580975 1.42881 203 207 219 
-0.152167 0.291821 1.08997 112 155 208 
-0.168253 0.119614 1.19731 178 162 149 
-0.162907 0.373289 1.18711 208 205 196 
-0.163321 0.173944 1.17663 227 216 220 
-0.164214 0.152123 1.18504 243 230 214 
-0.15487 0.250597 1.14309 138 168 168 
-0.160504 0.113519 1.18262 101 89 73 
-0.198605 -0.565056 1.41557 156 136 125 
-0.147307 0.285266 1.11515 99 139 188 
-0.159015 0.140455 1.19651 235 216 201 
-0.149368 0.268516 1.13599 121 144 158 
-0.153593 0.204866 1.16696 220 209 207 
-0.156537 0.12303 1.18562 231 217 208 
-0.15306 0.179348 1.17901 237 221 208 
-0.149243 0.242805 1.15761 122 142 143 
-0.148955 0.382112 1.1808 231 227 224 
-0.143263 0.281947 1.12906 98 136 181 
-0.146136 0.224263 1.1513 226 226 226 
-0.149781 0.161633 1.17938 187 162 140 
-0.144272 0.257245 1.14548 83 106 114 
-0.136349 0.297614 1.0837 126 116 176 
-0.147624 0.16771 1.16743 248 222 209 
-0.150641 0.115687 1.19162 62 46 30 
-0.143284 0.391383 1.1639 248 247 242 
-0.147887 0.127025 1.18904 161 147 134 
-0.14462 0.184215 1.16807 201 183 161 
-0.142843 0.203734 1.16807 203 189 176 
-0.137459 0.407892 1.16181 253 253 251 
-0.139212 0.384766 1.17498 255 254 250 
-0.135856 0.277314 1.1363 209 224 231 
-0.142405 0.116092 1.18512 169 160 155 
-0.138742 0.158555 1.17281 243 230 221 
-0.136131 0.18989 1.16012 240 226 215 
-0.138595 0.134863 1.17718 241 228 220 
-0.133871 0.376228 1.17318 232 232 222 
-0.135257 0.171663 1.16647 248 233 226 
-0.13322 0.196187 1.15205 239 228 222 
-0.135538 0.124964 1.18237 162 137 107 
-0.129694 0.262647 1.14514 85 95 105 
-0.133876 0.148275 1.18102 116 99 79 
-0.130863 0.162336 1.16039 255 238 220 
-0.120186 0.315802 1.07701 74 62 100 
-0.169215 -0.422822 1.4756 38 43 47 
-0.128511 0.213172 1.15159 189 176 168 
-0.12943 0.203349 1.15969 148 129 115 
-0.127206 0.241191 1.14542 170 140 114 
-0.129935 0.180824 1.16687 194 175 161 
-0.125917 0.273422 1.14786 197 206 215 
-0.124012 0.277025 1.13841 23 50 80 
-0.130395 0.121019 1.19286 187 163 139 
-0.127248 0.157492 1.17511 181 157 131 
-0.1266 0.154692 1.18666 91 70 53 
-0.124902 0.14345 1.1709 187 158 126 
-0.126286 0.129458 1.18214 165 151 140 
-0.121483 0.224843 1.14808 100 81 75 
-0.121918 0.200499 1.15276 136 118 108 
-0.125321 0.114564 1.1855 46 37 32 
-0.123177 0.169526 1.17051 186 164 143 
-0.118614 0.265676 1.14145 111 107 108 
-0.119878 0.188333 1.1517 225 208 201 
-0.120038 0.210154 1.16171 98 84 73 
-0.117652 0.237022 1.14023 239 221 209 
-0.120071 0.185944 1.16258 208 190 178 
-0.116878 0.251816 1.14398 133 105 81 
-0.111116 0.289877 1.08802 116 133 187 
-0.118948 0.370282 1.18486 168 160 149 
-0.118655 0.195162 1.16665 133 112 91 
-0.121281 0.1276 1.19201 87 74 65 
-0.120204 0.144679 1.18555 107 80 53 
-0.12141 0.0741583 1.21824 30 34 37 
-0.116865 0.156725 1.181 111 87 63 
-0.105821 0.296595 1.08126 90 119 189 
-0.104887 0.313122 1.07225 124 105 161 
-0.112063 0.228944 1.15048 119 100 86 
-0.111939 0.204171 1.16043 184 158 133 
-0.11286 0.171687 1.17021 118 92 65 
-0.110853 0.211928 1.15306 121 100 81 
-0.110784 0.190476 1.16025 110 88 64 
-0.108015 0.2338 1.13995 236 222 213 
-0.112344 0.123141 1.19087 162 142 118 
-0.108043 0.369036 1.17422 219 215 204 
-0.106732 0.272175 1.15074 21 40 57 
-0.106527 0.252835 1.14991 149 130 116 
-0.109938 0.14119 1.18167 121 97 73 
-0.108036 0.182021 1.16463 195 169 142 
-0.110581 0.133567 1.19061 115 87 66 
-0.105609 0.220769 1.1476 141 128 111 
-0.108561 0.152137 1.18383 144 126 102 
-0.103648 0.251218 1.13982 87 68 51 
-0.103987 0.240142 1.14873 218 201 185 
-0.101783 0.278739 1.13533 97 157 191 
-0.0969599 0.308906 1.07962 119 107 179 
-0.105061 0.16033 1.17755 180 153 124 
-0.10248 0.205869 1.15361 177 155 132 
-0.105195 0.116208 1.19022 54 42 30 
-0.101324 0.189737 1.16401 114 90 78 
-0.101705 0.174488 1.16754 133 107 82 
-0.10023 0.217998 1.15568 213 194 179 
-0.0989744 0.263206 1.1528 91 100 115 
-0.0979536 0.229898 1.14832 166 144 123 
-0.0928045 0.287886 1.08888 113 152 209 
-0.098483 0.210667 1.16425 186 167 152 
-0.101008 0.131033 1.19152 169 143 118 
-0.0956854 0.246034 1.14812 162 137 115 
-0.0882598 0.292633 1.07847 102 107 171 
-0.0948015 0.197136 1.1632 195 176 161 
-0.096213 0.152768 1.17998 191 167 139 
-0.0923787 0.218951 1.1489 171 147 121 
-0.0933451 0.167467 1.17498 189 164 142 
-0.0942287 0.142587 1.18907 180 154 129 
-0.0921074 0.183493 1.16884 179 156 138 
-0.0903523 0.371959 1.17512 176 173 164 
-0.0843622 0.314295 1.07687 81 83 104 
-0.0856133 0.296841 1.09277 71 91 162 
-0.09352 0.119981 1.19087 124 108 93 
-0.0899303 0.208781 1.15559 182 160 137 
-0.0899827 0.184682 1.15875 234 213 192 
-0.0875498 0.276991 1.13712 0 68 121 
-0.0899461 0.170802 1.16512 121 97 71 
-0.0875449 0.229088 1.15288 150 131 116 
-0.0843613 0.286186 1.1248 55 90 148 
-0.0902687 0.130269 1.19419 178 154 130 
-0.0853103 0.205592 1.164 106 82 58 
-0.079805 0.285927 1.0881 76 78 93 
-0.0848048 0.193943 1.15899 97 72 50 
-0.0912144 0.0167065 1.24396 131 132 136 
-0.0848998 0.162403 1.17382 141 116 94 
-0.0848458 0.115196 1.19239 23 19 16 
-0.0830451 0.148442 1.18194 182 156 129 
-0.080568 0.221118 1.15712 96 71 49 
-0.0795857 0.254339 1.15353 54 64 73 
-0.0787143 0.240548 1.1476 169 142 115 
-0.0776757 0.273941 1.14543 46 119 174 
-0.0807838 0.134974 1.19239 186 162 134 
-0.0770021 0.230896 1.15485 169 147 123 
-0.0777857 0.180508 1.16942 108 82 55 
-0.0783378 0.158616 1.18168 195 169 142 
-0.0782845 0.135648 1.17723 143 122 95 
-0.0750722 0.210575 1.16372 106 78 54 
-0.0725444 0.390385 1.1654 246 245 241 
-0.0762481 0.124143 1.19182 178 153 123 
-0.0696659 0.250162 1.15797 117 101 86 
-0.0668712 0.30175 1.11234 190 182 145 
-0.0712341 0.151055 1.18171 177 152 122 
-0.0689119 0.224328 1.15426 163 137 114 
-0.0695897 0.26716 1.17881 17 35 37 
-0.0678763 0.240689 1.15253 97 74 56 
-0.0693846 0.161001 1.17482 167 143 119 
-0.0668693 0.211012 1.15732 165 135 97 
-0.0693309 0.125725 1.19967 77 56 29 
-0.0683586 0.144173 1.19212 172 145 118 
-0.0631566 0.201746 1.16727 137 110 81 
-0.0619945 0.155072 1.18149 123 96 69 
-0.0598169 0.229451 1.15506 82 56 29 
-0.062466 0.118422 1.19969 39 27 15 
-0.0597953 0.219045 1.15555 106 84 63 
-0.06112 0.137358 1.18935 109 84 53 
-0.0582692 0.247302 1.15827 133 117 94 
-0.0597856 0.168653 1.18309 97 79 59 
-0.0600032 0.128955 1.19598 82 63 46 
-0.0589243 0.162768 1.17433 164 139 109 
-0.0567572 0.181148 1.17638 123 96 66 
-0.0626984 -0.289266 1.22462 222 218 215 
-0.0564393 0.148044 1.19036 156 130 103 
-0.0541211 0.223647 1.16263 174 144 118 
-0.0535318 0.237373 1.15391 171 144 117 
-0.0538954 0.138748 1.19674 117 99 89 
-0.055771 -0.039632 1.26132 210 208 211 
-0.0513035 0.161231 1.18226 149 123 100 
-0.0502143 0.185182 1.169 95 68 39 
-0.0497595 0.215724 1.16787 96 69 48 
-0.0483843 0.223006 1.15357 159 135 111 
-0.0486929 0.198131 1.16666 157 134 120 
-0.048836 0.174737 1.18923 92 70 49 
-0.0531153 -0.283632 1.22812 71 30 10 
-0.0462541 0.18028 1.1773 160 136 112 
-0.0454278 0.127417 1.21004 23 17 21 
-0.0431235 0.254029 1.17224 72 61 43 
-0.042686 0.193806 1.17577 100 81 64 
-0.0417191 0.220367 1.16421 117 90 61 
-0.0390452 0.378611 1.1705 167 164 155 
-0.0461434 -0.276625 1.23047 63 19 0 
-0.0437648 -0.012195 1.26661 38 39 44 
-0.0390957 0.236186 1.16081 95 73 50 
-0.0399774 -0.0229679 1.27428 54 55 59 
-0.0352544 0.20233 1.17267 160 131 99 
-0.038851 -0.23874 1.19865 26 20 20 
-0.0349342 -0.0187174 1.25357 140 142 141 
-0.0314594 0.226236 1.16177 172 142 116 
-0.0312664 0.219004 1.17133 93 65 41 
-0.031655 0.188885 1.18501 77 53 43 
-0.0355174 -0.282704 1.24732 62 18 0 
-0.0296402 0.242461 1.1664 147 129 105 
-0.032329 -0.0620164 1.21498 30 29 27 
-0.0304635 -0.0095729 1.27299 233 237 238 
-0.0293964 -0.0212005 1.27771 235 236 238 
-0.0256273 0.207113 1.17553 83 58 38 
-0.0257807 0.170515 1.21968 31 22 15 
-0.0255257 0.177582 1.20006 53 39 26 
-0.025122 -0.270837 1.24727 85 19 20 
-0.0243943 -0.254284 1.22818 126 68 54 
-0.0201631 0.224278 1.16774 142 118 90 
-0.0204069 0.159933 1.22158 153 156 175 
-0.0223085 -0.242591 1.21778 101 72 58 
-0.0179614 0.242981 1.16663 88 79 64 
-0.0178762 0.148217 1.26676 116 118 141 
-0.018678 0.0145568 1.26635 77 143 69 
-0.0194538 -0.279149 1.26293 83 38 15 
-0.0172853 -0.0266938 1.24436 229 235 235 
-0.0196067 -0.37422 1.39998 223 239 236 
-0.0175196 -0.255761 1.2367 135 74 71 
-0.0156586 -0.244489 1.22698 40 13 0 
-0.011677 0.231394 1.16646 101 77 53 
-0.0137635 -0.0501022 1.19856 128 112 86 
-0.0128062 -0.0614899 1.20274 62 64 63 
-0.0112767 0.0290439 1.25284 212 212 214 
-0.00685459 0.240479 1.17106 116 101 80 
-0.00954118 -0.245067 1.23543 54 12 0 
-0.00827622 -0.255102 1.24916 82 18 19 
-0.00566448 -0.0716686 1.20224 31 31 31 
-0.00378891 -0.0299665 1.24757 60 61 63 
-0.00351256 -0.274981 1.27634 92 22 32 
-0.000592385 -0.0559662 1.19095 36 36 36 
0.00194472 0.247462 1.18915 89 78 56 
0.000148654 -0.060903 1.20037 67 67 67 
0.000975609 -0.284072 1.29268 122 78 43 
0.00410479 0.137044 1.24439 21 21 19 
0.00195739 -0.275804 1.28601 127 71 54 
0.0052502 0.12552 1.21971 76 73 80 
0.00607898 0.0605989 1.22865 87 86 84 
0.0051312 -0.077412 1.20433 16 16 18 
0.00952617 -0.279571 1.29794 92 19 26 
0.0140369 -0.398118 1.42258 161 185 171 
0.0116754 -0.273551 1.28918 138 75 68 
0.0155417 0.181823 1.24765 177 169 130 
0.0169345 -0.0102318 1.23579 63 65 64 
0.0167681 -0.053386 1.19467 255 207 89 
0.0203705 0.143901 1.25281 140 142 129 
0.0209539 0.203415 1.22916 97 88 47 
0.0215976 -0.278705 1.30735 150 64 73 
0.0225153 -0.269685 1.29959 102 18 33 
0.0212578 -0.10507 1.21418 25 25 27 
0.0213651 -0.0881319 1.2098 30 21 14 
0.0245887 0.155431 1.24496 61 105 106 
0.0212681 -0.0337217 1.188 158 117 55 
0.0256362 0.135555 1.24774 160 125 132 
0.0259691 -0.147602 1.24353 22 22 20 
0.0291259 -0.285361 1.32476 94 11 21 
0.029883 0.164531 1.24134 46 121 161 
0.0298421 0.175343 1.24181 61 104 123 
0.0291548 -0.126374 1.21997 37 37 37 
0.0311888 -0.156706 1.24394 242 246 245 
0.0301211 -0.105582 1.20865 61 49 1 
0.0323316 0.0900952 1.22367 1 2 0 
0.0376958 -0.205309 1.37528 30 10 1 
0.0412311 -0.242747 1.39106 37 17 10 
0.0361512 0.0903766 1.20801 135 153 141 
0.0428596 -0.229247 1.38557 46 21 16 
0.0405174 -0.265176 1.31076 92 25 9 
0.0376037 -0.153011 1.23359 195 197 196 
0.0451979 -0.219998 1.38239 104 77 66 
0.0414223 0.182993 1.24022 7 83 133 
0.0401953 0.08271 1.22297 172 48 56 
0.0424359 0.225656 1.22082 58 98 106 
0.0487086 -0.211081 1.37835 75 47 26 
0.0497877 -0.247596 1.39526 64 33 30 
0.0417172 -0.142611 1.22348 34 34 32 
0.0432369 -0.171057 1.24693 18 20 19 
0.0452152 0.0733283 1.24294 0 6 1 
0.0467682 -0.25346 1.30086 142 98 61 
0.0461432 0.192105 1.23218 92 177 218 
0.052419 -0.239599 1.38455 136 103 88 
0.0481433 0.0545873 1.28161 26 26 14 
0.048788 -0.260942 1.31692 49 18 0 
0.0527024 -0.227011 1.38235 64 30 18 
0.0447581 0.00955689 1.20072 241 242 244 
0.049302 0.14332 1.25579 240 92 118 
0.0462117 0.093883 1.20936 13 3 4 
0.0489985 0.204059 1.23063 71 164 208 
0.0501867 0.0656887 1.25036 11 28 18 
0.045885 -0.0450315 1.19006 147 156 189 
0.0488807 0.231688 1.20248 40 115 172 
0.05283 -0.252045 1.30931 122 84 75 
0.0530401 0.052828 1.26754 27 35 24 
0.0608303 -0.394078 1.43361 199 204 207 
0.050511 -0.152497 1.23751 43 30 0 
0.0595079 -0.244657 1.39038 80 51 33 
0.0531393 0.167988 1.23489 132 123 154 
0.0527052 0.0770485 1.2328 3 16 7 
0.0606157 -0.234103 1.38647 160 125 106 
0.0512251 0.249052 1.18528 47 114 166 
0.0526591 -0.0618042 1.20037 43 43 45 
0.0567714 0.0516529 1.25712 75 91 80 
0.0597234 -0.261559 1.32905 103 56 48 
0.055879 0.214921 1.21944 69 156 199 
0.0672296 -0.409319 1.44076 205 242 248 
0.0532623 0.238415 1.16273 26 105 161 
0.0568602 0.206394 1.22451 71 165 203 
0.0575231 0.185016 1.23534 75 163 209 
0.0576114 0.0659349 1.23904 67 86 82 
0.0669223 -0.370247 1.41581 171 165 179 
0.0614465 -0.24925 1.31401 51 2 0 
0.0596927 0.0616093 1.2546 46 61 54 
0.0571045 0.244759 1.19355 17 94 148 
0.0623548 0.227921 1.21051 0 35 73 
0.0689976 -0.250933 1.32636 56 4 0 
0.0661458 0.199431 1.22807 59 142 192 
0.0681289 0.0480234 1.26521 40 55 52 
0.0616762 0.26445 1.15775 91 153 204 
0.0580613 0.298911 1.09811 192 183 142 
0.064296 -0.0699317 1.19785 44 54 63 
0.0683869 0.126973 1.23984 191 41 66 
0.0654555 0.247056 1.18857 62 149 203 
0.0680843 0.218062 1.22356 53 139 186 
0.0693921 0.159048 1.22886 255 65 99 
0.0716024 0.18978 1.23026 47 139 178 
0.0723517 0.207107 1.22414 11 102 147 
0.0752436 0.122145 1.2476 3 0 0 
0.0749907 -0.21535 1.25456 81 77 68 
0.0715586 0.253255 1.18038 13 105 152 
0.0741344 0.229649 1.21074 24 94 145 
0.0883599 -0.353988 1.40076 91 36 55 
0.0659969 0.282554 1.09008 183 170 164 
0.0782323 0.199731 1.22988 71 155 201 
