ply                 
format ascii 1.0    
element vertex 1244
property float x    
property float y    
property float z    
property uchar red  
property uchar green
property uchar blue 
end_header          
0.349949 0.206046 1.20671 109 138 154 
0.35368 0.211923 1.2164 91 150 156 
0.365903 -0.209025 1.24613 152 131 76 
0.377738 -0.122092 1.28268 11 15 16 
0.376207 -0.320171 1.27181 140 108 31 
0.355187 0.172182 1.21626 15 79 104 
0.36901 -0.254759 1.25068 94 73 18 
0.370508 -0.310955 1.25462 120 103 59 
0.378987 -0.0510036 1.28371 40 39 35 
0.378245 -0.345322 1.27228 215 158 53 
0.369632 -0.238019 1.24817 56 45 13 
0.37435 -0.30288 1.26046 156 154 141 
0.37047 -0.191055 1.25036 140 132 130 
0.361196 0.15098 1.22759 13 25 23 
0.457315 -0.301694 1.51361 59 43 0 
0.370336 -0.218846 1.24857 174 149 92 
0.37769 -0.0711033 1.27349 104 108 107 
0.377663 -0.273642 1.26359 210 167 72 
0.384826 -0.358279 1.27843 189 138 49 
0.406126 -0.225041 1.34621 142 131 111 
0.376418 -0.266969 1.25375 47 39 0 
0.383541 -0.333895 1.27196 231 173 40 
0.380124 -0.29315 1.26221 59 50 33 
0.379183 -0.250767 1.25935 71 53 7 
0.376718 -0.200748 1.25275 50 46 43 
0.379323 -0.217306 1.25807 155 129 68 
0.386631 -0.0665836 1.2815 168 169 112 
0.373723 0.115097 1.24491 113 120 104 
0.350996 -0.187558 1.16739 56 52 51 
0.379649 -0.232553 1.25088 165 139 80 
0.385662 -0.301829 1.26398 19 15 6 
0.385022 -0.208097 1.26106 108 104 101 
0.367171 0.185224 1.21363 29 116 143 
0.355559 0.0216084 1.17526 157 156 154 
0.391678 -0.347409 1.27491 209 169 99 
0.365742 0.199451 1.20743 70 154 182 
0.364122 0.21181 1.20207 95 117 131 
0.308708 -0.189586 1.02983 182 157 93 
0.385492 -0.280577 1.25601 214 162 42 
0.384694 -0.242536 1.25391 161 135 76 
0.364484 0.191072 1.20151 76 160 188 
0.355891 0.238983 1.17591 178 232 242 
0.396113 -0.364739 1.28385 243 193 108 
0.386447 -0.258567 1.25487 93 68 2 
0.373674 0.159531 1.22453 86 164 174 
0.363174 0.220121 1.19357 12 98 133 
0.372578 0.176287 1.22011 74 150 174 
0.388259 -0.0665736 1.25996 70 113 57 
0.393426 -0.339412 1.26877 189 143 45 
0.348618 -0.223319 1.13686 96 68 20 
0.388593 -0.219318 1.25461 128 128 126 
0.386312 0.0759866 1.2533 4 5 7 
0.392406 -0.0525152 1.26906 114 141 34 
0.39227 -0.230369 1.2638 122 120 123 
0.364862 0.229597 1.19048 78 167 197 
0.38971 -0.0251676 1.25698 22 28 42 
0.393509 -0.24165 1.26048 155 139 126 
0.389509 -0.232934 1.24708 70 65 61 
0.365168 0.0172116 1.18092 155 155 157 
0.394106 -0.264896 1.25784 78 55 5 
0.396984 -0.29726 1.26404 202 186 170 
0.394412 -0.287293 1.25673 206 152 43 
0.403155 -0.351677 1.27938 182 129 53 
0.39493 -0.035172 1.26014 197 200 67 
0.366499 0.236177 1.18238 80 159 190 
0.387585 0.118269 1.24119 124 114 102 
0.403183 -0.337555 1.27741 185 131 33 
0.399078 -0.277767 1.26231 177 148 92 
0.380956 0.181453 1.21478 89 149 173 
0.382856 0.159984 1.218 110 118 105 
0.402647 -0.236897 1.26689 65 57 54 
0.379338 0.19831 1.20682 78 142 180 
0.365719 0.242222 1.16715 48 126 149 
0.403241 -0.261137 1.2642 157 144 127 
0.403524 -0.287615 1.26431 156 131 65 
0.347057 0.266812 1.10942 86 79 120 
0.377959 0.219065 1.19581 81 133 172 
0.409757 -0.326957 1.27533 53 41 17 
0.407255 -0.25098 1.26876 124 121 116 
0.400168 0.0835622 1.25376 14 14 16 
0.403769 -0.0404147 1.2598 34 50 66 
0.410317 -0.263972 1.27204 115 111 110 
0.407831 -0.302823 1.26446 101 76 19 
0.388075 0.174292 1.21541 4 31 52 
0.456862 -0.549139 1.39567 125 115 106 
0.392581 0.156687 1.22505 116 115 110 
0.415472 -0.339247 1.27752 160 130 70 
0.411543 -0.277975 1.26591 165 153 141 
0.414823 -0.314292 1.27374 88 68 18 
0.387359 0.210279 1.20233 64 125 172 
0.417644 -0.28921 1.27261 158 146 124 
0.392726 0.19673 1.20923 64 126 167 
0.404651 0.117545 1.24033 125 115 105 
0.468571 -0.575596 1.40338 24 22 23 
0.421874 -0.331666 1.27741 93 63 11 
0.423683 -0.275944 1.28104 132 128 125 
0.399498 0.165292 1.22176 111 108 101 
0.411328 0.0805362 1.2482 86 88 83 
0.426031 -0.293038 1.27745 110 72 33 
0.3922 0.218624 1.19247 111 155 190 
0.412884 0.110741 1.24083 16 15 20 
0.404343 0.175552 1.21701 66 124 161 
0.417817 -0.0610389 1.24668 122 178 143 
0.4418 -0.0987308 1.31068 54 79 133 
0.377895 0.253631 1.14157 65 139 174 
0.432306 -0.331127 1.27418 195 140 47 
0.408378 0.16095 1.2195 64 55 46 
0.400916 0.211634 1.19643 102 151 183 
0.421606 0.0847164 1.24982 106 103 94 
0.432586 -0.124698 1.27467 206 173 166 
0.404864 0.199396 1.20585 77 135 173 
0.447881 -0.214741 1.3131 87 69 65 
0.482556 -0.559411 1.39795 89 74 67 
0.428031 -0.0443917 1.26012 58 73 102 
0.484829 -0.505904 1.40292 192 209 203 
0.436457 -0.10333 1.27567 169 149 151 
0.372847 0.263615 1.11156 53 73 108 
0.45083 -0.203844 1.30751 100 80 73 
0.415312 0.175027 1.21765 71 113 138 
0.425981 0.112778 1.23713 116 122 108 
0.387707 0.253453 1.13691 102 134 172 
0.408777 0.214131 1.19019 112 137 177 
0.422783 0.175156 1.22639 118 131 122 
0.436598 -0.0981426 1.25685 211 178 169 
0.490447 -0.524658 1.38715 152 150 153 
0.465713 -0.222579 1.3273 62 62 60 
0.44378 -0.0780957 1.27068 19 26 45 
0.45743 -0.183057 1.29856 107 83 73 
0.420127 0.18213 1.20793 107 136 166 
0.475355 -0.231791 1.34348 6 6 6 
0.497884 -0.543655 1.39546 34 28 32 
0.485978 -0.355778 1.36664 136 148 136 
0.423037 0.170676 1.21169 121 128 110 
0.417565 0.208132 1.19312 108 150 188 
0.436308 0.112765 1.2386 136 136 110 
0.408121 0.235242 1.16375 107 121 160 
0.402299 0.246741 1.14289 104 138 173 
0.431797 0.16773 1.21638 25 35 26 
0.429895 0.177866 1.21096 126 147 142 
0.445712 -0.0521825 1.24555 46 51 54 
0.434204 0.153637 1.22018 9 11 0 
0.463697 -0.160975 1.28849 134 95 88 
0.449146 -0.0656869 1.25209 36 55 51 
0.487226 -0.362218 1.33848 69 65 64 
0.45081 -0.107594 1.24757 217 182 178 
0.421517 0.21918 1.17869 125 155 191 
0.431131 0.197018 1.19793 121 176 196 
0.412836 0.241913 1.14792 108 163 166 
0.481158 -0.167726 1.30506 75 81 71 
0.464868 -0.129036 1.26314 130 104 103 
0.463552 -0.0606417 1.26157 188 208 199 
0.430413 0.207701 1.18408 131 160 192 
0.460953 -0.0533379 1.24811 79 92 101 
0.444129 0.162614 1.21057 114 117 88 
0.493855 -0.24447 1.32373 15 17 16 
0.442102 0.18513 1.20015 107 156 186 
0.422048 0.232737 1.15106 43 84 114 
0.469653 -0.116993 1.25903 195 162 155 
0.482311 -0.0786892 1.28073 15 18 23 
0.476649 -0.143091 1.26424 109 103 81 
0.4928 -0.177104 1.30101 126 130 115 
0.440856 0.206507 1.1802 113 116 151 
0.500831 -0.250541 1.3163 13 15 12 
0.472768 -0.0912025 1.2473 61 47 36 
0.448652 0.179803 1.19495 46 48 45 
0.492397 -0.163371 1.29042 137 112 116 
0.501438 -0.34044 1.3076 140 123 115 
0.491861 -0.296839 1.28297 146 171 152 
0.52267 -0.425085 1.34959 146 130 117 
0.483425 -0.0459777 1.26307 7 7 9 
0.493617 -0.149899 1.28345 140 135 105 
0.449545 0.179623 1.18429 157 157 123 
0.479262 0.0263957 1.2502 25 28 17 
0.499753 -0.183684 1.28968 134 142 129 
0.450732 0.208504 1.1814 65 100 132 
0.443548 0.217293 1.1622 69 80 125 
0.531509 -0.474611 1.35421 32 26 26 
0.487186 -0.0324745 1.25809 4 5 10 
0.488224 -0.0896986 1.25957 39 40 32 
0.51456 -0.293081 1.31158 164 186 173 
0.514946 -0.282921 1.31043 175 199 185 
0.499073 -0.144555 1.27519 29 32 25 
0.510412 -0.260703 1.29477 132 138 124 
0.521411 -0.32824 1.31788 188 206 194 
0.52507 -0.349239 1.32051 53 52 50 
0.507455 -0.193752 1.28097 105 107 102 
0.533652 -0.413697 1.33573 35 29 31 
0.464177 0.182993 1.18357 47 46 42 
0.518155 -0.251068 1.29677 18 18 16 
0.492258 -0.0217988 1.24076 175 174 154 
0.452853 0.218404 1.15024 23 118 166 
0.464454 0.186721 1.16957 43 125 175 
0.519997 -0.234137 1.28035 143 150 132 
0.520841 -0.200496 1.27398 143 149 139 
0.486174 0.16135 1.19826 10 15 9 
0.502084 -0.0343014 1.22871 180 178 163 
0.513953 -0.0851239 1.25392 148 159 142 
0.504691 -0.0533328 1.23196 27 28 22 
0.482736 0.179498 1.18118 27 31 32 
0.529086 -0.240598 1.27464 218 175 120 
0.508644 -0.0785331 1.22911 29 30 25 
0.524043 -0.157125 1.26182 231 231 231 
0.528046 -0.227762 1.26841 157 161 146 
0.47878 0.182625 1.16526 155 136 138 
0.510968 -0.0310861 1.22017 163 131 136 
0.528608 -0.200724 1.25013 19 23 24 
0.54171 -0.208937 1.2629 12 18 14 
0.549936 -0.216573 1.25889 181 148 117 
1.07167 -0.182927 1.74577 66 67 49 
-0.438072 -0.109111 1.25779 230 231 233 
-0.2567 0.153725 1.21386 3 0 32 
-0.252028 0.165099 1.20908 12 5 47 
-0.246049 0.173713 1.20639 126 120 154 
-0.246245 0.156977 1.21567 2 0 30 
-0.109493 0.195935 1.18992 111 86 64 
0.0454986 0.229214 1.24528 87 163 195 
0.0763475 0.209221 1.25217 60 153 197 
0.0777573 -0.114435 1.21338 13 31 45 
0.0829687 0.255885 1.21509 22 113 144 
0.0872429 -0.213549 1.2365 240 207 76 
0.0868249 -0.0848295 1.20631 128 135 189 
0.09651 0.219319 1.24721 108 178 230 
0.0973041 -0.213398 1.23633 196 158 59 
0.10068 -0.226345 1.23763 253 220 113 
0.106826 -0.209608 1.23437 244 215 75 
0.11087 -0.224672 1.23546 183 151 30 
0.122667 -0.252541 1.24043 171 139 18 
0.125352 -0.190391 1.23158 110 137 192 
0.140786 -0.210481 1.23379 96 119 173 
0.147759 -0.182025 1.23069 177 202 243 
0.150189 -0.234223 1.23668 231 230 235 
0.158212 -0.00644145 1.1785 49 64 83 
0.167381 -0.20375 1.23546 129 153 201 
0.176112 0.183451 1.25599 26 122 138 
0.184234 -0.183373 1.23327 142 172 208 
0.189832 -0.310445 1.24485 233 234 229 
0.202597 -0.283965 1.24647 14 14 16 
0.203942 -0.312938 1.24634 211 207 204 
0.209596 -0.245613 1.24405 230 231 233 
0.232008 -0.166636 1.22432 132 171 226 
0.222966 0.282052 1.13584 49 135 192 
0.275514 -0.348133 1.25102 0 0 0 
0.378894 -0.290328 1.24643 73 68 39 
0.378629 0.267624 1.16247 45 63 103 
-0.498855 0.144375 0.972486 134 134 134 
-0.595279 -0.137512 1.27359 209 185 159 
-0.393332 -0.107465 1.29239 232 233 235 
-0.34439 0.117662 1.17413 151 97 146 
-0.340313 0.0782942 1.19047 22 6 35 
-0.343338 0.0530255 1.22198 182 145 188 
-0.32922 -0.137312 1.31434 54 26 66 
-0.281942 0.0827894 1.15354 21 22 26 
-0.317116 -0.108072 1.28954 57 52 75 
-0.343049 -0.24282 1.39742 70 86 76 
-0.253885 0.289088 1.13772 60 99 140 
-0.266404 -0.0422389 1.22164 81 82 86 
-0.259545 -0.00872361 1.21449 207 211 212 
-0.252905 0.147459 1.19761 5 0 37 
-0.246052 0.143442 1.20793 102 93 138 
-0.240816 0.170911 1.1865 16 9 42 
-0.236972 0.139573 1.20806 3 0 27 
-0.227897 0.116242 1.16018 66 68 81 
-0.236696 0.129242 1.21535 9 2 33 
-0.264098 -0.304975 1.32595 52 53 55 
-0.236083 -0.000191193 1.21591 218 221 226 
-0.209654 0.293778 1.10925 95 167 166 
-0.234835 -0.0158721 1.22106 216 219 224 
-0.253464 -0.312423 1.32668 186 189 194 
-0.247905 -0.297815 1.32602 39 40 44 
-0.213762 0.134938 1.17379 109 106 127 
-0.202984 0.28756 1.13022 85 155 167 
-0.213898 0.135238 1.18381 155 152 169 
-0.195484 0.300213 1.09654 39 125 184 
-0.243783 -0.323181 1.32639 34 42 44 
-0.242597 -0.287298 1.32578 22 27 30 
-0.206849 0.254225 1.17832 130 141 147 
-0.2071 0.159369 1.17226 17 11 49 
-0.235818 -0.307247 1.32976 183 184 186 
-0.206333 0.175059 1.19584 148 133 174 
-0.23373 -0.33345 1.32543 38 43 46 
-0.223985 -0.2911 1.32785 34 38 39 
-0.194652 -0.00155682 1.2226 87 88 92 
-0.214611 -0.320733 1.33686 186 189 196 
-0.18313 0.152671 1.18379 71 70 88 
-0.210945 -0.312632 1.33223 24 26 25 
-0.189089 0.0146546 1.22039 49 50 55 
-0.19327 -0.0542144 1.24644 101 104 111 
-0.165898 0.307608 1.09169 112 152 213 
-0.175475 0.185049 1.18757 124 115 142 
-0.165731 0.189869 1.17336 120 120 122 
-0.155295 0.28419 1.13065 0 55 89 
-0.156011 0.251904 1.15061 138 168 168 
-0.14668 0.297858 1.09495 74 65 120 
-0.146192 0.281749 1.13885 107 131 157 
-0.136698 0.278576 1.14254 209 224 231 
-0.129571 0.214326 1.16014 189 176 168 
-0.128095 0.2424 1.1528 170 140 114 
-0.13345 0.00517688 1.23612 58 58 60 
-0.127521 0.0189045 1.23275 45 46 50 
-0.119402 0.179369 1.17005 117 91 68 
-0.111658 0.262021 1.14842 153 131 108 
-0.111044 0.214635 1.15927 188 166 145 
-0.107705 0.193253 1.16654 111 86 64 
-0.103809 0.176675 1.17397 109 84 54 
-0.109115 0.0274908 1.23342 245 245 247 
-0.101842 0.186066 1.17018 132 109 91 
-0.0993334 0.128083 1.19883 99 78 61 
-0.0976859 0.159573 1.18469 146 122 98 
-0.0900208 0.217878 1.15761 128 104 80 
-0.0896926 0.1755 1.17643 114 92 71 
-0.0880176 0.270092 1.16905 49 91 129 
-0.0911172 0.118559 1.19841 92 76 63 
-0.0879968 0.195062 1.1676 107 81 64 
-0.0815871 0.274196 1.15739 56 141 195 
-0.0799803 0.255604 1.16061 54 64 73 
-0.0777484 0.24189 1.15563 110 79 51 
-0.0793091 0.118685 1.19908 153 132 113 
-0.0743979 0.171403 1.17744 131 107 79 
-0.0734681 0.197627 1.17162 112 88 62 
-0.0724807 0.230212 1.16133 82 58 32 
-0.0696894 0.255227 1.16222 72 71 66 
-0.0697556 0.21999 1.16192 109 85 59 
-0.0607293 0.23612 1.15901 70 46 22 
-0.0575604 0.198351 1.17365 132 103 69 
-0.0500008 0.241058 1.16216 89 65 41 
-0.0470942 0.0179878 1.2538 57 81 65 
-0.0427015 0.19469 1.18319 100 81 64 
-0.0338235 0.246252 1.17176 98 84 75 
-0.0316046 0.199244 1.18163 94 72 51 
-0.0273103 0.0250532 1.25435 206 210 213 
-0.0238321 0.24342 1.17389 98 83 60 
-0.0207158 0.211858 1.18001 66 42 30 
-0.000548123 0.00926985 1.23511 30 28 29 
0.0241095 0.152749 1.25546 40 80 82 
0.0264871 0.162259 1.25284 54 85 90 
0.0365246 0.201011 1.23453 67 108 126 
0.0476063 0.19011 1.24168 62 142 193 
0.0478663 0.243763 1.20271 55 93 116 
0.0505001 0.198861 1.23716 16 103 148 
0.052303 -0.246289 1.30077 138 93 60 
0.0592392 -0.260079 1.32232 103 56 48 
0.0565695 0.214147 1.23017 2 83 128 
0.0561459 0.238902 1.2087 16 92 142 
0.0624106 0.193142 1.23741 11 94 146 
0.0633187 0.226922 1.21931 74 142 189 
0.0609672 0.256311 1.18239 69 164 220 
0.0662738 0.184123 1.24103 79 158 199 
0.0664331 0.210025 1.22982 50 137 182 
0.0731347 0.25103 1.19124 93 184 211 
0.0769696 0.209365 1.23054 5 96 140 
0.0743439 0.261016 1.17282 40 139 196 
0.0842335 0.220748 1.22275 15 87 135 
0.0920165 0.2073 1.22914 58 133 190 
0.0863321 0.26717 1.15627 44 83 148 
0.0926898 0.226621 1.21883 67 140 195 
0.0810025 0.299561 1.08304 82 177 231 
0.0946106 0.216382 1.22462 108 178 230 
0.0998619 0.232683 1.21282 15 98 150 
0.101998 -0.244584 1.25079 255 226 109 
0.106884 0.245901 1.19692 56 148 211 
0.125405 -0.353452 1.38174 116 27 49 
0.102199 0.272979 1.13388 111 112 168 
0.131643 -0.322906 1.38791 194 107 142 
0.105862 0.283657 1.09151 67 152 216 
0.124312 -0.267525 1.2521 178 147 39 
0.14556 -0.359493 1.38499 214 82 131 
0.13551 -0.170796 1.23364 189 212 254 
0.130687 0.255828 1.17705 45 135 195 
0.13876 0.209194 1.22616 66 126 176 
0.143909 0.109009 1.26735 93 182 186 
0.156664 0.131648 1.25514 101 134 91 
0.155552 0.185994 1.23513 101 178 170 
0.148887 0.25336 1.18094 58 115 168 
0.153103 0.00964802 1.16611 168 189 244 
0.163776 0.211701 1.22389 1 65 90 
0.167623 0.17502 1.24123 85 165 172 
0.147913 0.287715 1.08535 67 141 212 
0.168822 -0.0966956 1.21042 61 66 98 
0.16141 0.264584 1.15705 87 171 171 
0.154094 0.277524 1.10708 1 101 151 
0.1793 0.214514 1.22478 93 193 209 
0.177233 -0.076874 1.19636 19 23 32 
0.17744 -0.0308064 1.17993 92 103 131 
0.164284 0.289515 1.0836 80 149 218 
0.16717 0.306464 1.07699 89 128 193 
0.188072 -0.0449201 1.18494 60 84 128 
0.199323 -0.235054 1.24199 219 224 227 
0.226495 -0.311609 1.25873 201 201 201 
0.234515 -0.270607 1.26333 13 13 15 
0.197737 0.299493 1.07855 78 164 215 
0.233206 0.195758 1.2274 12 86 135 
0.244083 -0.379481 1.26368 16 16 16 
0.23723 0.186976 1.2309 52 125 178 
0.23773 0.237159 1.19703 20 99 132 
0.250578 0.15702 1.24131 67 148 191 
0.249366 0.0140038 1.22941 87 53 5 
0.262354 -0.332459 1.26149 5 6 8 
0.253591 -0.0703423 1.20574 188 137 28 
0.260112 0.204383 1.22177 56 91 133 
0.255074 0.201394 1.1979 53 90 132 
0.275392 -0.354135 1.26455 211 207 204 
0.275132 -0.3363 1.26202 217 212 209 
0.277248 -0.310855 1.26106 227 236 235 
0.27185 0.150922 1.24137 30 104 131 
0.235035 0.295619 1.07963 77 143 203 
0.282387 -0.324426 1.26232 215 214 212 
0.243498 0.278773 1.09168 49 129 198 
0.289498 -0.388753 1.26468 8 10 7 
0.248252 0.274867 1.10849 50 149 191 
0.289955 -0.36142 1.26482 13 28 21 
0.277074 0.211956 1.217 63 130 175 
0.291824 -0.373929 1.26603 212 214 213 
0.298846 -0.384585 1.26597 7 9 4 
0.254806 0.278319 1.09308 43 143 193 
0.283448 -0.0451891 1.18884 205 220 239 
0.28306 -0.0132549 1.17908 241 234 224 
0.306067 0.123158 1.25383 105 109 94 
0.311573 -0.381284 1.26574 9 9 11 
0.314691 -0.326795 1.26281 223 189 53 
0.305457 0.183215 1.22662 79 147 186 
0.321682 -0.387549 1.27348 15 10 14 
0.288455 0.258467 1.15553 86 106 156 
0.321673 -0.33915 1.26478 85 54 0 
0.314558 0.13205 1.24597 12 17 13 
0.324246 -0.348866 1.26616 210 177 61 
0.273289 0.291391 1.07947 28 100 172 
0.332099 -0.387442 1.27131 221 187 64 
0.335616 -0.366652 1.2685 218 187 60 
0.34148 -0.316449 1.25698 147 112 18 
0.336142 0.143939 1.23956 76 113 139 
0.323153 0.0214367 1.19213 158 158 158 
0.320459 0.0269245 1.18234 225 224 222 
0.346145 -0.326115 1.25998 148 112 26 
0.323815 0.238498 1.1892 66 125 165 
0.33339 0.00999494 1.20199 215 214 212 
0.353308 -0.334906 1.26056 223 186 98 
0.344676 0.154124 1.23848 81 179 190 
0.339082 0.207963 1.21552 83 138 179 
0.330113 0.0261046 1.17859 244 240 237 
0.332738 0.0189727 1.18721 85 84 80 
0.348281 -0.191935 1.23397 58 45 0 
0.359291 -0.321512 1.26066 111 87 17 
0.317633 0.264467 1.1343 52 127 182 
0.345039 0.0112218 1.19202 70 66 67 
0.365317 -0.27448 1.2499 73 52 7 
0.33619 0.0322215 1.16406 234 233 231 
0.344704 0.0188895 1.18271 104 102 103 
0.352734 0.000452335 1.20298 220 218 219 
0.350529 0.22699 1.19901 16 83 109 
0.376089 -0.261901 1.25024 91 75 39 
0.368235 0.158037 1.23422 76 166 154 
0.356923 0.00607289 1.19541 106 105 101 
0.382778 -0.310236 1.25455 70 59 27 
0.371106 0.195163 1.21744 17 98 128 
0.381702 0.168321 1.22684 56 116 152 
0.401963 -0.337129 1.26815 102 71 16 
0.394974 0.233188 1.18432 107 153 179 
0.432896 0.0875939 1.2506 117 114 97 
0.458252 -0.0727052 1.24431 13 12 17 
0.480185 0.0269396 1.26445 154 136 98 
-0.578906 0.164302 1.16637 215 210 207 
-0.564972 0.205238 1.15021 226 229 220 
-0.572265 0.175225 1.16505 22 28 28 
-0.618514 -0.230258 1.30241 95 94 92 
-0.587538 -0.1299 1.26842 26 29 22 
-0.589178 -0.160689 1.27823 20 20 12 
-0.587671 -0.170142 1.28142 63 59 58 
-0.592762 -0.245094 1.3081 24 35 29 
-0.592414 -0.259494 1.31608 66 84 72 
-0.571307 -0.161195 1.31103 99 71 49 
-0.563917 -0.162303 1.32072 98 60 57 
-0.524187 0.0968316 1.23297 154 158 144 
-0.56151 -0.177882 1.32484 62 31 28 
-0.562481 -0.186481 1.33531 54 25 27 
-0.578611 -0.454008 1.37779 154 184 176 
-0.512957 -0.0293724 1.24036 171 82 2 
-0.496681 0.379183 1.20603 167 167 165 
-0.485269 0.432069 1.18481 193 195 192 
-0.520163 -0.124219 1.28286 189 184 152 
-0.497472 0.0687508 1.22857 100 147 101 
-0.471273 0.280821 1.16813 56 93 122 
-0.560138 -0.505676 1.39389 47 48 50 
-0.516959 -0.159776 1.29285 238 233 201 
-0.514555 -0.205409 1.31417 181 188 72 
-0.516005 -0.219821 1.32198 175 202 123 
-0.543574 -0.497306 1.39208 114 108 96 
-0.51472 -0.239732 1.33095 191 183 56 
-0.506459 -0.247573 1.33218 33 38 16 
-0.491587 -0.194533 1.31075 238 238 204 
-0.464108 -0.00361486 1.24155 228 228 226 
-0.469335 -0.080723 1.27441 59 122 91 
-0.437485 0.274383 1.19716 96 163 171 
-0.481674 -0.201053 1.31473 17 111 145 
-0.478342 -0.181304 1.3072 240 235 30 
-0.484298 -0.232522 1.32646 52 61 56 
-0.474958 -0.192324 1.31147 233 244 227 
-0.463512 -0.129488 1.29023 57 154 111 
-0.475404 -0.220658 1.32352 104 193 227 
-0.471855 -0.205714 1.3151 91 190 232 
-0.467538 -0.17652 1.30404 186 184 0 
-0.474311 -0.230802 1.32716 84 88 91 
-0.45628 -0.141535 1.29141 216 31 62 
-0.467244 -0.214578 1.32305 65 154 186 
-0.458168 -0.160053 1.30332 214 34 63 
-0.462593 -0.200359 1.3154 55 86 104 
-0.463768 -0.223482 1.32622 20 110 144 
-0.456059 -0.176107 1.30744 233 228 48 
-0.427704 0.172484 1.23273 232 237 231 
-0.457222 -0.212165 1.32155 124 213 243 
-0.436628 -0.261516 1.25994 116 142 115 
-0.460281 -0.233796 1.33102 94 98 97 
-0.448597 -0.156602 1.30241 243 228 231 
-0.445336 -0.138145 1.29519 213 33 62 
-0.452882 -0.202983 1.31798 25 123 160 
-0.408567 0.135746 1.20438 214 217 208 
-0.444443 -0.173658 1.30745 176 155 0 
-0.451174 -0.223763 1.32726 121 214 248 
-0.439701 -0.192963 1.31312 218 52 92 
-0.444078 -0.232096 1.33168 103 106 99 
-0.433608 -0.156564 1.30322 248 209 210 
-0.434553 -0.174002 1.30949 237 230 36 
-0.430399 -0.143086 1.29863 243 226 232 
-0.430662 -0.196806 1.31138 185 62 91 
-0.434393 -0.213229 1.3231 212 64 98 
-0.433575 -0.223813 1.32792 84 34 45 
-0.409148 0.128806 1.26048 162 169 153 
-0.430214 -0.203569 1.32052 235 148 164 
-0.424046 -0.172556 1.31064 236 224 42 
-0.426622 -0.230055 1.33316 81 81 79 
-0.420581 -0.195873 1.32013 194 49 82 
-0.388063 0.258056 1.22552 76 175 230 
-0.399461 -0.034159 1.25871 231 233 232 
-0.413702 -0.145985 1.30263 181 159 171 
-0.419489 -0.210934 1.32459 251 201 213 
-0.417097 -0.223345 1.32925 221 209 209 
-0.408081 -0.156591 1.30632 193 32 50 
-0.385817 0.0837732 1.24095 184 186 181 
-0.405906 -0.139785 1.30175 255 213 217 
-0.411288 -0.200345 1.32378 184 68 89 
-0.441893 -0.502325 1.43209 78 78 80 
-0.408334 -0.22753 1.33312 12 17 11 
-0.40102 -0.188474 1.31355 210 35 74 
-0.384572 0.00757307 1.26358 77 68 11 
-0.375574 0.214702 1.24932 203 204 208 
-0.392579 -0.151349 1.30696 255 221 219 
-0.351265 0.284375 1.17851 74 147 202 
-0.345584 0.145773 1.16329 253 255 250 
-0.357742 0.261769 1.2183 67 156 212 
-0.38402 -0.257856 1.30621 50 40 30 
-0.388323 -0.218624 1.34235 223 199 11 
-0.387875 -0.23496 1.3437 182 167 144 
-0.363187 -0.287933 1.25917 47 43 40 
-0.352129 0.0364921 1.22895 46 41 47 
-0.367074 -0.28 1.27821 41 36 32 
-0.358372 -0.295765 1.26369 34 33 29 
-0.357487 -0.0489473 1.26665 203 205 202 
-0.373642 -0.118515 1.3394 78 79 74 
-0.321863 0.0948877 1.20705 0 0 16 
-0.349131 -0.120708 1.30785 163 105 164 
-0.331703 -0.00162732 1.24841 44 11 28 
-0.313132 0.270385 1.19922 60 153 214 
-0.375118 -0.355092 1.44408 74 95 80 
-0.354393 -0.205328 1.37073 46 51 45 
-0.361181 -0.236622 1.40314 30 41 35 
-0.307527 0.259483 1.21504 80 181 233 
-0.319633 -0.0367989 1.27547 25 16 33 
-0.321904 -0.116594 1.3145 76 72 87 
-0.289415 0.273254 1.19141 80 140 192 
-0.322533 -0.153518 1.32064 178 124 176 
-0.290122 0.266607 1.20277 89 156 211 
-0.332849 -0.216439 1.36826 83 96 89 
-0.341268 -0.233304 1.40407 56 63 56 
-0.284413 0.278219 1.18131 125 168 223 
-0.348894 -0.356025 1.44514 112 135 117 
-0.318376 -0.159475 1.3292 30 30 32 
-0.341218 -0.344546 1.43894 66 69 62 
-0.277194 0.27465 1.18726 79 172 213 
-0.337621 -0.325048 1.43567 89 99 91 
-0.287446 -0.0625474 1.22858 36 37 39 
-0.274333 0.146234 1.19138 16 18 17 
-0.276039 0.264044 1.20472 6 105 162 
-0.271131 0.268208 1.197 82 170 233 
-0.266673 0.235445 1.17812 104 117 134 
-0.263917 0.276077 1.18254 58 139 204 
-0.320434 -0.501391 1.43518 83 82 80 
-0.282742 -0.253886 1.30845 146 148 147 
-0.253714 0.16278 1.18881 7 0 44 
-0.25099 0.276457 1.17929 66 123 178 
-0.252249 0.127383 1.21153 107 104 133 
-0.243479 0.15885 1.19514 0 0 34 
-0.248677 -0.0538226 1.22995 90 91 93 
-0.255103 -0.255761 1.26155 76 77 79 
-0.234382 0.277475 1.17567 93 130 182 
-0.210845 0.321548 1.09413 68 149 168 
-0.219899 0.12008 1.19215 144 145 166 
-0.222491 0.149273 1.20897 2 0 42 
-0.212603 0.274381 1.17345 118 142 152 
-0.206822 0.24958 1.18503 105 123 137 
-0.204523 0.268488 1.17532 90 113 127 
-0.195531 0.281927 1.15573 40 99 143 
-0.198316 0.239725 1.19113 181 194 200 
-0.235197 -0.558991 1.39764 180 184 183 
-0.220861 -0.314226 1.3283 37 43 43 
-0.184263 0.378552 1.19088 225 220 214 
-0.208452 -0.239433 1.32261 108 109 113 
-0.181004 0.113149 1.17231 123 118 122 
-0.167216 0.294477 1.103 42 84 134 
-0.202981 -0.306651 1.33028 32 36 39 
-0.177975 0.128715 1.20257 90 78 78 
-0.205825 -0.571463 1.40379 195 201 213 
-0.169517 0.156044 1.1934 149 138 134 
-0.167983 0.148841 1.20171 239 223 210 
-0.195783 -0.555721 1.39053 155 135 124 
-0.162509 0.164124 1.19005 237 223 212 
-0.161258 0.179927 1.18215 131 120 124 
-0.177506 -0.125863 1.29194 80 81 83 
-0.160232 0.205213 1.18181 186 182 181 
-0.155944 0.215588 1.17649 240 242 241 
-0.150879 0.271179 1.14653 130 156 171 
-0.148753 0.0247665 1.22652 242 242 244 
-0.134449 0.159618 1.17775 101 88 72 
-0.132043 0.186226 1.16886 192 170 146 
-0.167094 -0.417712 1.45604 28 39 41 
-0.133609 0.134675 1.18733 97 84 76 
-0.131074 0.168951 1.17226 234 217 201 
-0.130444 0.146536 1.18932 124 99 69 
-0.123951 0.258048 1.15318 219 201 187 
-0.123002 0.277627 1.14923 139 152 169 
-0.11404 0.315243 1.08782 134 161 216 
-0.119686 0.268157 1.15137 101 102 104 
-0.122143 0.167087 1.17744 110 84 59 
-0.110661 0.294149 1.09895 121 161 222 
-0.12109 0.119239 1.19539 136 122 109 
-0.115557 0.248448 1.14983 107 81 58 
-0.116664 0.204237 1.16516 131 107 83 
-0.114244 0.232154 1.15717 117 98 81 
-0.11119 0.273292 1.15336 22 40 54 
-0.113902 0.14814 1.18822 74 48 23 
-0.11388 0.129221 1.19575 168 143 121 
-0.105595 0.281442 1.14457 81 138 181 
-0.101317 0.229184 1.15256 231 213 203 
-0.104002 0.14986 1.19125 127 103 77 
-0.0970506 0.281889 1.13992 11 74 115 
-0.0965927 0.254836 1.15789 59 61 74 
-0.0950881 0.24017 1.1532 171 145 120 
-0.0914312 0.267724 1.15661 24 48 76 
-0.0856685 0.291253 1.14362 47 83 143 
-0.0896401 0.151946 1.18751 114 88 63 
-0.0886771 0.165214 1.18108 120 98 74 
-0.0869447 0.203936 1.1695 120 92 70 
-0.0838296 0.229102 1.16166 124 96 72 
-0.0822209 0.240011 1.1627 114 85 55 
-0.0807084 0.214133 1.17357 91 69 48 
-0.0790768 0.269148 1.17485 34 91 136 
-0.0794807 0.150705 1.18707 190 166 138 
-0.078272 0.181477 1.17521 105 75 51 
-0.0769751 0.223146 1.16632 162 132 106 
-0.0699302 0.162345 1.18393 174 148 125 
-0.0632729 0.273363 1.1631 174 169 131 
-0.0640878 0.215245 1.16901 159 132 103 
-0.0646097 0.152818 1.19001 123 96 69 
-0.0825692 -0.435143 1.4552 150 137 121 
-0.0592562 0.227661 1.17254 101 74 47 
-0.0586236 0.248917 1.16522 131 115 92 
-0.0604183 0.145348 1.19702 111 84 55 
-0.0626538 -0.288405 1.21966 242 235 229 
-0.0565639 0.129025 1.20448 103 89 80 
-0.049003 0.225887 1.1676 159 131 107 
-0.0499037 0.186732 1.18101 108 80 56 
-0.0464683 0.214648 1.1753 151 127 101 
-0.0463869 0.204375 1.17199 85 67 53 
-0.0464661 0.164749 1.19022 138 113 93 
-0.0427727 -0.274246 1.2246 64 23 3 
-0.0395969 -0.239948 1.19316 227 214 205 
-0.0317378 0.190224 1.19265 73 49 37 
-0.0354646 -0.282028 1.24308 48 7 0 
-0.0256203 0.172322 1.23136 42 31 25 
-0.0277853 -0.246796 1.21468 49 9 0 
-0.0204254 0.161151 1.23015 154 155 173 
-0.0225888 -0.428939 1.45364 142 128 119 
-0.0156821 -0.273645 1.25752 77 15 16 
-0.010068 0.245773 1.17532 63 56 40 
-0.00808658 0.235623 1.17761 84 60 36 
-0.00523142 -0.00111509 1.23998 29 28 26 
-0.0037684 -0.27425 1.27145 87 14 25 
-0.0010026 -0.264009 1.26545 125 69 56 
0.00310243 -0.256208 1.26019 78 22 5 
0.00595459 -0.0204038 1.24305 148 152 151 
0.00705592 -0.267654 1.27664 128 63 59 
0.0136484 -0.396589 1.41554 156 183 168 
0.0211614 0.204626 1.23588 99 92 50 
0.0205152 -0.267545 1.28944 92 11 20 
0.0302043 -0.452089 1.45044 151 133 121 
0.0324773 0.118708 1.23614 8 6 9 
0.0358937 0.187144 1.24799 34 115 162 
0.0347237 0.0823535 1.23094 206 90 101 
0.0404265 -0.264371 1.30541 94 20 17 
0.0445771 -0.216568 1.37328 51 22 14 
0.0489158 -0.380095 1.41984 85 64 69 
0.0543832 -0.210459 1.37037 171 141 117 
0.0516889 0.254539 1.18921 52 94 116 
0.0583116 -0.225424 1.37542 166 129 110 
0.0613276 -0.246401 1.30753 116 73 57 
0.0667534 -0.406397 1.42898 209 244 250 
0.0674417 -0.236054 1.38035 160 123 104 
0.0598196 -0.084805 1.20638 76 53 12 
0.0628736 0.249087 1.20088 69 149 198 
0.0745852 -0.384761 1.42919 7 2 6 
0.0742128 0.201214 1.23615 16 97 140 
0.0759961 0.240862 1.20874 67 143 195 
0.0769274 0.230547 1.21869 76 152 202 
0.0713564 0.297511 1.09065 54 90 126 
0.0766178 0.269209 1.15721 77 139 198 
0.0830547 0.254508 1.18807 82 167 204 
0.0779584 0.284243 1.1 110 127 171 
0.102804 -0.355314 1.38461 85 44 58 
0.109526 -0.365569 1.39258 80 31 50 
0.0954158 0.288568 1.09176 68 140 214 
0.10098 0.268476 1.15618 11 81 140 
0.107291 0.222147 1.22246 56 126 175 
0.1001 0.280204 1.11358 69 46 100 
0.110506 0.232799 1.21353 15 81 129 
0.11038 -0.245336 1.24572 255 223 122 
0.111027 0.273746 1.13825 94 118 178 
0.116748 0.267579 1.16089 10 93 147 
0.12212 0.234791 1.21345 80 136 187 
0.116317 6.81989e-06 1.17272 64 43 0 
0.126209 0.227288 1.22036 4 67 121 
0.142235 -0.426158 1.42517 224 220 217 
0.144244 -0.407852 1.42641 63 59 58 
0.126862 0.243251 1.20206 15 97 153 
0.12778 -0.22816 1.24205 128 138 174 
0.141421 0.150851 1.24174 51 0 1 
0.136892 0.250276 1.1918 49 121 180 
0.141193 0.237891 1.20788 50 121 177 
0.128966 0.283832 1.0962 49 139 202 
0.141603 -0.220619 1.24079 144 165 218 
0.134518 0.277229 1.11692 32 78 130 
0.148167 0.20958 1.2309 100 183 173 
0.14038 0.295701 1.08679 15 98 166 
0.148414 0.270038 1.14505 67 134 187 
0.144977 0.277758 1.11618 14 74 128 
0.15007 0.274028 1.13091 63 151 199 
0.164656 0.191708 1.23501 56 153 169 
0.167861 0.129295 1.25156 98 183 152 
0.167 -0.122453 1.23682 148 140 197 
0.16384 -0.10534 1.21238 125 125 179 
0.16812 -0.292039 1.2524 115 115 115 
0.191579 -0.430146 1.42016 193 209 209 
0.161179 0.282647 1.09455 65 135 194 
0.179262 -0.278266 1.25014 17 18 20 
0.185222 -0.301151 1.25314 231 235 234 
0.176352 0.00353534 1.17076 51 74 118 
0.188084 -0.32345 1.25587 238 238 236 
0.173224 0.281346 1.09972 82 164 175 
0.194617 0.214371 1.22356 167 181 181 
0.20906 0.17239 1.29041 55 146 173 
0.186088 0.277127 1.11198 58 159 201 
0.210912 -0.134005 1.22075 16 21 27 
0.208506 -0.0479187 1.18198 3 5 2 
0.221546 -0.276958 1.25513 12 13 15 
0.215601 0.248832 1.18897 78 173 203 
0.231603 -0.3029 1.25806 20 24 27 
0.221175 -0.0308645 1.18234 211 165 77 
0.236523 0.133734 1.25207 8 65 82 
0.208808 0.288138 1.08766 43 84 148 
0.235663 0.207953 1.2243 62 131 188 
0.218036 0.2738 1.12299 44 140 200 
0.240391 -0.314239 1.25954 222 223 225 
0.23172 -0.0412648 1.19071 215 159 40 
0.243462 0.197057 1.23012 8 78 129 
0.244671 0.212525 1.22301 51 122 178 
0.25146 0.135352 1.25282 83 158 163 
0.242584 0.245758 1.19183 24 98 135 
0.252089 0.177076 1.23793 12 76 122 
0.251434 -0.313516 1.25371 14 14 16 
0.257718 0.189609 1.23208 10 76 126 
0.254517 0.016054 1.20906 45 20 0 
0.256904 0.204409 1.20726 34 65 111 
0.263102 0.175791 1.23532 85 158 199 
0.242363 0.272555 1.12967 50 153 198 
0.255378 -0.00900275 1.2007 113 70 15 
0.252306 0.257606 1.16737 80 144 188 
0.236791 0.307865 1.07899 69 86 132 
0.265141 0.225801 1.21187 110 154 191 
0.270998 0.187937 1.23011 95 144 184 
0.270586 0.233443 1.20331 34 88 122 
0.280789 0.170921 1.2358 19 73 109 
0.267589 0.25394 1.17151 88 123 161 
0.286757 0.0380109 1.2476 37 53 43 
0.288697 -0.339489 1.26145 217 215 216 
0.283918 0.224554 1.21135 106 120 133 
0.288313 0.194298 1.22648 89 150 194 
0.295833 0.129668 1.25023 59 109 144 
0.29698 0.176768 1.23341 72 123 168 
0.279263 0.26712 1.14153 87 110 152 
0.302232 -0.369761 1.2628 214 214 212 
0.267212 0.305132 1.08014 46 99 175 
0.302647 -0.0509336 1.22152 54 53 58 
0.273905 0.28132 1.09233 10 108 155 
0.326738 -0.336263 1.30438 65 33 0 
0.290671 0.26849 1.13576 77 88 134 
0.316018 0.167661 1.23527 60 123 156 
0.321338 0.119989 1.25203 107 111 97 
0.304893 0.0102953 1.18474 127 68 74 
0.310543 0.00687968 1.19653 115 55 57 
0.327043 0.209481 1.21879 86 142 179 
0.312467 0.257738 1.16063 47 138 185 
0.342671 -0.378703 1.26508 217 179 10 
0.340713 0.177242 1.22922 76 146 182 
0.352122 -0.373569 1.26671 218 177 11 
0.357239 -0.344333 1.25951 213 177 91 
0.357462 0.17296 1.23006 24 82 119 
0.362628 -0.361194 1.26436 107 83 23 
0.36793 -0.347758 1.26389 185 139 64 
0.370369 -0.224792 1.24473 90 72 26 
0.375679 -0.324615 1.25997 131 95 1 
0.36798 0.208644 1.21437 84 149 171 
0.377772 -0.354176 1.26686 83 53 0 
0.375075 -0.300112 1.25475 138 135 120 
0.36779 0.223024 1.20869 14 101 129 
0.383967 -0.0439561 1.27046 45 48 53 
0.360531 0.249142 1.17535 41 80 111 
0.381353 -0.344462 1.26296 121 91 27 
0.383279 -0.244612 1.24919 81 57 9 
0.383589 -0.279525 1.25081 211 160 42 
0.369789 0.244986 1.17977 46 122 145 
0.387906 -0.301219 1.2569 214 214 206 
0.387813 -0.254235 1.25142 94 69 15 
0.390802 -0.341045 1.26185 113 89 29 
0.390157 -0.267671 1.25407 83 57 0 
0.386961 0.18351 1.22656 26 86 112 
0.395514 -0.247626 1.25606 153 141 127 
0.396727 -0.276252 1.25516 178 153 99 
0.395956 0.177766 1.22605 97 143 177 
0.450694 -0.471985 1.40952 186 205 201 
0.406541 -0.324322 1.265 50 42 21 
0.405897 -0.263499 1.26052 49 46 41 
0.406085 -0.284673 1.25889 89 69 16 
0.41048 -0.343585 1.26752 197 143 53 
0.410185 -0.305307 1.26114 171 140 76 
0.408685 0.166864 1.23145 120 112 99 
0.414547 -0.314951 1.26384 165 136 76 
0.450912 -0.541567 1.37643 125 112 103 
0.417115 -0.32558 1.2677 94 60 0 
0.416028 -0.28091 1.26298 67 66 64 
0.419907 -0.0684587 1.26228 207 228 213 
0.413483 0.155976 1.23277 121 110 104 
0.429642 -0.333712 1.27187 101 67 3 
0.405927 0.246148 1.16135 126 165 182 
0.475751 -0.507668 1.37822 125 112 103 
0.47686 -0.552554 1.3808 85 72 64 
0.452592 -0.175178 1.28559 130 113 106 
0.402305 0.259749 1.12821 75 89 134 
0.476565 -0.228014 1.33054 78 78 68 
0.430296 0.232256 1.16646 91 148 178 
0.455362 0.141177 1.22653 160 165 168 
0.487049 -0.232023 1.32183 95 103 90 
0.439591 0.221762 1.17465 96 134 171 
0.433618 0.23749 1.15292 113 131 171 
0.46325 0.107126 1.23232 235 238 245 
0.491297 -0.243456 1.31762 10 15 11 
0.450869 0.196187 1.193 107 140 171 
0.490605 -0.136643 1.28684 100 102 91 
0.468116 0.136928 1.21897 155 168 177 
0.448684 0.226391 1.15989 71 89 127 
0.478067 -0.0954492 1.24412 199 181 159 
0.503143 -0.250355 1.3078 116 120 106 
0.497029 -0.159181 1.28476 25 30 26 
0.46364 0.198845 1.1792 75 166 213 
0.508668 -0.274587 1.30288 162 187 166 
0.502162 -0.184303 1.28232 17 23 21 
0.511896 -0.291674 1.30505 158 185 168 
0.52872 -0.471778 1.34627 38 30 28 
0.505478 -0.192849 1.27541 104 105 100 
0.465581 0.20964 1.16352 60 146 203 
0.521033 -0.339897 1.30844 137 125 111 
0.51277 -0.248416 1.28295 23 24 18 
0.52898 -0.363531 1.30754 36 30 30 
0.528578 -0.353783 1.30381 14 11 6 
0.493807 0.116576 1.20002 169 171 168 
0.515974 -0.198378 1.26109 147 149 138 
0.51066 -0.0585943 1.22662 183 187 173 
0.537561 -0.338989 1.29375 168 131 78 
0.514596 -0.0502455 1.21652 151 133 129 
0.553039 -0.372015 1.31252 13 9 10 
0.534604 -0.214569 1.2583 107 115 104 
0.516846 -0.0342039 1.21188 157 132 135 
0.493233 0.187665 1.14535 76 110 138 
0.53742 -0.207049 1.25197 16 18 17 
0.520062 -0.0221666 1.19564 193 194 188 
0.545575 -0.219784 1.25493 179 138 82 
0.555296 -0.233131 1.2552 76 73 64 
0.525119 0.0155139 1.17565 45 49 50 
-0.527755 -0.154354 0.779506 100 96 85 
-0.609431 0.16712 1.19132 138 142 141 
-0.608549 0.137348 1.19715 131 135 136 
-0.60297 0.0352491 1.22492 226 226 226 
-0.581757 0.035237 1.23032 85 92 59 
-0.555937 0.0494867 1.17713 239 239 201 
-0.571082 0.0431557 1.24362 25 17 0 
-0.441947 -0.320352 1.15456 92 93 97 
-0.426204 -0.345526 1.16044 95 96 100 
-0.463585 -0.110544 1.28922 45 146 104 
-0.391833 -0.315053 1.15226 97 98 102 
-0.388107 -0.375447 1.16626 97 98 102 
-0.422709 -0.155666 1.30152 249 213 215 
-0.409832 -0.17057 1.30666 173 152 0 
-0.337423 -0.0284397 1.26812 174 116 174 
-0.346961 -0.361226 1.42045 125 139 122 
-0.247624 -0.0604669 1.2402 212 213 215 
-0.227987 0.020544 1.22365 186 187 191 
-0.228598 -0.549828 1.35976 200 200 208 
-0.242215 -0.410323 1.42915 38 48 47 
-0.211392 -0.411887 1.42792 42 45 50 
-0.163295 -0.413654 1.4273 31 35 38 
-0.0827707 0.168196 1.2059 130 106 82 
-0.0506428 0.154369 1.22018 68 45 31 
0.0376126 0.203339 1.26362 42 113 157 
0.0573625 0.257731 1.22995 77 163 214 
0.0638902 0.278515 1.19809 63 159 210 
0.0649379 -0.0687577 1.20839 46 57 63 
0.125527 0.28715 1.16761 75 130 187 
0.140661 0.218002 1.25275 35 89 136 
0.139589 0.247276 1.23578 63 126 179 
0.140563 0.291265 1.14932 77 150 195 
0.151782 -0.202475 1.23204 175 196 239 
0.158783 -0.172713 1.22883 128 131 172 
0.167712 -0.265255 1.23989 221 223 220 
0.180147 -0.262619 1.24073 234 235 237 
0.198932 0.32241 1.11996 47 116 193 
0.217494 -0.024669 1.18894 127 86 22 
0.226928 -0.0161505 1.19113 113 75 13 
0.2502 -0.140285 1.21566 169 185 218 
0.266354 -0.295886 1.24457 219 219 219 
0.286582 -0.362143 1.24386 213 214 216 
0.287935 -0.38397 1.24328 110 112 109 
0.291541 -0.0271013 1.19474 212 227 248 
0.303008 -0.381756 1.2438 210 210 212 
0.346721 -0.320389 1.24084 123 101 28 
0.347964 -0.332902 1.24193 223 189 100 
0.354026 -0.344285 1.24236 135 102 21 
0.357299 -0.317421 1.24209 203 174 96 
0.36069 -0.352409 1.24412 168 136 75 
0.371594 -0.315176 1.24175 213 173 88 
0.383265 -0.33686 1.2426 213 167 69 
-0.474718 0.281044 1.1606 61 84 116 
-0.426825 0.28683 1.20073 97 161 171 
-0.278331 0.271115 1.19574 81 176 224 
-0.274107 0.145986 1.19216 15 14 20 
-0.27456 0.264289 1.20791 49 143 204 
-0.253728 0.162503 1.18936 6 0 42 
-0.250953 0.152659 1.19651 1 0 28 
-0.247142 0.131721 1.21086 7 1 37 
-0.241125 0.173328 1.1869 4 0 30 
-0.24228 0.160344 1.19508 126 122 155 
-0.238582 0.140208 1.20869 110 100 135 
-0.222408 0.149028 1.20897 14 7 51 
-0.212828 0.171936 1.19749 10 0 37 
-0.0443851 -0.0123619 1.29076 35 36 40 
-0.028407 -0.0275983 1.23846 221 221 221 
-0.00753767 0.237753 1.21752 112 89 71 
0.0633091 0.226899 1.2194 74 142 189 
0.0664698 0.209791 1.2281 50 137 182 
0.0823753 0.212378 1.22637 14 96 144 
0.0843381 0.252511 1.18728 6 105 147 
0.0979865 0.21037 1.22622 24 92 139 
0.099011 0.226276 1.21761 86 159 202 
0.106509 0.283984 1.0935 67 152 216 
0.138122 0.261549 1.16702 58 154 205 
0.158469 0.208885 1.22344 36 92 89 
0.17748 0.170614 1.23721 84 175 180 
0.189787 0.22721 1.21348 91 189 192 
0.207513 0.0260412 1.1765 93 70 16 
0.19826 0.276001 1.11308 46 145 200 
0.235333 0.184192 1.22972 11 93 133 
0.232943 0.2186 1.21453 5 95 121 
0.240252 0.162178 1.23648 26 110 146 
0.234725 0.227432 1.20855 23 106 138 
0.218985 0.279999 1.09241 21 78 133 
0.265106 0.185161 1.22671 94 156 179 
0.269035 0.149725 1.23892 97 167 175 
0.268303 0.167989 1.23359 91 161 195 
0.252297 0.256526 1.16573 84 157 198 
0.274178 0.118199 1.24975 77 88 90 
0.266032 -0.131826 1.20335 217 172 69 
0.275236 0.136133 1.24366 66 129 170 
0.285891 0.140623 1.24171 90 161 191 
0.290999 -0.376206 1.24956 209 210 204 
0.289671 0.126929 1.24631 32 78 102 
0.292452 0.203704 1.21932 91 153 194 
0.300747 0.118896 1.25027 96 100 86 
0.300486 0.149191 1.23867 18 74 109 
0.309785 0.130977 1.24419 120 123 112 
0.305411 0.183147 1.22542 79 147 186 
0.307764 0.168143 1.23061 81 146 178 
0.315988 -0.379212 1.25118 15 10 14 
0.318008 0.155598 1.23457 94 155 184 
0.321301 0.132424 1.2422 115 120 100 
0.328067 -0.373415 1.25332 216 177 11 
0.327635 0.113974 1.24841 10 14 15 
0.318294 0.205434 1.21688 83 157 192 
0.330769 0.1583 1.23271 36 95 135 
0.333401 0.141449 1.23944 0 6 16 
0.339771 0.123169 1.24371 113 120 102 
0.333908 0.18676 1.22294 80 153 186 
0.324581 0.238765 1.19066 66 125 165 
0.333372 0.207354 1.21566 84 148 183 
0.349307 0.113301 1.2473 10 14 15 
0.348266 0.145192 1.24026 111 123 101 
0.347283 0.1674 1.22865 100 143 177 
0.345626 0.194707 1.21963 77 146 185 
0.350742 0.155316 1.23227 31 89 129 
0.348229 0.184288 1.22321 71 136 176 
0.362691 0.112623 1.24672 5 9 10 
0.357159 0.172415 1.22736 30 85 124 
0.363101 0.151419 1.23291 13 25 23 
0.37156 0.118881 1.24508 113 120 104 
0.354203 0.23425 1.19308 11 70 100 
0.388455 0.118459 1.24383 124 114 102 
0.370945 0.238094 1.18738 37 103 137 
0.386217 0.160732 1.22834 110 118 105 
0.395154 0.165092 1.22571 167 179 177 
0.405529 0.117705 1.24295 125 115 105 
0.412778 0.0805853 1.25282 86 88 83 
0.397201 0.212979 1.20711 98 151 182 
0.406183 0.176105 1.22284 66 124 161 
0.395897 0.233634 1.18724 107 153 179 
0.412018 0.159173 1.2282 137 126 120 
0.422481 0.0841075 1.2507 102 98 86 
0.406831 0.20996 1.20804 108 165 194 
0.427888 -0.07916 1.25645 39 53 80 
0.434665 -0.0586633 1.24616 222 224 223 
0.414841 0.218274 1.19605 123 168 199 
0.421381 0.20705 1.20307 104 154 187 
0.398242 0.259318 1.1342 86 101 144 
0.406711 0.248651 1.15511 104 138 173 
0.429995 0.198051 1.20565 120 167 195 
0.424476 0.22028 1.18709 125 155 191 
0.415319 0.24133 1.16328 98 128 162 
0.43362 0.208753 1.19318 131 160 192 
0.428474 0.233522 1.1653 111 173 196 
0.456876 0.223178 1.15072 26 122 172 
0.452344 0.232862 1.13554 112 127 168 
0.469616 0.216403 1.14115 66 166 215 
0.467797 0.223298 1.12769 72 159 213 
0.491873 0.18678 1.14627 77 104 134 
0.514675 0.00420281 1.18206 57 59 54 
0.520074 -0.00862747 1.17808 235 235 233 
0.493543 0.196124 1.12471 102 159 204 
0.497892 0.185272 1.13244 52 82 110 
0.516212 0.155938 1.12289 188 201 191 
0.540033 0.0735825 1.1459 10 15 11 
0.531975 0.157321 1.11929 98 102 88 
0.548162 0.0618963 1.14806 19 17 18 
0.534556 0.185643 1.11017 34 30 27 
0.538008 0.167887 1.11536 108 96 100 
-0.264238 -0.30177 1.30902 45 46 50 
-0.229447 -0.545363 1.37472 54 58 57 
-0.215977 -0.323005 1.31729 147 158 164 
-0.201423 -0.561758 1.3794 195 201 213 
-0.192352 -0.54793 1.37068 155 135 124 
-0.114637 0.132829 1.19405 179 148 120 
-0.0969841 0.1537 1.18647 191 165 138 
-0.0953504 0.133778 1.19557 166 139 112 
-0.0910938 0.183614 1.17613 108 87 70 
-0.0845764 0.172647 1.17911 110 85 65 
-0.083446 0.197519 1.17058 165 139 112 
-0.0841071 0.156641 1.18436 178 150 126 
-0.0823825 0.132017 1.19615 125 104 77 
-0.0784821 0.182107 1.17889 105 75 51 
-0.0699134 0.121319 1.20039 110 90 63 
-0.0669007 0.160264 1.18473 166 140 115 
-0.0541014 0.141482 1.19844 84 63 44 
-0.0485985 0.192675 1.18113 163 139 103 
-0.0224117 0.00206444 1.2617 77 91 78 
0.0260377 0.158821 1.25198 56 104 127 
0.0367074 -0.202626 1.35507 31 14 6 
0.0583681 0.191566 1.238 85 137 174 
0.0598411 -0.522303 1.38706 85 79 79 
0.0733151 0.125411 1.24713 192 150 154 
0.10525 -0.398307 1.40213 219 204 199 
0.128864 0.103838 1.2634 2 60 38 
0.122923 -0.126234 1.21277 139 162 216 
0.145957 0.125939 1.25386 54 135 156 
0.160401 -0.379108 1.37655 98 16 54 
0.176919 0.155909 1.24342 41 116 119 
0.1942 0.213576 1.21926 167 181 181 
0.18759 -0.0256366 1.17379 40 52 66 
0.202312 -0.0120261 1.1708 100 77 27 
0.23244 0.199377 1.22371 14 97 137 
0.210899 0.301091 1.08525 71 135 199 
0.227213 0.00969857 1.17798 71 27 0 
0.241678 0.194057 1.22593 61 131 180 
0.233233 -0.0040371 1.18025 84 41 0 
0.242425 0.245096 1.18876 24 98 135 
0.247936 0.216303 1.21629 83 160 202 
0.252308 0.194484 1.22512 69 139 188 
0.257375 -0.27281 1.24197 221 226 222 
0.260204 0.217434 1.21509 69 114 155 
0.243015 0.272447 1.12911 50 153 198 
0.272574 0.232266 1.20249 96 156 190 
0.280374 0.158474 1.23628 69 122 166 
0.268206 0.254103 1.17239 88 123 161 
0.282017 0.171922 1.23096 75 129 167 
0.284689 0.224789 1.20727 112 119 111 
0.261645 0.28378 1.08941 58 163 208 
0.289435 -0.148324 1.20896 83 72 26 
0.288636 0.283629 1.08899 86 148 187 
0.292735 0.301242 1.08537 16 112 172 
0.348988 0.213392 1.21304 124 147 163 
0.341603 0.247383 1.17923 76 137 181 
0.353384 0.228197 1.20082 83 160 170 
0.365923 -0.350854 1.24438 83 58 17 
0.37175 -0.268444 1.23581 103 80 13 
0.369585 0.232202 1.19837 25 105 132 
0.393002 -0.052706 1.27228 115 138 34 
0.383608 0.182762 1.22321 85 143 163 
0.390702 -0.29029 1.23936 72 49 0 
0.394408 -0.331454 1.24484 101 75 18 
0.408076 -0.0619665 1.25257 224 226 225 
0.40514 -0.331282 1.24702 164 129 73 
0.409491 -0.320046 1.24566 94 60 0 
0.421442 -0.327917 1.24908 101 67 3 
0.446906 0.0815319 1.24903 232 232 230 
0.497377 -0.0234222 1.11938 225 227 222 
-0.596536 -0.130417 1.25919 146 149 158 
-0.591852 -0.120447 1.25902 206 219 191 
-0.591389 -0.219247 1.28776 133 128 122 
-0.590488 -0.252027 1.28998 188 205 197 
-0.568128 -0.126334 1.28289 124 109 52 
-0.525337 0.00395495 1.22339 128 126 78 
-0.498127 0.0697653 1.22772 98 124 89 
-0.490588 -0.0115722 1.22694 200 67 84 
-0.4893 0.00557959 1.22683 242 236 214 
-0.448602 -0.384629 1.17247 112 113 117 
-0.458535 0.299432 1.12385 105 152 168 
-0.504646 -0.239866 1.31378 255 244 111 
-0.47032 0.280258 1.16683 57 93 119 
-0.434073 -0.374426 1.16831 42 43 45 
-0.424587 -0.38245 1.16742 98 99 103 
-0.416222 -0.319239 1.14816 97 98 102 
-0.461924 -0.208727 1.29427 37 130 164 
-0.461484 -0.21946 1.30643 126 201 233 
-0.462388 -0.23054 1.31069 99 99 101 
-0.372869 -0.386685 1.09579 84 85 89 
-0.45206 -0.227687 1.31034 216 231 234 
-0.40562 0.307603 1.11929 114 171 178 
-0.427947 0.268018 1.21098 55 119 155 
-0.437658 -0.222325 1.31146 175 184 215 
-0.376173 -0.36708 1.16036 30 31 35 
-0.419538 0.265104 1.21935 86 164 200 
-0.367767 0.0876598 1.18715 155 159 160 
-0.394723 -0.223874 1.31548 48 49 44 
-0.360236 0.145637 1.19893 219 230 224 
-0.380073 -0.218362 1.31551 222 198 12 
-0.361419 -0.00923669 1.23896 194 192 197 
-0.355631 0.0303637 1.22243 171 135 135 
-0.370924 -0.228017 1.32259 180 165 106 
-0.335553 0.146777 1.19496 38 34 48 
-0.346717 -0.151322 1.30507 49 40 45 
-0.339703 -0.12878 1.30059 181 123 181 
-0.345018 -0.261456 1.39 23 28 24 
-0.327461 -0.155021 1.31212 195 137 185 
-0.296537 -0.0110345 1.23069 27 27 29 
-0.310995 -0.491758 1.40056 111 98 89 
-0.245534 0.137543 1.20847 108 103 143 
-0.249809 -0.0509887 1.25283 232 233 235 
-0.257354 -0.564591 1.37117 46 48 45 
-0.244351 -0.301576 1.30129 187 190 195 
-0.230963 -0.305329 1.30442 190 194 195 
-0.222189 0.143985 1.21231 4 5 36 
-0.205907 0.300957 1.10711 102 172 172 
-0.246097 -0.406477 1.42566 136 158 145 
-0.228434 -0.549875 1.35974 200 200 208 
-0.212675 0.161591 1.20688 171 167 200 
-0.210863 0.174971 1.1987 12 6 42 
-0.209588 0.152808 1.21055 84 84 110 
-0.23602 -0.406222 1.42464 130 154 141 
-0.203944 0.271122 1.17621 113 135 156 
-0.200001 0.145228 1.2167 66 68 91 
-0.196567 0.242775 1.19202 194 201 209 
-0.20546 -0.552254 1.35987 189 197 216 
-0.215968 -0.407301 1.42629 150 176 165 
-0.190221 0.172514 1.2025 88 85 112 
-0.190353 0.162317 1.20941 76 74 96 
-0.199673 -0.567724 1.36116 219 220 215 
-0.205139 -0.412352 1.4225 35 36 41 
-0.170991 0.160025 1.19202 174 165 170 
-0.162962 -0.412982 1.42301 31 35 38 
-0.13558 0.223928 1.16427 224 203 184 
-0.134861 0.256554 1.16023 84 100 113 
-0.128945 0.242101 1.12142 112 128 141 
-0.132084 0.186718 1.17065 196 169 142 
-0.131157 0.266032 1.16161 108 120 132 
-0.12989 0.153859 1.1872 176 152 126 
-0.125814 0.170313 1.17705 124 98 75 
-0.124383 0.122236 1.18926 156 140 125 
-0.121878 0.182984 1.1719 193 165 144 
-0.120402 0.200961 1.16774 203 175 153 
-0.11827 0.148577 1.18822 160 130 102 
-0.114559 0.159387 1.18657 175 148 119 
-0.11255 0.179767 1.17512 116 89 60 
-0.105029 0.247691 1.15685 130 109 88 
-0.107026 0.149802 1.18893 157 132 110 
-0.106141 0.173363 1.18013 171 145 120 
-0.105761 0.163093 1.1819 131 105 82 
-0.103563 0.263785 1.16521 70 67 74 
-0.0995414 0.239155 1.15778 184 160 136 
-0.0995102 0.128025 1.19837 104 86 66 
-0.0950826 0.230702 1.16167 96 70 47 
-0.0964033 0.145469 1.19099 176 146 120 
-0.0953376 0.159571 1.18338 180 159 132 
-0.092525 0.168696 1.18084 126 104 81 
-0.08927 0.191321 1.17175 129 105 77 
-0.0882572 0.220441 1.16237 188 162 137 
-0.0896295 0.151856 1.18715 122 96 71 
-0.0843592 0.115189 1.1958 27 22 19 
-0.0843581 0.139048 1.1951 177 153 129 
-0.0840792 0.125939 1.19954 124 100 74 
-0.0802723 0.257586 1.1661 62 68 80 
-0.0788856 0.219043 1.16976 158 132 105 
-0.0787629 0.183065 1.18057 107 83 57 
-0.0774552 0.155458 1.18476 207 180 153 
-0.0741279 0.126955 1.19933 91 70 43 
-0.0709028 0.138939 1.19377 137 110 81 
-0.0699786 0.148872 1.18913 178 154 128 
-0.0694473 0.164465 1.18379 121 94 73 
-0.0602988 0.231786 1.16603 92 66 33 
-0.0615788 0.125552 1.19885 143 125 105 
-0.0605969 0.158228 1.18704 174 148 121 
-0.0600446 0.199503 1.17749 174 149 118 
-0.0602013 0.169179 1.1851 96 71 51 
-0.054839 -0.274419 1.17583 250 229 210 
-0.0563982 0.148729 1.19401 155 129 104 
-0.0525445 0.180956 1.18223 157 126 97 
-0.0478388 0.211126 1.17549 89 71 59 
-0.0458316 0.224457 1.17117 78 50 26 
-0.0449953 0.179747 1.18859 104 78 55 
-0.037002 0.18859 1.18827 122 95 74 
-0.0336231 0.247217 1.17448 102 93 76 
-0.0268048 0.181209 1.21629 55 41 28 
-0.0245527 -0.268667 1.22122 87 7 18 
-0.0192724 0.22822 1.17595 91 65 42 
