ply                 
format ascii 1.0    
element vertex 1235
property float x    
property float y    
property float z    
property uchar red  
property uchar green
property uchar blue 
end_header          
0.0774641 0.313147 1.10922 41 94 174 
0.0887715 -0.127274 1.21617 112 136 184 
0.0992793 -0.196154 1.23403 169 137 16 
0.0976604 -0.0509428 1.19788 184 197 231 
0.107701 -0.0115435 1.18115 164 179 222 
0.114873 -0.22092 1.23542 239 205 82 
0.111723 -0.0408743 1.19361 164 171 199 
0.111013 -0.0267913 1.1857 195 206 236 
0.11416 -0.0816162 1.20726 73 82 121 
0.111585 -0.00277264 1.17754 154 167 186 
0.118272 -0.0348571 1.18921 185 203 243 
0.126814 0.210799 1.22586 23 59 95 
0.126524 -0.0221504 1.18139 28 46 58 
0.135004 -0.125079 1.22025 119 112 164 
0.135663 -0.0917947 1.21016 76 80 128 
0.135477 -0.041972 1.19075 115 131 167 
0.141522 -0.150243 1.22527 141 133 190 
0.141081 -0.053768 1.19526 176 191 230 
0.147217 0.00819683 1.17121 87 113 170 
0.158469 -0.169648 1.22802 14 27 43 
0.164722 -0.154415 1.22728 138 134 184 
0.164924 -0.0927871 1.20768 51 56 86 
0.161329 0.310726 1.11866 73 116 184 
0.172887 -0.166126 1.23296 100 105 147 
0.173093 -0.0711986 1.19921 13 22 31 
0.17443 -0.0482051 1.18817 45 61 95 
0.17002 0.309788 1.10905 65 75 146 
0.181893 -0.148207 1.22357 108 106 143 
0.18255 -0.0665204 1.19758 113 138 179 
0.185867 -0.0926895 1.20765 15 19 22 
0.179618 0.291838 1.11064 91 174 178 
0.191443 -0.296507 1.24343 18 19 21 
0.192384 -0.0996412 1.2096 28 26 75 
0.200129 -0.0778587 1.2059 143 166 210 
0.192694 0.312866 1.1094 35 114 183 
0.203032 -0.354758 1.25143 128 128 128 
0.199627 0.00410361 1.17625 78 47 1 
0.205052 -0.0496936 1.18874 162 186 220 
0.203812 0.315216 1.11014 58 82 152 
0.211337 0.00389254 1.18222 127 91 33 
0.21335 0.0233375 1.18539 119 89 27 
0.215367 -0.0901669 1.2016 176 201 242 
0.21822 0.0530377 1.18946 53 62 77 
0.21945 -0.00222995 1.18445 162 117 36 
0.226903 -0.14089 1.2145 112 143 189 
0.233423 0.0223275 1.19422 156 119 75 
0.252837 -0.266097 1.24494 214 216 215 
0.2548 -0.130329 1.20883 216 184 109 
0.262104 -0.199347 1.22833 47 7 0 
0.266579 0.311578 1.1079 33 97 169 
0.274461 -0.0229232 1.18788 215 218 233 
0.277235 -0.0315266 1.19263 152 193 237 
0.277897 -0.302111 1.24637 16 14 17 
0.276707 -0.345322 1.24904 217 218 220 
0.277952 -0.0418145 1.1946 218 231 247 
0.280761 -0.238905 1.23696 228 193 51 
0.282058 -0.0680208 1.21019 75 59 44 
0.279621 -0.1437 1.21238 96 66 6 
0.280374 -0.0104574 1.18038 219 224 228 
0.283809 -0.156074 1.21566 78 58 0 
0.28422 -0.355267 1.24868 7 11 12 
0.289431 -0.248939 1.23896 230 194 10 
0.31411 0.198063 1.22986 23 68 97 
0.300395 -0.105424 1.22136 67 48 5 
0.319495 0.113715 1.25323 5 11 9 
0.308684 0.261234 1.17906 43 122 165 
0.298744 0.0240961 1.18374 111 82 86 
0.301535 -0.156026 1.21785 105 96 79 
0.322952 0.158057 1.23977 33 95 136 
0.32258 0.226614 1.2187 30 73 115 
0.318493 0.246172 1.19955 62 114 162 
0.327499 0.141634 1.24639 2 8 8 
0.326211 0.208083 1.22668 67 124 154 
0.31357 -0.135588 1.22257 70 54 29 
0.335709 0.115599 1.25025 105 111 101 
0.321643 0.00878127 1.21118 130 83 91 
0.320109 0.022447 1.19718 222 224 221 
0.33874 0.196108 1.23154 58 127 158 
0.336211 0.245193 1.20039 70 133 174 
0.326094 0.0163175 1.20176 218 214 215 
0.32228 0.0325544 1.18144 84 84 82 
0.335642 -0.0103468 1.23153 206 161 164 
0.328048 0.0224148 1.1913 72 71 67 
0.349208 0.173044 1.23651 28 84 119 
0.333998 0.00503849 1.21136 213 211 214 
0.351961 0.164115 1.23691 23 83 111 
0.331416 0.0292337 1.18282 243 244 239 
0.334643 0.0153259 1.19647 49 51 48 
0.354921 0.151999 1.24103 5 13 15 
0.33898 0.00792742 1.20321 220 220 218 
0.338104 0.0223642 1.18798 117 116 114 
0.364257 0.156445 1.24191 5 20 13 
0.347567 0.0106639 1.19941 213 209 208 
0.367217 -0.0407111 1.27312 87 96 5 
0.367795 0.224367 1.21846 79 129 166 
0.379092 0.175519 1.2329 77 113 139 
0.381018 0.167021 1.23837 78 119 137 
0.38127 -0.0651988 1.26908 47 107 37 
0.359743 -0.276484 1.24137 44 41 26 
0.389757 -0.0709754 1.26955 15 39 73 
0.399989 0.169993 1.24165 112 106 94 
0.399157 0.115434 1.25035 112 108 97 
0.403087 0.0824944 1.25986 88 90 87 
0.402109 0.20932 1.22303 83 133 166 
0.398919 -0.0580153 1.25784 224 224 226 
0.393548 -0.532301 1.33811 115 105 104 
0.417236 0.115079 1.25019 113 116 107 
0.418953 -0.44553 1.37709 0 4 0 
0.40373 -0.531166 1.33813 14 9 15 
0.427299 -0.453001 1.36795 26 32 30 
0.421945 -0.117595 1.25924 214 194 183 
0.42452 -0.0551909 1.24978 218 222 221 
0.423933 -0.0933341 1.25551 215 180 174 
0.459074 -0.556277 1.43829 187 185 170 
0.449271 -0.214731 1.31925 64 63 58 
0.450619 -0.175053 1.31098 14 11 6 
0.440272 -0.165091 1.27815 178 143 139 
0.448951 -0.133617 1.26391 107 69 66 
0.44853 -0.485515 1.33447 117 114 105 
0.462538 -0.160748 1.29423 75 78 67 
0.497037 -0.457448 1.30733 31 29 32 
-0.89986 0.403865 1.23416 93 92 87 
-0.828178 0.329105 1.25032 178 178 176 
-0.64449 0.0302682 1.31404 178 179 174 
-0.588767 -0.242606 1.27392 58 68 57 
-0.582929 -0.260207 1.2762 134 166 151 
-0.58138 -0.234136 1.27294 39 43 42 
-0.580531 -0.220375 1.26803 35 33 34 
-0.556143 -0.472391 1.33584 124 121 116 
-0.580671 -0.181204 1.25933 36 36 36 
-0.548307 -0.484258 1.31764 251 252 246 
-0.580379 -0.170674 1.25564 34 36 35 
-0.570556 -0.212103 1.26624 191 171 146 
-0.590714 0.160671 1.14753 236 237 232 
-0.579453 -0.0135837 1.2185 159 179 142 
-0.566104 -0.156688 1.25293 132 133 135 
-0.571076 -0.0164694 1.22337 145 173 122 
-0.526802 -0.497424 1.35106 116 121 125 
-0.572147 0.0584537 1.20389 149 179 119 
-0.58407 0.200031 1.16992 239 241 236 
-0.518694 -0.510981 1.34966 61 64 69 
-0.560345 -0.00975981 1.2188 64 69 37 
-0.571533 0.134826 1.18507 185 174 172 
-0.567493 0.120035 1.18826 152 175 133 
-0.568899 0.159571 1.18043 185 185 185 
-0.567709 0.186634 1.17457 207 220 203 
-0.554419 0.0533539 1.20897 111 118 48 
-0.562792 0.152148 1.18601 101 101 99 
-0.561416 0.167809 1.18109 115 113 114 
-0.520407 -0.418139 1.36804 0 9 7 
-0.551865 0.0476963 1.21922 155 140 75 
-0.535971 0.029927 1.16323 82 85 40 
-0.549414 0.05786 1.22269 169 156 111 
-0.558257 0.204576 1.17094 210 220 212 
-0.499164 -0.495833 1.34016 24 25 29 
-0.544734 0.00498274 1.25281 109 107 50 
-0.554097 0.214993 1.16741 189 190 158 
-0.530544 -0.152631 1.30328 55 56 22 
-0.528122 -0.150752 1.29121 51 52 12 
-0.536294 -0.0012389 1.25534 30 31 0 
-0.532616 0.0333862 1.21992 197 192 154 
-0.531936 0.0403561 1.24282 187 187 153 
-0.481282 -0.503528 1.34973 24 24 26 
-0.528373 0.0122918 1.25839 123 130 62 
-0.493722 -0.184766 1.28132 236 227 152 
-0.446982 -0.391105 1.16151 96 96 96 
-0.494919 -0.121109 1.26304 234 232 219 
-0.51337 0.0857961 1.23314 151 155 140 
-0.490664 0.053942 1.13305 152 152 140 
-0.438164 -0.398283 1.16462 80 81 83 
-0.503782 0.0898197 1.23787 171 175 160 
-0.43958 -0.298134 1.14255 64 52 0 
-0.484523 -0.0320976 1.23616 206 59 65 
-0.411976 -0.408293 1.07643 14 15 19 
-0.429826 -0.368523 1.15709 104 105 109 
-0.476584 -0.00681128 1.22897 235 234 229 
-0.484138 0.0571484 1.23183 104 122 98 
-0.470911 -0.074204 1.25262 170 162 100 
-0.470648 -0.00275709 1.20519 157 138 9 
-0.455873 -0.356448 1.40108 156 183 176 
-0.406333 -0.329282 1.14715 14 14 16 
-0.440676 -0.0554886 1.20961 240 246 242 
-0.454917 0.0579767 1.23335 118 148 120 
-0.471527 0.289574 1.18442 78 63 102 
-0.442252 -0.0912763 1.26483 13 140 97 
-0.398957 -0.336333 1.14916 10 11 15 
-0.414744 -0.489127 1.3849 113 113 113 
-0.420104 -0.426086 1.41296 35 21 8 
-0.436991 4.45814e-05 1.23136 65 106 36 
-0.447226 0.15023 1.27205 242 245 238 
-0.436339 0.119767 1.21987 163 162 144 
-0.433673 0.0844912 1.24287 197 227 199 
-0.374793 -0.389209 1.16156 18 19 23 
-0.408709 -0.147045 1.27771 199 29 55 
-0.372238 -0.334223 1.1475 29 30 34 
-0.436792 0.277278 1.22129 49 103 129 
-0.405697 0.00736992 1.21383 136 128 63 
-0.428721 0.273205 1.22637 34 98 142 
-0.403532 0.00869817 1.23273 255 255 129 
-0.421789 0.285907 1.21532 36 104 139 
-0.408805 0.14313 1.23677 227 227 215 
-0.394032 0.0166563 1.24171 237 251 236 
-0.41316 0.296 1.19983 105 167 182 
-0.397737 0.0690437 1.25306 139 173 146 
-0.398631 0.096905 1.24427 147 184 143 
-0.412073 0.255948 1.24664 193 206 189 
-0.393068 0.107313 1.25444 150 158 137 
-0.401411 0.308183 1.17869 77 129 177 
-0.399608 0.314345 1.16509 38 110 150 
-0.387884 0.0668737 1.25576 158 168 143 
-0.401864 0.262809 1.24298 32 128 178 
-0.379809 0.0241787 1.24685 215 225 175 
-0.339177 -0.324043 1.14545 78 79 81 
-0.367401 -0.126425 1.27859 41 65 31 
-0.374936 0.00693982 1.29394 21 24 7 
-0.356102 -0.366289 1.40291 140 160 148 
-0.370239 -0.0388278 1.29832 38 36 23 
-0.343995 -0.559668 1.46364 192 192 184 
-0.364375 -0.0298519 1.29834 117 124 117 
-0.362006 0.0854623 1.19339 16 18 17 
-0.358273 0.0357043 1.2181 32 31 29 
-0.360113 -0.0400379 1.29609 34 34 32 
-0.353416 -0.0761425 1.27123 114 113 108 
-0.354299 -0.0108978 1.24748 190 188 191 
-0.371534 0.291993 1.20744 70 175 223 
-0.347648 0.0256577 1.22831 153 126 117 
-0.342642 0.0367798 1.22879 144 121 137 
-0.333254 -0.0615395 1.26687 120 99 118 
-0.335607 0.0608228 1.22027 110 55 97 
-0.307446 -0.527607 1.3509 124 115 106 
-0.334418 0.04783 1.22332 183 139 172 
-0.336152 0.125422 1.18773 136 99 132 
-0.323769 -0.165728 1.29974 135 89 128 
-0.341172 0.304755 1.18156 98 135 188 
-0.314822 -0.311549 1.39015 56 60 59 
-0.339546 0.269585 1.2343 42 112 171 
-0.317828 0.00281472 1.24931 35 7 19 
-0.313958 -0.0924002 1.29177 34 5 35 
-0.307295 -0.225725 1.33019 215 215 213 
-0.324833 0.288785 1.20939 53 109 170 
-0.308551 -0.0102837 1.25396 46 1 21 
-0.292273 0.059039 1.171 148 198 199 
-0.303494 0.288096 1.21374 77 146 203 
-0.280103 0.0380365 1.18321 69 69 71 
-0.276384 0.0524763 1.17869 69 69 71 
-0.275034 0.27957 1.2219 68 169 221 
-0.251996 -0.401002 1.40982 150 173 163 
-0.242971 -0.3112 1.29187 175 178 183 
-0.241621 -0.357334 1.3998 111 128 118 
-0.248304 0.171426 1.20605 112 108 131 
-0.243021 0.16377 1.21111 100 94 130 
-0.235244 0.158507 1.21735 23 19 44 
-0.235211 0.170176 1.20791 32 26 60 
-0.214823 -0.531692 1.3471 31 31 29 
-0.216218 -0.4015 1.41023 142 164 152 
-0.231001 0.276467 1.19269 68 102 150 
-0.200188 -0.531929 1.34622 40 39 35 
-0.221356 0.306289 1.16441 97 119 176 
-0.217335 0.294781 1.16846 53 69 128 
-0.217647 0.289034 1.20346 98 163 159 
-0.213975 0.27164 1.21414 88 119 139 
-0.214631 0.315523 1.14349 66 95 139 
-0.196905 -0.291116 1.30094 183 182 187 
-0.194415 -0.302638 1.3078 30 28 29 
-0.204479 0.243179 1.21508 96 118 142 
-0.189099 -0.406223 1.40982 14 15 20 
-0.189816 -0.35085 1.39115 111 133 121 
-0.202923 0.294252 1.21525 83 101 113 
-0.196288 0.279785 1.21069 79 93 106 
-0.194685 0.247614 1.21681 172 177 181 
-0.191558 0.269846 1.21118 171 189 201 
-0.192136 0.321355 1.13993 86 142 203 
-0.167179 -0.542626 1.46026 226 226 216 
-0.17213 0.146688 1.21864 103 91 79 
-0.164274 0.24728 1.19341 169 187 191 
-0.160961 0.170595 1.20866 143 127 112 
-0.155675 0.188767 1.20536 112 97 100 
-0.14655 0.159186 1.2064 129 113 90 
-0.140938 0.13607 1.21172 97 83 70 
-0.132114 -0.361462 1.39996 101 116 111 
-0.140855 0.17892 1.19816 198 171 141 
-0.138629 0.161972 1.20136 175 150 130 
-0.132948 0.172417 1.2019 126 97 63 
-0.132092 0.127546 1.20782 177 148 114 
-0.123504 -0.353408 1.39749 117 145 133 
-0.128603 0.145902 1.21317 98 86 72 
-0.128793 0.223111 1.1926 110 89 62 
-0.126324 0.1935 1.19726 137 111 84 
-0.124116 0.164488 1.20402 159 133 108 
-0.121711 0.300589 1.17809 101 135 180 
-0.120409 0.146441 1.20733 161 132 102 
-0.113721 0.268488 1.18393 167 146 125 
-0.111474 0.129547 1.21297 146 120 95 
-0.105751 0.158718 1.21185 138 121 95 
-0.104344 0.182316 1.20188 165 140 110 
-0.104167 0.286347 1.18954 31 50 80 
-0.102462 0.27337 1.18927 87 82 86 
-0.0631645 0.807896 1.75377 114 92 71 
-0.0958819 0.244318 1.18871 124 99 77 
-0.0883418 0.278116 1.18522 28 81 131 
-0.0859273 0.133754 1.21841 99 75 51 
-0.0777009 0.153496 1.21265 173 147 120 
-0.0699312 -0.619581 1.46975 190 190 188 
-0.0751363 0.243401 1.19104 161 137 111 
-0.0584819 -0.354364 1.3954 66 79 69 
-0.0511261 -0.409151 1.40873 0 8 6 
-0.0621979 -0.286485 1.20075 228 211 201 
-0.0424461 0.222011 1.20241 178 156 132 
-0.0530926 -0.278186 1.20434 56 5 0 
-0.029663 0.0306282 1.34564 106 90 74 
-0.0363724 0.207103 1.21249 130 109 88 
-0.0348851 -0.352553 1.37123 93 97 98 
-0.0335909 0.220521 1.21093 148 118 92 
-0.0449233 -0.281876 1.21432 57 15 0 
-0.0290968 0.239867 1.20293 152 126 99 
-0.0443754 -0.251658 1.18435 70 40 14 
-0.0228649 -0.359958 1.37185 221 249 252 
-0.0279017 -0.0696493 1.22406 223 224 226 
-0.0300251 -0.271745 1.22117 128 77 50 
-0.0253729 -0.27559 1.23246 60 16 0 
-0.0176567 -0.0550059 1.20501 24 26 25 
-0.0150092 -0.0549984 1.22276 146 145 150 
-0.000993624 0.261193 1.21258 184 174 147 
-0.0210479 -0.238647 1.20172 107 59 36 
-0.0175868 -0.263463 1.23293 137 81 56 
-0.016611 -0.24937 1.21446 122 70 59 
-0.0118025 -0.270995 1.24301 78 5 0 
0.0016678 -0.375037 1.38074 189 211 209 
-0.00239788 -0.0231968 1.21328 240 240 240 
-0.0072517 -0.278519 1.25468 49 4 0 
0.00860868 0.130014 1.22802 158 152 130 
-0.000548179 -0.0486622 1.21178 30 28 29 
-0.00490532 -0.251362 1.2327 81 28 0 
-0.00249008 -0.262728 1.24673 73 10 0 
0.00279892 -0.0413145 1.19734 77 33 0 
0.0131347 -0.364553 1.37587 221 215 215 
0.00609836 -0.269212 1.25788 80 4 4 
0.0189372 -0.37682 1.37722 253 255 250 
0.0292144 0.280609 1.2121 177 172 134 
0.00994604 -0.259935 1.25926 73 11 0 
0.0125948 -0.2768 1.2767 81 6 0 
0.0135453 -0.0341043 1.1951 219 175 88 
0.0163294 -0.267336 1.2707 152 85 68 
0.0200409 -0.141097 1.24774 9 9 9 
0.0269572 -0.360449 1.37717 12 11 9 
0.0232666 -0.279978 1.29151 139 74 56 
0.0221392 -0.25938 1.26828 95 9 20 
0.0285374 -0.262715 1.27834 76 0 0 
0.0308753 -0.24381 1.26972 126 78 38 
0.0356693 -0.264699 1.2855 132 81 52 
0.0583908 0.267098 1.23421 55 135 186 
0.0627923 0.221324 1.26064 67 135 172 
0.0633377 0.239996 1.23038 23 101 150 
0.0466241 -0.24753 1.28317 31 0 0 
0.0462701 -0.179866 1.24639 240 255 255 
0.0607777 -0.396558 1.40035 7 25 29 
0.0527286 -0.0163022 1.19083 204 172 123 
0.0548149 -0.255228 1.29673 133 95 76 
0.0541507 -0.240986 1.28312 81 50 45 
0.0735474 0.135831 1.25872 180 64 85 
0.0527899 -0.164923 1.22281 33 30 21 
0.0607884 -0.264816 1.30984 123 86 57 
0.0604775 -0.247498 1.29053 104 66 45 
0.0561922 -0.510227 1.36867 31 31 31 
0.0751409 0.337382 1.12775 170 165 145 
0.0721894 -0.349615 1.38016 11 0 0 
0.0739969 -0.363753 1.39547 6 10 11 
0.0820392 -0.172742 1.35558 42 60 82 
0.0875577 0.112212 1.27388 88 88 88 
0.084886 -0.198536 1.34809 204 216 216 
0.0802677 -0.403128 1.39447 91 118 109 
0.0687189 -0.193263 1.2303 117 106 78 
0.0795032 -0.346423 1.35453 50 0 13 
0.0903123 -0.175565 1.34851 218 225 243 
0.0952995 -0.185932 1.35053 206 215 222 
0.0952556 -0.19652 1.35236 36 55 70 
0.0905709 -0.401261 1.39076 183 201 201 
0.0988057 -0.362565 1.3977 11 18 11 
0.104571 -0.203509 1.35147 36 58 69 
0.0894723 -0.034391 1.19095 200 210 237 
0.0957585 -0.354573 1.35892 62 0 18 
0.120202 0.256437 1.24022 57 132 174 
0.103721 -0.411293 1.40841 130 156 145 
0.10172 -0.390483 1.38429 235 229 229 
0.105865 -0.412136 1.39644 77 90 83 
0.108857 -0.402586 1.3843 253 253 251 
0.108565 -0.357371 1.3573 42 0 12 
0.11576 -0.361676 1.39688 12 13 8 
0.11852 -0.36136 1.36021 124 73 88 
0.143235 0.283555 1.21362 63 124 171 
0.151023 0.231513 1.25991 95 161 157 
0.121527 -0.407884 1.37744 164 159 156 
0.131162 -0.321926 1.35275 81 9 29 
0.158731 0.202193 1.26394 77 141 143 
0.129704 -0.36541 1.35785 44 0 12 
0.161487 0.2288 1.25605 39 94 88 
0.152739 0.29827 1.17729 66 129 173 
0.138761 -0.32226 1.35954 91 0 20 
0.136122 -0.353854 1.35644 140 72 97 
0.141897 -0.313564 1.35606 95 25 33 
0.163148 0.137839 1.2611 88 168 143 
0.145256 -0.397479 1.38616 222 230 233 
0.173561 0.156028 1.27261 71 115 66 
0.133065 -0.219437 1.23059 100 106 132 
0.179322 0.188307 1.26624 73 158 165 
0.165925 0.329736 1.1366 58 90 151 
0.155213 -0.406024 1.38397 225 250 254 
0.166375 -0.330862 1.34927 201 160 166 
0.164482 -0.0332442 1.1952 38 60 97 
0.183012 -0.38085 1.40665 131 137 133 
0.176509 0.0305481 1.17999 138 143 162 
0.187123 -0.397779 1.38949 88 89 84 
0.183644 -0.349977 1.35153 108 96 84 
0.185641 -0.362527 1.35508 104 28 58 
0.187464 -0.393461 1.36831 123 0 68 
0.188018 -0.0497156 1.20449 86 104 140 
0.192902 0.0274548 1.18578 80 55 14 
0.198473 -0.389343 1.38693 53 45 34 
0.197941 -0.330859 1.35536 67 21 0 
0.194492 -0.357673 1.3509 161 147 134 
0.195878 -0.00343773 1.19219 26 18 7 
0.196534 -0.366741 1.35381 49 0 4 
0.20351 0.0285883 1.19473 90 63 33 
0.181305 -0.274495 1.2398 11 15 16 
0.205145 -0.340813 1.36655 208 166 108 
0.203653 -0.405572 1.38707 246 245 241 
0.197765 -0.0570181 1.1996 149 172 214 
0.208172 0.0376097 1.19919 77 46 2 
0.204215 0.00344074 1.18932 207 164 95 
0.207998 -0.00996829 1.19406 106 73 6 
0.215089 -0.0554202 1.20655 168 188 223 
0.232824 0.0459538 1.20858 156 124 83 
0.234612 -0.392128 1.3897 100 111 103 
0.232966 -0.404773 1.38924 206 202 199 
0.229093 -0.0723085 1.20485 235 191 92 
0.217463 -0.263768 1.24415 216 220 223 
0.237659 -0.0120494 1.20101 189 136 58 
0.235424 -0.403667 1.3574 250 234 209 
0.246772 -0.401697 1.39503 217 231 234 
0.249129 0.0111082 1.21138 135 95 46 
0.22125 -0.29814 1.23532 16 16 18 
0.226756 -0.307016 1.24576 197 198 202 
0.223037 -0.404588 1.26641 34 33 31 
0.248805 -0.424232 1.36513 236 213 161 
0.283991 0.331955 1.14069 23 95 154 
0.252979 -0.412531 1.35683 184 119 17 
0.255128 -0.114681 1.2157 131 102 22 
0.258243 -0.397803 1.34593 212 165 93 
0.235945 -0.409378 1.25816 173 170 163 
0.265955 -0.400823 1.3513 34 7 0 
0.242711 -0.404353 1.25321 125 127 124 
0.271574 -0.326422 1.24917 5 9 12 
0.280486 -0.316274 1.25128 6 8 5 
0.30395 -0.119432 1.22777 79 64 35 
0.367006 -0.628903 1.46761 198 196 197 
0.480391 -0.25471 1.34307 85 101 91 
-0.085577 0.159768 1.18354 182 158 134 
0.177241 -0.30954 1.22537 19 19 19 
-0.34608 0.00468734 1.196 169 143 144 
-0.290021 -0.0176887 1.23465 23 23 25 
0.252927 -0.321562 1.24172 2 3 5 
0.310107 -0.213308 1.21954 40 42 20 
0.314264 0.232313 1.19237 69 128 170 
0.42827 -0.181668 1.25941 108 79 75 
-0.557579 0.0162423 1.23867 54 50 23 
-0.44096 -0.20243 1.30139 173 189 205 
-0.427119 -0.162525 1.29075 220 33 62 
-0.416003 -0.208002 1.30584 221 77 113 
-0.402822 -0.200759 1.30434 164 82 104 
-0.395028 -0.20685 1.30931 236 221 226 
-0.371755 -0.125787 1.28782 255 217 92 
-0.326131 -0.229653 1.37742 45 58 49 
-0.246491 -0.0133004 1.21877 80 81 85 
-0.186062 -0.36124 1.31496 156 168 164 
-0.0463281 -0.408625 1.41302 20 25 21 
-0.0409917 0.0248356 1.24477 208 207 212 
0.116537 -0.384235 1.38873 70 75 69 
0.167817 -0.303444 1.24058 29 29 31 
0.158211 -0.268933 1.06822 11 13 12 
0.169897 -0.27627 1.06891 202 202 202 
0.252973 -0.20508 1.44443 232 236 237 
0.262283 -0.329096 1.23922 0 0 2 
0.384719 -0.0755057 1.25756 19 24 79 
0.383302 0.215356 1.20558 107 152 185 
0.396696 0.156935 1.22511 56 48 37 
0.384146 0.252899 1.16021 69 97 137 
-0.589161 0.0282282 1.22681 60 66 66 
-0.586637 0.134863 1.19456 186 182 181 
-0.587195 -0.107924 1.35262 11 4 0 
-0.564401 0.033063 1.2321 93 98 75 
-0.556832 -0.121891 1.28234 130 126 65 
-0.56166 0.210444 1.17997 213 219 215 
-0.55381 0.0405479 1.24335 30 23 0 
-0.541676 -0.138203 1.31016 143 118 61 
-0.546197 0.00627843 1.26451 136 140 66 
-0.528742 -0.345272 1.36981 0 14 11 
-0.536696 -0.153332 1.31524 138 136 79 
-0.537988 0.022566 1.26988 96 98 51 
-0.522854 0.0238593 1.25021 113 101 53 
-0.514635 0.037877 1.26032 236 239 222 
-0.502418 -0.0303968 1.25293 236 201 47 
-0.457524 -0.137872 1.14824 236 234 219 
-0.509781 0.301719 1.14565 103 170 161 
-0.43338 -0.316762 1.16742 99 98 103 
-0.428585 -0.368982 1.17772 26 25 30 
-0.499273 0.0985416 1.25124 177 179 166 
-0.497106 0.293242 1.15065 98 102 150 
-0.482081 0.00497961 1.24794 234 234 226 
-0.489219 0.0712911 1.24522 91 116 87 
-0.475909 -0.0140057 1.25212 64 36 24 
-0.415138 -0.373205 1.18069 39 40 44 
-0.412959 -0.31679 1.16819 106 107 111 
-0.408906 -0.355299 1.17584 11 12 16 
-0.474596 0.0726166 1.24608 75 140 86 
-0.399402 -0.377946 1.18095 12 13 17 
-0.455209 -0.078203 1.2788 46 109 82 
-0.452573 -0.115903 1.2966 81 101 29 
-0.395855 -0.363146 1.17891 21 22 26 
-0.456362 0.0624843 1.24325 239 255 238 
-0.465058 0.282629 1.1916 52 91 122 
-0.391828 -0.333906 1.17315 105 104 109 
-0.452036 0.0705831 1.2472 87 175 101 
-0.435903 -0.169915 1.3049 158 143 0 
-0.383499 -0.374779 1.18104 24 23 28 
-0.441373 0.0119394 1.24915 58 118 56 
-0.384545 -0.308167 1.16686 105 106 110 
-0.379926 -0.342355 1.17325 63 62 67 
-0.432243 -0.108223 1.29628 231 231 231 
-0.440948 0.0689855 1.24931 119 172 126 
-0.424366 -0.421263 1.42509 157 145 133 
-0.436681 0.159159 1.23125 169 193 169 
-0.433291 0.0940033 1.25379 98 170 106 
-0.431225 0.0612101 1.2652 101 140 96 
-0.430092 0.150853 1.2326 252 255 251 
-0.427426 0.0762863 1.26601 94 165 105 
-0.422651 0.32276 1.13626 91 98 142 
-0.419518 0.104269 1.23795 212 214 200 
-0.387893 -0.483739 1.39591 77 76 81 
-0.418804 0.165184 1.2333 98 109 95 
-0.41661 0.150047 1.23818 173 173 161 
-0.402442 0.048985 1.26683 248 255 240 
-0.410565 0.187356 1.24209 246 251 247 
-0.384668 -0.178791 1.31463 255 242 157 
-0.384289 0.0192763 1.25395 56 92 30 
-0.3724 -0.115982 1.30016 130 176 130 
-0.361691 -0.222136 1.33009 190 179 115 
-0.390674 0.260007 1.2377 23 126 184 
-0.359846 0.0353308 1.2347 174 151 145 
-0.360276 0.0957618 1.20375 30 29 35 
-0.351524 0.00453589 1.25185 169 148 147 
-0.349318 -0.0456651 1.27462 185 186 191 
-0.368142 0.253511 1.23985 56 150 214 
-0.335701 -0.350831 1.4174 131 141 130 
-0.33496 -0.254886 1.39044 12 17 11 
-0.353866 0.271139 1.2216 63 153 213 
-0.329079 -0.0242758 1.27224 159 101 162 
-0.319164 -0.347577 1.41548 13 22 19 
-0.329665 0.145437 1.20674 47 35 55 
-0.317027 -0.138952 1.32083 67 40 81 
-0.310344 -0.00275146 1.26531 62 0 24 
-0.281241 -0.0370187 1.23 21 21 23 
-0.276308 0.0393972 1.19637 15 16 18 
-0.255273 -0.00580789 1.226 217 218 222 
-0.248274 0.288366 1.17213 92 153 200 
-0.234393 0.143336 1.22307 0 0 27 
-0.215386 -0.269503 1.3162 195 198 203 
-0.221865 -0.0380303 1.23971 215 218 223 
-0.224229 0.0221071 1.22231 240 241 245 
-0.204144 -0.399464 1.42539 29 33 32 
-0.211778 -0.0441884 1.24505 219 220 224 
-0.210342 -0.00682588 1.23343 236 235 243 
-0.197703 -0.282659 1.32005 187 192 195 
-0.217609 0.281634 1.17512 38 91 135 
-0.21219 0.270883 1.18843 159 177 179 
-0.197577 -0.0104464 1.23623 232 230 235 
-0.18502 -0.0553638 1.15687 232 236 235 
-0.189424 -0.0500033 1.25232 89 88 94 
-0.201972 0.274024 1.18593 95 118 136 
-0.19374 0.276067 1.17739 112 134 158 
-0.191553 0.304439 1.1232 90 152 213 
-0.163892 -0.483756 1.39799 99 95 86 
-0.179665 0.018282 1.23239 21 21 29 
-0.159862 -0.398907 1.42127 58 70 84 
-0.180479 0.275335 1.17156 96 126 134 
-0.16502 -0.0305298 1.25188 220 224 223 
-0.168681 0.318916 1.11759 98 125 192 
-0.151485 0.132194 1.20176 160 135 113 
-0.150826 0.200867 1.19828 112 106 108 
-0.138681 0.206983 1.18305 140 117 85 
-0.137837 0.233193 1.17539 123 135 135 
-0.121839 0.120109 1.20461 81 67 54 
-0.109681 -0.0234375 1.25804 219 220 224 
-0.115609 0.217375 1.17623 174 152 128 
-0.11729 0.276421 1.16681 29 56 85 
-0.114477 0.248892 1.16288 173 152 125 
-0.0994678 -0.0346064 1.26302 90 91 96 
-0.0963407 0.154087 1.19923 186 161 130 
-0.0725949 0.22155 1.17211 129 103 80 
-0.0639425 -0.00916057 1.26232 161 160 165 
-0.04991 -0.258992 1.20747 72 46 23 
-0.0437524 -0.238714 1.20635 16 9 0 
-0.0413098 0.146397 1.22109 47 31 34 
-0.0209793 -0.356563 1.37914 223 251 254 
-0.0323002 -0.00875408 1.26861 100 98 101 
-0.0383422 0.190708 1.19221 135 117 93 
-0.0252841 -0.258182 1.2318 72 8 0 
-0.0188645 -0.257674 1.24023 73 5 2 
-0.0228163 0.0029967 1.26595 57 70 60 
-0.0223718 -0.0464208 1.2027 207 175 118 
-0.0138633 -0.0824271 1.22028 27 32 28 
-0.00602004 0.00931951 1.25875 36 34 35 
0.00185382 -0.254793 1.25907 81 19 0 
-0.00262926 0.0187127 1.26292 35 34 32 
0.0128831 -0.535335 1.35494 110 101 94 
0.0305667 -0.354762 1.39277 15 9 11 
0.0158425 -0.0507834 1.19608 255 211 99 
0.0314248 -0.271327 1.29823 140 81 51 
0.0277702 -0.146009 1.244 49 51 50 
0.0272195 -0.12075 1.21508 79 83 86 
0.0285937 -0.111166 1.2117 40 40 40 
0.0327337 -0.144371 1.22749 24 26 23 
0.0587532 -0.35037 1.38 176 169 187 
0.0425965 0.0109455 1.1964 244 245 247 
0.0656216 -0.389851 1.38604 188 233 236 
0.049913 0.249636 1.18721 73 122 152 
0.0572906 0.270955 1.14928 163 169 159 
0.0736726 0.120759 1.23702 27 21 21 
0.104645 -0.410576 1.40779 148 163 156 
0.0840825 -0.0831369 1.19842 120 126 178 
0.109013 -0.382021 1.39104 18 22 21 
0.0803281 0.302519 1.10579 76 161 225 
0.109093 0.150798 1.23724 23 18 22 
0.112167 0.0995029 1.25953 35 95 83 
0.123847 -0.303991 1.35377 135 54 71 
0.126556 0.105889 1.24993 81 165 141 
0.134945 0.145286 1.23062 160 46 69 
0.142671 0.277919 1.12798 72 130 180 
0.158605 0.122946 1.23944 88 173 144 
0.179197 -0.381795 1.37189 158 0 88 
0.181759 0.101183 1.21391 186 198 214 
0.187665 0.206441 1.21724 136 168 181 
0.199785 0.298647 1.1064 69 133 197 
0.235995 -0.408245 1.25737 176 170 158 
0.253546 -0.285626 1.23962 23 27 28 
0.276296 0.135338 1.23758 75 137 174 
0.261498 -0.269531 1.23736 16 14 15 
0.279445 0.120643 1.23915 27 67 92 
0.25927 0.288717 1.11055 54 159 206 
0.269009 -0.0338126 1.19933 85 94 109 
0.276013 -0.161307 1.22734 218 196 111 
0.281488 -0.0554285 1.19229 89 96 102 
0.288473 -0.0750434 1.20875 64 45 12 
0.286119 -0.0220063 1.18472 86 89 94 
0.287932 -0.264679 1.23737 237 207 111 
0.311075 0.127926 1.23891 108 110 97 
0.298309 -0.0706635 1.20904 174 173 169 
0.304578 -0.297094 1.24247 40 4 0 
0.314292 0.0360759 1.17721 238 234 233 
-1.0383 -0.344617 1.11979 128 132 133 
-1.10816 -0.100233 1.17542 158 159 161 
-1.04049 -0.297774 1.20933 217 221 222 
-1.03634 -0.28393 1.20455 57 61 60 
-1.06788 -0.12711 1.17663 88 91 98 
-1.06401 -0.139147 1.17907 155 158 165 
-1.05582 -0.181117 1.18828 138 141 146 
-1.06429 -0.11376 1.17468 146 149 158 
-1.01766 -0.35687 1.23105 100 101 103 
-1.04305 -0.0957068 1.14953 197 199 198 
-1.07074 0.0479079 1.1246 154 158 161 
-1.05831 0.000506266 1.13079 139 143 146 
-1.05705 -0.0329971 1.14871 54 58 61 
-1.048 0.0537384 1.11092 143 147 148 
-1.07089 0.194052 1.08772 139 142 147 
-1.00854 -0.201389 1.19236 175 176 178 
-1.06537 0.288433 1.05222 123 126 131 
-0.941657 -0.0536662 1.21107 107 103 100 
-0.942055 -0.0321442 1.20469 107 104 99 
-0.910955 0.368327 1.20434 51 50 46 
-0.90521 0.361169 1.21791 88 85 80 
-0.888148 0.234393 1.26238 69 66 61 
-0.888009 0.276291 1.25021 103 100 95 
-0.582629 -0.164408 1.27829 135 106 100 
-0.576922 -0.201298 1.28675 175 154 123 
-0.595732 0.173571 1.16169 236 237 232 
-0.545296 -0.453116 1.35717 180 172 170 
-0.581799 -0.00835753 1.22581 157 175 135 
-0.568674 -0.1453 1.27283 20 20 20 
-0.564111 -0.20643 1.29532 27 25 28 
-0.56443 -0.145869 1.28273 101 82 65 
-0.574134 -0.00879568 1.23402 151 177 129 
-0.574107 0.0124 1.2237 31 31 31 
-0.573667 0.0234986 1.22068 35 37 32 
-0.561707 -0.156817 1.28905 13 9 0 
-0.561997 -0.126546 1.27895 19 15 4 
-0.5239 -0.479416 1.36845 172 169 164 
-0.551 0.0660134 1.23042 36 32 0 
-0.545131 0.0289093 1.24533 40 43 26 
-0.545644 0.0532385 1.23478 155 142 107 
-0.52966 0.0217124 1.26616 45 40 10 
-0.510075 -0.0139947 1.23622 210 198 0 
-0.500741 -0.109835 1.27962 154 141 89 
-0.455122 -0.378101 1.19326 82 83 87 
-0.506197 0.290857 1.13425 105 171 169 
-0.496309 0.091468 1.24134 184 188 174 
-0.459781 -0.203973 1.22339 239 217 9 
-0.436395 -0.357392 1.18314 106 107 109 
-0.47466 -0.064488 1.26783 173 164 105 
-0.481634 0.0403631 1.24983 212 224 210 
-0.493046 0.280035 1.13606 92 97 135 
-0.489787 0.268255 1.12456 87 89 114 
-0.459619 -0.152644 1.294 232 231 229 
-0.486056 0.272852 1.13794 89 81 105 
-0.477126 0.284982 1.13716 142 151 194 
-0.463563 0.086667 1.24895 201 205 191 
-0.451444 -0.0228114 1.25771 243 249 245 
-0.408814 -0.311087 1.17203 96 97 101 
-0.467678 0.274252 1.16896 72 65 99 
-0.449191 0.0624057 1.24167 88 145 94 
-0.427009 -0.122399 1.25222 230 232 229 
-0.456286 0.144235 1.2764 133 158 119 
-0.427739 -0.157818 1.30322 216 21 51 
-0.441425 0.0594587 1.25539 136 184 142 
-0.45036 0.29597 1.13292 120 182 205 
-0.431935 0.0902093 1.24833 104 169 113 
-0.385872 -0.31402 1.17605 35 36 40 
-0.424859 0.0978518 1.2451 200 255 216 
-0.375509 -0.373075 1.1898 15 16 20 
-0.412884 -0.0115002 1.24814 11 158 104 
-0.433769 0.264309 1.2076 59 105 131 
-0.413469 0.136733 1.21908 170 174 160 
-0.410176 0.0981616 1.23072 200 203 186 
-0.420325 0.313492 1.1265 90 103 148 
-0.422252 0.268226 1.20545 103 172 188 
-0.409105 0.0855245 1.24324 157 159 146 
-0.402815 0.0136902 1.2467 50 131 75 
-0.396867 0.0261556 1.25511 232 245 225 
-0.41027 0.303578 1.12909 125 137 197 
-0.405969 0.290578 1.15637 55 92 136 
-0.404449 0.320378 1.11991 48 116 187 
-0.400283 0.300163 1.14313 119 168 172 
-0.389072 0.0728019 1.26355 154 164 140 
-0.397643 0.310097 1.12992 41 122 185 
-0.398321 0.292816 1.16343 91 140 180 
-0.382093 0.0322519 1.25821 209 210 168 
-0.393857 0.323423 1.12677 77 95 161 
-0.392375 0.245614 1.23885 202 221 215 
-0.390317 0.288438 1.1712 67 140 195 
-0.366101 -0.128906 1.32448 25 17 14 
-0.385443 0.315007 1.12606 94 142 208 
-0.371458 0.037619 1.27339 195 199 182 
-0.367775 -0.00801122 1.30714 124 134 126 
-0.379204 0.197467 1.23862 230 239 236 
-0.38195 0.254949 1.22886 25 123 186 
-0.366233 0.0119086 1.29584 107 108 102 
-0.357376 -0.0986563 1.32628 108 118 119 
-0.354884 -0.0632463 1.27816 225 226 221 
-0.352545 -0.140907 1.3452 205 206 201 
-0.340092 -0.195695 1.24561 221 217 214 
-0.350413 -0.11639 1.34438 6 0 6 
-0.363316 0.304131 1.12832 72 159 228 
-0.363495 0.258514 1.22046 37 120 188 
-0.33277 -0.180683 1.35284 192 216 220 
-0.334009 -0.0973774 1.2993 105 54 97 
-0.331104 -0.157215 1.34912 23 23 23 
-0.352444 0.251365 1.23192 25 113 176 
-0.322099 -0.13827 1.32083 108 60 102 
-0.323081 -0.0923076 1.30433 139 93 139 
-0.31956 -0.159691 1.37084 91 102 94 
-0.338937 0.289828 1.16667 96 128 187 
-0.30886 -0.193298 1.36297 19 25 21 
-0.304113 -0.0740734 1.30364 144 102 142 
-0.305392 0.0889263 1.19733 129 198 180 
-0.290878 -0.0259416 1.21823 26 22 23 
-0.289831 0.285937 1.16995 92 118 175 
-0.270656 0.144525 1.20438 7 7 15 
-0.274212 0.32281 1.11881 49 108 174 
-0.269149 0.277655 1.18923 43 137 199 
-0.266991 0.284753 1.17884 58 147 203 
-0.258992 0.239671 1.1942 129 148 178 
-0.244623 0.318802 1.1239 133 108 173 
-0.234467 0.149538 1.22098 19 13 41 
-0.228797 0.263449 1.19093 119 167 179 
-0.228796 0.292617 1.15481 82 109 164 
-0.219452 0.150047 1.2233 48 43 75 
-0.19362 -0.354159 1.41655 113 137 124 
-0.195184 -0.316968 1.27624 22 23 25 
-0.219183 0.323869 1.12124 96 84 122 
-0.213432 0.26895 1.18779 229 244 247 
-0.207426 0.171569 1.20872 72 68 93 
-0.214009 0.301096 1.12969 67 94 139 
-0.206919 0.254867 1.19738 213 227 230 
-0.176689 -0.390433 1.39442 37 49 71 
-0.202152 0.270446 1.1906 81 107 120 
-0.203204 0.328209 1.12164 103 156 170 
-0.198435 0.293862 1.17263 81 161 170 
-0.195279 0.236015 1.20032 160 169 168 
-0.195902 0.267866 1.19822 75 96 115 
-0.18384 -0.0440291 1.25265 206 206 208 
-0.187265 0.172538 1.21595 82 79 100 
-0.190552 0.284228 1.17537 33 95 142 
-0.172123 0.143581 1.21495 96 81 74 
-0.178538 0.296401 1.14091 108 155 199 
-0.166572 0.15412 1.20654 189 172 152 
-0.166397 0.290793 1.15673 37 81 130 
-0.164806 0.28125 1.16049 69 99 125 
-0.157682 0.165695 1.20613 204 177 148 
-0.164559 0.304553 1.13229 116 159 210 
-0.152563 0.152845 1.20494 192 165 136 
-0.151299 0.133888 1.20908 168 147 120 
-0.155999 0.277449 1.17206 95 132 150 
-0.14995 0.178054 1.2003 131 106 76 
-0.124522 -0.349111 1.41131 121 142 137 
-0.143852 0.126845 1.20905 117 95 72 
-0.142063 0.194246 1.19213 203 174 144 
-0.140823 0.175914 1.19472 193 169 141 
-0.135035 0.204263 1.18619 185 160 129 
-0.135515 0.284717 1.16919 149 166 182 
-0.13107 0.151983 1.20127 177 154 122 
-0.128788 0.142534 1.2092 100 87 71 
-0.132015 0.257401 1.17663 92 103 109 
-0.128846 0.215363 1.18415 113 89 63 
-0.125549 0.129522 1.20636 175 151 127 
-0.123988 0.164951 1.19569 157 132 102 
-0.119863 0.2054 1.18398 167 143 117 
-0.118752 0.183601 1.19169 121 94 64 
-0.119323 0.236893 1.17692 124 100 74 
-0.106101 0.154474 1.20693 141 123 99 
-0.104528 0.176286 1.19499 161 136 106 
-0.103904 0.248994 1.1792 173 145 121 
-0.103849 0.237276 1.17815 170 145 114 
-0.103367 0.222188 1.18238 116 95 68 
-0.0984685 0.123356 1.21295 118 102 86 
-0.0961501 0.152504 1.20574 124 97 68 
-0.100037 0.28606 1.1683 92 147 178 
-0.0953497 0.168944 1.20058 122 97 67 
-0.0952828 0.186276 1.19157 169 145 119 
-0.0893504 0.13147 1.21486 157 135 114 
-0.0921936 0.216585 1.18188 171 145 120 
-0.0923378 0.234752 1.17745 164 138 113 
-0.0922507 0.320078 1.12383 82 85 152 
-0.0849707 0.306057 1.12494 64 82 148 
-0.0751364 0.282972 1.17463 79 122 157 
-0.070704 0.277628 1.19 42 73 94 
-0.0685159 0.152396 1.21209 103 77 52 
-0.0673999 0.195403 1.19135 167 143 117 
-0.0636725 0.158687 1.20465 113 86 56 
-0.0605713 0.130825 1.21628 121 105 89 
-0.0552506 0.22553 1.1912 146 126 99 
-0.0285687 -0.355012 1.41581 15 25 24 
-0.0490605 -0.255551 1.20922 72 36 14 
-0.0445487 0.230387 1.19116 97 73 49 
-0.0338419 0.214029 1.2036 149 122 95 
-0.0318479 -0.250169 1.23497 118 71 27 
-0.0135714 -0.0768496 1.22689 233 237 236 
-0.00845313 -0.0869766 1.22964 11 11 11 
0.00995258 0.166108 1.23488 158 154 117 
0.0101962 -0.109707 1.23165 93 94 96 
0.0234269 0.245866 1.17579 177 172 134 
0.0351309 -0.231335 1.29463 125 77 39 
0.041472 -0.156731 1.24411 32 34 33 
0.0504816 -0.0136726 1.19685 201 166 112 
0.0582918 -0.174323 1.23455 144 146 145 
0.064794 -0.0101306 1.19403 209 179 127 
0.079434 0.321515 1.11682 37 81 146 
0.118298 -0.25244 1.38417 60 75 78 
0.102099 -0.210557 1.23517 141 110 2 
0.126883 -0.0760932 1.25338 125 150 204 
0.151159 0.196098 1.24776 97 149 136 
0.149722 0.284029 1.16283 62 133 175 
0.146773 0.290285 1.14248 73 116 159 
0.164442 0.319264 1.12636 69 104 170 
0.197323 0.212414 1.26209 50 139 169 
0.174852 0.322469 1.12067 74 77 132 
0.182382 0.300723 1.11888 93 171 175 
0.19462 0.318458 1.11437 30 102 174 
0.237642 -0.364546 1.40668 16 13 0 
0.213436 0.310944 1.12129 68 125 180 
0.25624 0.00981194 1.28346 190 166 96 
0.262035 0.296218 1.11863 50 151 197 
0.24434 -0.349974 1.2637 12 10 15 
0.264776 -0.135373 1.22074 209 183 109 
0.284871 0.317488 1.11302 34 94 157 
0.31703 0.219431 1.2343 61 116 146 
0.287792 0.295004 1.11748 79 133 179 
0.276208 -0.168831 1.2278 111 88 18 
0.299458 0.320141 1.11482 34 104 163 
0.329625 0.214768 1.23391 63 107 142 
0.300359 -0.188292 1.2453 118 115 96 
0.302758 -0.106169 1.22319 182 170 148 
0.325682 0.277991 1.16166 58 109 152 
0.29696 -0.207902 1.23237 100 97 80 
0.34426 0.269088 1.18051 69 85 121 
0.335471 0.00423116 1.24139 172 106 116 
0.314617 -0.257307 1.24584 108 81 0 
0.321933 -0.159054 1.23202 183 150 73 
0.371477 0.231961 1.22649 60 106 142 
0.333907 -0.147745 1.23865 92 67 26 
0.373109 0.257863 1.20676 35 77 101 
0.333215 -0.184513 1.23728 181 155 81 
0.383326 0.183702 1.24209 78 106 130 
0.369721 -0.0410105 1.27939 53 56 0 
0.332534 -0.28882 1.2592 139 108 26 
0.342036 -0.557047 1.36773 10 4 4 
0.383717 -0.0729407 1.30662 51 74 82 
0.341259 -0.27795 1.26316 226 184 86 
0.393683 0.246792 1.2135 80 121 153 
0.395424 -0.0598416 1.30115 19 34 41 
0.390626 0.265884 1.17569 83 103 138 
0.355958 -0.216218 1.24564 54 48 32 
0.360169 -0.193784 1.2485 140 116 68 
0.344387 -0.306391 1.24265 104 74 12 
0.401169 0.0574922 1.25949 13 15 12 
0.410773 0.229404 1.21935 87 121 148 
0.378732 -0.196916 1.26301 164 151 134 
0.412984 0.25476 1.18461 107 144 152 
0.429067 0.160497 1.24755 19 21 16 
0.410146 0.272496 1.14733 99 99 137 
0.424456 0.244037 1.18968 110 155 176 
0.415071 -0.128319 1.29279 24 32 55 
0.426942 0.0326388 1.24546 63 63 61 
0.437486 0.233603 1.19757 104 130 157 
0.384924 -0.343161 1.2695 243 198 130 
0.444209 0.100496 1.25793 125 107 107 
0.44949 0.0914412 1.25889 150 126 92 
0.401891 -0.527244 1.35799 101 91 89 
0.426663 0.300014 1.11837 112 58 92 
0.432723 -0.197804 1.30437 74 60 59 
0.435053 -0.447243 1.38605 24 28 27 
0.438293 -0.180967 1.30038 78 58 60 
0.458916 0.0815379 1.25659 150 125 84 
0.44282 -0.18286 1.30852 67 48 44 
0.4477 0.245535 1.16832 74 79 108 
0.456885 0.0284819 1.26425 20 21 25 
0.4093 -0.335113 1.27193 149 90 14 
0.449123 -0.13444 1.27771 133 102 100 
0.471285 0.0865856 1.24194 19 19 19 
0.428259 -0.51473 1.35233 15 9 9 
0.453192 -0.120359 1.27006 97 58 59 
0.433787 -0.50806 1.35786 106 93 84 
0.474821 0.113108 1.23296 133 133 121 
0.460576 0.23987 1.15599 35 93 133 
0.456291 -0.108926 1.26628 107 76 74 
0.466051 0.229077 1.16813 62 135 180 
0.450852 -0.443794 1.36669 161 185 172 
0.455041 0.261257 1.12722 122 135 167 
0.471303 -0.120618 1.294 44 44 42 
0.464528 -0.334064 1.34752 106 122 111 
0.441112 0.0977128 1.14108 20 25 21 
0.445641 -0.49728 1.3564 106 93 85 
0.470014 0.244509 1.14147 78 72 106 
0.447261 -0.530203 1.36154 11 6 12 
0.485265 0.104834 1.22068 13 17 16 
0.458088 -0.464682 1.35998 166 186 177 
0.457062 -0.473652 1.35533 107 99 96 
0.488157 -0.191769 1.3236 10 15 11 
0.477154 0.230619 1.14929 76 144 189 
0.473767 0.245905 1.12945 57 35 71 
0.490311 0.0804326 1.22128 12 13 15 
0.485472 0.219456 1.15615 103 142 181 
0.485649 -0.158076 1.29037 214 213 211 
0.450891 0.0910929 1.12583 127 135 114 
0.479017 0.237045 1.13268 116 198 209 
0.497132 0.0715094 1.21767 126 131 109 
0.491266 0.21105 1.15418 107 137 173 
0.490862 -0.284726 1.31159 130 155 136 
0.501883 0.0745353 1.20694 20 16 17 
0.496756 0.231395 1.13837 33 67 104 
0.48569 -0.417639 1.34355 113 103 104 
0.500943 -0.055934 1.24396 171 176 170 
0.495153 -0.224609 1.28417 6 8 5 
0.501088 0.207461 1.14097 162 183 214 
0.497059 -0.168383 1.26615 222 221 219 
0.496604 -0.18031 1.26729 127 127 125 
0.506562 0.186945 1.15342 178 168 169 
0.504548 0.19366 1.14464 184 184 176 
0.509107 0.176332 1.15628 208 213 209 
0.503835 -0.143721 1.25922 224 223 221 
0.510756 0.0300372 1.20357 28 27 23 
0.5123 0.233981 1.13104 44 33 50 
0.490177 -0.441618 1.3268 130 122 120 
0.50368 -0.226192 1.27503 193 158 116 
0.513823 0.188594 1.14618 14 14 14 
0.513318 0.0139102 1.20707 231 231 233 
0.500684 -0.363679 1.31643 34 24 23 
0.514941 0.211353 1.1369 30 60 94 
0.509951 -0.173444 1.25995 228 228 230 
0.498512 -0.39835 1.31694 119 103 88 
0.518342 0.0939044 1.17758 137 143 129 
0.509509 -0.209372 1.26648 177 177 177 
0.509612 -0.182938 1.25658 168 169 161 
0.526827 0.221556 1.14028 42 61 75 
0.520472 0.0734146 1.1803 139 119 121 
0.509403 -0.217568 1.26117 254 232 208 
0.509265 -0.44939 1.33232 29 25 26 
0.530663 0.173476 1.15046 87 90 79 
0.517088 -0.204195 1.25942 110 113 106 
0.529103 0.0955366 1.17266 124 130 120 
0.535704 0.205492 1.1457 39 37 25 
0.521549 -0.182 1.25534 19 20 22 
0.535166 0.192007 1.14505 100 101 85 
0.519225 -0.313248 1.29471 160 123 81 
0.540364 0.176971 1.15529 10 12 9 
0.540323 0.00579417 1.19894 190 190 190 
0.542686 0.0712441 1.17862 109 90 92 
0.540931 0.0224139 1.19229 134 130 92 
0.53947 -0.0307274 1.20576 200 202 201 
0.54664 0.0916822 1.1742 107 110 99 
0.531856 -0.218956 1.25833 176 130 78 
0.543507 0.0591495 1.17919 107 91 92 
0.543059 0.0328386 1.18826 109 94 97 
0.541753 -0.0190953 1.20406 145 148 141 
0.529177 -0.368232 1.30546 13 9 10 
0.542557 -0.00862736 1.20136 145 147 144 
-0.445641 -0.372817 1.17133 40 41 43 
-0.441967 -0.351936 1.16651 33 34 36 
-0.436928 -0.328329 1.15944 94 95 99 
-0.428082 -0.320213 1.15865 20 21 25 
-0.404821 -0.351095 1.16611 78 79 81 
-0.262407 -0.527503 1.35578 28 25 20 
-0.241759 -0.302001 1.30269 181 186 189 
-0.188049 -0.532392 1.3528 28 28 28 
-0.191504 0.330737 1.13359 76 81 149 
-0.153289 0.309122 1.138 102 138 196 
-0.112809 0.216509 1.19018 123 97 70 
-0.100244 0.26235 1.18243 131 118 112 
-0.0705776 0.279063 1.20024 31 69 108 
0.0272692 0.262669 1.19725 177 172 134 
0.0618304 0.232023 1.22356 45 119 164 
0.115502 -0.0955649 1.21474 125 150 204 
0.151506 0.2909 1.17134 62 133 175 
0.177465 -0.291689 1.24149 12 13 15 
0.274023 -0.0123171 1.20587 239 235 232 
0.286427 -0.00946392 1.1972 147 159 173 
0.288827 0.00870238 1.19247 26 34 37 
0.295447 0.023713 1.19355 150 130 141 
0.304756 -0.24608 1.24033 231 198 95 
0.359011 0.255521 1.2151 136 186 197 
0.369935 0.254081 1.21529 93 162 193 
0.349995 0.0105946 1.21974 140 136 133 
0.393761 0.19068 1.24893 61 96 124 
0.421116 0.19725 1.24316 72 103 134 
0.437629 0.128774 1.25859 122 121 100 
0.443572 0.0940734 1.26764 112 111 91 
0.44682 0.121101 1.26006 22 23 18 
0.447888 0.161264 1.24853 92 95 88 
0.453016 0.124863 1.24998 129 128 98 
0.416272 0.131972 1.14787 223 223 221 
0.461925 0.117878 1.25101 20 19 15 
0.438574 -0.0899532 1.26019 228 194 185 
0.469113 0.12415 1.24478 135 109 112 
0.474339 0.0893849 1.24614 19 19 19 
0.443411 0.101572 1.14693 20 25 21 
0.486322 0.0804537 1.24177 131 130 102 
0.504038 -0.0538614 1.2476 171 176 170 
0.499314 -0.176233 1.27509 23 23 21 
0.497833 -0.241209 1.29385 124 129 122 
0.528395 -0.187373 1.25306 136 138 135 
0.534153 -0.218017 1.26019 176 130 78 
-0.342072 -0.000105673 1.20789 175 161 158 
0.317122 -0.216334 1.25717 80 83 52 
-1.14878 -0.377872 1.32246 158 159 163 
-1.24026 -0.198718 1.39175 162 163 168 
-1.27292 -0.0579741 1.3926 164 165 169 
-1.05835 -0.506105 1.28771 173 174 178 
-1.08284 -0.410044 1.31328 84 86 85 
-0.938103 -0.451505 1.26031 183 182 177 
-0.934153 -0.513233 1.34799 50 46 37 
-0.932401 -0.536205 1.35566 111 108 101 
-0.987339 -0.478256 1.42757 48 45 36 
-0.935941 -0.45131 1.3309 49 49 41 
-0.93333 -0.473414 1.33714 98 95 88 
-0.43324 -0.357213 1.17874 96 97 101 
-0.457911 -0.0144396 1.24896 240 242 239 
-0.403434 -0.295638 1.21516 43 44 48 
-0.359536 0.0147265 1.23818 223 219 208 
-0.338838 -0.0188009 1.18899 169 148 147 
-0.324417 0.0554266 1.23282 43 5 42 
-0.261934 -0.400248 1.42279 15 17 12 
-0.189372 -0.401349 1.42087 18 22 25 
-0.113064 -0.407166 1.42029 106 97 88 
0.000341596 -0.411927 1.4171 129 115 106 
0.0540074 0.194202 1.25224 16 56 91 
0.067964 0.287189 1.14336 44 94 147 
0.128667 0.216328 1.23641 23 59 95 
0.14921 0.232613 1.23043 89 175 164 
0.159124 0.214374 1.23721 92 168 181 
0.174341 0.172079 1.2498 77 166 170 
0.165702 -0.237601 1.23826 19 20 24 
0.191641 0.216159 1.23562 136 168 181 
0.185033 -0.0405702 1.18906 63 87 123 
0.208866 -0.0992193 1.21076 25 50 70 
0.232136 0.190078 1.24377 9 83 130 
0.236337 -0.163712 1.22482 176 207 254 
0.264054 0.170466 1.24744 75 148 183 
0.264867 0.152553 1.25289 84 152 173 
0.247401 -0.0825934 1.20281 225 172 40 
0.309165 0.134909 1.25573 11 15 14 
0.299963 -0.311986 1.23185 228 199 73 
0.346953 0.196145 1.23662 22 80 117 
0.345842 0.00643613 1.21073 49 50 52 
0.356018 0.00957831 1.20478 104 102 103 
0.42725 -0.0673231 1.2624 50 54 81 
0.468 -0.127064 1.28649 43 44 39 
0.473892 -0.489487 1.3299 88 78 79 
-0.89301 0.407852 1.14054 71 70 68 
-0.568191 0.144258 1.18318 184 180 177 
-0.504237 0.0561198 1.14266 140 144 127 
-0.450211 -0.0327084 1.24991 237 242 238 
-0.470727 0.317376 1.1372 118 56 107 
-0.441199 0.279773 1.2093 64 80 131 
-0.367644 -0.390792 1.15415 21 22 26 
-0.38572 -0.0311102 1.26 232 234 231 
-0.407558 0.334971 1.13541 53 121 192 
-0.329463 -0.16063 1.33988 23 23 23 
-0.323378 -0.100441 1.30042 28 3 33 
-0.318982 0.293309 1.17667 45 88 143 
-0.312012 0.303526 1.157 60 79 138 
-0.301265 0.331873 1.13197 102 85 130 
-0.225567 -0.272408 1.30678 9 9 11 
-0.231775 0.287018 1.20064 49 85 137 
-0.193762 -0.356117 1.40888 113 137 124 
-0.212938 0.333067 1.13357 110 183 202 
-0.203498 0.282632 1.19815 184 210 223 
-0.204328 0.309573 1.13744 100 178 188 
-0.143375 0.266476 1.17898 72 88 104 
-0.129337 0.268507 1.17945 91 95 104 
-0.119671 0.274661 1.17796 81 85 86 
-0.0865903 0.177555 1.19995 158 132 105 
-0.077898 0.124379 1.21616 136 114 100 
-0.0753678 0.170176 1.20362 120 93 66 
-0.0650694 0.0123492 1.25965 118 117 122 
-0.0533017 0.24128 1.18996 95 73 49 
0.00627433 -0.317213 1.36258 23 22 27 
0.0214578 -0.0275899 1.19811 187 132 52 
0.0324719 -0.236325 1.2811 125 77 39 
0.0377828 0.0963233 1.2324 29 42 33 
0.0445631 -0.129802 1.21999 234 195 90 
0.064785 -0.062027 1.21086 36 47 53 
0.0665193 0.307117 1.12747 184 179 139 
0.0931119 -0.329544 1.35995 108 0 32 
0.0860971 -0.0778119 1.20859 118 121 172 
0.0915088 -0.100494 1.218 25 39 48 
0.103273 -0.0675852 1.2104 88 87 129 
0.114128 0.00374099 1.18608 132 146 173 
0.11778 -0.0186118 1.19207 30 48 70 
0.120743 -0.0365113 1.20093 60 64 91 
0.129121 -0.0153393 1.1905 22 38 53 
0.134219 -0.0785466 1.2145 176 179 230 
0.145014 -0.0881722 1.21609 87 94 136 
0.145082 -0.0428372 1.20104 54 64 99 
0.145143 -0.0319368 1.19607 122 134 172 
0.151226 -0.0634844 1.20972 144 144 194 
0.152494 0.0166191 1.18189 136 158 215 
0.169386 -0.0587181 1.20305 59 67 86 
0.171719 0.0179953 1.18454 70 92 139 
0.177731 -0.041811 1.1975 54 66 104 
0.184732 -0.0604475 1.20716 21 36 57 
0.185604 -0.0941151 1.2191 38 37 69 
0.188445 0.0117442 1.18798 94 107 139 
0.190674 -0.0682849 1.20968 87 112 152 
0.193997 -0.110252 1.22362 9 23 32 
0.199347 -0.0972398 1.21835 163 152 208 
0.200093 -0.0636691 1.20945 180 199 241 
0.202276 -0.0358911 1.19742 52 66 95 
0.224782 0.294673 1.13347 63 113 166 
0.215165 -0.0850209 1.21255 145 180 246 
0.224154 0.298699 1.12346 75 148 189 
0.213662 -0.188746 1.23594 14 12 13 
0.216627 -0.0248265 1.19456 179 158 91 
0.211995 -0.383351 1.27449 97 92 89 
0.225709 0.0079116 1.19896 152 113 48 
0.228647 -0.0484123 1.20374 100 76 6 
0.227565 -0.083771 1.21008 164 188 226 
0.22731 -0.148887 1.22491 171 201 251 
0.237731 -0.0811795 1.20921 117 85 10 
0.24435 -0.088958 1.2109 211 185 101 
0.250478 -0.0996607 1.2147 113 86 9 
0.236649 -0.355903 1.24328 12 10 15 
0.251781 -0.146195 1.22244 61 88 143 
0.267804 0.296719 1.12649 23 90 142 
0.252656 -0.161385 1.22652 150 172 229 
0.257945 -0.178179 1.23189 86 45 0 
0.272749 -0.00646989 1.22114 13 14 8 
0.262233 -0.187464 1.23436 90 56 0 
0.264278 -0.126311 1.21681 106 82 10 
0.28022 -0.0585995 1.21857 144 105 64 
0.282516 -0.0235 1.20378 136 179 224 
0.290094 -0.0578771 1.22669 88 70 58 
0.286402 -0.0375205 1.21013 204 214 239 
0.284381 -0.178572 1.23063 103 80 0 
0.292493 -0.138092 1.23192 86 68 20 
0.30104 0.0296187 1.20081 106 76 88 
0.288677 -0.190777 1.23194 227 210 132 
0.312476 -0.162295 1.27557 141 136 114 
0.298212 -0.162629 1.22705 196 196 188 
0.321424 0.0319066 1.20866 196 194 195 
0.321669 0.0417633 1.19927 197 193 192 
0.325392 0.0482281 1.19003 196 196 194 
0.307706 -0.294025 1.25506 211 186 83 
0.329829 0.0356723 1.20146 121 122 117 
0.333964 0.0228247 1.2158 112 112 110 
0.335164 0.0290072 1.20658 203 202 200 
0.346122 7.8366e-05 1.24178 181 125 136 
0.333253 0.042248 1.1918 146 146 144 
0.315127 -0.309161 1.25478 226 197 67 
0.342838 0.0178749 1.21526 102 101 99 
0.339811 0.0357427 1.19642 232 226 226 
0.344413 0.0244969 1.20715 207 203 204 
0.353532 0.0194242 1.21118 212 207 204 
0.363498 0.0148259 1.21559 144 140 139 
0.350023 -0.176853 1.24473 72 47 0 
0.334166 -0.293752 1.20805 234 234 224 
0.39799 -0.0618072 1.28442 14 29 58 
0.405307 0.259732 1.19154 96 131 151 
0.418214 -0.0502662 1.26632 82 170 96 
0.382345 -0.344832 1.26377 243 198 130 
0.425593 -0.113296 1.27616 212 175 167 
0.455813 0.249506 1.16339 68 79 107 
0.446947 -0.0935817 1.25683 220 180 178 
0.43207 -0.527372 1.34297 32 26 30 
0.441045 -0.49897 1.34607 106 93 85 
0.48941 -0.285911 1.30774 130 155 136 
0.502751 0.25134 1.1304 80 77 108 
0.506304 -0.0422263 1.23154 31 30 26 
0.485884 -0.451899 1.32663 79 69 67 
0.516886 0.00613967 1.20306 231 231 229 
0.520318 0.0332553 1.1907 155 136 138 
0.525974 0.0792047 1.17647 3 7 8 
0.525357 0.0660262 1.18007 11 13 12 
0.531663 -0.196352 1.25246 165 133 94 
0.541179 -0.0424094 1.20976 168 168 176 
0.526367 -0.36965 1.30025 13 9 10 
0.547546 0.0774014 1.17615 10 6 3 
-1.05636 -0.327626 1.2199 172 173 178 
-1.01034 -0.298973 1.20368 96 97 101 
