ply                 
format ascii 1.0    
element vertex 1226
property float x    
property float y    
property float z    
property uchar red  
property uchar green
property uchar blue 
end_header          
0.351944 0.161462 1.24181 33 92 124 
0.350088 -0.281341 1.24122 47 49 48 
0.345814 0.224759 1.21678 83 160 170 
0.343425 -0.000664631 1.2097 110 108 109 
0.354313 0.148584 1.24435 12 16 17 
0.352937 -0.290777 1.24397 53 49 22 
0.340193 0.0168993 1.19044 103 102 100 
0.346241 0.000658891 1.20761 101 100 98 
0.35539 -0.288563 1.24237 226 228 223 
0.34715 0.00195778 1.20571 231 230 228 
0.358348 0.154887 1.24145 81 167 158 
0.35586 -0.242051 1.23846 52 44 5 
0.356776 -0.245968 1.23963 89 77 19 
0.347855 0.00395425 1.20366 86 85 83 
0.346845 0.00999728 1.19782 242 238 237 
0.357176 -0.239659 1.23837 71 69 46 
0.357864 -0.248666 1.23994 86 71 16 
0.357126 -0.229785 1.23761 45 36 0 
0.363147 0.151694 1.24336 15 19 18 
0.350056 0.00957637 1.19734 219 218 216 
0.371991 -0.0374676 1.27017 179 184 100 
0.364609 -0.332209 1.24867 126 94 17 
0.37325 -0.042992 1.27184 45 48 53 
0.366434 0.157148 1.24169 93 156 165 
0.375738 -0.04217 1.27175 34 36 14 
0.375159 -0.0362349 1.26862 32 38 0 
0.376558 -0.039505 1.27006 180 188 115 
0.381624 0.158956 1.23981 7 11 12 
0.385976 0.162417 1.23814 159 173 174 
0.389411 -0.316696 1.24892 203 153 58 
0.397981 0.170273 1.23614 30 69 98 
0.43404 -0.10792 1.25595 246 235 229 
-0.946972 -0.401841 1.34502 36 35 33 
-0.94651 -0.419458 1.34775 93 92 88 
-0.948118 -0.44257 1.35647 102 101 97 
-0.946792 -0.466981 1.35544 99 95 92 
-0.949099 -0.458787 1.36559 42 37 34 
-0.951016 -0.46888 1.37105 59 52 44 
-0.946956 -0.483616 1.36824 125 121 112 
-0.945444 -0.507163 1.37349 113 106 100 
-0.948511 -0.515633 1.38288 52 48 36 
-0.952842 -0.511524 1.39022 113 111 99 
-0.946377 -0.532039 1.38222 117 108 99 
-0.951022 -0.541619 1.39204 104 101 92 
-0.909128 -0.13022 1.36884 46 45 41 
-0.782069 0.374495 1.20577 176 176 174 
-0.767979 0.404067 1.19567 38 38 36 
-0.90376 -0.177142 1.39083 31 28 21 
-0.748456 0.410467 1.19188 226 226 224 
-0.739066 0.392282 1.20059 186 186 184 
-0.732375 0.407662 1.19328 189 188 186 
-0.73739 0.368136 1.20732 199 199 199 
-0.724448 0.402301 1.1912 198 200 197 
-0.718055 0.417536 1.18601 192 194 191 
-0.728901 0.365315 1.2072 194 194 192 
-0.719817 0.380147 1.20162 205 207 204 
-0.710978 0.404069 1.19375 200 202 199 
-0.707402 0.41402 1.19056 191 193 190 
-0.688397 0.398187 1.18961 201 203 202 
-0.679852 0.421675 1.18643 199 201 200 
-0.845503 -0.31223 1.44739 143 144 139 
-0.667668 0.421765 1.1845 191 193 190 
-0.759207 0.027321 1.32783 186 186 184 
-0.681185 0.322266 1.22097 208 208 206 
-0.658775 0.407625 1.18788 197 199 196 
-0.674203 0.349965 1.21317 172 172 172 
-0.655291 0.416512 1.18537 166 168 165 
-0.653986 0.392524 1.19534 199 199 199 
-0.64246 0.41943 1.18188 198 199 201 
-0.651065 0.342818 1.20817 198 198 196 
-0.633598 0.400735 1.19058 198 200 195 
-0.625486 0.421751 1.18172 191 193 192 
-0.631846 0.373711 1.19872 155 157 156 
-0.617745 0.406813 1.18784 238 236 237 
-0.620382 0.373702 1.19878 207 209 206 
-0.608022 0.417132 1.18234 202 203 205 
-0.607605 0.402929 1.18877 186 188 185 
-0.767146 -0.341823 1.45612 238 238 236 
-0.606981 0.370237 1.19425 205 207 204 
-0.604601 0.389974 1.19388 200 202 201 
-0.594739 0.414629 1.1838 245 247 246 
-0.595125 0.38961 1.19313 204 206 205 
-0.589447 0.406664 1.18762 205 205 207 
-0.591813 0.398921 1.19376 197 199 196 
-0.587562 0.153294 1.17203 134 134 134 
-0.581581 0.147713 1.16063 137 135 136 
-0.574167 0.195136 1.15125 127 126 122 
-0.58105 0.418755 1.18059 201 199 200 
-0.586095 0.125012 1.17971 143 143 141 
-0.580045 0.389483 1.19303 203 205 202 
-0.579337 0.14545 1.17639 222 216 216 
-0.564193 0.199073 1.14942 101 99 87 
-0.577628 0.129741 1.17551 221 213 211 
-0.568081 0.161528 1.16348 146 145 143 
-0.584647 0.0551237 1.19879 148 157 156 
-0.591326 0.0390325 1.21345 133 138 134 
-0.560986 0.170329 1.16087 230 231 223 
-0.580397 0.112452 1.20029 188 199 165 
-0.563837 0.143369 1.16836 210 202 199 
-0.584901 0.0506888 1.20851 210 214 215 
-0.588798 0.00803752 1.21485 202 201 197 
-0.550913 0.19944 1.14909 136 136 134 
-0.567624 0.12917 1.18036 209 199 190 
-0.564022 0.120251 1.17501 190 199 170 
-0.557129 0.412351 1.18039 199 201 200 
-0.582206 0.0278658 1.21078 209 215 213 
-0.582488 0.0162503 1.21384 194 189 185 
-0.550011 0.164472 1.17151 86 86 84 
-0.547187 0.40792 1.18208 200 202 199 
-0.5684 0.0233405 1.21244 124 125 120 
-0.568608 0.0122291 1.21558 142 141 139 
-0.536698 0.402786 1.18302 210 212 209 
-0.530438 0.0393116 1.15029 231 236 204 
-0.600257 -0.217835 1.28871 246 241 238 
-0.512179 0.261145 1.12521 223 222 202 
-0.588956 -0.146251 1.2695 52 56 57 
-0.590361 -0.171388 1.27795 42 47 43 
-0.600678 -0.228643 1.2998 88 87 85 
-0.603763 -0.23296 1.30743 79 84 77 
-0.589107 -0.15467 1.28059 167 147 114 
-0.592397 -0.21064 1.29235 36 40 39 
-0.602733 -0.250628 1.31663 131 164 147 
-0.545772 0.0122355 1.21178 100 96 32 
-0.591311 -0.220727 1.30013 133 116 109 
-0.57921 -0.154518 1.27831 211 187 163 
-0.576167 -0.146399 1.27312 151 145 145 
-0.579015 -0.179778 1.27781 167 147 120 
-0.572195 -0.130942 1.26812 35 35 33 
-0.585987 -0.202071 1.29912 172 147 117 
-0.578351 -0.170776 1.2838 141 135 135 
-0.590093 -0.241385 1.30711 14 35 28 
-0.521429 0.373832 1.19421 207 207 205 
-0.493556 0.266378 1.1251 222 224 202 
-0.58038 -0.215724 1.29847 178 163 156 
-0.582673 -0.230304 1.30477 174 197 191 
-0.575081 -0.205684 1.29252 40 33 27 
-0.565097 -0.135611 1.27675 89 68 41 
-0.569087 -0.214013 1.28357 34 33 28 
-0.581247 -0.248282 1.30961 164 192 178 
-0.484949 0.271432 1.12124 218 219 211 
-0.568333 -0.165243 1.28854 76 58 46 
-0.52288 0.071159 1.19781 185 180 112 
-0.50829 0.384337 1.18469 207 209 206 
-0.504028 0.067437 1.16456 126 128 115 
-0.542042 0.0158508 1.25264 85 105 33 
-0.574529 -0.256798 1.31229 71 87 76 
-0.561597 -0.135063 1.2902 30 28 7 
-0.567431 -0.206314 1.30092 53 52 50 
-0.476123 0.275805 1.12127 108 85 111 
-0.555152 -0.169205 1.2868 73 60 51 
-0.538354 0.0233627 1.2602 29 20 0 
-0.46866 0.305211 1.11865 220 199 218 
-0.530228 0.0136058 1.25043 84 93 30 
-0.517581 0.0885132 1.22519 162 171 152 
-0.532113 0.0334579 1.25818 38 37 7 
-0.513057 0.0855358 1.21695 112 113 95 
-0.523055 0.0169731 1.23907 212 204 155 
-0.557298 -0.153662 1.31147 121 94 51 
-0.559358 -0.194971 1.31503 60 51 44 
-0.518976 -0.000496965 1.23241 230 226 201 
-0.489152 0.391024 1.18762 199 199 197 
-0.456776 0.305951 1.10861 221 206 229 
-0.484315 0.407429 1.18336 246 248 245 
-0.558562 -0.194992 1.33047 17 35 23 
-0.550996 -0.16332 1.32603 100 62 59 
-0.504662 0.0907807 1.23118 148 151 140 
-0.576137 -0.465518 1.3891 37 44 37 
-0.543452 -0.180655 1.33078 117 100 74 
-0.466254 0.410648 1.17367 202 204 201 
-0.508186 0.0288351 1.25843 58 106 58 
-0.44531 0.29218 1.11808 198 228 236 
-0.501508 -0.0326827 1.24473 158 56 7 
-0.49929 0.0384351 1.25146 212 216 202 
-0.457306 0.268143 1.16078 53 89 115 
-0.46392 0.393503 1.18609 206 208 205 
-0.460439 0.401836 1.18249 197 199 196 
-0.490735 -0.0179016 1.23675 230 198 15 
-0.484658 0.0967937 1.22866 74 84 60 
-0.481461 0.0625919 1.21966 110 155 114 
-0.48763 -0.00531338 1.23266 224 208 110 
-0.495786 0.0189578 1.25683 88 164 99 
-0.495084 0.0301216 1.25792 238 239 233 
-0.432279 0.289552 1.11655 98 137 180 
-0.461264 0.358215 1.19961 215 215 213 
-0.521915 -0.15092 1.32705 141 141 87 
-0.479356 0.0693269 1.23426 113 136 110 
-0.481179 0.0989654 1.24569 79 84 52 
-0.480266 0.0401456 1.24035 105 134 106 
-0.473931 0.0567557 1.22486 243 255 239 
-0.545886 -0.328023 1.39355 35 50 45 
-0.515892 -0.184031 1.32543 120 128 105 
-0.451244 0.368333 1.1891 219 219 217 
-0.468673 0.0591526 1.21743 117 159 121 
-0.474269 0.0373242 1.23195 213 233 208 
-0.479338 0.0524104 1.24643 195 203 188 
-0.483008 0.0212202 1.25827 75 132 77 
-0.470893 0.0710829 1.23039 189 208 188 
-0.480818 0.116759 1.26127 58 84 47 
-0.47512 -0.0189792 1.23915 61 49 35 
-0.513626 -0.191832 1.33369 223 220 151 
-0.472961 0.119132 1.25101 170 190 162 
-0.447961 -0.29304 1.15988 127 131 132 
-0.44615 0.369124 1.19733 201 201 199 
-0.475635 0.0498987 1.25823 133 164 132 
-0.449925 0.249105 1.20243 61 62 56 
-0.412925 0.296496 1.11011 96 111 144 
-0.501352 -0.218178 1.32 166 197 119 
-0.467431 0.12917 1.25546 179 207 166 
-0.463707 0.0139164 1.23845 66 113 61 
-0.438462 0.264118 1.18668 59 93 130 
-0.500041 -0.234483 1.32915 164 165 27 
-0.454761 0.107832 1.22982 73 94 53 
-0.453679 0.0633218 1.2261 136 201 145 
-0.442466 -0.333137 1.17175 96 97 101 
-0.430113 0.379244 1.1837 200 200 198 
-0.467887 0.0204457 1.26695 136 164 126 
-0.403352 0.297624 1.11051 100 114 140 
-0.455909 0.137505 1.2523 115 142 99 
-0.455855 -0.0267986 1.24182 44 140 103 
-0.431438 0.262027 1.19287 56 103 131 
-0.452492 0.0388034 1.23768 170 200 164 
-0.492453 -0.245456 1.33175 22 32 5 
-0.425219 0.392591 1.18492 205 205 203 
-0.453701 0.0491779 1.24318 116 149 118 
-0.453541 0.0312478 1.24356 98 152 102 
-0.490109 -0.227732 1.32963 239 222 12 
-0.454312 0.104 1.2547 68 87 59 
-0.445997 0.0688431 1.2316 109 165 116 
-0.477228 -0.193244 1.30758 236 238 217 
-0.406825 0.285759 1.14037 96 136 172 
-0.444241 0.0871379 1.23467 104 180 118 
-0.446012 0.0813914 1.24213 206 239 208 
-0.451702 0.0499579 1.25763 185 218 189 
-0.418364 0.385719 1.18653 206 206 204 
-0.438725 0.0682878 1.22412 186 212 185 
-0.393245 0.301067 1.11018 153 173 197 
-0.448439 0.113106 1.26034 194 220 195 
-0.423371 0.260539 1.19883 45 125 176 
-0.437511 0.0760898 1.23045 226 243 224 
-0.421671 0.153488 1.19662 124 172 134 
-0.391522 0.294304 1.12049 46 104 141 
-0.428494 0.142056 1.21802 252 255 250 
-0.437229 0.0657955 1.23957 179 233 184 
-0.468048 -0.199783 1.31312 27 123 161 
-0.464663 -0.180409 1.30477 244 234 48 
-0.438904 0.0519736 1.24849 146 174 149 
-0.408418 0.271357 1.17594 97 161 171 
-0.470816 -0.23059 1.32557 52 56 55 
-0.412147 0.372936 1.19494 200 200 198 
-0.461178 -0.160277 1.30893 231 233 232 
-0.455484 -0.131319 1.293 211 238 221 
-0.431864 0.0838856 1.23794 99 153 104 
-0.405314 0.391227 1.18052 254 254 252 
-0.448799 -0.08607 1.27892 32 149 105 
-0.460412 -0.194517 1.30815 46 108 129 
-0.393321 0.286293 1.14269 104 138 175 
-0.451691 -0.12193 1.28848 203 221 207 
-0.435581 0.0336584 1.25269 167 213 166 
-0.425862 0.0999776 1.23031 207 234 201 
-0.462619 -0.216616 1.32163 112 192 215 
-0.454455 -0.175831 1.30267 192 181 0 
-0.459824 -0.204798 1.31693 95 198 231 
-0.425464 0.0908894 1.23529 196 242 205 
-0.457192 -0.181098 1.31312 188 180 0 
-0.461968 -0.226379 1.3269 66 121 142 
-0.417196 0.156974 1.21931 78 112 88 
-0.409059 0.17711 1.19661 219 229 218 
-0.411185 0.254078 1.20894 76 154 192 
-0.411225 0.136023 1.20315 249 251 240 
-0.41586 0.0951283 1.21892 175 205 171 
-0.427247 0.0547866 1.25137 164 199 167 
-0.429106 0.0636869 1.25798 74 136 87 
-0.453082 -0.197844 1.31438 56 105 122 
-0.445235 -0.142162 1.29458 217 32 63 
-0.423881 0.0690784 1.24552 89 167 105 
-0.445985 -0.159919 1.30327 217 32 63 
-0.451359 -0.21076 1.31822 115 205 232 
-0.444612 -0.174702 1.30457 177 170 0 
-0.41207 0.149203 1.22786 218 233 214 
-0.425891 0.0309677 1.26231 63 137 74 
-0.452465 -0.227889 1.32767 55 64 63 
-0.45049 -0.219069 1.32311 119 201 225 
-0.403799 0.111842 1.20396 205 206 192 
-0.438141 -0.11621 1.29585 230 231 233 
-0.416039 0.0579416 1.23932 233 240 233 
-0.364633 0.308681 1.10031 152 161 200 
-0.372587 0.290761 1.12484 93 135 185 
-0.436179 -0.144143 1.29224 251 205 215 
-0.410672 0.172196 1.23488 223 226 209 
-0.402313 0.18592 1.21291 116 150 126 
-0.443832 -0.203372 1.31768 36 97 126 
-0.436733 -0.156565 1.30284 238 225 234 
-0.424358 -0.258359 1.25889 100 147 113 
-0.416955 0.0390427 1.25513 140 218 156 
-0.448234 -0.239355 1.33451 208 189 113 
-0.380747 0.410987 1.17094 250 250 248 
-0.394929 0.145105 1.2005 155 161 147 
-0.435632 -0.178333 1.30728 184 175 0 
-0.442747 -0.227504 1.32728 195 197 194 
-0.368901 0.167804 1.13095 155 153 138 
-0.355751 0.316508 1.10059 175 199 245 
-0.435698 -0.210438 1.31993 95 206 236 
-0.408046 0.0183567 1.25105 149 179 145 
-0.398028 0.0926676 1.22339 240 251 235 
-0.394202 0.121952 1.21496 151 175 149 
-0.386684 0.146113 1.19556 232 238 228 
-0.38771 0.132844 1.19759 218 221 214 
-0.422999 -0.137415 1.2931 217 33 59 
-0.376857 0.38963 1.18319 249 249 247 
-0.433825 -0.223136 1.3246 56 95 112 
-0.387476 -0.32078 1.17185 15 16 18 
-0.433272 -0.233701 1.32674 204 182 80 
-0.426089 -0.177171 1.30719 179 166 0 
-0.415421 -0.25436 1.26955 76 120 84 
-0.387486 0.115233 1.20447 225 227 214 
-0.426993 -0.191635 1.311 216 47 86 
-0.399154 0.177573 1.25323 193 194 186 
-0.416567 -0.250843 1.28395 171 171 163 
-0.404067 0.0443466 1.2649 224 235 227 
-0.423399 -0.245676 1.30887 135 129 113 
-0.397819 0.0690306 1.2477 162 197 164 
-0.408154 -0.255151 1.26065 77 132 93 
-0.418016 -0.149234 1.30112 170 139 147 
-0.424491 -0.221075 1.32153 86 38 52 
-0.417743 -0.160007 1.30382 218 27 60 
-0.369126 0.396331 1.18434 250 250 248 
-0.398354 0.0449818 1.25629 225 233 222 
-0.377604 0.154401 1.1973 160 166 156 
-0.378448 -0.317318 1.17065 36 37 41 
-0.425466 -0.227608 1.33014 207 213 213 
-0.423498 -0.243009 1.32565 132 122 97 
-0.383511 0.0927763 1.21757 214 218 203 
-0.391198 0.0150647 1.23749 92 117 60 
-0.374053 0.142917 1.19216 135 146 138 
-0.366603 0.381022 1.18646 192 192 190 
-0.410718 -0.141225 1.29731 250 201 205 
-0.404592 -0.253802 1.27186 105 112 79 
-0.40681 -0.249561 1.28136 155 157 133 
-0.412565 -0.170835 1.30607 172 157 0 
-0.416765 -0.195614 1.31808 215 89 113 
-0.394168 0.0363857 1.26125 129 176 130 
-0.401146 -0.0837623 1.27787 230 231 233 
-0.380062 0.201854 1.22931 234 238 237 
-0.382222 0.175104 1.23635 110 163 117 
-0.413117 -0.244616 1.31142 123 113 111 
-0.376349 0.0795003 1.2126 225 227 216 
-0.379732 0.0777046 1.22494 163 167 153 
-0.373736 0.105651 1.20773 205 209 195 
-0.39307 0.027957 1.26883 187 195 174 
-0.387655 0.0466597 1.2552 201 210 191 
-0.405603 -0.153216 1.30154 255 208 211 
-0.373986 0.0953455 1.21404 167 168 160 
-0.414196 -0.224644 1.3301 60 64 63 
-0.389384 0.0438992 1.26513 115 161 115 
-0.377213 0.192583 1.23452 161 166 162 
-0.381251 0.0131784 1.23637 58 103 46 
-0.390749 -0.0370031 1.26461 231 232 234 
-0.409866 -0.202546 1.31978 112 15 35 
-0.332791 0.305923 1.09674 140 167 210 
-0.410714 -0.240095 1.32484 180 169 139 
-0.380202 0.211463 1.25501 119 123 122 
-0.398131 -0.13419 1.29606 213 30 60 
-0.37951 0.00230337 1.24414 134 152 70 
-0.357915 0.0803613 1.17791 122 127 123 
-0.407686 -0.21746 1.32735 122 5 32 
-0.399342 -0.247651 1.29795 98 83 76 
-0.404057 -0.195028 1.31826 175 72 93 
-0.399875 -0.168942 1.30717 182 161 0 
-0.377221 0.0329647 1.24572 99 95 22 
-0.366228 0.245808 1.22264 72 152 211 
-0.35354 0.374438 1.18742 188 187 183 
-0.379589 -0.0197449 1.25312 69 114 47 
-0.371886 0.20811 1.24191 27 36 31 
-0.400242 -0.243907 1.3095 106 93 84 
-0.357728 0.0884102 1.18845 32 32 34 
-0.373287 0.0495128 1.24006 107 106 88 
-0.345304 0.409338 1.17554 252 252 252 
-0.402663 -0.226715 1.33237 79 84 78 
-0.369165 0.199689 1.24603 191 191 193 
-0.37873 0.0340039 1.26747 111 105 43 
-0.399563 -0.201277 1.32489 179 65 88 
-0.392309 -0.156715 1.30545 211 22 54 
-0.374496 -0.0334953 1.2531 187 177 108 
-0.389395 -0.139518 1.3001 207 39 65 
-0.397985 -0.219885 1.32574 220 209 213 
-0.394274 -0.192389 1.31723 221 40 83 
-0.322138 0.317019 1.10029 89 88 120 
-0.360536 0.0269223 1.21955 23 24 10 
-0.344763 0.386985 1.19067 188 188 186 
-0.383459 -0.252219 1.2852 80 64 41 
-0.357277 0.0377306 1.2142 33 31 32 
-0.339485 0.387594 1.18226 197 197 195 
-0.349059 -0.303492 1.17064 51 53 52 
-0.336718 0.400417 1.17575 200 202 199 
-0.392214 -0.225423 1.33475 21 21 11 
-0.357981 0.0105942 1.22883 193 198 201 
-0.381541 -0.151004 1.30556 253 218 212 
-0.347573 0.249929 1.21192 76 161 216 
-0.358635 -0.00380557 1.2371 55 58 49 
-0.338139 0.3775 1.18993 233 232 228 
-0.383162 -0.248507 1.31142 95 80 57 
-0.37916 -0.251352 1.30038 126 115 95 
-0.384911 -0.242468 1.32579 126 112 86 
-0.34993 0.0319699 1.21774 166 142 142 
-0.372564 -0.121026 1.29341 75 154 99 
-0.346438 0.0478182 1.21085 156 124 163 
-0.349175 0.192813 1.23157 224 239 232 
-0.34247 0.0702285 1.2004 162 112 165 
-0.376526 -0.17569 1.30832 233 215 11 
-0.331523 0.392673 1.18507 241 241 239 
-0.326764 0.412927 1.17145 251 251 251 
-0.363335 -0.288001 1.26195 20 24 25 
-0.36841 -0.263697 1.28208 105 101 90 
-0.350553 -0.012401 1.23453 175 179 182 
-0.334587 0.165253 1.19028 228 231 222 
-0.345532 0.0413403 1.22262 147 109 150 
-0.34845 0.0103183 1.2315 189 190 192 
-0.326773 0.384918 1.17703 212 212 210 
-0.349154 -0.00122755 1.23831 175 161 158 
-0.341199 -0.323013 1.18968 14 19 15 
-0.343132 0.0208297 1.22462 37 38 40 
-0.339391 0.03609 1.2139 151 129 150 
-0.375712 -0.215688 1.33521 223 200 10 
-0.366008 -0.155033 1.3049 153 104 46 
-0.323451 0.374055 1.18307 228 227 223 
-0.376327 -0.232273 1.34104 186 172 145 
-0.347629 0.000670149 1.2507 42 23 43 
-0.353882 -0.288658 1.25856 87 83 80 
-0.333404 0.0689896 1.2058 29 9 44 
-0.365995 -0.260424 1.30577 48 48 40 
-0.320154 0.398322 1.17904 201 201 199 
-0.333953 0.0601094 1.21223 109 69 121 
-0.354071 -0.283816 1.26718 37 32 28 
-0.357697 -0.277127 1.28208 42 39 34 
-0.349608 -0.0512965 1.27186 206 206 204 
-0.332125 0.234229 1.22978 41 146 201 
-0.296847 0.293271 1.10549 75 117 159 
-0.363895 -0.11924 1.33867 69 73 72 
-0.341862 -0.0176671 1.26316 134 76 137 
-0.319848 0.178059 1.19371 201 202 197 
-0.352041 -0.129747 1.30862 87 82 79 
-0.309417 0.392538 1.18015 201 201 199 
-0.359314 -0.262075 1.33039 40 36 33 
-0.308744 0.377744 1.18685 239 238 234 
-0.337679 -0.0499045 1.27464 22 22 22 
-0.315229 0.0955581 1.19597 6 10 19 
-0.339082 -0.061259 1.28024 168 119 166 
-0.321843 0.0519314 1.22028 43 23 58 
-0.303993 0.40301 1.17924 200 200 200 
-0.282758 0.300179 1.08931 162 212 237 
-0.319053 0.218606 1.23473 152 208 223 
-0.330836 -0.0299756 1.27145 172 113 161 
-0.340899 -0.121502 1.31188 164 104 164 
-0.302645 0.134374 1.17529 68 60 81 
-0.305025 0.25919 1.1955 63 152 212 
-0.298965 0.392867 1.1818 247 247 245 
-0.322948 -0.0144319 1.25585 173 56 109 
-0.338788 -0.148244 1.31542 39 33 37 
-0.294267 0.388346 1.17465 246 246 244 
-0.297575 0.371916 1.18754 174 173 169 
-0.306662 0.0710751 1.20875 45 33 69 
-0.289893 0.409422 1.16399 253 253 253 
-0.299136 0.248135 1.20951 74 175 227 
-0.314406 -0.026228 1.25587 40 35 55 
-0.331409 -0.155012 1.31869 154 118 144 
-0.361067 -0.306211 1.43569 14 18 21 
-0.311669 -0.0010927 1.24913 175 18 85 
-0.289614 0.0453844 1.1618 24 20 35 
-0.352535 -0.235392 1.40891 32 41 36 
-0.287463 0.375857 1.18086 244 243 239 
-0.298233 0.244914 1.21895 75 179 234 
-0.287156 0.399274 1.18314 249 249 247 
-0.313092 -0.0169605 1.26723 168 11 78 
-0.32636 -0.131211 1.31634 126 90 136 
-0.359125 -0.350065 1.44241 117 138 123 
-0.327512 -0.132491 1.32689 34 12 50 
-0.316325 -0.0811328 1.29463 168 109 165 
-0.311539 -0.0425027 1.2812 115 90 122 
-0.279948 0.0908808 1.15413 1 13 29 
-0.311788 -0.0689447 1.28967 160 132 154 
-0.283973 0.259328 1.19325 42 106 150 
-0.27322 0.0922347 1.14478 90 97 105 
-0.276731 0.266626 1.17559 123 165 215 
-0.309985 -0.11017 1.29708 57 52 75 
-0.257026 0.313137 1.09395 94 81 125 
-0.275469 0.395469 1.18208 253 253 251 
-0.275955 0.0625143 1.16174 14 15 19 
-0.283839 0.248032 1.20938 91 162 208 
-0.288369 0.0778027 1.21893 107 108 112 
-0.324058 -0.205719 1.36106 77 92 89 
-0.345622 -0.36346 1.44511 88 105 86 
-0.274132 0.0531721 1.1588 16 17 19 
-0.313001 -0.147752 1.32019 59 41 67 
-0.313969 -0.162135 1.33036 166 128 167 
-0.31479 -0.173672 1.3388 139 112 143 
-0.338372 -0.335419 1.4367 108 126 114 
-0.319834 -0.19748 1.36407 144 162 166 
-0.337658 -0.349695 1.44064 122 139 123 
-0.267209 0.0991577 1.15577 173 171 176 
-0.273276 0.0320294 1.18157 34 35 39 
-0.276121 0.219314 1.20972 228 221 211 
-0.267164 0.382487 1.18038 241 240 238 
-0.263663 0.39906 1.16586 201 202 197 
-0.267502 0.264461 1.18098 22 110 160 
-0.331416 -0.342471 1.43603 82 90 77 
-0.27978 -0.041686 1.22204 28 29 33 
-0.330082 -0.308589 1.4396 66 68 65 
-0.265809 0.378664 1.19007 184 183 181 
-0.306707 -0.182509 1.34146 26 27 31 
-0.268345 0.252505 1.19791 4 103 162 
-0.274338 -0.0082342 1.21092 69 70 74 
-0.266805 0.139224 1.18744 15 14 20 
-0.260284 0.39545 1.17622 245 245 243 
-0.326357 -0.357326 1.43587 117 139 126 
-0.257297 0.265006 1.17853 66 148 208 
-0.255544 0.230528 1.17562 174 195 212 
-0.255048 0.379573 1.18388 236 235 233 
-0.239394 0.287723 1.10404 96 120 190 
-0.266604 -0.0282242 1.2193 85 86 90 
-0.252472 0.0999237 1.16065 112 109 154 
-0.262527 -0.00635003 1.21466 97 97 99 
-0.2328 0.312033 1.09346 78 84 134 
-0.254599 0.250182 1.20329 76 143 196 
-0.244839 0.396774 1.17131 252 252 250 
-0.310788 -0.493391 1.43856 79 79 79 
-0.259787 -0.0146883 1.22206 33 34 38 
-0.26202 -0.0491322 1.22963 27 28 32 
-0.256486 0.00465277 1.20785 82 83 85 
-0.247066 0.240829 1.17775 133 165 188 
-0.246545 0.369949 1.19125 169 168 164 
-0.247225 0.155432 1.18554 6 0 42 
-0.246673 0.14549 1.19123 3 0 32 
-0.274491 -0.250443 1.30798 147 148 150 
-0.240488 0.378316 1.18045 205 204 202 
-0.237038 0.396108 1.16428 255 255 253 
-0.2366 0.40845 1.16902 255 255 255 
-0.246096 0.125573 1.20556 0 0 32 
-0.2748 -0.334966 1.32719 35 34 39 
-0.245445 0.111277 1.21449 5 3 27 
-0.240292 0.153877 1.19233 110 100 152 
-0.237693 0.165831 1.18192 4 0 39 
-0.23736 0.259457 1.18675 74 129 183 
-0.250027 -0.0652882 1.23182 34 38 39 
-0.244262 0.00466027 1.21165 206 209 214 
-0.224745 0.280407 1.12953 111 138 183 
-0.232713 0.374052 1.18458 230 229 225 
-0.234449 0.36033 1.19426 203 194 185 
-0.218376 0.287392 1.10713 118 133 192 
-0.228747 0.387024 1.17224 200 199 197 
-0.237511 0.141399 1.20211 8 5 36 
-0.237926 0.131483 1.20383 114 109 141 
-0.210228 0.30226 1.0759 96 86 136 
-0.225901 0.254474 1.1635 49 115 137 
-0.235993 0.124096 1.20975 0 0 23 
-0.225205 0.241107 1.16275 146 181 185 
-0.227948 0.261346 1.18228 40 114 141 
-0.216844 0.280572 1.1239 112 140 187 
-0.235476 0.114998 1.21506 4 0 25 
-0.223257 0.399445 1.16976 202 204 201 
-0.209725 0.309565 1.09073 134 204 214 
-0.223977 0.375478 1.1763 239 238 236 
-0.225789 0.364912 1.18625 216 213 206 
-0.210029 0.290464 1.09929 130 157 200 
-0.219551 0.26849 1.16618 106 172 196 
-0.219518 0.363069 1.17848 211 208 203 
-0.2134 0.277962 1.14225 80 83 134 
-0.216369 0.25974 1.16875 183 221 224 
-0.206026 0.285339 1.11275 95 167 166 
-0.199168 0.3074 1.08536 101 183 197 
-0.201433 0.292252 1.10394 107 178 184 
-0.214446 0.374259 1.18645 232 231 229 
-0.22186 0.0158735 1.20889 242 241 246 
-0.245463 -0.30743 1.32379 186 189 194 
-0.225518 -0.0400414 1.22826 89 90 92 
-0.216715 0.142239 1.20519 14 7 51 
-0.208102 0.264657 1.16426 202 231 235 
-0.210454 0.258104 1.18003 196 209 215 
-0.239656 -0.292424 1.32049 39 40 44 
-0.206069 0.406067 1.17426 198 198 196 
-0.205323 0.249417 1.17253 120 133 141 
-0.192208 0.291797 1.09961 39 125 184 
-0.235219 -0.282946 1.32293 22 27 30 
-0.235958 -0.298704 1.32859 180 183 188 
-0.200367 0.269781 1.16199 60 129 158 
-0.206394 0.165718 1.19214 155 146 177 
-0.187721 0.312352 1.09125 74 66 107 
-0.202318 0.368583 1.18898 182 181 177 
-0.200123 0.258401 1.16761 78 100 114 
-0.200496 0.359734 1.18325 214 211 202 
-0.230716 -0.312379 1.32639 183 193 202 
-0.199591 0.241368 1.17409 129 140 146 
-0.194787 0.272558 1.15127 69 153 199 
-0.229797 -0.303842 1.33371 181 185 186 
-0.227464 -0.294127 1.32359 39 45 43 
-0.196361 0.199066 1.17156 177 165 187 
-0.226488 -0.32871 1.32553 38 43 46 
-0.192343 0.412808 1.1706 254 254 254 
-0.199945 0.217943 1.2099 155 170 173 
-0.196071 0.231369 1.18694 95 118 132 
-0.187146 0.276765 1.13552 71 133 190 
-0.191896 0.377156 1.17389 248 247 245 
-0.190826 0.252528 1.17078 70 91 108 
-0.190612 0.36309 1.18311 223 220 211 
-0.192804 0.206617 1.18842 65 76 82 
-0.178255 0.286768 1.10349 89 114 181 
-0.175379 0.307634 1.08769 123 118 182 
-0.217178 -0.285842 1.32367 27 36 31 
-0.190969 0.223878 1.19192 103 120 127 
-0.185108 0.265374 1.15856 218 228 240 
-0.193499 0.137961 1.21042 63 69 83 
-0.185817 0.397754 1.1839 246 246 244 
-0.216113 -0.311258 1.33754 33 42 41 
-0.18243 0.404478 1.16824 254 254 252 
-0.227829 -0.550084 1.40297 179 184 187 
-0.175429 0.281896 1.11293 111 155 202 
-0.183541 0.388785 1.1781 242 242 240 
-0.185359 0.158404 1.18283 149 157 178 
-0.181368 0.374288 1.17391 242 241 237 
-0.178019 0.271494 1.14397 177 223 221 
-0.181353 0.226078 1.16859 96 110 121 
-0.169283 0.300665 1.09296 115 125 194 
-0.185014 0.159269 1.19399 87 85 106 
-0.185092 0.149252 1.19889 72 71 89 
-0.22016 -0.545821 1.39825 183 185 197 
-0.208687 -0.3176 1.34133 186 189 196 
-0.176108 0.393621 1.17446 204 204 202 
-0.176415 0.379389 1.18137 235 234 232 
-0.181312 0.113013 1.19589 73 71 72 
-0.170383 0.273678 1.138 182 200 222 
-0.197463 -0.172158 1.29858 66 67 71 
-0.170962 0.253877 1.14295 174 200 213 
-0.162319 0.292277 1.09423 99 127 200 
-0.180225 0.112351 1.21261 145 139 141 
-0.174918 0.368419 1.19919 178 174 171 
-0.19867 -0.287067 1.32707 188 192 191 
-0.197646 -0.302404 1.33353 33 34 38 
-0.174588 0.124567 1.19824 195 191 190 
-0.167051 0.414864 1.1687 201 202 197 
-0.169418 0.36875 1.186 224 221 214 
-0.17313 0.11332 1.2026 59 59 61 
-0.167639 0.205052 1.17026 162 167 173 
-0.161026 0.272231 1.12831 136 163 184 
-0.208455 -0.406645 1.45114 46 46 54 
-0.162554 0.223367 1.15512 121 134 142 
-0.166099 0.158249 1.18329 237 235 236 
-0.167248 0.121538 1.18799 218 200 186 
-0.161798 0.39465 1.17023 251 253 250 
-0.167083 0.130773 1.19255 242 231 229 
-0.152212 0.295247 1.09614 109 113 174 
-0.162519 0.206912 1.17961 108 116 127 
-0.198994 -0.562047 1.40889 203 207 219 
-0.150847 0.285123 1.09895 112 155 208 
-0.164795 0.114269 1.19812 178 162 149 
-0.160795 0.361571 1.1902 208 205 196 
-0.160412 0.167589 1.17913 227 216 220 
-0.161105 0.146154 1.18681 243 230 214 
-0.152818 0.243239 1.14841 138 168 168 
-0.157328 0.10858 1.1842 101 89 73 
-0.189268 -0.547026 1.39677 156 136 125 
-0.145827 0.27798 1.12257 99 139 188 
-0.155893 0.134617 1.19749 235 216 201 
-0.147587 0.260985 1.14196 121 144 158 
-0.151155 0.198008 1.1704 220 209 207 
-0.153496 0.117831 1.18723 231 217 208 
-0.150412 0.172862 1.18144 237 221 208 
-0.147168 0.235296 1.16202 122 142 143 
-0.147299 0.370458 1.18444 231 227 224 
-0.141734 0.27435 1.13559 98 136 181 
-0.144085 0.217331 1.15586 226 226 226 
-0.147132 0.155598 1.18166 187 162 140 
-0.142477 0.249739 1.1508 83 106 114 
-0.13539 0.291068 1.09311 126 116 176 
-0.145153 0.161762 1.17055 248 222 209 
-0.14767 0.110612 1.19281 62 46 30 
-0.141969 0.380182 1.16896 248 247 242 
-0.145057 0.121711 1.19049 161 147 134 
-0.142295 0.177873 1.1713 201 183 161 
-0.140654 0.196934 1.1715 203 189 176 
-0.136368 0.396381 1.16709 253 253 251 
-0.137876 0.373339 1.17921 255 254 250 
-0.134407 0.269647 1.14235 209 224 231 
-0.1397 0.111145 1.18679 169 160 155 
-0.136401 0.152766 1.17551 243 230 221 
-0.134097 0.18362 1.16397 240 226 215 
-0.136127 0.129589 1.1795 241 228 220 
-0.132641 0.3651 1.17749 232 232 222 
-0.13311 0.165697 1.16972 248 233 226 
-0.13134 0.189954 1.15647 239 228 222 
-0.133065 0.119868 1.1843 162 137 107 
-0.128252 0.255097 1.15055 85 95 105 
-0.131556 0.142621 1.18317 116 99 79 
-0.128819 0.156727 1.16396 255 238 220 
-0.119661 0.309267 1.08716 74 62 100 
-0.161267 -0.409234 1.45336 38 43 47 
-0.126822 0.206584 1.1562 189 176 168 
-0.12762 0.196805 1.16369 148 129 115 
-0.125713 0.234116 1.15059 170 140 114 
-0.127955 0.174654 1.17018 194 175 161 
-0.124594 0.26558 1.15322 197 206 215 
-0.122816 0.269382 1.14446 23 50 80 
-0.127968 0.115884 1.19411 187 163 139 
-0.125179 0.151751 1.17779 181 157 131 
-0.12446 0.148814 1.18855 91 70 53 
-0.122841 0.138128 1.17363 187 158 126 
-0.12407 0.124296 1.18416 165 151 140 
-0.120034 0.21811 1.15304 100 81 75 
-0.120311 0.194202 1.15718 136 118 108 
-0.123041 0.10973 1.1872 46 37 32 
-0.121292 0.163597 1.17358 186 164 143 
-0.117462 0.258219 1.1472 111 107 108 
-0.118273 0.182351 1.15613 225 208 201 
-0.118473 0.203457 1.16572 98 84 73 
-0.11639 0.230218 1.14575 239 221 209 
-0.118383 0.179792 1.16629 208 190 178 
-0.11568 0.244596 1.14941 133 105 81 
-0.110545 0.283465 1.0972 116 133 187 
-0.117996 0.359001 1.18847 168 160 149 
-0.117016 0.188707 1.17014 133 112 91 
-0.11913 0.122355 1.19345 87 74 65 
-0.118194 0.139109 1.18752 107 80 53 
-0.118879 0.0699708 1.21774 30 34 37 
-0.115025 0.150954 1.18342 111 87 63 
-0.105415 0.290294 1.09091 90 119 189 
-0.104632 0.306846 1.08266 124 105 161 
-0.110833 0.222105 1.15535 119 100 86 
-0.110541 0.197676 1.16446 184 158 133 
-0.111243 0.165766 1.17341 118 92 65 
-0.109564 0.205434 1.1577 121 100 81 
-0.109353 0.184314 1.16421 110 88 64 
-0.106955 0.227125 1.14553 236 222 213 
-0.110409 0.118071 1.19239 162 142 118 
-0.107422 0.358211 1.17861 219 215 204 
-0.105821 0.26437 1.15594 21 40 57 
-0.105545 0.245515 1.15513 149 130 116 
-0.108194 0.135824 1.18392 121 97 73 
-0.10661 0.175985 1.16827 195 169 142 
-0.108737 0.128239 1.19218 115 87 66 
-0.104499 0.214206 1.15257 141 128 111 
-0.106889 0.146464 1.186 144 126 102 
-0.102768 0.244192 1.1456 87 68 51 
-0.10301 0.23315 1.15394 218 201 185 
-0.101096 0.271253 1.14166 97 157 191 
-0.096784 0.302514 1.08961 119 107 179 
-0.103544 0.154584 1.1802 180 153 124 
-0.101348 0.199533 1.15815 177 155 132 
-0.103414 0.111357 1.19173 54 42 30 
-0.100096 0.18356 1.16776 114 90 78 
-0.100383 0.168605 1.17097 133 107 82 
-0.0991955 0.211346 1.16018 213 194 179 
-0.098193 0.255597 1.15787 91 100 115 
-0.0970672 0.223173 1.15348 166 144 123 
-0.0925551 0.281585 1.0981 113 152 209 
-0.0974255 0.204018 1.16826 186 167 152 
-0.0994019 0.125807 1.19315 169 143 118 
-0.0949214 0.238953 1.15337 162 137 115 
-0.0881554 0.286572 1.08832 102 107 171 
-0.0937698 0.190839 1.16714 195 176 161 
-0.0948756 0.147213 1.18252 191 167 139 
-0.091556 0.212466 1.15383 171 147 121 
-0.0921644 0.161653 1.17794 189 164 142 
-0.0928563 0.137136 1.19092 180 154 129 
-0.0910473 0.177404 1.17221 179 156 138 
-0.0901816 0.361139 1.17961 176 173 164 
-0.0844328 0.307936 1.08701 81 83 104 
-0.0855211 0.290301 1.10187 71 91 162 
-0.092051 0.115077 1.19237 124 108 93 
-0.0890995 0.202407 1.16016 182 160 137 
-0.0890206 0.178785 1.16283 234 213 192 
-0.0871561 0.269562 1.14337 0 68 121 
-0.0888972 0.165106 1.16869 121 97 71 
-0.086869 0.222314 1.15774 150 131 116 
-0.0841253 0.278928 1.13192 55 90 148 
-0.0889259 0.125071 1.19569 178 154 130 
-0.084537 0.199119 1.16795 106 82 58 
-0.0797854 0.279753 1.09742 76 78 93 
-0.0840097 0.187858 1.16321 97 72 50 
-0.0891631 0.0140136 1.24145 131 132 136 
-0.0839086 0.156777 1.17688 141 116 94 
-0.0835784 0.110437 1.19388 23 19 16 
-0.0820075 0.143019 1.18435 182 156 129 
-0.0800042 0.214468 1.16171 96 71 49 
-0.0792123 0.247028 1.15866 54 64 73 
-0.0783109 0.233688 1.15292 169 142 115 
-0.0774574 0.2664 1.15117 46 119 174 
-0.0797121 0.129728 1.19406 186 162 134 
-0.0765722 0.22409 1.15965 169 147 123 
-0.0770629 0.174562 1.1729 108 82 55 
-0.07747 0.152975 1.18428 195 169 142 
-0.0773262 0.130653 1.17995 143 122 95 
-0.0745696 0.204049 1.16782 106 78 54 
-0.0729238 0.379557 1.17077 246 245 241 
-0.0752425 0.119202 1.19342 178 153 123 
-0.0694864 0.24287 1.16275 117 101 86 
-0.0671038 0.294647 1.12048 190 182 145 
-0.0705069 0.145633 1.18424 177 152 122 
-0.0686414 0.217732 1.15912 163 137 114 
-0.0694473 0.258947 1.1825 17 35 37 
-0.0677085 0.233765 1.15762 97 74 56 
-0.0687656 0.155469 1.1779 167 143 119 
-0.0665733 0.204649 1.1618 165 135 97 
-0.0685002 0.120662 1.20093 77 56 29 
-0.0676503 0.138757 1.19396 172 145 118 
-0.0628879 0.195406 1.17111 137 110 81 
-0.0615156 0.149596 1.18409 123 96 69 
-0.0597788 0.222768 1.15998 82 56 29 
-0.06178 0.113579 1.2009 39 27 15 
-0.0597084 0.212588 1.16034 106 84 63 
-0.0605716 0.132199 1.19137 109 84 53 
-0.0583445 0.24014 1.16315 133 117 94 
-0.0594225 0.162822 1.18572 97 79 59 
-0.0594347 0.123908 1.19751 82 63 46 
-0.0585696 0.157253 1.1775 164 139 109 
-0.0565364 0.175154 1.17955 123 96 66 
-0.0600818 -0.283109 1.22068 222 218 215 
-0.0560565 0.142617 1.19239 156 130 103 
-0.0541779 0.216949 1.16705 174 144 118 
-0.0536732 0.230556 1.15892 171 144 117 
-0.0535327 0.133473 1.19842 117 99 89 
-0.0544766 -0.0406186 1.2574 210 208 211 
-0.0511192 0.155641 1.18492 149 123 100 
-0.0501802 0.179276 1.17274 95 68 39 
-0.0498762 0.209109 1.17186 96 69 48 
-0.0485804 0.216564 1.1586 159 135 111 
-0.0487554 0.191967 1.17062 157 134 120 
-0.048771 0.168692 1.19158 92 70 49 
-0.0507902 -0.277548 1.22401 71 30 10 
-0.0462868 0.174343 1.18047 160 136 112 
-0.0452241 0.122259 1.21074 23 17 21 
-0.0435756 0.246437 1.17636 72 61 43 
-0.0428683 0.187584 1.17914 100 81 64 
-0.042052 0.213774 1.16858 117 90 61 
-0.0401714 0.368109 1.17575 167 164 155 
-0.0440513 -0.270725 1.22646 63 19 0 
-0.04296 -0.0139901 1.26273 38 39 44 
-0.0395643 0.22932 1.16555 95 73 50 
-0.0392397 -0.0244663 1.26985 54 55 59 
-0.0356573 0.196006 1.17636 160 131 99 
-0.0371264 -0.234094 1.19672 26 20 20 
-0.0343586 -0.0201921 1.25042 140 142 141 
-0.0320584 0.219601 1.16631 172 142 116 
-0.0318409 0.212321 1.17519 93 65 41 
-0.0320895 0.182656 1.18786 77 53 43 
-0.0337083 -0.276438 1.24235 62 18 0 
-0.0303607 0.235356 1.17086 147 129 105 
-0.031607 -0.0620791 1.21392 30 29 27 
-0.030079 -0.0114321 1.26882 233 237 238 
-0.028995 -0.0227275 1.27314 235 236 238 
-0.026288 0.200666 1.17917 83 58 38 
-0.0263105 0.16413 1.22025 31 22 15 
-0.0260773 0.171391 1.20204 53 39 26 
-0.0236716 -0.264889 1.24249 85 19 20 
-0.0230169 -0.248959 1.22464 126 68 54 
-0.0210261 0.217629 1.17208 142 118 90 
-0.0210375 0.153834 1.22204 153 156 175 
-0.0210283 -0.237643 1.21485 101 72 58 
-0.0189613 0.235932 1.17122 88 79 64 
-0.0185875 0.141662 1.26382 116 118 141 
-0.0187544 0.0120684 1.26284 77 143 69 
-0.018155 -0.272808 1.25724 83 38 15 
-0.0171794 -0.0278091 1.2419 229 235 235 
-0.018084 -0.363223 1.38488 223 239 236 
-0.0163419 -0.250287 1.23262 135 74 71 
-0.0145686 -0.239405 1.22358 40 13 0 
-0.0127711 0.22465 1.17097 101 77 53 
-0.0135679 -0.0503439 1.19874 128 112 86 
-0.0125907 -0.0614366 1.20246 62 64 63 
-0.0116162 0.0262753 1.25035 212 212 214 
-0.00811463 0.233418 1.17528 116 101 80 
-0.00863743 -0.239888 1.23161 54 12 0 
-0.0073927 -0.249527 1.24447 82 18 19 
-0.00558811 -0.0713174 1.20195 31 31 31 
-0.00406343 -0.030953 1.24508 60 61 63 
-0.00274364 -0.268607 1.27004 92 22 32 
-0.000690738 -0.0559606 1.19145 36 36 36 
0.000389659 0.239817 1.19221 89 78 56 
2.87994e-05 -0.0608032 1.20032 67 67 67 
0.00160315 -0.277237 1.28525 122 78 43 
0.00284346 0.131319 1.2433 21 21 19 
0.00253558 -0.269305 1.27916 127 71 54 
0.00408354 0.120512 1.22014 76 73 80 
0.00516157 0.0572559 1.22808 87 86 84 
0.00494518 -0.0768663 1.2039 16 16 18 
0.00984613 -0.272806 1.29029 92 19 26 
0.0143306 -0.3858 1.40592 161 185 171 
0.0119282 -0.267036 1.28211 138 75 68 
0.013732 0.17479 1.24662 177 169 130 
0.0160158 -0.0116151 1.23425 63 65 64 
0.0162043 -0.0533884 1.19511 255 207 89 
0.0185772 0.137917 1.25129 140 142 129 
0.0189653 0.196176 1.22966 97 88 47 
0.0214932 -0.271851 1.29922 150 64 73 
0.0223747 -0.263217 1.29217 102 18 33 
0.020736 -0.103735 1.21303 25 25 27 
0.0207791 -0.0872389 1.20899 30 21 14 
0.0226504 0.149258 1.24398 61 105 106 
0.0205247 -0.0341699 1.18895 158 117 55 
0.0237511 0.129926 1.24657 160 125 132 
0.025392 -0.145062 1.24039 22 22 20 
0.0287399 -0.278161 1.31572 94 11 21 
0.0277649 0.158179 1.24062 46 121 161 
0.0276782 0.168689 1.2413 61 104 123 
0.0284929 -0.12443 1.21834 37 37 37 
0.0305038 -0.153889 1.24077 242 246 245 
0.02939 -0.104194 1.20787 61 49 1 
0.0305764 0.0861225 1.22371 1 2 0 
0.0364154 -0.2005 1.3634 30 10 1 
0.0399165 -0.236477 1.3778 37 17 10 
0.0343709 0.0866206 1.20906 135 153 141 
0.0414531 -0.22351 1.37288 46 21 16 
0.0397289 -0.258695 1.30276 92 25 9 
0.0367684 -0.150285 1.23103 195 197 196 
0.0436773 -0.214592 1.36993 104 77 66 
0.0389073 0.176221 1.24005 7 83 133 
0.038269 0.0789888 1.22316 172 48 56 
0.0397985 0.218097 1.22216 58 98 106 
0.0470418 -0.206008 1.36628 75 47 26 
0.0481607 -0.241104 1.38181 64 33 30 
0.0407738 -0.140178 1.22165 34 34 32 
0.0422582 -0.167771 1.24351 18 20 19 
0.0430837 0.0696459 1.2418 0 6 1 
0.0457717 -0.247379 1.29349 142 98 61 
0.0434972 0.185252 1.23259 92 177 218 
0.0507132 -0.233439 1.37183 136 103 88 
0.0458048 0.05104 1.27803 26 26 14 
0.0476786 -0.254516 1.30859 49 18 0 
0.0509443 -0.221335 1.36996 64 30 18 
0.0431597 0.00802213 1.20149 241 242 244 
0.0466474 0.137437 1.25414 240 92 118 
0.0441443 0.0900642 1.21041 13 3 4 
0.0462259 0.196915 1.23121 71 164 208 
0.0478989 0.0621591 1.24855 11 28 18 
0.0445657 -0.0450972 1.19094 147 156 189 
0.0461497 0.224411 1.20505 40 115 172 
0.0515918 -0.245952 1.30156 122 84 75 
0.0506346 0.0495043 1.26471 27 35 24 
0.0592452 -0.381639 1.41657 199 204 207 
0.0492936 -0.149734 1.23485 43 30 0 
0.0575392 -0.238278 1.37739 80 51 33 
0.0503959 0.161794 1.23501 132 123 154 
0.0504054 0.0734184 1.23235 3 16 7 
0.0585805 -0.228125 1.37382 160 125 106 
0.0484595 0.241751 1.18907 47 114 166 
0.0511838 -0.0614509 1.20055 43 43 45 
0.0543322 0.0484919 1.25512 75 91 80 
0.0581919 -0.255005 1.3201 103 56 48 
0.0529405 0.207757 1.22091 69 156 199 
0.0654237 -0.396179 1.42318 205 242 248 
0.0506343 0.231902 1.16772 26 105 161 
0.0539049 0.199366 1.22565 71 165 203 
0.0545777 0.178362 1.23561 75 163 209 
0.0551901 0.0625656 1.23819 67 86 82 
0.0651057 -0.358955 1.40031 171 165 179 
0.0598859 -0.243169 1.30598 51 2 0 
0.0571302 0.0581968 1.25269 46 61 54 
0.0541638 0.237409 1.1969 17 94 148 
0.059244 0.220639 1.21269 0 35 73 
0.067127 -0.244715 1.3177 56 4 0 
0.0629395 0.192552 1.22886 59 142 192 
0.0653153 0.0449369 1.26262 40 55 52 
0.058778 0.257532 1.16343 91 153 204 
0.0554953 0.29289 1.10744 192 183 142 
0.062572 -0.0693051 1.19811 44 54 63 
0.0653781 0.121926 1.23947 191 41 66 
0.0623366 0.239825 1.19237 62 149 203 
0.0647743 0.210784 1.22484 53 139 186 
0.0662888 0.153299 1.22948 255 65 99 
0.0682867 0.183172 1.23104 47 139 178 
0.0689732 0.200137 1.22533 11 102 147 
0.0720085 0.117152 1.24675 3 0 0 
0.0732489 -0.21061 1.25044 81 77 68 
0.0683108 0.24607 1.18458 13 105 152 
0.0707131 0.222392 1.21308 24 94 145 
0.0857702 -0.343415 1.38657 91 36 55 
0.0634272 0.277114 1.09981 183 170 164 
0.0746902 0.192884 1.23076 71 155 201 
0.0742188 0.207895 1.22167 12 101 143 
0.0736769 0.0139096 1.20935 23 19 20 
0.0753274 0.230963 1.20497 77 154 210 
0.0945237 -0.38807 1.4276 54 49 43 
0.0672188 0.287433 1.09117 68 79 97 
0.0726228 0.260212 1.15429 98 137 196 
0.0817489 0.132144 1.23646 42 0 4 
0.0839432 0.0986816 1.25782 127 127 125 
0.0802191 0.220789 1.21404 68 141 194 
0.0805312 -0.122026 1.21296 104 125 168 
0.0702858 0.305116 1.08542 167 158 149 
0.079394 0.241035 1.18826 63 159 210 
0.097405 -0.346446 1.38776 158 84 107 
0.0834552 0.204029 1.22344 67 143 193 
0.0803741 -0.00242251 1.1829 227 227 227 
0.0740713 0.275571 1.09778 121 133 173 
0.0889861 -0.224363 1.25951 248 223 71 
0.0875132 -0.208019 1.24023 239 205 72 
0.105015 -0.395848 1.42506 221 203 201 
0.0872584 0.13857 1.23086 217 95 110 
0.0873209 -0.19898 1.22135 236 203 90 
0.0874928 -0.0964189 1.2091 12 25 34 
0.0919863 -0.216499 1.24614 192 158 51 
0.0925789 -0.226667 1.24829 254 223 107 
0.0883965 0.228933 1.20619 82 149 201 
0.0898587 0.21172 1.21659 10 86 135 
0.0918746 -0.196697 1.22986 239 209 89 
0.095373 -0.243927 1.26533 127 111 60 
0.108614 -0.351406 1.39271 161 86 109 
0.0892739 -0.00477274 1.18904 218 216 217 
0.0926162 -0.13334 1.21949 114 135 188 
0.0898934 0.238816 1.19575 55 141 202 
0.0959043 -0.235591 1.25277 255 228 99 
0.0927803 0.198665 1.2238 129 150 193 
0.112492 -0.405817 1.41637 251 250 245 
0.0962583 -0.204048 1.2393 237 208 104 
0.11668 -0.378292 1.41018 124 112 112 
0.102165 -0.244477 1.25152 175 145 31 
0.097931 -0.0547544 1.20339 190 205 238 
0.102119 -0.210714 1.23211 160 129 13 
0.10104 0.204949 1.22223 47 3 18 
0.0893123 0.274047 1.10437 113 95 155 
0.103267 -0.139666 1.22613 161 179 215 
0.105047 -0.223376 1.2429 224 191 94 
0.102367 0.213814 1.21753 65 139 184 
0.101804 0.225423 1.20947 91 158 201 
0.0963672 0.259809 1.15412 35 71 129 
0.107983 0.0929469 1.2591 85 170 149 
0.12123 -0.312625 1.38148 168 74 110 
0.110314 -0.252415 1.25701 173 141 20 
0.109708 -0.247069 1.24405 176 144 35 
0.112077 -0.230329 1.24195 232 202 104 
0.112442 0.0768694 1.24305 38 57 89 
0.107882 -0.0602325 1.19664 119 127 176 
0.114278 -0.238701 1.24898 168 135 38 
0.114854 -0.263287 1.2529 255 232 109 
0.116644 0.0988055 1.26529 35 74 55 
0.105047 0.254187 1.16155 2 108 158 
0.112111 0.211429 1.20917 208 168 192 
0.113019 -0.0840591 1.20696 78 84 132 
0.134017 -0.367066 1.38333 91 22 50 
0.111377 0.240353 1.19061 53 153 212 
0.121161 -0.249468 1.24864 171 139 18 
0.115179 0.228267 1.20564 49 127 176 
0.114092 0.232204 1.19507 64 148 208 
0.116913 0.216368 1.21677 67 127 164 
0.135914 -0.318021 1.3696 76 5 23 
0.123669 -0.268166 1.25315 249 219 85 
0.119652 0.156116 1.22751 207 0 31 
0.122457 -0.24144 1.24296 234 203 51 
0.118026 -0.108835 1.20375 133 140 192 
0.117365 -0.0531186 1.19653 186 200 235 
0.119423 -0.123586 1.2102 140 162 219 
0.122967 -0.187139 1.23394 110 137 192 
0.124543 0.0860497 1.2472 35 60 80 
0.125187 -0.223498 1.24346 123 137 176 
0.123055 -0.0975447 1.21511 157 170 225 
0.144334 -0.351472 1.38108 117 5 45 
0.129061 0.096263 1.2639 0 23 17 
0.122613 0.223324 1.21059 69 151 201 
0.123966 0.207161 1.21749 23 50 71 
0.151519 -0.385437 1.40602 169 100 129 
0.118562 0.260564 1.1516 53 147 199 
0.116764 0.266302 1.13492 72 130 193 
0.124212 -0.024294 1.18335 23 45 58 
0.152148 -0.421274 1.40074 99 86 70 
0.124742 0.236384 1.1952 61 140 197 
0.128656 0.15497 1.22213 170 47 68 
0.130386 -0.12466 1.22141 83 75 122 
0.121876 0.254639 1.1635 49 153 208 
0.129169 0.215935 1.21928 7 74 126 
0.13147 0.142939 1.23371 137 48 66 
0.131639 -0.15204 1.22602 48 60 76 
0.13396 -0.230984 1.23913 14 13 18 
0.136012 0.111161 1.25838 16 102 101 
0.124839 0.247624 1.17318 45 135 195 
0.133838 0.0924882 1.2376 28 43 62 
0.131676 -0.0863154 1.21304 183 187 235 
0.159166 -0.410777 1.41558 229 250 253 
0.135383 -0.177023 1.2334 176 201 255 
0.139121 0.0610231 1.26864 19 34 57 
0.119837 0.268538 1.12061 84 115 169 
0.130803 0.22942 1.20492 51 124 177 
0.136845 -0.139672 1.23802 163 161 200 
0.134363 0.193608 1.21971 54 74 83 
0.138028 0.0799151 1.24503 121 141 166 
0.142043 0.0620414 1.25494 10 32 56 
0.127381 0.261193 1.14525 45 141 189 
0.139613 -0.13396 1.22422 14 10 43 
0.138516 0.212524 1.21937 10 96 145 
0.133008 0.243709 1.1782 56 129 184 
0.135155 0.23909 1.19017 58 127 186 
0.132054 0.253613 1.16454 58 154 205 
0.144071 0.127765 1.24833 90 172 158 
0.141831 0.19313 1.23099 115 180 172 
0.143214 -0.158581 1.22849 63 67 92 
0.140854 0.186454 1.21981 121 186 182 
0.142236 -0.11787 1.22125 57 48 93 
0.13217 0.25832 1.15345 70 169 210 
0.141266 0.200796 1.22006 105 187 173 
0.142955 0.183103 1.23073 229 248 242 
0.144768 0.132583 1.23779 106 127 108 
0.125677 0.296941 1.09599 68 173 205 
0.147608 -0.230514 1.24152 231 230 235 
0.147096 -0.187668 1.23401 202 219 249 
0.142242 0.234073 1.1984 60 140 191 
0.149607 -0.212722 1.23849 151 172 227 
0.147022 0.0976926 1.22925 46 63 83 
0.149491 0.08068 1.24441 76 108 146 
0.149882 -0.197973 1.23915 184 206 247 
0.152748 0.127205 1.2676 101 134 91 
0.143328 0.220414 1.19879 103 190 173 
0.151046 0.151185 1.24937 148 148 150 
0.149071 -0.131209 1.2247 32 33 63 
0.137051 0.262249 1.14421 57 148 195 
0.132392 0.271163 1.10869 54 139 193 
0.154427 -0.240393 1.2435 3 5 4 
0.148124 0.22095 1.21051 49 134 127 
0.151393 0.175222 1.2263 104 178 181 
0.132095 0.276861 1.09131 64 151 220 
0.153253 0.139711 1.23406 95 136 118 
0.15105 0.202705 1.21984 118 185 176 
0.156974 -0.151053 1.22936 140 133 185 
0.134624 0.285719 1.08635 65 149 219 
0.147831 0.249648 1.17508 86 167 197 
0.159114 -0.228519 1.23873 10 11 13 
0.160716 -0.247108 1.24648 236 238 235 
0.162125 -0.256905 1.24733 4 4 4 
0.164527 0.047475 1.27073 85 114 112 
0.162135 0.0726666 1.25037 95 117 131 
0.160013 0.164101 1.23464 7 31 35 
0.155144 -0.0563895 1.19136 70 79 110 
0.162751 0.138304 1.24724 67 111 48 
0.161117 -0.140017 1.2276 46 42 79 
0.160422 -0.118541 1.22045 150 142 199 
0.163883 -0.199988 1.23782 129 153 201 
0.161921 0.150621 1.23551 20 24 23 
0.165119 0.156583 1.24344 87 97 98 
0.164882 0.17473 1.23542 100 197 206 
0.170501 -0.305057 1.25171 23 23 25 
0.170221 -0.267811 1.24916 219 218 216 
0.170594 -0.24253 1.24479 220 218 219 
0.169526 -0.216364 1.23831 10 11 16 
0.154536 0.256261 1.15106 87 171 171 
0.171168 0.135936 1.2534 112 140 89 
0.170061 0.0721399 1.24191 86 104 124 
0.160109 0.00100497 1.1686 100 132 205 
0.173242 0.0691937 1.25479 97 127 138 
0.174898 -0.286206 1.25062 23 24 18 
0.172983 -0.182918 1.23966 136 159 203 
0.170861 0.164827 1.23674 84 175 180 
0.170764 -0.13562 1.22596 28 32 61 
0.173942 0.152065 1.2448 78 165 172 
0.172869 -0.149934 1.22767 46 51 80 
0.174197 -0.162025 1.23106 136 133 190 
0.177678 -0.256712 1.24898 238 240 239 
0.18085 0.0670906 1.26628 98 120 131 
0.175792 0.0935029 1.23265 28 63 85 
0.179078 -0.203346 1.24256 10 11 15 
0.181406 -0.294211 1.25331 232 242 243 
0.18287 -0.275335 1.25087 15 15 17 
0.178789 0.123361 1.23758 41 141 139 
0.184381 -0.315977 1.25616 237 239 238 
0.156777 0.299818 1.10406 66 82 159 
0.183138 -0.219721 1.24248 212 216 215 
0.181854 -0.176805 1.23568 21 33 47 
0.154397 0.290543 1.08374 99 150 215 
0.179993 -0.130748 1.22267 107 105 152 
0.170819 0.0200086 1.1624 153 160 186 
0.190016 -0.227717 1.24469 4 5 7 
0.18254 0.220077 1.21288 91 189 192 
0.192385 -0.299458 1.25249 3 13 12 
0.192985 -0.288602 1.25308 215 216 218 
0.190615 -0.186397 1.23762 141 173 230 
0.192329 -0.238594 1.24709 213 213 213 
0.194667 0.0446181 1.25598 17 19 0 
0.191215 -0.118923 1.22782 12 25 31 
0.191512 -0.155077 1.22665 71 78 107 
0.197149 -0.3156 1.25477 10 16 16 
0.194915 -0.214162 1.24354 231 235 236 
0.20391 0.168185 1.30612 71 165 191 
0.193607 -0.174817 1.2322 22 41 48 
0.188711 0.207401 1.21718 129 146 138 
0.182214 -0.0252434 1.17206 40 52 66 
0.198348 -0.25297 1.25131 210 212 209 
0.200418 -0.281503 1.25988 14 14 16 
0.183506 -0.00617669 1.17256 81 90 105 
0.199771 -0.227668 1.2463 217 218 220 
0.18507 0.0185172 1.16789 170 126 55 
0.204862 -0.359437 1.26556 94 94 94 
0.200781 -0.202549 1.23753 24 24 26 
0.187763 0.00417651 1.16572 84 64 1 
0.197992 -0.11671 1.21818 14 23 32 
0.186768 0.25224 1.16519 59 161 209 
0.205812 -0.241646 1.24969 230 231 233 
0.175473 0.28266 1.09807 93 181 183 
0.19319 -0.0317152 1.18234 119 130 148 
0.198611 0.205058 1.21999 81 176 208 
0.207848 -0.266944 1.252 4 8 9 
0.208649 -0.256109 1.25061 17 26 23 
0.192714 0.0152054 1.17292 65 40 0 
0.196666 0.0220157 1.18027 74 45 5 
0.202542 -0.129359 1.20421 12 20 23 
0.196057 -0.00595828 1.17338 191 164 97 
0.213873 -0.287982 1.25471 0 9 6 
0.210799 -0.202855 1.23815 234 236 233 
0.215784 -0.307355 1.2579 201 203 202 
0.1736 0.00452825 1.04626 87 60 5 
0.212549 -0.212438 1.24183 9 14 10 
0.210024 0.0542591 1.23457 196 191 48 
0.201227 0.0130673 1.18093 164 123 59 
0.202864 -0.0223319 1.18523 92 76 25 
0.184192 0.274688 1.09619 51 150 207 
0.219326 -0.296648 1.25833 221 221 221 
0.218822 -0.266844 1.2563 229 233 234 
0.216445 -0.222922 1.24412 12 14 13 
0.15636 -0.192534 0.932946 14 19 13 
0.219401 -0.277783 1.25403 1 7 5 
0.190954 0.265971 1.12431 52 152 202 
0.21327 0.0705589 1.23124 27 40 74 
0.216864 0.0567283 1.24173 24 25 17 
0.216323 -0.155667 1.22365 161 202 255 
0.220484 -0.201987 1.23792 16 22 22 
0.225361 -0.306329 1.25809 6 4 5 
0.208063 0.00208263 1.17965 71 33 0 
0.207514 0.240576 1.18469 70 169 200 
0.209953 0.0178814 1.18399 214 164 69 
0.226806 -0.287929 1.25534 221 222 224 
0.21067 0.0323046 1.18282 192 145 67 
0.224946 -0.258776 1.24253 13 13 15 
0.234925 -0.417669 1.28712 78 58 33 
