ply                 
format ascii 1.0    
element vertex 878
property float x    
property float y    
property float z    
property uchar red  
property uchar green
property uchar blue 
end_header          
-0.999703 1.46878 2.75258 98 57 29 
-1.05477 1.25904 2.96176 96 60 36 
-0.979908 1.47535 2.75581 69 41 20 
-0.979908 1.47535 2.75581 69 41 20 
-0.991671 1.42265 2.79792 92 58 33 
-0.961297 1.48617 2.7509 136 102 75 
-1.01172 1.32698 2.90241 128 96 71 
-0.962253 1.44035 2.78788 47 20 0 
-0.971582 1.40381 2.82028 147 115 94 
-1.00099 1.29273 2.93241 96 64 39 
-1.01345 1.25634 2.97045 94 56 33 
-0.924967 1.47662 2.73841 97 57 22 
-0.926385 1.4723 2.7451 147 105 80 
-0.981048 1.29611 2.92018 90 60 34 
-0.958992 1.35632 2.86557 48 24 12 
-0.952943 1.37167 2.85162 148 109 76 
-1.01287 1.16886 3.04622 172 133 94 
-0.945437 1.38001 2.84763 86 51 23 
-0.942145 1.36487 2.8638 151 110 80 
-0.942145 1.36487 2.8638 151 110 80 
-0.91587 1.40843 2.81153 147 112 84 
-0.924418 1.35163 2.85606 141 100 68 
-0.931449 1.32187 2.90115 77 45 20 
-0.874889 1.49335 2.73657 137 105 80 
-0.924423 1.31 2.90084 155 116 85 
-0.923035 1.26962 2.95137 87 46 24 
-0.899887 1.32808 2.88901 140 102 79 
-0.867392 1.40792 2.805 66 34 13 
-0.867392 1.40792 2.805 66 34 13 
-0.89278 1.32157 2.89927 82 50 29 
-0.902143 1.2417 2.97946 95 64 43 
-0.918536 1.1856 3.03699 180 140 104 
-0.917358 1.16752 3.0452 157 125 100 
-0.903757 1.18985 3.02864 105 71 46 
-0.885253 1.22826 2.98654 72 50 37 
-0.885253 1.22826 2.98654 72 50 37 
-0.858299 1.30331 2.91863 79 51 29 
-0.789786 1.53997 2.69386 162 121 91 
-0.857216 1.24293 2.96682 181 140 108 
-0.830261 1.34347 2.88526 89 52 26 
-0.87295 1.17688 3.04837 104 68 42 
-0.780063 1.44262 2.7786 103 75 54 
-0.73471 0.0423421 2.64017 99 67 54 
-0.73471 0.0423421 2.64017 99 67 54 
-0.827729 1.24885 2.96728 123 88 60 
-0.792368 1.35776 2.85846 160 129 98 
-0.730332 0.030847 2.6495 92 61 40 
-0.8237 1.23194 2.98622 103 73 49 
-0.742478 1.48927 2.73201 156 117 86 
-0.756154 1.43676 2.78359 175 131 92 
-0.785515 1.32458 2.89174 161 132 100 
-0.749949 1.45199 2.76463 111 77 52 
-0.707315 0.0639206 2.6202 171 131 106 
-0.766166 1.39595 2.82986 124 89 61 
-0.776309 1.35068 2.87233 173 138 98 
-0.717366 0.0196502 2.66232 182 133 101 
-0.717366 0.0196502 2.66232 182 133 101 
-0.815083 1.18171 3.02331 122 92 64 
-0.758039 1.41466 2.8153 169 140 110 
-0.741215 1.44959 2.75623 168 133 111 
-0.708216 0.041079 2.64188 182 122 88 
-0.763539 1.3834 2.84546 159 116 84 
-0.703391 0.0535677 2.62985 81 67 64 
-0.716641 1.56223 2.67803 88 57 39 
-0.707 0.0313447 2.65077 191 133 96 
-0.776728 1.31262 2.91165 183 152 123 
-0.702275 0.0376428 2.64348 83 51 30 
-0.701398 0.0429787 2.64063 174 133 111 
-0.710532 1.57137 2.66872 145 110 88 
-0.749112 1.39833 2.83069 103 75 38 
-0.714291 -0.0306907 2.70882 174 117 87 
-0.706914 1.56202 2.67387 141 107 82 
-0.687695 0.0654688 2.61966 84 58 43 
-0.708076 -0.0150955 2.69755 188 137 106 
-0.747604 1.39353 2.84075 202 160 118 
-0.700579 0.0119901 2.67048 184 119 81 
-0.72127 -0.0730599 2.74929 85 53 30 
-0.72127 -0.0730599 2.74929 85 53 30 
-0.69368 0.0351594 2.64696 78 68 67 
-0.729599 -0.115839 2.78733 178 137 115 
-0.723359 -0.101824 2.77521 85 62 46 
-0.690824 0.0247345 2.65617 176 128 108 
-0.696489 0.00197826 2.67836 187 125 84 
-0.776737 1.2174 2.99989 108 77 56 
-0.719013 1.43678 2.78661 166 132 105 
-0.659299 0.123094 2.56579 226 208 184 
-0.748634 1.29153 2.93158 206 163 121 
-0.730958 1.35947 2.86387 167 132 102 
-0.698481 1.48755 2.74364 180 146 108 
-0.685818 -0.0248998 2.70503 189 136 102 
-0.734143 1.3191 2.89576 171 137 109 
-0.675664 1.56532 2.66816 117 76 54 
-0.723069 1.36057 2.85785 108 76 53 
-0.671721 0.0168077 2.66624 89 62 35 
-0.705181 1.43304 2.79127 194 160 123 
-0.673153 1.56837 2.66498 174 133 105 
-0.744346 1.27065 2.95192 119 85 47 
-0.682054 1.52173 2.70845 101 66 44 
-0.646377 0.111575 2.57887 185 139 115 
-0.659928 0.0492923 2.63599 185 122 81 
-0.751482 1.21611 2.99626 106 69 43 
-0.73762 1.28992 2.94358 190 147 102 
-0.664982 0.0205644 2.66223 181 132 102 
-0.676775 1.52897 2.70382 169 131 94 
-0.68028 1.5122 2.72362 83 48 18 
-0.672713 1.53577 2.69795 108 68 42 
-0.733161 1.27566 2.94451 193 149 112 
-0.648982 0.0603354 2.62545 182 134 98 
-0.765775 1.12376 3.09207 155 124 96 
-0.67229 -0.053829 2.73198 85 53 28 
-0.675167 1.49285 2.7434 184 149 119 
-0.674923 1.48424 2.74331 116 85 54 
-0.648509 0.0402218 2.64512 95 59 43 
-0.668908 -0.0481321 2.72986 163 134 116 
-0.668908 -0.0481321 2.72986 163 134 116 
-0.651208 0.0219917 2.66162 177 117 81 
-0.687342 1.42795 2.80537 176 143 110 
-0.671159 -0.0696482 2.7493 178 129 89 
-0.671159 -0.0696482 2.7493 178 129 89 
-0.635494 0.0764857 2.60831 168 113 82 
-0.678288 1.45601 2.77683 191 155 123 
-0.67863 1.44966 2.79652 181 143 106 
-0.67863 1.44966 2.79652 181 143 106 
-0.665022 -0.0677914 2.74903 157 128 114 
-0.665022 -0.0677914 2.74903 157 128 114 
-0.666882 -0.0840036 2.76218 181 132 102 
-0.696078 1.34268 2.87687 185 151 123 
-0.716624 1.24433 2.97507 109 72 45 
-0.632271 0.0454171 2.64031 88 70 66 
-0.632271 0.0454171 2.64031 88 70 66 
-0.670349 1.44246 2.79612 198 159 118 
-0.660779 -0.0896097 2.76807 78 65 48 
-0.692296 1.32114 2.8961 192 157 125 
-0.700132 1.28764 2.93574 125 91 66 
-0.634231 0.0160974 2.66864 175 129 96 
-0.661844 1.45443 2.7825 200 163 119 
-0.636685 1.5569 2.67743 179 135 96 
-0.644873 1.50342 2.72584 171 136 104 
-0.631629 0.00590679 2.67934 73 62 58 
-0.677143 1.36514 2.86541 97 66 45 
-0.635517 1.53415 2.69406 160 130 96 
-0.682997 1.32888 2.89672 195 161 133 
-0.620959 0.0418168 2.64195 179 120 86 
-0.63213 -0.0087052 2.69231 93 62 41 
-0.650255 -0.0902965 2.77444 76 67 58 
-0.626892 -0.00314653 2.68639 165 126 95 
-0.644222 -0.0798218 2.76094 174 132 107 
-0.691204 1.26524 2.95499 182 148 120 
-0.693765 1.24887 2.96815 110 78 57 
-0.702309 1.20315 3.021 90 60 36 
-0.694769 1.22168 2.99108 113 71 47 
-0.612232 0.0410897 2.6441 172 129 110 
-0.636015 1.48474 2.74679 198 165 130 
-0.630257 1.49821 2.73358 194 157 115 
-0.631529 -0.0765484 2.75902 182 129 95 
-0.618873 1.53401 2.70246 178 146 108 
-0.699331 1.16361 3.05359 108 78 50 
-0.610362 0.00278229 2.67766 146 88 50 
-0.643578 1.40593 2.82477 129 94 64 
-0.681031 1.21851 2.99176 173 132 88 
-0.617631 1.50724 2.73115 112 79 46 
-0.601319 1.57501 2.6718 122 86 54 
-0.641784 1.37294 2.8563 162 122 87 
-0.658414 1.28213 2.93242 135 100 68 
-0.684868 1.16178 3.05206 99 62 35 
-0.691399 1.13445 3.08513 149 116 85 
-0.617658 -0.093775 2.77543 162 130 109 
-0.63845 1.36613 2.86457 89 57 36 
-0.617162 1.46049 2.76961 190 147 113 
-0.616167 1.46822 2.76727 96 61 39 
-0.595387 -0.00558564 2.69097 166 120 94 
-0.606455 1.49591 2.74535 177 142 114 
-0.637357 1.33056 2.89608 179 141 105 
-0.588043 1.55962 2.67418 137 93 58 
-0.596224 1.52556 2.7142 90 56 31 
-0.602811 1.48667 2.74864 192 159 126 
-0.592724 -0.0332189 2.71709 150 101 69 
-0.590586 -0.0579651 2.7424 75 40 20 
-0.612918 1.39703 2.8368 60 42 18 
-0.612918 1.39703 2.8368 60 42 18 
-0.587243 1.45994 2.77257 151 109 69 
-0.587243 1.45994 2.77257 151 109 69 
-0.59202 1.4199 2.81552 201 157 118 
-0.597982 1.38608 2.84446 97 71 48 
-0.588947 1.43041 2.80733 114 82 57 
-0.623537 1.22969 2.98565 179 145 108 
-0.55278 1.58816 2.65218 139 109 75 
-0.588527 1.39973 2.83841 111 79 54 
-0.553036 1.56006 2.67669 182 143 100 
-0.579936 -0.0559421 2.81707 80 45 26 
-0.618833 1.21883 2.99865 108 77 46 
-0.618833 1.21883 2.99865 108 77 46 
-0.579761 1.42953 2.80896 119 85 50 
-0.545238 1.58307 2.6579 114 85 53 
-0.55253 -0.0170876 2.70274 66 53 45 
-0.573611 1.43243 2.7995 187 144 112 
-0.559158 -0.0657998 2.7469 66 55 49 
-0.551606 -0.0317453 2.71644 154 107 77 
-0.551606 -0.0317453 2.71644 154 107 77 
-0.598504 1.27229 2.93862 161 131 107 
-0.595829 1.29358 2.92773 194 151 117 
-0.551296 -0.0461883 2.73074 70 51 36 
-0.607257 1.21854 3.00965 104 71 38 
-0.563468 1.4372 2.79774 148 103 70 
-0.582935 1.33584 2.8973 124 92 67 
-0.603087 1.19862 3.01702 177 148 108 
-0.612229 1.15682 3.06608 185 150 112 
-0.542187 -0.0428362 2.72732 71 53 41 
-0.541221 1.52004 2.71861 106 68 45 
-0.527651 1.58837 2.65602 189 155 120 
-0.536749 1.52659 2.711 104 62 40 
-0.594626 1.18506 3.03161 169 135 107 
-0.535363 -0.0596924 2.74387 69 55 44 
-0.551941 1.38465 2.85425 113 77 53 
-0.594947 1.14767 3.07665 80 52 30 
-0.525618 1.51705 2.72064 204 164 129 
-0.513962 1.58171 2.66144 227 182 140 
-0.52676 -0.0619614 2.74635 194 177 169 
-0.531693 1.47104 2.76702 134 93 61 
-0.521791 -0.281069 2.72872 139 85 0 
-0.54615 1.35938 2.8772 123 91 68 
-0.545895 1.34602 2.87827 201 166 134 
-0.535285 1.38835 2.83749 184 144 108 
-0.507807 1.53542 2.69452 84 50 25 
-0.550908 1.30441 2.92411 111 74 47 
-0.504823 1.55857 2.68101 190 148 108 
-0.562966 1.21691 3.00281 175 140 112 
-0.509689 1.51939 2.71904 175 136 105 
-0.568544 1.17332 3.04182 181 143 104 
-0.562171 1.19254 3.02387 167 136 108 
-0.505796 1.51314 2.72221 115 80 50 
-0.553838 1.22895 2.98484 83 59 35 
-0.514848 1.45553 2.78172 187 153 125 
-0.570003 1.1359 3.08614 88 57 37 
-0.528328 1.35029 2.87912 194 160 123 
-0.50187 1.50059 2.73897 106 72 47 
-0.499615 1.50889 2.73123 169 135 98 
-0.501596 1.48876 2.75286 96 65 44 
-0.509988 1.4282 2.8018 194 154 118 
-0.490693 1.53421 2.70154 187 146 116 
-0.528117 1.31478 2.9141 133 102 73 
-0.528117 1.31478 2.9141 133 102 73 
-0.518269 1.36161 2.8694 112 82 48 
-0.544178 1.21141 3.01253 177 141 109 
-0.518848 1.34638 2.87925 127 93 66 
-0.518848 1.34638 2.87925 127 93 66 
-0.520242 1.34032 2.8904 195 161 124 
-0.520242 1.34032 2.8904 195 161 124 
-0.51707 1.35482 2.87618 196 161 131 
-0.515555 1.3334 2.89809 129 93 61 
-0.472693 1.56913 2.66996 105 71 34 
-0.499238 1.40666 2.82886 132 100 75 
-0.544202 1.13635 3.08392 150 124 97 
-0.471383 1.55472 2.68074 218 174 125 
-0.474172 1.53409 2.70159 179 144 106 
-0.481247 1.48521 2.74957 179 145 117 
-0.479536 -0.301141 2.75185 253 218 160 
-0.490187 1.41673 2.82069 107 75 52 
-0.47548 1.48581 2.74676 113 82 54 
-0.519888 1.21135 3.01085 171 138 107 
-0.520861 1.18317 3.03699 104 72 47 
-0.468229 1.50234 2.73416 122 91 62 
-0.493946 1.34912 2.89348 143 113 85 
-0.476544 -0.169118 2.80307 228 165 0 
-0.476544 -0.169118 2.80307 228 165 0 
-0.511968 1.19604 3.02458 159 126 95 
-0.482598 1.37199 2.86671 180 144 118 
-0.449001 1.55777 2.67878 200 167 132 
-0.512503 1.16853 3.05684 173 139 104 
-0.467024 1.43881 2.79151 115 78 51 
-0.442571 1.57726 2.66025 207 163 116 
-0.447595 1.52361 2.71105 110 75 45 
-0.439311 1.56577 2.67131 210 168 130 
-0.50613 1.12233 3.09178 81 56 36 
-0.452761 1.43894 2.79085 129 88 58 
-0.47662 1.24618 2.98151 109 77 54 
-0.422467 1.56435 2.66942 190 141 101 
-0.476771 1.15625 3.05885 158 130 106 
-0.476771 1.15625 3.05885 158 130 106 
-0.414203 1.56785 2.66309 170 131 92 
-0.473864 1.16606 3.05257 100 72 48 
-0.449731 1.31125 2.90788 110 76 49 
-0.458715 1.23433 2.98442 181 138 103 
-0.413838 1.52185 2.71766 196 154 112 
-0.398307 1.56016 2.67047 207 158 92 
-0.46111 1.11789 3.09417 93 63 37 
-0.446434 1.20944 3.01264 163 131 106 
-0.436776 1.2736 2.94737 116 85 56 
-0.390504 1.57322 2.65562 113 79 51 
-0.422277 1.32912 2.89409 182 141 109 
-0.441124 1.19292 3.02909 171 137 102 
-0.440777 1.18406 3.03149 166 128 91 
-0.393426 1.51867 2.71619 152 120 95 
-0.404208 1.43785 2.79542 181 146 104 
-0.431914 1.23014 2.99187 169 136 105 
-0.428151 1.23578 2.98575 113 77 55 
-0.428151 1.23578 2.98575 113 77 55 
-0.428151 1.23578 2.98575 113 77 55 
-0.381814 1.5637 2.66896 223 175 135 
-0.380417 1.57172 2.66068 120 93 66 
-0.432242 1.18322 3.04388 175 141 103 
-0.385895 1.51186 2.7261 244 216 177 
-0.382201 1.52943 2.70779 225 187 142 
-0.423121 1.22181 2.99674 95 65 39 
-0.40876 1.32602 2.90242 109 75 40 
-0.428395 1.17379 3.05258 96 65 44 
-0.409534 1.28766 2.9301 97 66 45 
-0.37468 1.53435 2.70078 123 93 57 
-0.395266 1.34127 2.88067 192 147 106 
-0.38645 1.40582 2.8235 120 83 54 
-0.37517 1.4698 2.75566 123 89 52 
-0.375145 1.4491 2.77704 180 144 110 
-0.375145 1.4491 2.77704 180 144 110 
-0.383175 1.35156 2.87275 194 155 124 
-0.367479 1.46446 2.76091 200 160 134 
-0.37778 1.37461 2.84274 128 86 62 
-0.356186 1.53861 2.68868 218 179 140 
-0.389658 1.25405 2.96233 100 69 41 
-0.35083 1.53505 2.6953 142 104 68 
-0.344789 1.54381 2.68684 236 197 154 
-0.349034 1.49568 2.728 167 126 94 
-0.334683 1.5796 2.64703 206 160 110 
-0.335867 1.56823 2.65767 182 135 93 
-0.387278 1.13669 3.07204 136 108 86 
-0.362121 1.31705 2.8989 110 75 45 
-0.345249 1.43299 2.78863 176 147 117 
-0.339095 1.48693 2.74077 124 85 54 
-0.350596 1.37438 2.83919 208 175 140 
-0.381675 1.10623 3.10554 159 123 91 
-0.373935 1.12745 3.08532 152 119 88 
-0.324921 1.52982 2.68664 226 186 150 
-0.339989 -0.192534 2.82757 187 145 73 
-0.339989 -0.192534 2.82757 187 145 73 
-0.32804 1.50727 2.7177 154 120 92 
-0.333359 1.45622 2.76814 138 94 57 
-0.342547 1.36933 2.84944 172 140 102 
-0.361126 1.19426 3.02533 148 109 76 
-0.361126 1.19426 3.02533 148 109 76 
-0.343239 1.32935 2.88301 180 146 118 
-0.355216 1.21749 2.99312 109 77 54 
-0.335679 1.3755 2.84439 110 74 52 
-0.351112 1.24292 2.97671 169 139 111 
-0.331699 1.39857 2.82083 135 97 74 
-0.314337 1.53536 2.6789 214 178 142 
-0.346563 1.23494 2.98396 110 75 53 
-0.328252 1.39303 2.83208 190 157 122 
-0.346842 1.21608 2.99826 109 79 53 
-0.34864 1.19017 3.02539 165 129 97 
-0.34864 1.19017 3.02539 165 129 97 
-0.340827 1.24848 2.9616 166 134 111 
-0.316292 1.37079 2.8351 128 97 66 
-0.342107 1.14157 3.06875 154 127 98 
-0.334794 1.18981 3.02156 103 73 47 
-0.32901 1.22385 2.97942 178 144 117 
-0.311234 1.35361 2.8621 171 129 87 
-0.294035 1.51915 2.70984 100 74 47 
-0.30566 1.39386 2.83164 123 84 55 
-0.2907 1.50997 2.71238 213 176 132 
-0.304681 1.3589 2.85783 215 176 137 
-0.316355 1.23913 2.97549 93 63 37 
-0.292483 1.47556 2.75392 237 197 145 
-0.306314 1.32445 2.88675 161 128 97 
-0.329727 1.10549 3.10468 156 122 95 
-0.282082 1.57354 2.6627 122 84 45 
-0.314365 1.22974 2.97734 167 136 108 
-0.329962 1.06941 3.12561 51 23 2 
-0.292164 1.42759 2.79103 127 92 62 
-0.326634 1.07622 3.11831 124 94 70 
-0.291452 1.4256 2.80412 191 151 116 
-0.2978 1.33282 2.8791 96 70 55 
-0.281876 1.48413 2.74581 206 167 126 
-0.283406 1.44734 2.7757 119 90 60 
-0.292219 1.33602 2.87185 87 63 37 
-0.292219 1.33602 2.87185 87 63 37 
-0.223688 0.322739 2.25013 186 101 96 
-0.295742 1.25382 2.95947 168 132 98 
-0.285754 1.34675 2.86783 122 92 66 
-0.267651 1.49893 2.72561 130 93 66 
-0.27079 -0.177766 2.80258 251 224 181 
-0.268046 1.46049 2.76972 141 101 66 
-0.282344 1.26903 2.93613 120 86 61 
-0.282344 1.26903 2.93613 120 86 61 
-0.266904 1.45042 2.78282 126 91 63 
-0.263827 1.43458 2.796 122 87 59 
-0.28001 1.2507 2.96605 175 141 113 
-0.261273 1.47227 2.77066 222 179 136 
-0.261273 1.47227 2.77066 222 179 136 
-0.272727 1.30975 2.8945 170 135 105 
-0.244749 1.57116 2.65969 126 93 50 
-0.255809 -0.195222 2.79543 247 183 73 
-0.257101 1.36295 2.84992 194 150 115 
-0.251395 1.44227 2.78793 173 142 111 
-0.268114 1.22308 2.9811 165 126 93 
-0.247618 1.44807 2.77887 199 165 127 
-0.264879 1.22799 2.9761 118 82 48 
-0.264879 1.22799 2.9761 118 82 48 
-0.244165 1.47274 2.76091 240 203 148 
-0.247559 1.38695 2.85364 132 101 73 
-0.247559 1.38695 2.85364 132 101 73 
-0.237611 1.48403 2.74949 224 185 130 
-0.248377 1.33036 2.88222 172 141 113 
-0.242744 1.41704 2.81792 213 175 139 
-0.235505 1.4344 2.79481 119 78 46 
-0.242548 1.33758 2.8796 109 75 50 
-0.232164 1.45688 2.77343 125 92 61 
-0.228856 1.45371 2.77607 115 79 53 
-0.228793 1.37371 2.85102 230 188 140 
-0.227076 1.37818 2.84174 132 88 61 
-0.22251 1.44348 2.78483 138 92 66 
-0.218595 1.48182 2.75118 153 119 82 
-0.244857 1.11644 3.07824 149 115 88 
-0.221353 1.41554 2.80888 207 169 133 
-0.213832 1.51421 2.72107 116 79 50 
-0.222304 1.39014 2.83155 127 84 49 
-0.222304 1.39014 2.83155 127 84 49 
-0.220773 1.40062 2.81623 224 184 148 
-0.213014 1.46166 2.76738 126 90 58 
-0.211333 1.47899 2.75222 205 173 132 
-0.222402 1.31608 2.90024 123 87 61 
-0.215686 1.3946 2.82065 156 113 79 
-0.220845 1.32789 2.8984 175 136 105 
-0.217282 1.33945 2.87502 110 76 49 
-0.212398 1.36021 2.85641 225 181 136 
-0.206145 1.44238 2.79006 210 162 124 
-0.207843 1.40266 2.81635 152 114 78 
-0.20456 1.44697 2.7796 142 106 72 
-0.19997 1.51538 2.72495 124 91 56 
-0.213895 1.30054 2.91067 164 133 104 
-0.219479 1.22127 2.9873 168 134 107 
-0.208464 1.36781 2.85212 149 105 76 
-0.208979 1.34133 2.8712 117 82 54 
-0.22005 1.18201 3.01984 172 139 104 
-0.205681 1.35565 2.85978 141 101 66 
-0.205934 1.31924 2.90518 171 135 101 
-0.204856 1.32465 2.89532 113 78 46 
-0.19837 1.38808 2.83099 233 199 162 
-0.213248 1.15728 3.04217 141 114 87 
-0.19256 1.47344 2.76094 151 120 89 
-0.188178 1.52654 2.71777 244 212 165 
-0.19598 1.3588 2.85723 140 101 68 
-0.193876 1.39691 2.82797 240 207 174 
-0.198878 1.2838 2.92656 171 133 97 
-0.187948 1.3778 2.84097 216 178 139 
-0.179249 1.51533 2.72407 200 164 128 
-0.189339 1.27628 2.9368 184 149 111 
-0.180825 1.37596 2.84353 142 97 58 
-0.171873 1.48782 2.7505 222 185 133 
-0.188745 1.18426 3.02441 104 76 54 
-0.188677 1.17677 3.03293 151 124 95 
-0.171665 1.42641 2.7989 208 168 132 
-0.170141 1.41602 2.81337 128 88 53 
-0.170831 1.36894 2.85265 172 121 76 
-0.165001 1.46813 2.77021 221 187 152 
-0.168321 1.39682 2.82903 118 82 46 
-0.179529 1.19065 3.01453 182 142 116 
-0.170858 1.31226 2.91036 236 198 153 
-0.158392 1.46559 2.77062 126 91 63 
-0.162823 1.37271 2.85059 232 181 136 
-0.175029 1.07121 3.124 137 104 73 
-0.163774 1.27668 2.93463 193 162 131 
-0.166663 1.21918 2.99854 107 77 53 
-0.155114 1.31797 2.90031 122 81 51 
-0.148312 1.43467 2.80577 225 187 150 
-0.153002 1.28119 2.93427 205 166 135 
-0.152 1.27232 2.94098 222 186 154 
-0.119712 -1.27614 2.41366 162 120 98 
-0.119712 -1.27614 2.41366 162 120 98 
-0.148357 1.29664 2.92197 111 82 50 
-0.150964 1.21392 2.99558 157 126 105 
-0.146924 1.24843 2.96657 192 149 104 
-0.143799 1.28801 2.93133 229 186 144 
-0.141447 1.32131 2.89832 101 80 59 
-0.134033 1.46605 2.77648 138 102 70 
-0.138389 1.29521 2.92829 202 160 122 
-0.131749 1.4047 2.82133 200 156 117 
-0.131466 1.39622 2.83758 216 174 124 
-0.126528 1.43804 2.79473 195 163 125 
-0.130775 1.27519 2.93903 201 159 119 
-0.124244 1.36334 2.8606 106 64 26 
-0.113692 1.33572 2.8903 125 80 49 
-0.112053 1.25382 2.97059 131 94 50 
-0.103825 1.28681 2.93709 240 208 170 
-0.0992773 1.3612 2.86801 222 187 149 
-0.0980337 1.3367 2.88836 132 93 54 
-0.0972311 1.28714 2.93291 112 83 53 
-0.0917889 1.39171 2.84195 231 187 140 
-0.0912898 1.20783 3.01048 140 107 76 
-0.0843342 1.39948 2.82987 158 101 58 
-0.0780578 1.33898 2.89384 213 166 114 
-0.0752681 1.28773 2.93806 127 96 67 
-0.0723853 1.34895 2.88087 151 109 71 
-0.073047 1.28095 2.94203 218 186 147 
-0.0694544 1.37305 2.85893 203 164 125 
-0.0630735 1.26817 2.9492 119 88 57 
-0.0601684 1.28643 2.94044 114 89 58 
-0.0601684 1.28643 2.94044 114 89 58 
-0.0550871 1.4293 2.80429 142 107 69 
-0.0553536 1.29372 2.93433 209 180 140 
-0.0525861 1.30291 2.93471 163 121 79 
-0.0518973 1.2898 2.93891 135 105 69 
-0.0372034 1.41254 2.82178 206 168 129 
-0.0375058 1.39736 2.8387 148 103 72 
-0.0351129 1.25443 2.98811 214 170 125 
-0.0330142 1.30744 2.9258 135 96 53 
-0.0273493 1.27223 2.95784 112 82 58 
-0.026825 1.31687 2.91779 212 170 130 
-0.0229052 1.31801 2.91131 141 102 69 
-0.0220611 1.32756 2.9014 140 95 53 
-0.0159882 1.35359 2.87538 143 100 66 
-0.0151421 1.23846 2.98548 165 135 101 
-0.0145202 1.27114 2.95837 132 100 62 
-0.0145942 1.24686 2.9817 108 74 46 
-0.0134471 1.38675 2.84404 137 104 69 
-0.00865473 1.25166 2.97292 126 97 65 
-0.00622096 1.3492 2.89176 235 193 153 
0.0027186 1.37578 2.85826 129 95 60 
0.0162975 1.25128 2.97691 226 197 157 
0.0175692 1.31034 2.92441 195 156 113 
0.0291716 1.21676 3.01075 128 102 67 
0.0300467 1.26881 2.962 157 113 76 
0.0320209 1.25722 2.97599 125 91 56 
0.0340827 1.24632 2.9838 140 107 74 
0.0378082 1.23441 2.98366 132 100 59 
0.0723991 1.15542 3.05849 200 163 118 
-0.912099 -0.0373553 2.7443 248 231 223 
-0.909852 -0.0246788 2.75001 135 116 101 
-0.796294 0.0833677 2.66785 234 219 196 
-0.785645 0.112003 2.63765 224 207 189 
-0.766966 0.0555454 2.69231 177 135 110 
-0.751569 0.0588971 2.6922 179 124 93 
-0.757891 0.0338382 2.71651 182 117 89 
-0.753559 0.0431261 2.70759 99 67 54 
-0.751408 0.0176394 2.7285 180 121 87 
-0.736229 0.0612174 2.69388 184 122 81 
-0.747385 0.00528313 2.74186 189 131 93 
-0.732789 0.0500468 2.7035 185 129 92 
-0.711812 0.135133 2.63003 226 208 186 
-0.725368 0.0650426 2.68688 171 131 106 
-0.735933 0.0198688 2.73084 182 133 101 
-0.726801 0.0414391 2.71107 182 122 88 
-0.750196 -0.0644864 2.80605 179 126 94 
-0.758062 -0.106688 2.84198 164 131 100 
-0.72562 0.0317144 2.7203 191 133 96 
-0.734324 -0.00574147 2.75329 96 62 50 
-0.715273 0.0663591 2.69005 165 119 95 
-0.721947 0.0238811 2.72653 175 115 79 
-0.750902 -0.114861 2.8512 86 59 30 
-0.725983 -0.0159861 2.76548 188 137 106 
-0.739419 -0.0746852 2.81778 85 53 30 
-0.726903 -0.0251229 2.77167 87 59 38 
-0.711912 0.0358427 2.71613 78 68 67 
-0.744533 -0.117992 2.8438 178 137 115 
-0.747545 -0.125778 2.86176 229 202 181 
-0.718954 -0.0092834 2.75608 86 54 41 
-0.741447 -0.103928 2.84379 85 62 46 
-0.699566 0.0706269 2.68516 174 128 95 
-0.707731 0.0248387 2.72095 176 128 108 
-0.714799 0.00186716 2.74828 187 125 84 
-0.732497 -0.0916423 2.83314 92 49 30 
-0.702906 0.011754 2.7402 76 47 33 
-0.711032 -0.0418874 2.77443 79 67 55 
-0.687038 0.0724666 2.68367 180 128 91 
-0.691828 -0.113948 2.71528 160 129 98 
-0.713941 -0.0682213 2.81467 92 54 33 
-0.703613 -0.0258023 2.77475 189 136 102 
-0.717845 -0.0987603 2.83743 83 73 61 
-0.693308 0.00946349 2.74419 186 128 90 
-0.689538 0.0169571 2.73652 89 62 35 
-0.710995 -0.0918889 2.83535 177 131 98 
-0.663257 0.113583 2.64623 185 139 115 
-0.678211 0.0505553 2.70842 185 122 81 
-0.672104 0.0749407 2.68437 174 125 92 
-0.67428 0.0589799 2.70007 105 70 51 
-0.697145 -0.0533124 2.803 184 129 98 
-0.702397 -0.0780552 2.82542 180 130 93 
-0.686588 -0.0343627 2.76358 77 66 60 
-0.699522 -0.0706338 2.81694 84 61 47 
-0.70193 -0.0951647 2.84305 73 52 31 
-0.672019 0.0346071 2.72283 179 121 83 
-0.653841 0.119102 2.65936 220 199 180 
-0.686236 -0.0493933 2.79995 163 134 116 
-0.669285 0.0222033 2.73504 177 117 81 
-0.688715 -0.0716492 2.82063 178 129 89 
-0.661397 0.0486759 2.71041 181 124 94 
-0.643207 0.119988 2.64697 232 213 196 
-0.65925 0.0375673 2.72317 179 120 88 
-0.684015 -0.0861352 2.83249 181 132 102 
-0.650257 0.0461576 2.71498 88 70 66 
-0.669535 -0.0476913 2.79952 176 123 83 
-0.675738 -0.0751309 2.82695 77 66 62 
-0.678366 -0.0918874 2.841 78 65 48 
-0.630728 0.108526 2.65251 119 90 72 
-0.651799 0.016246 2.74202 175 129 96 
-0.51586 0.236128 2.18793 161 30 44 
-0.648972 0.0055889 2.75247 73 62 58 
-0.643195 0.0285298 2.72952 176 127 87 
-0.638667 0.0426383 2.71671 179 120 86 
-0.649443 -0.00903733 2.76538 93 62 41 
-0.654554 -0.0436525 2.79738 163 120 85 
-0.657265 -0.0590056 2.81122 141 88 44 
-0.661297 -0.0817225 2.83324 174 132 107 
-0.505962 0.225504 2.17994 199 160 155 
-0.629373 0.037355 2.7248 89 52 33 
-0.508193 0.271204 2.21643 158 58 66 
-0.630031 0.0108948 2.74675 175 113 66 
-0.64845 -0.0783138 2.83199 182 129 95 
-0.507068 0.280088 2.2257 183 128 121 
-0.498401 0.276519 2.21941 159 57 70 
-0.628356 -0.0426356 2.79807 89 55 30 
-0.634695 -0.0759367 2.83103 165 128 102 
-0.611964 -0.00607754 2.76528 166 120 94 
-0.61838 -0.0662725 2.8235 67 36 15 
-0.614482 -0.0577966 2.81379 152 106 70 
-0.609738 -0.0348501 2.79472 150 101 69 
-0.619308 -0.0865352 2.84702 52 42 40 
-0.482069 0.286072 2.22378 164 36 49 
-0.497248 0.377721 2.31956 177 150 141 
-0.612778 -0.097848 2.8604 147 110 83 
-0.604013 -0.0666395 2.82314 66 48 36 
-0.473818 0.296164 2.23646 170 146 136 
-0.460562 0.240698 2.1831 111 61 60 
-0.460085 0.229627 2.18813 155 17 17 
-0.492499 0.419049 2.36801 190 167 153 
-0.589167 -0.0992018 2.85844 194 172 151 
-0.570832 -0.0260242 2.78764 144 104 78 
-0.568415 -0.0178145 2.77968 66 53 45 
-0.447776 0.246897 2.19737 132 67 65 
-0.578212 -0.086153 2.84701 157 117 91 
-0.565746 -0.0400548 2.8028 148 104 79 
-0.439633 0.229606 2.18716 163 40 45 
-0.565404 -0.0561807 2.81994 78 46 25 
-0.428891 0.220096 2.1923 158 35 40 
-0.550722 -0.0615033 2.82163 69 55 44 
-0.534756 -0.0673801 2.82864 72 41 21 
-0.518521 -0.0264103 2.80182 199 177 154 
-0.435385 0.424969 2.36303 227 208 191 
-0.519423 -0.290038 2.8228 204 127 11 
-0.433875 0.413117 2.37061 148 128 117 
-0.512305 -0.221277 2.86493 224 159 3 
-0.412385 0.424343 2.36352 226 204 183 
-0.495251 -0.16013 2.87796 207 166 76 
-0.492058 -0.273294 2.86371 166 103 0 
-0.49132 -0.173684 2.88809 228 165 0 
-0.478935 -0.179807 2.89753 245 218 147 
-0.476205 -0.166465 2.89269 250 209 130 
-0.468666 -0.288223 2.87692 213 151 38 
-0.468191 -0.161271 2.88117 131 74 0 
-0.470318 -0.197669 2.91025 250 232 184 
-0.453568 -0.138744 2.86945 170 133 52 
-0.413528 -0.0905436 2.6326 168 119 40 
-0.432781 -0.120248 2.85326 240 211 153 
-0.422397 -0.28515 2.90285 136 64 0 
-0.519271 -1.9165 3.62132 151 107 78 
-0.390595 0.0377724 2.73421 165 147 125 
-0.492208 -1.76882 3.48053 91 56 37 
-0.410867 -0.280661 2.90862 235 170 44 
-0.401261 -0.283135 2.91276 233 156 28 
-0.471211 -1.75728 3.47518 71 39 16 
-0.393756 -0.238377 2.93244 220 138 2 
-0.388234 -0.294561 2.90391 236 171 91 
-0.385101 -0.246167 2.93175 253 190 61 
-0.383943 -0.236733 2.93647 224 127 10 
-0.376361 -0.222282 2.93606 226 132 6 
-0.436408 -1.61356 3.42028 53 34 17 
-0.446545 -1.83838 3.54603 173 127 94 
-0.348623 -0.122952 2.85139 168 110 0 
-0.355535 -0.209846 2.927 249 233 200 
-0.351244 -0.19793 2.91795 187 145 73 
-0.350929 -0.230271 2.93149 187 86 6 
-0.344551 -0.220233 2.9336 186 100 0 
-0.33951 -0.283521 2.90567 112 45 0 
-0.320445 0.0196176 2.75385 219 202 182 
-0.329934 -0.31139 2.88139 199 118 3 
-0.326214 -0.274096 2.91168 209 126 6 
-0.327397 -0.220327 2.92732 255 221 158 
-0.318124 -0.309598 2.87687 208 134 3 
-0.30267 -0.30188 2.87552 202 128 3 
-0.228984 0.180966 2.20335 39 35 36 
-0.291626 -0.218674 2.9134 221 134 0 
-0.282306 -0.199761 2.90236 157 54 0 
-0.280564 -0.183919 2.9003 251 224 181 
-0.27272 -0.251648 2.8864 187 98 6 
-0.265162 -0.201386 2.89318 247 183 73 
-0.262959 -0.255832 2.87064 201 100 8 
-0.25649 -0.301955 2.83762 220 160 14 
-0.24928 -0.233259 2.86537 253 182 76 
-0.229731 -0.240168 2.82143 190 127 13 
-0.174173 0.123093 2.26138 173 162 140 
-0.213042 -0.230317 2.77839 239 178 53 
-0.29109 -1.16215 3.88838 120 91 61 
-0.278028 -1.16975 3.87097 167 141 92 
-0.179961 -0.548373 3.82123 60 58 59 
-0.170085 -0.541782 3.82534 75 74 72 
-1.40031 0.357201 2.18508 91 25 27 
-1.3901 0.362851 2.17159 185 41 33 
-1.46066 0.0623876 2.37746 188 103 100 
-1.34297 0.390823 2.05559 187 88 91 
-1.45283 0.123845 2.37065 24 47 18 
-1.44299 0.115246 2.36569 36 45 18 
-1.37293 0.317801 2.18026 231 179 119 
-1.36524 0.308022 2.17509 155 93 42 
-1.42783 0.0934349 2.3621 79 120 86 
-1.41632 0.1118 2.36018 203 170 103 
-1.33263 0.313772 2.13182 225 70 76 
-1.33465 0.279559 2.16234 152 94 48 
-1.33134 0.258921 2.1883 102 9 40 
-1.378 0.120494 2.3546 2 20 32 
-1.32261 0.253205 2.19567 223 52 70 
-1.36311 0.0901911 2.35672 111 156 151 
-1.35657 0.162874 2.34849 9 15 27 
-1.31307 0.316716 2.22922 108 77 59 
-1.35218 0.0856998 2.35659 57 52 56 
-1.25202 0.348875 2.04468 138 128 136 
-1.33826 0.140381 2.33384 1 20 34 
-1.30787 0.303814 2.24362 94 65 49 
-1.30845 0.295176 2.25338 185 151 141 
-1.29921 0.319363 2.22901 84 53 33 
-1.32848 0.115761 2.33152 96 150 152 
-1.2488 0.323655 2.07317 131 122 127 
-1.30653 0.275821 2.27269 199 164 144 
-1.23478 0.345439 2.04238 237 232 236 
-1.29093 0.306847 2.23322 88 61 52 
-1.29572 0.292211 2.25381 196 149 129 
-1.29306 0.31016 2.24844 90 61 53 
-1.29168 0.300116 2.24783 104 73 68 
-1.29556 0.284191 2.2631 206 136 136 
-1.23298 0.329003 2.06048 150 144 146 
-1.30007 0.264655 2.28467 201 160 138 
-1.23471 0.311253 2.07962 128 121 128 
-1.2236 0.331483 2.06279 137 130 137 
-1.27585 0.303622 2.24614 240 205 186 
-1.27801 0.291116 2.25956 116 52 43 
-1.29577 0.0747017 2.32492 144 133 139 
-1.28383 0.267303 2.28389 201 165 149 
-1.28757 0.248674 2.3066 194 156 133 
-1.27866 0.273223 2.27641 102 53 49 
-1.28246 0.258084 2.29189 86 31 36 
-1.29892 0.040498 2.35156 140 133 140 
-1.28836 0.0740272 2.31747 218 212 216 
-1.28702 0.0589359 2.32603 164 158 162 
-1.27125 0.283897 2.27171 191 86 93 
-1.27255 0.250804 2.29764 73 53 44 
-1.26325 0.276316 2.27289 172 76 80 
-1.25349 0.299825 2.24854 246 198 186 
-1.27751 0.148512 2.33531 63 46 36 
-1.26449 0.257583 2.29337 238 210 189 
-1.25977 0.267593 2.27735 219 61 84 
-1.25488 0.286842 2.26561 185 109 109 
-1.27434 0.0510623 2.34052 237 230 237 
-1.27321 0.19663 2.34007 117 49 48 
-1.27094 0.206035 2.34276 84 75 70 
-1.26126 0.241517 2.30988 128 99 91 
-1.25507 0.261928 2.28827 130 80 73 
-1.2564 0.251869 2.29517 112 85 76 
-1.24928 0.281298 2.27224 254 210 199 
-1.26948 0.0354282 2.35766 179 174 178 
-1.26155 0.0441852 2.33943 188 178 186 
-1.24388 0.265249 2.28664 135 88 82 
-1.23919 0.279452 2.27169 108 85 67 
-1.25937 0.193382 2.34923 216 174 149 
-1.24654 0.238894 2.30368 240 211 193 
-1.24454 0.235176 2.31623 242 214 193 
-1.23526 0.268971 2.28243 98 78 67 
-1.23948 0.252835 2.30531 125 96 88 
-1.2304 0.276661 2.27724 108 94 94 
-1.227 0.284862 2.26844 252 207 201 
-1.23391 0.257548 2.29448 237 208 190 
-1.2555 0.0227512 2.3755 227 222 226 
-1.24692 0.192721 2.36303 134 111 93 
-1.22384 0.267418 2.28524 236 208 196 
-1.22798 0.249772 2.30353 131 98 91 
-1.23055 0.239394 2.31419 126 97 93 
-1.16314 0.308019 2.06866 229 227 232 
-1.21833 0.273177 2.27601 238 194 181 
-1.22089 0.237341 2.31487 158 127 106 
-1.21106 0.265479 2.28958 237 214 183 
-1.21382 0.245215 2.30803 122 96 97 
-1.21554 0.229381 2.32087 239 208 190 
-1.21315 0.222756 2.32898 218 186 173 
-1.20052 0.26198 2.29439 151 171 160 
-1.20452 0.245657 2.31204 147 183 179 
-1.19265 0.271196 2.28644 230 212 198 
-1.20463 0.223508 2.33375 231 200 195 
-1.19695 0.234734 2.31771 154 184 182 
-1.1866 0.260276 2.29376 119 133 133 
-1.19929 0.0653468 2.36177 81 80 85 
-1.10059 0.354944 2.02337 95 94 99 
-1.16167 0.23789 2.328 224 203 182 
-1.1819 -0.0119572 2.43343 37 34 41 
-1.16322 0.00046419 2.41126 113 113 115 
-1.16179 -0.0432699 2.46053 60 55 59 
-1.14214 -0.089077 2.45866 229 224 228 
-1.11185 0.176469 2.32384 43 43 41 
-1.07638 0.244539 2.17605 117 112 116 
-1.10556 -0.0159008 2.4964 55 49 37 
-1.10455 -0.116676 2.57679 200 168 169 
-1.09089 -0.136676 2.5523 123 103 104 
-1.07163 -0.291805 2.46586 240 231 222 
-1.07088 -0.334503 2.48024 161 156 137 
-1.08031 -0.145533 2.5351 145 50 56 
-1.07971 -0.13677 2.54284 131 118 112 
-1.06328 -0.27971 2.46338 42 45 38 
-1.08036 -0.125391 2.55619 110 106 79 
-1.0808 -0.112138 2.57109 98 97 76 
-1.0573 -0.29107 2.46194 166 159 149 
-1.04965 -0.30708 2.47363 131 123 112 
-1.05812 -0.171615 2.52652 77 13 14 
-1.06414 -0.109818 2.57624 147 9 22 
-1.0388 -0.293821 2.45636 206 205 184 
-1.04207 -0.324118 2.48121 160 150 148 
-1.02816 -0.328279 2.48246 166 157 148 
-1.02886 -0.166488 2.49082 158 67 72 
-1.02795 -0.334216 2.4922 200 190 180 
-1.01582 -0.0184737 2.55511 186 171 174 
-1.00636 0.00285409 2.57723 106 89 79 
-0.99792 -0.0331645 2.55191 43 41 42 
-0.978605 -0.0906763 2.68092 184 168 143 
-0.928258 -0.0446844 2.60218 187 168 154 
-0.896168 -0.0410187 2.60318 241 227 214 
-0.894825 -0.0287132 2.61573 137 119 99 
-0.768062 0.0194283 2.55151 82 71 65 
-0.743885 -0.00552781 2.57563 85 65 58 
-0.73469 -0.0827685 2.65104 177 123 76 
-0.724999 -0.0805313 2.65012 184 128 81 
-0.718275 -0.0943156 2.66415 174 122 82 
-0.709783 -0.0628974 2.63051 86 58 44 
-0.711127 -0.0987922 2.67038 82 71 65 
-0.707113 -0.0697865 2.63907 98 61 32 
-0.704472 -0.0921506 2.6624 181 131 98 
-0.702626 -0.0810018 2.6485 93 57 33 
-0.693499 -0.0725801 2.64144 90 62 48 
-0.693327 -0.0885017 2.65746 186 131 90 
-0.675612 -0.0616002 2.63089 82 68 65 
-0.635936 -0.107499 2.67604 210 193 167 
-0.613 -0.101218 2.6684 129 103 76 
-0.59014 -0.0990556 2.66785 195 169 154 
-0.580198 -0.0554642 2.81566 71 41 30 
-0.566324 -0.0903566 2.65981 181 154 137 
-0.559679 -0.235979 2.57326 220 154 5 
-0.535454 -0.225249 2.61376 200 118 6 
-0.519283 -0.266442 2.62281 223 191 118 
-0.53644 0.102528 2.01457 146 137 122 
-0.50009 -0.265739 2.65044 204 136 13 
-0.488208 -0.173943 2.6811 238 208 148 
-0.485777 -0.161396 2.67513 244 204 117 
-0.480473 -0.190504 2.6876 246 225 172 
-0.478183 -0.157252 2.66636 137 73 2 
-0.475553 -0.186567 2.67712 173 149 87 
-0.475045 -0.177314 2.67982 171 141 89 
-0.475739 -0.147863 2.66506 224 176 94 
-0.46477 -0.135691 2.65503 169 132 51 
-0.464752 -0.143763 2.64165 133 85 3 
-0.45865 -0.267314 2.67629 181 98 4 
-0.43726 -0.23944 2.69876 198 151 47 
-0.415197 -0.294653 2.67223 209 118 3 
-0.409654 -0.22812 2.70945 220 136 4 
-0.409348 -0.282042 2.6779 220 167 101 
-0.39836 -0.277263 2.67914 133 43 0 
-0.37498 -0.201642 2.69683 243 227 193 
-0.365691 -0.210686 2.6934 190 100 3 
-0.355417 -0.271566 2.67581 107 37 0 
-0.349519 -0.211291 2.69144 245 215 142 
-0.352005 -0.295029 2.64776 198 115 9 
-0.348378 -0.260871 2.67772 201 121 0 
-0.415668 -1.01907 1.8789 92 51 33 
-0.327954 -0.266061 2.66405 229 165 67 
-0.323234 -0.268874 2.6511 196 116 1 
-0.308251 -0.192243 2.66693 163 70 1 
-0.299778 -0.23969 2.64931 187 101 0 
-0.298921 -0.252518 2.62765 176 111 0 
-0.293884 -0.258551 2.61723 198 119 1 
-0.291629 -0.243285 2.62793 200 101 0 
-0.284944 -0.245775 2.61497 175 86 0 
-0.278222 -0.173414 2.62889 195 95 7 
-0.274235 -0.161964 2.61631 102 56 0 
-0.272637 -0.230116 2.60235 198 115 0 
-0.262859 -0.228369 2.57023 178 112 0 
-0.258396 -0.234922 2.55512 202 133 0 
