ply                 
format ascii 1.0    
element vertex 524
property float x    
property float y    
property float z    
property uchar red  
property uchar green
property uchar blue 
end_header          
-1.00271 1.46852 2.75116 98 57 29 
-1.05781 1.259 2.96135 96 60 36 
-0.982904 1.47508 2.75437 69 41 20 
-0.982904 1.47508 2.75437 69 41 20 
-0.994668 1.42241 2.79661 92 58 33 
-0.964285 1.48587 2.74941 136 102 75 
-1.01472 1.32686 2.90161 128 96 71 
-0.965233 1.44006 2.78646 47 20 0 
-0.974561 1.40356 2.81897 147 115 94 
-1.00398 1.29258 2.93164 96 64 39 
-1.01645 1.25622 2.96989 94 56 33 
-0.927942 1.47618 2.7366 97 57 22 
-0.92936 1.47188 2.74333 147 105 80 
-0.984017 1.29589 2.91922 90 60 34 
-0.961954 1.35605 2.86435 48 24 12 
-0.955904 1.37139 2.85034 148 109 76 
-1.01586 1.16871 3.04592 172 133 94 
-0.948393 1.37973 2.84632 86 51 23 
-0.945095 1.36459 2.86255 151 110 80 
-0.945095 1.36459 2.86255 151 110 80 
-0.91882 1.40805 2.80995 147 112 84 
-0.927358 1.35126 2.85457 141 100 68 
-0.934382 1.32157 2.89996 77 45 20 
-0.87785 1.49286 2.73466 137 105 80 
-0.927351 1.30965 2.89952 155 116 85 
-0.925948 1.26931 2.9503 87 46 24 
-0.902802 1.3277 2.8876 140 102 79 
-0.870325 1.40743 2.80318 66 34 13 
-0.870325 1.40743 2.80318 66 34 13 
-0.895687 1.32119 2.89789 82 50 29 
-0.905029 1.24135 2.97841 95 64 43 
-0.92142 1.18528 3.03625 180 140 104 
-0.920238 1.16717 3.04442 157 125 100 
-0.906629 1.1895 3.02778 105 71 46 
-0.888124 1.22787 2.98542 72 50 37 
-0.888124 1.22787 2.98542 72 50 37 
-0.861178 1.30289 2.9172 79 51 29 
-0.792761 1.53931 2.69162 162 121 91 
-0.860074 1.24248 2.96549 181 140 108 
-0.83314 1.34301 2.88366 89 52 26 
-0.875785 1.17648 3.0475 104 68 42 
-0.782988 1.44201 2.77648 103 75 54 
-0.738156 0.0412312 2.62875 99 67 54 
-0.738156 0.0412312 2.62875 99 67 54 
-0.830567 1.24837 2.96588 123 88 60 
-0.795247 1.35719 2.85657 160 129 98 
-0.733783 0.0297424 2.63805 92 61 40 
-0.826525 1.23146 2.98488 103 73 49 
-0.745431 1.48856 2.72966 156 117 86 
-0.759071 1.43611 2.7814 175 131 92 
-0.788373 1.32402 2.88994 161 132 100 
-0.752881 1.45131 2.76237 111 77 52 
-0.710837 0.0627674 2.60866 171 131 106 
-0.769054 1.39536 2.82788 124 89 61 
-0.779173 1.35012 2.87047 173 138 98 
-0.720838 0.018538 2.65081 182 133 101 
-0.720838 0.018538 2.65081 182 133 101 
-0.817885 1.18118 3.022 122 92 64 
-0.760934 1.41406 2.81326 169 140 110 
-0.744153 1.44886 2.75383 168 133 111 
-0.711723 0.0399442 2.63034 182 122 88 
-0.766416 1.38282 2.84353 159 116 84 
-0.706916 0.0524193 2.61828 81 67 64 
-0.719631 1.56149 2.67561 88 57 39 
-0.710503 0.0302162 2.63922 191 133 96 
-0.779568 1.31207 2.90994 183 152 123 
-0.705794 0.0365076 2.6319 83 51 30 
-0.70492 0.0418354 2.62906 174 133 111 
-0.71353 1.57062 2.66627 145 110 88 
-0.751994 1.39772 2.82868 103 75 38 
-0.717739 -0.031776 2.69729 174 117 87 
-0.70991 1.56126 2.6714 141 107 82 
-0.691265 0.0642949 2.60803 84 58 43 
-0.711545 -0.0161996 2.68602 188 137 106 
-0.750478 1.39295 2.8388 202 160 118 
-0.704082 0.0108666 2.6589 184 119 81 
-0.724676 -0.0741242 2.73781 85 53 30 
-0.724676 -0.0741242 2.73781 85 53 30 
-0.697216 0.0340165 2.63534 78 68 67 
-0.732966 -0.116883 2.77589 178 137 115 
-0.726745 -0.102877 2.76374 85 62 46 
-0.694361 0.0235975 2.64453 176 128 108 
-0.699997 0.000859876 2.66675 187 125 84 
-0.779523 1.21684 2.99843 108 77 56 
-0.721924 1.43609 2.78435 166 132 105 
-0.662981 0.121837 2.55406 226 208 184 
-0.751448 1.29095 2.92984 206 163 121 
-0.733814 1.35884 2.86186 167 132 102 
-0.701422 1.48683 2.74128 180 146 108 
-0.689331 -0.0260144 2.69338 189 136 102 
-0.73698 1.31847 2.89381 171 137 109 
-0.678671 1.56452 2.6656 117 76 54 
-0.725929 1.35992 2.85578 108 76 53 
-0.675294 0.0156554 2.65453 89 62 35 
-0.708087 1.43235 2.789 194 160 123 
-0.676163 1.56756 2.6624 174 133 105 
-0.747145 1.27006 2.95023 119 85 47 
-0.685025 1.52097 2.70597 101 66 44 
-0.650081 0.110315 2.56709 185 139 115 
-0.663552 0.0481047 2.62423 185 122 81 
-0.754257 1.2155 2.99467 106 69 43 
-0.740419 1.28935 2.94192 190 147 102 
-0.668574 0.0194043 2.65048 181 132 102 
-0.67975 1.5282 2.70133 169 131 94 
-0.683236 1.51146 2.7212 83 48 18 
-0.675693 1.53499 2.69545 108 68 42 
-0.73596 1.27505 2.94275 193 149 112 
-0.652643 0.059129 2.61365 182 134 98 
-0.768496 1.12316 3.09092 155 124 96 
-0.675813 -0.0549404 2.72026 85 53 28 
-0.678108 1.49213 2.74102 184 149 119 
-0.677866 1.48349 2.74088 116 85 54 
-0.652155 0.0390305 2.63331 95 59 43 
-0.672439 -0.0492545 2.71814 163 134 116 
-0.672439 -0.0492545 2.71814 163 134 116 
-0.654835 0.0208174 2.64983 177 117 81 
-0.690232 1.42727 2.80315 176 143 110 
-0.674672 -0.0707589 2.7376 178 129 89 
-0.674672 -0.0707589 2.7376 178 129 89 
-0.639203 0.0752549 2.59644 168 113 82 
-0.6812 1.4553 2.77451 191 155 123 
-0.681521 1.449 2.79433 181 143 106 
-0.681521 1.449 2.79433 181 143 106 
-0.668547 -0.0689099 2.73729 157 128 114 
-0.668547 -0.0689099 2.73729 157 128 114 
-0.670393 -0.0851112 2.75045 181 132 102 
-0.698916 1.342 2.87479 185 151 123 
-0.719393 1.2437 2.97335 109 72 45 
-0.635961 0.044207 2.62844 88 70 66 
-0.635961 0.044207 2.62844 88 70 66 
-0.673243 1.44177 2.79388 198 159 118 
-0.6643 -0.0907214 2.75631 78 65 48 
-0.695118 1.32046 2.89405 192 157 125 
-0.702924 1.287 2.93388 125 91 66 
-0.637892 0.0149103 2.65677 175 129 96 
-0.66475 1.45373 2.7802 200 163 119 
-0.639689 1.55607 2.67482 179 135 96 
-0.647833 1.50263 2.72332 171 136 104 
-0.635288 0.00472275 2.66747 73 62 58 
-0.679982 1.36446 2.86332 97 66 45 
-0.638507 1.53332 2.69144 160 130 96 
-0.685813 1.32822 2.8947 195 161 133 
-0.624677 0.0406022 2.63002 179 120 86 
-0.635776 -0.00987807 2.68043 93 62 41 
-0.65379 -0.0914269 2.76267 76 67 58 
-0.630556 -0.00432621 2.67448 165 126 95 
-0.647783 -0.0809534 2.74912 174 132 107 
-0.693978 1.26459 2.95316 182 148 120 
-0.69653 1.2482 2.96633 110 78 57 
-0.705034 1.20251 3.01944 90 60 36 
-0.697518 1.221 2.98932 113 71 47 
-0.61597 0.0398658 2.63215 172 129 110 
-0.638955 1.48398 2.74432 198 165 130 
-0.633209 1.49743 2.73106 194 157 115 
-0.63512 -0.0776931 2.74715 182 129 95 
-0.621854 1.5332 2.69988 178 146 108 
-0.702032 1.16295 3.0521 108 78 50 
-0.614077 0.00158972 2.66566 146 88 50 
-0.646446 1.40521 2.82249 129 94 64 
-0.683774 1.21782 2.98995 173 132 88 
-0.620584 1.50647 2.72866 112 79 46 
-0.604329 1.5742 2.66921 122 86 54 
-0.644624 1.37223 2.8541 162 122 87 
-0.661195 1.28142 2.93038 135 100 68 
-0.687562 1.16108 3.05048 99 62 35 
-0.694069 1.13377 3.08374 149 116 85 
-0.621266 -0.0949247 2.76349 162 130 109 
-0.641281 1.36542 2.8624 89 57 36 
-0.620081 1.45971 2.76714 190 147 113 
-0.619086 1.46747 2.76484 96 61 39 
-0.599124 -0.00679399 2.67894 166 120 94 
-0.609393 1.49514 2.74288 177 142 114 
-0.640161 1.32985 2.89397 179 141 105 
-0.591059 1.55877 2.67149 137 93 58 
-0.599195 1.52476 2.71164 90 56 31 
-0.605748 1.48588 2.74613 192 159 126 
-0.596444 -0.0344127 2.70504 150 101 69 
-0.594286 -0.0591514 2.73036 75 40 20 
-0.61577 1.3963 2.83452 60 42 18 
-0.61577 1.3963 2.83452 60 42 18 
-0.590157 1.45916 2.77008 151 109 69 
-0.590157 1.45916 2.77008 151 109 69 
-0.59489 1.41915 2.81316 201 157 118 
-0.600825 1.38534 2.84215 97 71 48 
-0.591823 1.42966 2.80496 114 82 57 
-0.626257 1.22894 2.98371 179 145 108 
-0.555823 1.58729 2.64946 139 109 75 
-0.591371 1.399 2.83611 111 79 54 
-0.556053 1.5592 2.67398 182 143 100 
-0.58355 -0.0572765 2.80548 80 45 26 
-0.621538 1.21808 2.99675 108 77 46 
-0.621538 1.21808 2.99675 108 77 46 
-0.582634 1.42878 2.80659 119 85 50 
-0.548275 1.5822 2.65517 114 85 53 
-0.556363 -0.0183255 2.69055 66 53 45 
-0.576497 1.43164 2.79705 187 144 112 
-0.562932 -0.0670019 2.73471 66 55 49 
-0.555427 -0.0329746 2.70423 154 107 77 
-0.555427 -0.0329746 2.70423 154 107 77 
-0.601262 1.2715 2.93644 161 131 107 
-0.598592 1.29282 2.92558 194 151 117 
-0.555103 -0.0474109 2.71854 70 51 36 
-0.609942 1.21781 3.00784 104 71 38 
-0.566354 1.43643 2.79529 148 103 70 
-0.58572 1.3351 2.89513 124 92 67 
-0.605768 1.19785 3.01514 177 148 108 
-0.614863 1.15607 3.06443 185 150 112 
-0.54602 -0.0440674 2.71507 71 53 41 
-0.544192 1.51921 2.71598 106 68 45 
-0.530691 1.5875 2.6533 189 155 120 
-0.539729 1.52575 2.70835 104 62 40 
-0.597288 1.18428 3.02976 169 135 107 
-0.539196 -0.0609212 2.73161 69 55 44 
-0.554762 1.3839 2.85194 113 77 53 
-0.59756 1.14689 3.07501 80 52 30 
-0.528588 1.51622 2.71799 204 164 129 
-0.516999 1.58085 2.65871 227 182 140 
-0.530612 -0.0631965 2.73405 194 177 169 
-0.534609 1.47024 2.76448 134 93 61 
-0.525815 -0.281701 2.715 139 85 0 
-0.548946 1.35862 2.87494 123 91 68 
-0.548696 1.34522 2.87593 201 166 134 
-0.538129 1.38755 2.83504 184 144 108 
-0.510814 1.53454 2.69175 84 50 25 
-0.553658 1.30363 2.92192 111 74 47 
-0.50784 1.55771 2.67828 190 148 108 
-0.565641 1.21612 3.00082 175 140 112 
-0.512662 1.51856 2.71638 175 136 105 
-0.571182 1.17251 3.03995 181 143 104 
-0.564825 1.19173 3.02193 167 136 108 
-0.508767 1.51229 2.71953 115 80 50 
-0.556532 1.22814 2.98274 83 59 35 
-0.517748 1.45473 2.77918 187 153 125 
-0.572593 1.1351 3.08448 88 57 37 
-0.531121 1.3495 2.87679 194 160 123 
-0.504819 1.49976 2.73634 106 72 47 
-0.502573 1.50806 2.72859 169 135 98 
-0.504526 1.48795 2.75028 96 65 44 
-0.512868 1.42738 2.79926 194 154 118 
-0.49369 1.53334 2.69881 187 146 116 
-0.530872 1.31399 2.91185 133 102 73 
-0.530872 1.31399 2.91185 133 102 73 
-0.521071 1.36081 2.86703 112 82 48 
-0.546832 1.21061 3.01058 177 141 109 
-0.521642 1.34557 2.87688 127 93 66 
-0.521642 1.34557 2.87688 127 93 66 
-0.523021 1.33954 2.8881 195 161 124 
-0.523021 1.33954 2.8881 195 161 124 
-0.519864 1.35403 2.87383 196 161 131 
-0.518322 1.33261 2.8958 129 93 61 
-0.475728 1.56825 2.66718 105 71 34 
-0.502081 1.40586 2.82641 132 100 75 
-0.54678 1.13552 3.08218 150 124 97 
-0.474408 1.55384 2.67795 218 174 125 
-0.47717 1.53323 2.69885 179 144 106 
-0.484185 1.48437 2.74692 179 145 117 
-0.483654 -0.301799 2.73798 253 218 160 
-0.493038 1.41593 2.81821 107 75 52 
-0.478424 1.48496 2.74408 113 82 54 
-0.522534 1.21053 3.00883 171 138 107 
-0.523478 1.18234 3.03504 104 72 47 
-0.471185 1.50149 2.73149 122 91 62 
-0.496706 1.34835 2.89123 143 113 85 
-0.480489 -0.170257 2.79029 228 165 0 
-0.480489 -0.170257 2.79029 228 165 0 
-0.514594 1.1952 3.02259 159 126 95 
-0.48539 1.3712 2.86436 180 144 118 
-0.452029 1.55689 2.67599 200 167 132 
-0.51509 1.1677 3.05499 173 139 104 
-0.469912 1.43797 2.78891 115 78 51 
-0.445623 1.57637 2.65743 207 163 116 
-0.450583 1.52274 2.7083 110 75 45 
-0.442349 1.56488 2.6685 210 168 130 
-0.50868 1.12144 3.08995 81 56 36 
-0.45565 1.4381 2.78823 129 88 58 
-0.479277 1.24536 2.97938 109 77 54 
-0.425512 1.56346 2.66659 190 141 101 
-0.479343 1.15536 3.05688 158 130 106 
-0.479343 1.15536 3.05688 158 130 106 
-0.417259 1.56694 2.66023 170 131 92 
-0.476439 1.16518 3.05059 100 72 48 
-0.452477 1.31039 2.90546 110 76 49 
-0.461368 1.23346 2.98221 181 138 103 
-0.416813 1.521 2.71494 196 154 112 
-0.401353 1.55927 2.66762 207 158 92 
-0.463631 1.11697 3.09227 93 63 37 
-0.449043 1.20857 3.01052 163 131 106 
-0.439465 1.27274 2.94505 116 85 56 
-0.393573 1.57231 2.65273 113 79 51 
-0.42503 1.32827 2.89163 182 141 109 
-0.443709 1.19204 3.02702 171 137 102 
-0.443363 1.18317 3.02939 166 128 91 
-0.396406 1.51781 2.71344 152 120 95 
-0.407081 1.43702 2.79282 181 146 104 
-0.434543 1.22927 2.98968 169 136 105 
-0.430787 1.2349 2.98353 113 77 55 
-0.430787 1.2349 2.98353 113 77 55 
-0.430787 1.2349 2.98353 113 77 55 
-0.384861 1.56282 2.66612 223 175 135 
-0.383476 1.57083 2.65782 120 93 66 
-0.434799 1.18235 3.04188 175 141 103 
-0.388857 1.51102 2.72339 244 216 177 
-0.38519 1.52857 2.70503 225 187 142 
-0.425743 1.22092 2.99452 95 65 39 
-0.411493 1.32518 2.90001 109 75 40 
-0.430939 1.17291 3.0506 96 65 44 
-0.412239 1.28678 2.9277 97 66 45 
-0.37768 1.53349 2.69799 123 93 57 
-0.39803 1.34041 2.87816 192 147 106 
-0.389285 1.40498 2.8209 120 83 54 
-0.378102 1.46893 2.7529 123 89 52 
-0.378045 1.44824 2.77432 180 144 110 
-0.378045 1.44824 2.77432 180 144 110 
-0.385945 1.3507 2.87023 194 155 124 
-0.370402 1.46359 2.75817 200 160 134 
-0.380595 1.37373 2.84011 128 86 62 
-0.35921 1.53772 2.68582 218 179 140 
-0.392312 1.25316 2.95998 100 69 41 
-0.35384 1.53418 2.69249 142 104 68 
-0.347811 1.54294 2.68402 236 197 154 
-0.352003 1.4948 2.72519 167 126 94 
-0.337767 1.5787 2.64412 206 160 110 
-0.338936 1.56733 2.65477 182 135 93 
-0.389786 1.13573 3.06997 136 108 86 
-0.364854 1.31617 2.89638 110 75 45 
-0.34813 1.43212 2.78591 176 147 117 
-0.34204 1.48607 2.738 124 85 54 
-0.353413 1.37349 2.83651 208 175 140 
-0.38413 1.10526 3.1036 159 123 91 
-0.376413 1.12649 3.08331 152 119 88 
-0.327956 1.52891 2.68371 226 186 150 
-0.34425 -0.19377 2.81436 187 145 73 
-0.34425 -0.19377 2.81436 187 145 73 
-0.331021 1.5064 2.71488 154 120 92 
-0.336266 1.45536 2.7654 138 94 57 
-0.345342 1.36846 2.84682 172 140 102 
-0.363675 1.19335 3.02316 148 109 76 
-0.363675 1.19335 3.02316 148 109 76 
-0.345992 1.32845 2.88041 180 146 118 
-0.357816 1.21656 2.99079 109 77 54 
-0.338478 1.37463 2.84177 110 74 52 
-0.353726 1.24202 2.9744 169 139 111 
-0.334533 1.3977 2.81815 135 97 74 
-0.317384 1.53445 2.67596 214 178 142 
-0.349164 1.23404 2.98167 110 75 53 
-0.331062 1.39218 2.82947 190 157 122 
-0.349426 1.21517 2.99598 109 79 53 
-0.351186 1.18925 3.02319 165 129 97 
-0.351186 1.18925 3.02319 165 129 97 
-0.343466 1.24756 2.95917 166 134 111 
-0.319113 1.36988 2.83236 128 97 66 
-0.34459 1.1406 3.06664 154 127 98 
-0.337341 1.18887 3.01931 103 73 47 
-0.331623 1.2229 2.97699 178 144 117 
-0.314002 1.35274 2.85949 171 129 87 
-0.297018 1.5183 2.70704 100 74 47 
-0.308463 1.39301 2.82903 123 84 55 
-0.293684 1.5091 2.70955 213 176 132 
-0.307452 1.35803 2.85522 215 176 137 
-0.318956 1.23822 2.97314 93 63 37 
-0.295396 1.47473 2.75121 237 197 145 
-0.309048 1.32355 2.88415 161 128 97 
-0.332149 1.10449 3.10269 156 122 95 
-0.285128 1.57271 2.6599 122 84 45 
-0.31697 1.2288 2.97493 167 136 108 
-0.332367 1.06835 3.12357 51 23 2 
-0.295031 1.42672 2.7883 127 92 62 
-0.329049 1.07517 3.11624 124 94 70 
-0.294287 1.42478 2.80151 191 151 116 
-0.300542 1.33192 2.87649 96 70 55 
-0.284798 1.4833 2.74309 206 167 126 
-0.28629 1.44649 2.77298 119 90 60 
-0.294973 1.33512 2.86919 87 63 37 
-0.294973 1.33512 2.86919 87 63 37 
-0.229277 0.320864 2.23704 186 101 96 
-0.298358 1.2529 2.95706 168 132 98 
-0.288505 1.34586 2.86522 122 92 66 
-0.270608 1.49808 2.72282 130 93 66 
-0.27528 -0.179035 2.78914 251 224 181 
-0.270926 1.45967 2.76704 141 101 66 
-0.284997 1.2681 2.93361 120 86 61 
-0.284997 1.2681 2.93361 120 86 61 
-0.269761 1.44961 2.78019 126 91 63 
-0.266663 1.43377 2.79339 122 87 59 
-0.282603 1.24979 2.96368 175 141 113 
-0.264135 1.4715 2.76809 222 179 136 
-0.264135 1.4715 2.76809 222 179 136 
-0.275441 1.30883 2.89187 170 135 105 
-0.247797 1.57034 2.65688 126 93 50 
-0.260375 -0.196441 2.78178 247 183 73 
-0.259869 1.36207 2.84727 194 150 115 
-0.254241 1.44146 2.7853 173 142 111 
-0.27069 1.22213 2.97867 165 126 93 
-0.250479 1.44726 2.77621 199 165 127 
-0.267461 1.22704 2.97366 118 82 48 
-0.267461 1.22704 2.97366 118 82 48 
-0.247046 1.47195 2.75826 240 203 148 
-0.250285 1.38617 2.8512 132 101 73 
-0.250285 1.38617 2.8512 132 101 73 
-0.240508 1.48324 2.74683 224 185 130 
-0.251089 1.32947 2.87964 172 141 113 
-0.245532 1.41625 2.81539 213 175 139 
-0.238332 1.4336 2.7922 119 78 46 
-0.245256 1.33671 2.87705 109 75 50 
-0.235023 1.45609 2.77079 125 92 61 
-0.23171 1.45291 2.77343 115 79 53 
-0.231531 1.37288 2.84849 230 188 140 
-0.229835 1.37734 2.83914 132 88 61 
-0.225349 1.44268 2.7822 138 92 66 
-0.221482 1.48104 2.74854 153 119 82 
-0.247273 1.1154 3.07602 149 115 88 
-0.224157 1.41472 2.80627 207 169 133 
-0.216764 1.51343 2.71839 116 79 50 
-0.225074 1.38931 2.82896 127 84 49 
-0.225074 1.38931 2.82896 127 84 49 
-0.223574 1.39978 2.81358 224 184 148 
-0.215877 1.46087 2.76473 126 90 58 
-0.214218 1.47821 2.74956 205 173 132 
-0.225067 1.31521 2.89773 123 87 61 
-0.21848 1.39375 2.81798 156 113 79 
-0.2235 1.32705 2.89596 175 136 105 
-0.219988 1.33858 2.87245 110 76 49 
-0.215129 1.35936 2.85382 225 181 136 
-0.208962 1.44161 2.78748 210 162 124 
-0.210634 1.40183 2.81372 152 114 78 
-0.207401 1.44617 2.77697 142 106 72 
-0.202883 1.51464 2.72233 124 91 56 
-0.216543 1.29965 2.90815 164 133 104 
-0.222009 1.22034 2.98494 168 134 107 
-0.211196 1.36697 2.84956 149 105 76 
-0.211688 1.34046 2.86862 117 82 54 
-0.222533 1.18103 3.01752 172 139 104 
-0.208403 1.3548 2.8572 141 101 66 
-0.20857 1.31841 2.90276 171 135 101 
-0.207513 1.3238 2.89284 113 78 46 
-0.201132 1.38725 2.82838 233 199 162 
-0.215693 1.15628 3.03989 141 114 87 
-0.195416 1.47269 2.75834 151 120 89 
-0.191092 1.52583 2.71518 244 212 165 
-0.1987 1.35795 2.85466 140 101 68 
-0.196632 1.39611 2.82542 240 207 174 
-0.201491 1.2829 2.92408 171 133 97 
-0.190687 1.37697 2.83839 216 178 139 
-0.182154 1.5146 2.72146 200 164 128 
-0.191926 1.27539 2.93437 184 149 111 
-0.183553 1.37514 2.84098 142 97 58 
-0.17473 1.48709 2.74793 222 185 133 
-0.191189 1.18331 3.02216 104 76 54 
-0.191105 1.17581 3.03071 151 124 95 
-0.174456 1.42563 2.79632 208 168 132 
-0.172902 1.41525 2.81084 128 88 53 
-0.173536 1.36813 2.85013 172 121 76 
-0.16782 1.46741 2.76768 221 187 152 
-0.171058 1.39603 2.82651 118 82 46 
-0.181987 1.18968 3.01221 182 142 116 
-0.173463 1.31143 2.90797 236 198 153 
-0.161209 1.46487 2.7681 126 91 63 
-0.165524 1.37191 2.84809 232 181 136 
-0.177308 1.07013 3.12193 137 104 73 
-0.166347 1.2758 2.93221 193 162 131 
-0.16912 1.21828 2.9963 107 77 53 
-0.15773 1.31713 2.89788 122 81 51 
-0.151056 1.43396 2.80334 225 187 150 
-0.155562 1.28033 2.93188 205 166 135 
-0.154551 1.27144 2.93858 222 186 154 
-0.127173 -1.27039 2.39161 162 120 98 
-0.127173 -1.27039 2.39161 162 120 98 
-0.150929 1.2958 2.91959 111 82 50 
-0.153423 1.21299 2.99329 157 126 105 
-0.149424 1.24755 2.96426 192 149 104 
-0.146351 1.28716 2.92897 229 186 144 
-0.144054 1.32049 2.8959 101 80 59 
-0.136815 1.46537 2.77403 138 102 70 
-0.140936 1.29438 2.92596 202 160 122 
-0.134474 1.40394 2.81883 200 156 117 
-0.134151 1.39548 2.83517 216 174 124 
-0.129285 1.43733 2.79226 195 163 125 
-0.13331 1.27433 2.93666 201 159 119 
-0.126896 1.36256 2.85817 106 64 26 
-0.116279 1.33495 2.88796 125 80 49 
-0.1145 1.25298 2.96839 131 94 50 
-0.106324 1.286 2.93483 240 208 170 
-0.101889 1.36045 2.86565 222 187 149 
-0.100612 1.33594 2.88603 132 93 54 
-0.0997366 1.28633 2.93062 112 83 53 
-0.0944328 1.39101 2.8396 231 187 140 
-0.0936516 1.20695 3.00835 140 107 76 
-0.086998 1.39878 2.82748 158 101 58 
-0.0805953 1.33825 2.8916 213 166 114 
-0.0777334 1.28694 2.93585 127 96 67 
-0.0749457 1.34822 2.87858 151 109 71 
-0.0755073 1.28016 2.93981 218 186 147 
-0.0720482 1.37235 2.85663 203 164 125 
-0.0655192 1.26735 2.94696 119 88 57 
-0.0626117 1.28566 2.93827 114 89 58 
-0.0626117 1.28566 2.93827 114 89 58 
-0.0577631 1.42865 2.80195 142 107 69 
-0.0578008 1.29296 2.93216 209 180 140 
-0.0550148 1.30219 2.93262 163 121 79 
-0.0543312 1.28905 2.93676 135 105 69 
-0.0398279 1.4119 2.8195 206 168 129 
-0.0400945 1.39673 2.83647 148 103 72 
-0.0374135 1.25369 2.9862 214 170 125 
-0.0354428 1.30673 2.9237 135 96 53 
-0.0297166 1.27148 2.95578 112 82 58 
-0.029259 1.31617 2.91569 212 170 130 
-0.0253548 1.3173 2.90917 141 102 69 
-0.0245298 1.32686 2.89922 140 95 53 
-0.0184965 1.35292 2.87319 143 100 66 
-0.0174516 1.23766 2.98345 165 135 101 
-0.0168705 1.27039 2.95633 132 100 62 
-0.0169033 1.24609 2.97969 108 74 46 
-0.0160083 1.38612 2.84181 137 104 69 
-0.0109783 1.25088 2.97088 126 97 65 
-0.00866605 1.34857 2.88971 235 193 153 
0.000209846 1.37517 2.85611 129 95 60 
0.0140219 1.25054 2.97495 226 197 157 
0.0152055 1.30968 2.92241 195 156 113 
0.0269777 1.21598 3.00888 128 102 67 
0.0277654 1.26811 2.96006 157 113 76 
0.0297746 1.25651 2.97411 125 91 56 
0.0318491 1.24559 2.98191 140 107 74 
0.0355601 1.23364 2.98169 132 100 59 
0.0703434 1.15457 3.05671 200 163 118 
