# .PCD v0.7 - Point Cloud Data file format
VERSION 0.7
FIELDS x y z rgb
SIZE 4 4 4 4
TYPE F F F U
COUNT 1 1 1 1
WIDTH 1247
HEIGHT 1
VIEWPOINT 0 0 0 1 0 0 0
POINTS 1247
DATA ascii
-1.0314 0.093329698 8.67593 12891294
-0.34885299 0.109844 8.6282301 13153175
-0.33307499 0.100934 8.7598801 13218711
-0.32006001 0.101489 8.7691202 12824211
-0.29761001 0.091768101 8.8710604 12231819
-0.27964899 0.094142199 8.8460503 11180160
-0.25483999 0.099027999 8.8140001 9866368
-0.252601 0.099662997 8.8030996 9932163
-0.192977 0.106285 8.7282104 9868428
-0.18312401 0.098917298 8.7490196 9802637
-0.094076797 0.101998 8.7854004 2433594
-0.0148514 0.103567 8.8212795 2299936
-0.021674899 0.106381 8.8298397 2234402
-0.0041475799 0.10499 8.8305197 2758691
0.0170222 0.101513 8.7976704 5510963
0.028064201 0.101752 8.7941599 6821947
0.038994901 0.099981897 8.8076496 7411775
0.086843997 0.104331 8.78619 7872838
0.101046 0.111102 8.8034697 7676488
0.117687 0.103669 8.8020496 7413831
0.129674 0.106207 8.8075399 7546186
0.152869 0.114431 8.6721296 7284297
0.17647301 0.110583 8.7501898 7739714
0.17629001 0.110264 8.7366199 7411521
0.232859 0.104037 8.8353901 7607354
0.29488599 0.110364 8.8142204 4987693
0.319078 0.108149 8.8109398 2496807
0.331875 0.111525 8.8172798 4078145
0.346903 0.113903 8.7869196 9473673
0.341636 0.111029 8.8157797 8486782
0.376735 0.112667 8.8141003 8553346
0.387712 0.117954 8.80019 5462372
0.40224701 0.121086 8.75387 2370370
0.41088301 0.116115 8.7768402 2304834
0.461337 0.118206 8.8239002 2693936
0.49831501 0.114692 8.8500404 3545907
0.510261 0.114664 8.8538103 3545906
0.52247798 0.114786 8.8577099 3677235
0.53646398 0.108172 8.8559303 3021614
0.55208802 0.114373 8.8930302 3742770
0.55109501 0.109952 8.9020395 3611183
0.56579202 0.114412 8.8943396 3676977
0.56313199 0.109138 8.9001904 3152430
0.57498997 0.108474 8.8933001 2824747
0.58709198 0.108179 8.8917398 2825003
0.61611402 0.108799 8.8756199 2497064
0.62908399 0.109903 8.8769503 2693673
0.65085101 0.12014 8.8508701 3086375
0.66395599 0.11929 8.8336496 2758693
0.701859 0.129691 8.7531796 2825000
0.91777903 0.112703 8.9388103 10325627
0.92905498 0.116674 8.9503002 10522491
0.94652897 0.121043 8.9412298 10917504
1.27931 0.121185 9.0396605 11442817
1.4644099 0.124556 8.9946299 10259311
1.46442 0.124557 8.9946699 10259311
1.51925 0.117912 9.0836 10390644
-2.25739 0.152018 7.5667901 15330799
-2.08623 0.15234099 7.6157198 8883607
-1.8580199 0.081034899 8.6712704 9736848
-1.85114 0.078586303 8.6434803 9473677
-1.10391 0.089303799 8.8053102 11905435
-1.08856 0.089223601 8.7898598 12168091
-1.05322 0.0936528 8.7051802 12693917
-0.329923 0.107643 8.7601404 12956054
-0.313021 0.109838 8.7752504 12363920
-0.29014301 0.101965 8.8580503 11837576
-0.27162901 0.104472 8.8327198 10325112
-0.249764 0.106829 8.7878599 10064262
-0.13358299 0.108832 8.7819204 2566211
-0.100869 0.117273 8.7798796 2367805
-0.087333098 0.111624 8.8027096 2367542
-0.061769899 0.109932 8.80721 1906722
-0.029002 0.112382 8.8237495 2037536
-0.0067122499 0.115002 8.8098602 2758179
-0.0110307 0.111608 8.8112898 2430754
0.0048711002 0.110529 8.8174696 3741224
0.025217799 0.114093 8.8079596 6821690
0.0374256 0.115599 8.8130102 7608639
0.0481699 0.120261 8.8052998 7871042
0.089201599 0.111775 8.8224001 8201288
0.117812 0.115152 8.8086996 7546443
0.128241 0.121344 8.78374 7613005
0.156344 0.12645601 8.6930904 7284553
0.166703 0.122609 8.71103 7545670
0.166703 0.122609 8.71103 7545670
0.177797 0.12524 8.7684298 7609156
0.166703 0.122609 8.71103 7545670
0.188688 0.116182 8.7825899 7739714
0.188605 0.12076 8.7668505 7674178
0.238241 0.114795 8.8333197 7541817
0.243084 0.123481 8.8161602 7476793
0.26614299 0.113569 8.8316803 6230316
0.291132 0.119511 8.8067904 5052459
0.33466199 0.1227 8.7963495 5722453
0.41643301 0.126904 8.7603798 2303550
0.425511 0.12550899 8.7684002 2368571
0.488139 0.125736 8.8541803 4398136
0.56437898 0.119932 8.89785 4267061
0.57646197 0.123641 8.8887596 4398133
0.58070201 0.118563 8.8843699 3742512
0.61149597 0.12014 8.8722496 3741997
0.64094001 0.123118 8.8639002 3545129
0.65807998 0.127611 8.8516703 3282728
0.67384601 0.123017 8.84412 2890022
0.66348499 0.12783401 8.8488302 3151655
0.69075799 0.132917 8.7589502 2758950
0.75109202 0.119745 8.9952698 2365730
0.83638197 0.126149 8.9597101 5449524
0.92012399 0.12521601 8.96593 10390907
0.93568999 0.12716199 8.9311399 10654077
0.93568999 0.12716199 8.9311399 10654077
0.93568999 0.12716199 8.9311399 10654077
1.1370699 0.142656 8.7986603 11377281
1.14912 0.14753599 8.7845001 11705731
1.27148 0.129721 9.0511398 11574660
1.47729 0.133985 9.01056 9404518
-2.2530301 0.157065 7.6199999 8357517
-2.2586601 0.15881 7.6494899 7765124
-2.2516401 0.16114201 7.6418099 6910075
-2.09654 0.165042 7.62287 7633542
-1.85157 0.094132401 8.6561098 9933965
-1.15531 0.109917 8.6879501 11970456
-1.15899 0.107271 8.7003803 11970456
-1.1044199 0.095113002 8.8139601 11970970
-1.09148 0.094343998 8.8080196 12168345
-1.08462 0.101006 8.78407 12234142
-1.06343 0.105311 8.7208595 12496540
-0.34031901 0.119306 8.75037 13153176
-0.300497 0.109925 8.8704596 12363660
-0.28189799 0.1126 8.8464403 11442818
-0.25152501 0.119027 8.7896795 10458763
-0.194804 0.123862 8.7297897 9934219
-0.135502 0.121536 8.7829199 2434370
-0.087807298 0.122268 8.8120003 2498870
-0.087335102 0.122553 8.8148098 2301750
-0.069499403 0.119408 8.8082199 1906980
-0.017977299 0.126825 8.8217897 2496289
0.0062114801 0.122342 8.8218699 4199977
0.022061801 0.129712 8.7961798 6821944
0.0122035 0.12613299 8.8059998 5314095
0.032585401 0.12907299 8.8214502 7805246
0.032599401 0.12916601 8.8207903 7543101
0.032599401 0.12916601 8.8207903 7543101
0.061151698 0.130115 8.8196802 8133958
0.076294802 0.119831 8.8257599 8069192
0.097811602 0.127965 8.8507299 8267852
0.097766198 0.121793 8.8296499 8070731
0.147063 0.133976 8.7909899 7482446
0.145005 0.12435 8.7985802 7415884
0.159427 0.137841 8.6815596 7350346
0.16727699 0.13589101 8.7375498 7545672
0.243386 0.129475 8.8305101 7476024
0.255375 0.133186 8.8308496 7083061
0.28305799 0.130225 8.8043604 4854311
0.29416299 0.134661 8.8161602 4264998
0.301743 0.133894 8.7978802 3412771
0.328399 0.133826 8.8066597 2826280
0.32937801 0.13331801 8.8115597 2957866
0.34198299 0.13416401 8.8086395 8815234
0.35338899 0.13418099 8.8061705 9671051
0.36716601 0.130946 8.8069801 8816517
0.38097599 0.131853 8.8084803 4869979
0.422043 0.138551 8.8084497 2893889
0.46370399 0.138653 8.8259897 4332087
0.475775 0.12938 8.8474197 4266807
0.477898 0.13434801 8.8524599 5119294
0.50747502 0.12972701 8.8708601 5054013
0.51904202 0.12905601 8.8715601 5381951
0.53373402 0.13474 8.8868599 5972805
0.531205 0.13653199 8.8412504 5381954
0.54890901 0.126763 8.8954802 5250878
0.548733 0.127601 8.8957396 5381951
0.54759502 0.135921 8.8861198 5709890
0.56350797 0.12977999 8.8967199 5381949
0.578758 0.135359 8.9052 5840190
0.58872002 0.128472 8.89328 4856887
0.61149299 0.130288 8.8591499 4856372
0.62460798 0.129564 8.8765297 4659505
0.63839799 0.133738 8.8814497 4396847
0.64843702 0.13058899 8.8702497 3807019
0.65330398 0.139737 8.8689404 4462126
0.66346997 0.13806 8.8534403 3937834
0.67430502 0.13513701 8.8512297 3282729
0.685826 0.142795 8.7944002 3152169
0.75703299 0.132002 8.9028101 2235173
0.84016502 0.13591801 8.9389095 6039607
0.925758 0.13937899 8.9218903 10588284
1.12723 0.146953 8.8252602 11245951
1.13781 0.153758 8.8289299 11508865
1.16057 0.15111101 8.80054 11902852
1.25025 0.14007699 9.0032701 11311232
1.26402 0.138763 9.0066299 11245439
1.2991 0.135043 9.0471697 10982268
1.2991 0.135043 9.0471697 11179645
1.4872299 0.140792 8.9966602 10324851
-2.2539799 0.16979501 7.5604501 14936298
-2.2503099 0.16731299 7.64745 6712954
-2.10379 0.173796 7.6139002 6777978
-2.1024599 0.174909 7.6138802 6844028
-1.2444 0.121225 8.6202898 11904922
-1.1154701 0.12531701 8.5924501 12102296
-1.0933599 0.125726 8.5205202 12233627
-1.08339 0.13327301 8.5349102 12365212
-1.09189 0.113681 8.7782497 12299418
-1.08586 0.107102 8.7685404 12233627
-0.33712199 0.12912101 8.7490702 13152921
-0.33333501 0.12980101 8.7488298 13021592
-0.32853001 0.13519 8.7290602 13218456
-0.30051199 0.12556601 8.85674 12100748
-0.27405801 0.12245 8.8388395 10785404
-0.25717601 0.133766 8.8043604 10392453
-0.198892 0.132319 8.7790499 10196620
-0.109479 0.136078 8.7983503 2368063
-0.118022 0.141975 8.67237 2697027
-0.00144528 0.131611 8.8292398 3478822
-0.0068349498 0.13100401 8.8231201 3020324
-0.0103272 0.137383 8.8152199 2954788
0.0039341799 0.13094001 8.8179197 4134185
0.0459002 0.136692 8.82059 8002370
0.089994803 0.129448 8.8852196 8464460
0.13008399 0.13195699 8.8311901 7744847
0.168615 0.146411 8.7621002 7152456
0.233808 0.13066401 8.8930902 7672892
0.255312 0.134941 8.8276501 7083061
0.25633401 0.137835 8.82792 7084086
0.286578 0.136586 8.8104 4657703
0.31805301 0.145798 8.8042297 2627108
0.33571199 0.14528701 8.8188295 5195853
0.33628201 0.144262 8.8095503 5854039
0.34772801 0.144144 8.8086996 9670796
0.36059001 0.14494599 8.80441 9079429
0.464515 0.145184 8.8271103 4462648
0.48830101 0.146576 8.8382502 5249854
0.484079 0.16462199 8.5932503 5447490
0.48396 0.164425 8.5923595 5381697
0.51677603 0.13760599 8.8688498 5907269
0.51719201 0.14054701 8.8629398 5907270
0.52701402 0.149039 8.8527002 5513285
0.53175598 0.141477 8.8764 5907269
0.59382802 0.14026099 8.9097099 5971519
0.64410299 0.143534 8.8822803 4986673
0.657713 0.148955 8.8821096 4986415
0.66806698 0.14592101 8.8721905 4658988
0.66807401 0.14590999 8.8723202 4658988
0.67719603 0.143692 8.86343 3741480
0.70799601 0.151407 8.8591003 3020580
0.748878 0.14295401 8.9803896 2497318
0.75099701 0.148037 8.9040403 2562855
0.76140702 0.142684 8.8923702 2497575
0.75582403 0.14252201 8.9212303 2628646
0.82903999 0.146844 8.9376602 3218471
0.85803699 0.14499 8.9796 7416634
0.91783702 0.14882199 8.93608 10456699
1.1189899 0.14499 8.9760303 10719869
1.12058 0.158632 8.8395796 11377281
1.14952 0.15892901 8.8472996 11771523
1.26776 0.14757399 9.0279703 11048318
1.27657 0.145794 9.0049496 11048061
1.29283 0.150433 9.0329599 11048060
1.31828 0.14140999 9.0729198 11113853
1.3221 0.15038601 9.0885696 10916474
1.3221 0.15038601 9.0885696 10916474
1.47867 0.15439899 9.0296001 11048058
-2.2483399 0.179078 7.57656 12041410
-2.2481301 0.182689 7.5436401 14804713
-2.2409799 0.184009 7.5844402 7370370
-2.25863 0.174064 7.7026401 6646650
-2.1061399 0.182753 7.5881801 6383989
-2.10463 0.183219 7.6514101 8093578
-2.0962901 0.175044 7.6585002 9146520
-1.8481801 0.115874 8.6303997 10656918
-1.10376 0.141426 8.5619001 12364956
-1.10376 0.141426 8.5619001 12364956
-1.08596 0.14421999 8.5205202 12562077
-0.28409201 0.13106801 8.8472404 11639940
-0.24369299 0.137603 8.8143101 10327692
-0.111316 0.151862 8.6918697 2368318
-0.086499803 0.13780899 8.83039 2433077
-0.0238597 0.15023699 8.7690401 3021093
-0.0087600201 0.150878 8.7982302 3610150
-0.00147074 0.14051101 8.8155499 3740966
-0.0122333 0.140606 8.8209896 3020581
0.00929543 0.140532 8.8110199 5117486
0.0257433 0.146245 8.81569 7215418
0.045394201 0.145641 8.8321304 8002625
0.111879 0.15002701 8.8154202 8203086
0.122222 0.14916299 8.8318005 8138062
0.13754401 0.151308 8.7573605 7482189
0.138403 0.15399399 8.7940502 7547982
0.135557 0.143922 8.8173199 7745359
0.238221 0.140627 8.8894901 7607354
0.24821199 0.14722501 8.8839302 7475768
0.26291299 0.15171701 8.8681402 6951987
0.27467501 0.153185 8.8092699 5378603
0.27987501 0.154275 8.7932901 4919849
0.27524599 0.15421499 8.8017902 5313067
0.29821101 0.15180901 8.8062897 3609125
0.30659699 0.150732 8.8102198 2953761
0.318414 0.15073299 8.8124905 2627108
0.330735 0.15643901 8.8155499 3155244
0.34276 0.156183 8.8142595 9012611
0.355243 0.158162 8.7956495 9868429
0.375157 0.152271 8.8084497 3883088
0.419047 0.152906 8.8316097 3090241
0.420461 0.15623599 8.7987299 3089471
0.459627 0.15546601 8.8153095 4987195
0.475467 0.163929 8.6374197 5381697
0.49105799 0.17255899 8.5693502 5775428
0.639902 0.15218499 8.8944502 5510965
0.64441103 0.152097 8.8713303 5510964
0.65798801 0.158134 8.8790903 5379890
0.658158 0.15820201 8.8799105 5379890
0.74842602 0.155939 8.9332399 2825256
0.75079203 0.154255 8.96628 2825770
0.83880401 0.154843 8.9320202 4596269
0.856363 0.156812 8.9722996 6563636
0.90992498 0.15824801 8.9504004 9864307
0.911309 0.15535501 8.9710598 9732209
1.1328599 0.16356599 8.8568602 11574401
1.1434799 0.170433 8.86063 11771265
1.15233 0.16671 8.8524904 11903108
1.27974 0.15502501 9.0213604 11245439
1.27997 0.15487599 9.0232096 11245439
1.29761 0.16274901 9.0506802 10653817
1.31065 0.157465 9.0612297 10850939
-2.2305801 0.18804 7.58213 7436164
-2.2541001 0.17523099 7.71943 6646906
-2.1052699 0.185601 7.65832 8093834
-2.1033101 0.185876 7.6532001 8159627
-2.23191 0.123813 8.57267 12765651
-2.2302599 0.117425 8.6159296 12568530
-0.27980599 0.147577 8.8116302 11376769
-0.288784 0.147678 8.86164 12297353
-0.278124 0.142047 8.8490896 11245440
-0.26286501 0.148476 8.8196402 10589316
-0.19452199 0.151308 8.7535105 10328208
-0.093509302 0.151398 8.8237696 2367545
-0.082583398 0.151429 8.8235903 2301486
-0.065152504 0.15124699 8.8235397 1906721
-0.0121523 0.15507101 8.81036 3676968
0.0039174301 0.15075 8.8139496 4658474
-0.00151245 0.159308 8.8041296 4527657
0.0112787 0.155764 8.8209801 5707312
0.0251185 0.153027 8.8206501 7215162
0.116474 0.161504 8.8067198 8334156
0.12739199 0.157325 8.7953596 8006989
0.129191 0.15960801 8.8169498 7810125
0.225832 0.161144 8.87393 7935550
0.25763699 0.156258 8.86098 7082805
0.33676901 0.166996 8.8177404 6905953
0.36927 0.161221 8.8136501 6251372
0.37429801 0.16990601 8.7948503 3028554
0.38350299 0.16673601 8.8053102 2305093
0.41655999 0.16947199 8.8021898 3745091
0.41655999 0.16947199 8.8021898 3745091
0.485612 0.176442 8.6252098 5905987
0.501701 0.18655799 8.5728903 6168389
0.63883501 0.16730499 8.8196297 5904184
0.660285 0.168698 8.8690796 5510963
0.65940303 0.16868199 8.8676701 5576500
0.74094301 0.156845 8.9853897 3087658
0.83704603 0.171022 8.9368696 3613483
0.85311103 0.1661 8.9520102 5776433
1.14083 0.17876101 8.8777704 11968643
1.30013 0.172608 9.0594702 10522230
1.3142101 0.170451 9.0498104 10785146
1.32496 0.176136 9.0346003 10653561
-2.10534 0.19324601 7.6932602 9804706
-2.2264099 0.12975501 8.5605402 12831187
-2.2155299 0.127996 8.5708599 12502737
-0.91606301 0.15007199 8.72153 13679520
-0.88643402 0.156249 8.6785002 13679521
-0.86520201 0.157207 8.6629 13745057
-0.78254998 0.156131 8.7041597 13745056
-0.29958299 0.15351699 8.86063 12692367
-0.282392 0.158868 8.8506203 11771268
-0.27816999 0.15953501 8.8366003 11376769
-0.25360101 0.165084 8.7813702 10984590
-0.209986 0.16201399 8.7873697 10853778
-0.19791 0.167614 8.7917004 10459537
-0.187177 0.16552299 8.7768097 10131089
-0.187231 0.164665 8.7772303 10131089
-0.187115 0.165314 8.7764597 10131089
-0.098188497 0.159954 8.7973204 2433341
-0.087661102 0.160583 8.8218899 2301750
-0.055754699 0.16260999 8.82092 1709599
0.0063501098 0.16669001 8.8117199 5510446
0.0062295198 0.166326 8.8142004 5444909
0.0171373 0.165796 8.8219404 6625077
0.055014402 0.171176 8.7609301 8331333
0.071237102 0.163854 8.8870497 8791368
0.116905 0.17039999 8.7416 8662604
0.22583 0.171005 8.86376 7739713
0.258313 0.17356101 8.8233604 6951733
0.27862501 0.174481 8.7568398 4854570
0.28148499 0.172475 8.7845697 4723241
0.27855501 0.170577 8.79354 4985386
0.305024 0.17577 8.79424 2954019
0.30748999 0.169539 8.8212099 2888227
0.31951201 0.16878501 8.8146 2430241
0.32059601 0.16834 8.8171501 2430241
0.33430299 0.17536999 8.8188801 5195596
0.33656499 0.17759401 8.82654 6511711
0.35510299 0.170325 8.8014603 10197392
0.40343699 0.175229 8.8010998 3156808
0.42833599 0.179159 8.8124304 5317703
0.44627601 0.172621 8.7996397 5380671
0.47018901 0.182254 8.8084297 5774659
0.490769 0.195603 8.5965204 6430791
0.61459899 0.18182901 8.8586597 6297661
0.66192102 0.174946 8.8628702 5576243
0.743568 0.16805901 8.9607601 3218988
0.85331798 0.179277 8.9646101 4727597
1.26213 0.17695799 9.0219002 11048059
-2.10864 0.212401 7.6269498 7041663
-2.1059101 0.20506901 7.65907 8817814
-2.10553 0.20261 7.6515799 8489106
-2.1047299 0.202995 7.6595702 8949656
-2.24613 0.136317 8.5801001 12831444
-2.22611 0.141546 8.5713501 12568786
-0.91039002 0.165711 8.6149597 13942433
-0.912718 0.157379 8.7017698 13745313
-0.89732897 0.169443 8.6435204 14007969
-0.89721799 0.15863501 8.7104197 13679522
-0.90833598 0.162319 8.7117796 13679522
-0.88144398 0.164003 8.6326399 13876641
-0.87845701 0.172296 8.6204395 13942434
-0.86282098 0.168115 8.60993 13942177
-0.85923499 0.17601199 8.5914898 14007970
-0.86155099 0.16806801 8.6589298 13942178
-0.85475302 0.173894 8.6078701 14008227
-0.84486097 0.17263401 8.5923004 13942434
-0.84449399 0.172598 8.58708 13942433
-0.83973402 0.173311 8.6036797 13876643
-0.85138899 0.16412 8.6662302 13745315
-0.85298502 0.161778 8.6922798 13679523
-0.85196799 0.166835 8.6796103 13745315
-0.83809602 0.16514499 8.6806097 13810849
-0.8369 0.16788501 8.7051697 13876384
-0.826747 0.16797601 8.7097101 13811104
-0.81866002 0.165558 8.75947 13679519
-0.81016499 0.15703601 8.7771196 13613983
-0.80286801 0.163627 8.7456903 13679519
-0.76427698 0.1628 8.6870804 13810848
-0.33483401 0.169958 8.8207197 13284762
-0.32077301 0.168229 8.8146 13218712
-0.31224099 0.16097701 8.88375 13283988
-0.29372999 0.165033 8.8636198 12560780
-0.25234899 0.16759799 8.7795696 11050383
-0.23963299 0.172217 8.7637997 10919314
-0.209481 0.177434 8.7622299 10854035
-0.19804899 0.176411 8.78545 10722708
-0.192412 0.176916 8.7882996 10657431
-0.100445 0.178075 8.8149595 2499390
-0.086871199 0.177598 8.8155603 2498614
-0.0817509 0.169755 8.8258104 2104622
-0.081793703 0.169595 8.8217201 2104622
-0.075916901 0.17809001 8.8172903 1972519
-0.070838399 0.16937301 8.8183098 1841187
-0.0484902 0.172004 8.8177404 2037792
-0.0490814 0.17011499 8.8190804 2037792
-0.037114002 0.171396 8.8081303 2430496
-0.0251077 0.17542601 8.8179102 3479332
-0.0021695199 0.17586599 8.80651 5708334
-0.01286 0.172653 8.7983599 4265254
-0.0128393 0.17276099 8.7975702 4462120
-0.0011458599 0.175634 8.8092699 5773871
0.0093768602 0.18117 8.8163795 6297138
0.0119754 0.175714 8.8198795 6362675
0.0345468 0.177371 8.8170795 7871294
0.0417188 0.180163 8.8161697 8134466
0.047348399 0.183659 8.7832899 8265539
0.0589149 0.18260901 8.7735205 8528967
0.069651403 0.174356 8.8719196 8988745
0.078782201 0.167896 8.9375 8660554
0.078783698 0.167942 8.9378996 8660554
0.0920242 0.169304 8.9492397 8726859
0.106192 0.176477 8.7919703 8793164
0.106184 0.176449 8.7908802 8596300
0.110057 0.186893 8.7414999 8662605
0.202356 0.174555 8.8495102 7673923
0.26237601 0.180546 8.8363705 6755892
0.27031401 0.17986199 8.8057804 5771821
0.27904499 0.187179 8.81423 5247019
0.277426 0.185302 8.8097601 5378860
0.27736601 0.190299 8.7505102 4919849
0.32934201 0.18663201 8.8241396 3023918
0.342289 0.182411 8.8164902 9736076
0.354011 0.181558 8.8193903 10394258
0.36171001 0.18308701 8.8148699 9802898
0.37421501 0.181568 8.8023701 3159884
0.38345301 0.19065399 8.79354 2370119
0.42413899 0.190676 8.81388 5317191
0.425971 0.183599 8.81991 5448776
0.468692 0.18589699 8.7666597 5971524
0.48660299 0.195024 8.7087402 6366025
0.48449799 0.183991 8.8365803 6103108
0.496317 0.199315 8.6508102 6299718
0.48802 0.198613 8.6861601 6365512
0.50411499 0.201331 8.6016903 6496840
0.54198003 0.197752 8.6963797 6432073
0.54198003 0.197752 8.6963797 6431818
0.61280698 0.19641 8.7850599 6494270
0.65087801 0.183972 8.8472404 6101046
0.65170002 0.183228 8.8604698 5904182
0.72224301 0.182881 8.9854298 3873578
0.83123398 0.18672401 8.9021797 2563879
0.842112 0.19112299 8.9269104 2957095
1.26728 0.190327 9.03578 11048058
1.26177 0.19399101 9.0068598 11048317
1.31587 0.187144 9.0718699 10588025
1.3286 0.189825 9.0052795 10390649
1.97974 0.27441901 8.0839796 4604475
-2.2627399 0.212226 7.6785402 7896970
-2.2382901 0.14628001 8.5682697 12765651
-2.2262199 0.15352 8.5837002 12108495
-2.2263899 0.15286 8.58393 12174287
-2.19754 0.150176 8.5362101 11780045
-2.2137401 0.148646 8.5857401 11845581
-1.90374 0.161079 8.5508804 11250076
-1.0470999 0.186809 8.4975405 13285021
-0.97550702 0.181509 8.6131601 13876900
-0.87440997 0.17977899 8.5999098 14073762
-0.82206398 0.177724 8.7156 13876643
-0.75877798 0.180039 8.6001596 14007712
-0.29535601 0.18072499 8.8390903 12692108
-0.30473301 0.170982 8.868 13086609
-0.25885999 0.179608 8.7968597 11313038
-0.24433599 0.18497901 8.7807198 11379349
-0.081680298 0.179492 8.8183899 2235695
-0.0759027 0.189198 8.8206596 2103847
-0.068444103 0.183778 8.8183403 1906722
-0.052652299 0.180684 8.8144703 2037792
-0.041342702 0.181732 8.8175898 2364959
-0.0300609 0.181857 8.8139696 2954530
-0.033915199 0.185709 8.8150301 2626336
0.0067921998 0.18545499 8.8207397 6231857
0.017731201 0.185369 8.8246403 7018294
0.028034201 0.182905 8.8290997 7608635
0.036393501 0.184755 8.7954702 7937088
0.103642 0.189604 8.7570801 8924749
0.252193 0.18735 8.8358097 7344951
0.27174601 0.195832 8.8200798 5641262
0.26927999 0.190052 8.8382597 5968684
0.29377699 0.198126 8.8051004 3937065
0.287449 0.193244 8.7984505 4658732
0.287449 0.193244 8.7984505 4527402
0.30040601 0.189224 8.8098202 3741479
0.305199 0.19679999 8.7968903 2954020
0.33652401 0.192505 8.8178701 7433069
0.348362 0.190516 8.8266602 10525845
0.372394 0.195122 8.81563 4541018
0.49923301 0.20392001 8.6718798 6364997
0.51471502 0.205577 8.6788101 6431817
0.52984899 0.20953301 8.7042904 6562888
0.53965998 0.206626 8.6729603 6693962
0.58280599 0.200424 8.8450699 6626628
0.59349197 0.199453 8.8339996 6626114
0.59458101 0.195913 8.8603601 6232640
0.60389501 0.19693901 8.8237696 6560064
0.60419297 0.198217 8.8266897 6560063
0.60661 0.204227 8.8366804 6625600
0.72296101 0.197116 8.91327 3414570
0.82405603 0.201416 8.8628902 2301735
1.30681 0.201213 9.0804005 10456438
1.99866 0.284291 8.1170998 3487023
-2.2551 0.23217499 7.53544 15265005
-2.26512 0.216116 7.6891899 7370626
-2.1207399 0.223796 7.6348701 6580855
-2.11149 0.23021799 7.6371498 7568006
-2.23861 0.15839601 8.5813303 12371409
-2.2402599 0.159458 8.5870895 12371153
-1.8935 0.172406 8.5528803 11249561
-0.858648 0.186277 8.6001797 14205090
-0.761419 0.195573 8.5589504 14139554
-0.74793702 0.188256 8.6138201 14073504
-0.523682 0.198034 8.6740999 13876125
-0.460455 0.18706501 8.8501501 13613209
-0.46048701 0.187162 8.8542299 13744794
-0.46119601 0.18742 8.8632698 13744794
-0.29818699 0.18146899 8.8632402 12955279
-0.26417801 0.194186 8.8120804 11641230
-0.093044303 0.19687399 8.8308001 2498876
-0.068428703 0.194875 8.8213902 1972003
-0.056896601 0.1928 8.8286505 2103329
-0.045617301 0.193094 8.8180904 2430752
-0.0346778 0.195217 8.8277397 3413794
-0.023765501 0.19513699 8.8226604 4331303
-0.023006899 0.19184899 8.8162203 4265767
0.27871999 0.19982199 8.8210201 5116716
0.27871999 0.19982199 8.8210201 5116716
0.32686999 0.20011701 8.8250103 2629160
0.33641201 0.206027 8.8186502 7893877
0.37798899 0.202402 8.8049202 2764872
0.41481701 0.20962401 8.8182898 5121613
0.42034101 0.20294 8.8186598 5514315
0.46533501 0.20614301 8.8024397 6364998
0.47639099 0.206277 8.7966805 6431306
0.484929 0.21861 8.7396898 6759500
0.49739301 0.218962 8.7000799 6825549
0.51432502 0.21617401 8.6877003 6562890
0.51680899 0.220961 8.6983604 6826061
0.530402 0.217768 8.6979303 6694219
0.54358399 0.217906 8.6886196 6693960
0.58587903 0.20893499 8.8604403 6823493
0.59524697 0.209699 8.8245497 6822722
0.60880202 0.21080101 8.8135996 6756672
0.730214 0.21358299 8.8858099 2628135
1.2382801 0.214637 8.9143896 11442815
1.25869 0.21109299 8.9805698 11245437
1.27361 0.210372 8.9914598 10916731
1.31743 0.21545801 9.0833197 10653559
1.98537 0.29201299 8.12714 5064769
1.97952 0.290649 8.1453896 5590599
1.99075 0.291949 8.1387396 4867390
-2.24878 0.23991799 7.5506001 12436937
-2.2513499 0.171488 8.5949697 12174289
-2.2265699 0.165622 8.5969296 11714252
-2.2265601 0.164452 8.5966396 11714252
-2.2151101 0.16931701 8.6203203 11385546
-1.97133 0.20423201 8.1469002 10070703
-1.9671 0.205529 8.1356401 10070960
-0.91341901 0.19078 8.7397404 14271139
-0.89883697 0.19195101 8.7540703 14337187
-0.88305801 0.189771 8.7321997 14074276
-0.86965799 0.188494 8.7246103 14336675
-0.86765301 0.199204 8.7056799 14336931
-0.82079601 0.20121901 8.6856899 14402468
-0.78873402 0.194976 8.7677698 14270627
-0.75062698 0.20374 8.5727396 14205089
-0.50877601 0.204928 8.7193604 14007453
-0.43870699 0.20169701 8.7340803 13679002
-0.359106 0.20577499 8.7641201 13744283
-0.347103 0.207582 8.76548 13810074
-0.303363 0.19360501 8.8682404 13218194
-0.19671801 0.203674 8.7952805 10985878
-0.17811 0.209134 8.7789202 5197651
-0.17298301 0.200303 8.7864399 5592413
-0.15169799 0.20152199 8.8136101 2500679
-0.108649 0.201405 8.9024096 2499137
-0.080721498 0.201534 8.8284597 2169645
-0.069264598 0.20092 8.8244896 1972003
-0.049258001 0.204119 8.8208599 2430752
-0.038993198 0.204263 8.8214903 3020578
0.061054099 0.206076 8.8250504 8857928
0.107528 0.20863999 8.8060598 8991311
0.373427 0.214297 8.8122301 4540762
0.40203601 0.21921401 8.8032398 4335948
0.39845899 0.212846 8.8187599 3091020
0.40895399 0.221195 8.8158302 4925006
0.420414 0.220851 8.8112202 6168908
0.473198 0.217511 8.8102798 6693707
0.503712 0.22363999 8.7178402 6694221
0.501311 0.225936 8.7310104 6956621
0.534486 0.228163 8.71064 6956620
0.58761698 0.21946099 8.8491001 7151430
0.598131 0.21659499 8.8407602 6953794
0.61444801 0.21930499 8.82864 6822208
0.90010798 0.22837 8.7954798 10259065
0.914056 0.234147 8.7492905 10916733
1.26323 0.225311 8.9913197 11179901
1.2897 0.21574999 9.0715199 11376767
1.30346 0.215662 9.0766296 10522232
1.9897799 0.29892901 8.1076298 3881266
1.9897799 0.29892901 8.1076298 3881267
1.9897799 0.29892901 8.1076298 3881267
2.00038 0.305866 8.1057997 3092778
-2.25172 0.24904799 7.5346699 14016999
-2.13028 0.238075 7.7433801 9146776
-2.2265799 0.176062 8.6087599 11648459
-1.9065599 0.201965 8.3828497 10268081
-1.87222 0.21086501 8.3011999 10201513
-0.82367003 0.214432 8.6435204 14468003
-0.81324899 0.202567 8.7601805 14468516
-0.78850597 0.20625199 8.7778301 14468003
-0.75978202 0.21133301 8.5895901 14336675
-0.74946499 0.21620999 8.5849199 14336675
-0.53250998 0.212459 8.6619396 14073501
-0.49660799 0.21277501 8.7608805 14073245
-0.48062 0.212367 8.7610502 13876124
-0.48064899 0.213397 8.7593603 13941660
-0.47915 0.214054 8.7507401 13941916
-0.48087701 0.21404199 8.7349005 13810334
-0.483089 0.205799 8.7585697 13941916
-0.46610001 0.20766 8.8073502 13613210
-0.46670601 0.2062 8.7912502 13744795
-0.46702999 0.209711 8.7709599 13679260
-0.44066 0.216056 8.7591105 13876125
-0.35891801 0.21088 8.7323503 13809819
-0.309416 0.209306 8.8334799 13152401
-0.29897201 0.210049 8.8618298 13020559
-0.26015201 0.215602 8.8010397 12102295
-0.191828 0.212229 8.7992401 10657172
-0.180471 0.21364599 8.7871304 5723735
-0.155036 0.217885 8.8097696 2632007
-0.10926 0.2142 8.8643999 2827071
-0.098059103 0.209907 8.8282804 2564670
-0.086586997 0.211325 8.8328199 2498613
-0.069433399 0.21390601 8.8435898 1971747
-0.075138099 0.211183 8.8323402 2103591
0.0142668 0.21621101 8.8470602 6757172
0.0281865 0.21661299 8.8438902 7281463
0.042088099 0.212723 8.83568 8134976
0.0500951 0.216434 8.8350801 8201282
0.0609832 0.21782 8.8401499 8398404
0.065389402 0.220768 8.8296499 8595526
0.116973 0.219918 8.8616505 9252940
0.127317 0.218541 8.8612804 9121610
0.29349199 0.221411 8.8095198 4003114
0.391628 0.22581699 8.8210402 2894668
0.39167401 0.22602899 8.8227901 2828875
0.41498899 0.23117299 8.8098497 6103886
0.42769501 0.23215701 8.8117199 6627661
0.44163799 0.224951 8.8601799 7021132
0.48812401 0.231583 8.7437496 7416401
0.517299 0.23117501 8.7210598 7153743
0.54545498 0.231088 8.8238897 7415885
0.56013602 0.23398 8.8489704 7480651
0.60474801 0.225309 8.8423204 6953794
0.72841501 0.231346 8.8450899 2365734
0.893031 0.248023 8.7499104 10061684
0.89868498 0.238903 8.8008804 10193785
0.90378898 0.240208 8.7542896 10588025
0.90531898 0.23967101 8.7616501 10653562
0.90531099 0.239677 8.7615499 10653562
1.27952 0.22985201 9.0680399 11311228
1.29673 0.227718 9.0779896 10784888
1.71216 0.242567 9.0128698 10062712
1.9713 0.30612499 8.1191101 5459269
1.9856 0.307724 8.1258402 4604732
1.98478 0.31112701 8.1161499 4473147
-2.2490201 0.25761101 7.5605602 10265770
-2.1296101 0.24567699 7.7367301 9015192
-2.1436999 0.247475 7.7505898 7764870
-2.2488599 0.18454701 8.6480503 11911374
-1.87328 0.222349 8.2869797 9411738
-0.88626802 0.205028 8.7748003 14271397
-0.86491901 0.211502 8.6776304 14337190
-0.84248799 0.21249101 8.78689 14534051
-0.82673103 0.210136 8.76336 14534308
-0.80686003 0.21398 8.7887897 14402466
-0.80053103 0.21666799 8.7766304 14336674
-0.52929097 0.22574399 8.6803799 14204829
-0.51608902 0.221158 8.6885595 14139037
-0.43003201 0.218647 8.7310696 13941660
-0.356949 0.222029 8.7639599 13941659
-0.34595799 0.222132 8.8215504 14204316
-0.32844499 0.215619 8.8333998 13547161
-0.30375299 0.219805 8.8445301 13086352
-0.20493899 0.226896 8.7855797 11708570
-0.184719 0.222711 8.7732096 7894387
-0.19629 0.223316 8.7959299 11117464
-0.174257 0.223464 8.7938604 5527396
-0.154681 0.22348 8.8122702 2763337
-0.089387402 0.222324 8.8391705 2761016
-0.0072402498 0.224038 8.8429098 4921385
0.047942299 0.227203 8.8391399 7348541
0.059504099 0.229644 8.8278399 7676736
0.0827806 0.230249 8.8407402 8661833
0.084275998 0.22706801 8.8253698 8793162
0.100974 0.23311201 8.8247204 8661832
0.114921 0.229587 8.8292799 9055818
0.182794 0.232253 8.8430901 6431040
0.195264 0.23203599 8.8415499 6823744
0.38906801 0.240897 8.8186598 3156298
0.39631101 0.233565 8.8297501 3484238
0.398947 0.232941 8.8234701 3942991
0.40954801 0.241413 8.8080196 6235472
0.422297 0.24255399 8.8109503 6759247
0.49601501 0.236509 8.8815098 7415633
0.88374102 0.25892401 8.7128096 8746341
1.35304 0.247372 9.07967 10193523
1.6991 0.25158399 9.0095797 9799286
1.97969 0.31480399 8.1399097 5590600
1.98217 0.32218999 8.1217299 4670269
1.99402 0.31889099 8.1080999 3355180
-2.2527499 0.266325 7.5460501 13161946
-2.1640501 0.251809 7.7764902 6449269
-2.1303899 0.26135999 7.71244 8357263
-0.86799502 0.222331 8.7262001 14468518
-0.84172601 0.219319 8.7777395 14534051
-0.81956398 0.218117 8.7827101 14599843
-0.81421298 0.217188 8.7832699 14599844
-0.78849798 0.21949901 8.7813902 14533794
-0.76070303 0.234963 8.59132 14533796
-0.748124 0.229771 8.6069603 14468003
-0.507842 0.22500999 8.7785902 14336415
-0.440667 0.227457 8.7709799 14073247
-0.354027 0.234925 8.7761803 14139037
-0.33903399 0.22423799 8.8501997 13678747
-0.309046 0.229956 8.8406401 13152144
-0.264644 0.237105 8.8139296 12496535
-0.270156 0.229017 8.8258495 11838348
-0.25680199 0.23602 8.8107595 12628378
-0.21080001 0.236617 8.7950201 12169117
-0.17849299 0.23247901 8.7788 5197652
-0.158014 0.235503 8.8041401 2434885
0.053907901 0.236384 8.8407698 6692665
0.065377504 0.236894 8.8396902 7348542
0.077098504 0.23891599 8.8310499 7808322
0.12557 0.244735 8.8228903 8201537
0.14989001 0.245187 8.8013802 7021375
0.15834901 0.238407 8.8148298 7481670
0.183295 0.24137899 8.8224697 5775163
0.378405 0.243406 8.8386898 2828869
0.40126401 0.243002 8.8253498 4926033
0.41567501 0.25179499 8.81425 6693711
0.41902301 0.247215 8.79634 7087698
0.52121001 0.24169999 8.8877201 7678802
0.53678799 0.24318901 8.9029703 7744081
0.54463702 0.24483401 8.8622799 7612494
0.57442302 0.24184699 8.9322701 7873867
0.59653401 0.24380501 8.9003401 7544647
0.601722 0.246787 8.8762999 7348294
1.33376 0.253387 9.0496998 10390644
1.33376 0.253387 9.0496998 10390644
1.34825 0.25707701 9.0605297 10324853
1.3489799 0.25845999 9.06604 10325109
1.97436 0.332609 8.11551 5262405
1.98472 0.33240101 8.1132002 4144436
-2.13041 0.27173299 7.7053299 7961990
-1.87113 0.235241 8.3058796 9477530
-1.29224 0.24349099 8.4013596 10654598
-0.76961797 0.245377 8.6300497 14599587
-0.73986 0.240969 8.6360197 14599587
-0.74628901 0.242906 8.6254501 14599843
-0.54236698 0.240752 8.7347298 14468512
-0.52599603 0.239316 8.6928396 14336670
-0.53030801 0.24602 8.7434797 14468255
-0.51546103 0.239393 8.7447701 14336670
-0.50678498 0.238271 8.7934599 14402206
-0.49332601 0.23579399 8.8017502 14270878
-0.377628 0.244534 8.7457895 14205085
-0.364719 0.24343801 8.7558098 14204828
-0.35185099 0.242337 8.7670403 14204828
-0.33121699 0.23869701 8.8650198 13941917
-0.183549 0.24196 8.7835503 6709340
-0.158336 0.247325 8.8221397 2763333
0.164767 0.249064 8.8186903 5381687
0.41217101 0.26216301 8.84548 6563667
0.54608101 0.253061 8.9198103 7940690
0.59638703 0.25635299 8.9117603 7676233
0.62013602 0.26246199 8.89118 7610182
0.63135701 0.262972 8.8670797 7019071
0.633214 0.25832799 8.8335695 7085118
0.73567402 0.266009 8.8273802 2104102
0.74546599 0.264406 8.8131399 1907493
1.29939 0.26875299 9.0143204 10982523
1.30009 0.269566 9.0186501 10982523
1.32876 0.26283699 9.0290604 10653816
1.34808 0.27081999 9.0703897 10588279
1.36343 0.262178 9.0767603 10521974
1.96869 0.34206399 8.1182604 5525063
1.98053 0.341425 8.1179895 4473401
1.98563 0.340435 8.1129599 3881264
-2.2530401 0.28881499 7.5311899 13820133
-2.25389 0.282215 7.5622301 11582657
-1.96369 0.24467 8.2330303 8952474
-1.9621201 0.247169 8.1897497 8754328
-0.797916 0.244054 8.7681904 14731170
-0.37502399 0.25718099 8.7558298 14402205
-0.36239401 0.25623301 8.7715197 14467998
-0.36209401 0.25595501 8.7661505 14402205
-0.31446999 0.250563 8.83218 13283728
-0.27004901 0.250893 8.8299198 12496018
-0.21167199 0.255575 8.8014698 12432030
-0.210641 0.25582701 8.79846 12432031
-0.167979 0.25770399 8.8127203 5921640
-0.124739 0.25203601 8.8250198 3091015
0.404329 0.26336801 8.8427801 5580367
1.29105 0.271631 9.0800104 11179644
1.29407 0.27058899 9.1030302 11442558
1.29109 0.27087 9.0748901 11377022
1.30782 0.27275199 9.0922804 10982522
1.3146 0.27320099 9.03088 10916987
1.33382 0.28117901 9.0719099 11179644
1.36325 0.27610701 9.0868101 10588023
1.38267 0.27039 9.1079102 10456438
1.37582 0.278997 9.0903902 10785145
1.9775701 0.35168701 8.12183 4539450
1.98764 0.35158601 8.1134901 3290155
1.99604 0.354433 8.1106501 2961447
-2.2506399 0.29637799 7.5586801 9871014
-2.25138 0.29614601 7.55931 10199978
-2.2656901 0.281441 7.6932902 7041661
-2.2694299 0.277383 7.7392101 6581370
-2.13042 0.28210601 7.6982198 8028298
-0.33210501 0.257128 8.8655901 14204827
-0.31380299 0.264411 8.8611498 13349261
-0.275911 0.26275 8.8417397 12363659
-0.26437801 0.26418701 8.83078 12694169
-0.157279 0.26719701 8.8298101 2960709
-0.13161799 0.26982901 8.8253202 3815768
-0.118678 0.26448199 8.8372402 4076624
-0.10584 0.26103699 8.8512897 3414577
-0.0902583 0.26829901 8.8577404 4070444
-0.0701131 0.26641801 8.8327799 3151396
-0.0701131 0.26641801 8.8327799 3151396
-0.058026101 0.27231801 8.8408499 3348775
0.41039401 0.273673 8.8557301 6563153
0.48131999 0.28030801 8.8896599 7679060
0.48883799 0.282058 8.89116 7744851
0.50331998 0.279652 8.9032001 7875923
0.51735997 0.28048599 8.90555 8138068
0.56824303 0.27897099 8.9395704 7939920
0.62103099 0.27580899 8.9133902 7282502
1.33239 0.283234 9.0593596 11048316
1.34826 0.28489101 9.0824499 10850937
1.3627501 0.28962299 9.0943403 10850681
1.37025 0.28765801 9.0761299 10916730
1.3714401 0.288239 9.0781698 10916730
1.3714401 0.288239 9.0781698 10916730
1.99584 0.35592499 8.1076498 2895911
-2.25525 0.30535799 7.5500102 12832725
-2.2741301 0.294642 7.6968398 7173248
-2.1182699 0.29302999 7.69314 8817299
-2.1215799 0.293277 7.7065201 9212315
-1.25262 0.26828501 8.5346098 11968392
-1.1079299 0.274638 8.52215 13020046
-0.343389 0.27280599 8.8740702 14467741
-0.322418 0.27393901 8.8674202 13612693
-0.21215899 0.278561 8.8126898 12760992
-0.100145 0.27272701 8.8539801 4463665
-0.083068602 0.27918401 8.8659801 3938603
-0.044115301 0.28053901 8.8615398 3675942
0.111305 0.287595 8.8291702 8595782
0.119108 0.280137 8.8451996 8135745
0.130953 0.283636 8.84513 5838382
0.229638 0.28466299 8.84412 3151908
0.28360701 0.29390299 8.7971601 3282471
0.28078601 0.28882101 8.8345604 3282471
0.291572 0.28344601 8.8242502 3021095
0.35551101 0.28272501 8.8563604 5327193
0.37250599 0.292768 8.8514004 2829123
0.41145799 0.287184 8.8813896 6563919
0.427784 0.287714 8.8740196 6956622
0.470155 0.28268099 8.9049597 7481938
0.49553001 0.287451 8.9103098 7350350
0.50800002 0.28787699 8.9118605 7415885
0.52412701 0.29026699 8.9141197 7612750
0.53767502 0.290243 8.9192104 7809872
0.55583602 0.28572601 8.92939 8006482
1.43469 0.300046 8.98734 10324594
1.98826 0.36431801 8.1119299 3158826
1.9976701 0.37194601 8.1168098 3092779
1.9976701 0.37194601 8.1168098 3092779
-2.25109 0.30565101 7.5940499 7107454
-1.12651 0.281876 8.4912205 13217681
-1.1138099 0.28122401 8.4943504 12888202
-1.01372 0.282774 8.5392303 12822662
-1.03418 0.26525101 8.7694798 13151887
-1.00737 0.28657201 8.5696802 12756868
-1.00737 0.28657201 8.5696802 12756868
-0.333828 0.27590999 8.8739996 14336413
-0.33251899 0.28143001 8.8775301 14336414
-0.31123501 0.27898499 8.8668003 13086349
-0.27360699 0.28290001 8.8382397 12693139
-0.26172799 0.28332901 8.8284397 12760220
-0.269936 0.27901801 8.8323097 12693654
-0.125551 0.28219399 8.8369904 4933479
-0.109174 0.29072201 8.8500204 5977173
-0.095646299 0.28544301 8.8598003 5842237
-0.071332298 0.28950101 8.8644199 3675174
0.089227498 0.288634 8.8588696 4854055
0.087506101 0.295221 8.8343801 5379114
0.124252 0.29524899 8.8269196 7676219
0.138208 0.29672301 8.8378601 5771562
0.157489 0.291127 8.85853 3937574
0.188844 0.290984 8.8659697 3742762
0.22125299 0.29429099 8.8520603 3151138
0.23299301 0.29622301 8.7863703 3610149
0.232062 0.30146399 8.7878704 4003367
0.288876 0.30310199 8.8118 3348522
0.288991 0.30316001 8.8108597 3348522
0.34969601 0.29383701 8.8507299 5851221
0.35591099 0.30116299 8.8464098 5590620
0.36978599 0.302457 8.8593702 3685200
0.48842499 0.29852501 8.9122 5906242
0.50186002 0.29815 8.9166298 6233922
0.51600403 0.29783401 8.92665 6627652
0.52957398 0.30063301 8.9278002 6758723
0.593808 0.29964 8.9515104 7019839
0.60852897 0.29426101 8.9469995 7282500
1.97188 0.373348 8.1346502 5261893
1.98311 0.373469 8.1266003 3881524
1.99295 0.38127801 8.1337404 3421231
-1.0123 0.29471201 8.5401201 12691334
-0.342722 0.28731 8.8736296 14665373
-0.34382001 0.286356 8.8682699 14599581
-0.32309899 0.289805 8.8690701 13546898
-0.33402801 0.29543999 8.8867702 14533787
-0.26536399 0.29359499 8.8299904 12825499
-0.104581 0.302946 8.8512297 6960216
-0.114877 0.30283201 8.8377199 5652836
-0.087824702 0.29614699 8.8642101 5905467
0.070114598 0.30337799 8.84198 7020857
0.085910097 0.30794099 8.8290701 7873339
0.097474001 0.29966599 8.8375902 7808062
0.109872 0.308606 8.8270702 9647697
0.135061 0.30462199 8.8468904 6886704
0.148461 0.30116501 8.8453302 5576493
0.161818 0.301063 8.8503199 5052460
0.174676 0.30359799 8.8646803 5577008
0.22788 0.30887601 8.7678099 4265257
0.233991 0.31022599 8.8470497 4462379
0.29156199 0.31031999 8.8088303 3216937
0.31928799 0.30844399 8.7657604 3084831
0.33360001 0.31304899 8.80826 5843510
0.51647902 0.31158599 8.9412203 5184312
0.54199702 0.303491 8.9279604 6562113
0.55651599 0.31180501 8.92239 5577013
0.59652102 0.31030601 8.9293699 6561082
0.62104702 0.312132 8.9552603 6888765
0.87550598 0.33363399 8.6725397 9338477
0.88905102 0.32815099 8.68678 10390648
1.97339 0.38562101 8.1489 5393478
1.98861 0.390223 8.1521902 4144440
-2.26757 0.32866201 7.5689301 14672869
-2.26775 0.328731 7.56949 13885413
-2.2688799 0.32247099 7.6180601 9870753
-2.2753601 0.31926399 7.7310801 6713209
-0.32500201 0.30469701 8.8690901 13678482
-0.31466001 0.29824901 8.8636703 13151883
-0.32285601 0.30662799 8.8683996 13283982
-0.277412 0.30089 8.83776 12626575
-0.27171099 0.30994099 8.8382397 12825240
-0.21497899 0.30398801 8.8495197 12695201
-0.16526701 0.303666 8.85425 11709601
-0.093827203 0.310718 8.8519201 7612492
-0.080574296 0.311124 8.86555 5773364
-0.046987999 0.309432 8.8841696 6823992
0.097482197 0.31247401 8.8414402 8793157
0.122259 0.31564 8.8458204 9317447
0.13473099 0.314179 8.8210897 7936566
0.15221401 0.31246501 8.8380804 7281462
0.161889 0.314989 8.8666496 7346230
0.33798501 0.31887099 8.8326101 7946315
0.37538201 0.31451201 8.8716497 3882068
0.529275 0.31657401 8.9345999 5052980
0.56896001 0.321266 8.9175396 5117743
0.573026 0.31917199 8.9108801 5314607
0.60526001 0.31897601 8.9281301 6233398
0.61928803 0.323773 8.9502602 6430008
0.88850898 0.34464401 8.6715698 10719352
0.901869 0.342278 8.6848602 11113852
0.92669398 0.344291 8.6901798 11705730
1.97481 0.397567 8.1640196 5393222
1.98753 0.39579201 8.1556196 4473147
1.99098 0.39878601 8.1393299 3815476
1.99856 0.395509 8.1406097 3289902
2.0035 0.39383101 8.1296301 3158826
-2.2667301 0.33393401 7.5789099 13227740
-2.2736499 0.33374399 7.6682601 6975868
-2.28703 0.32635501 7.7432199 7042174
-2.2869301 0.32633901 7.7428799 6910331
-2.17729 0.28691599 8.56602 12699599
-1.10955 0.30922699 8.5293198 12888974
-1.09857 0.309111 8.5340595 12955023
-0.34299701 0.306741 8.88764 14665373
-0.330295 0.316533 8.8751297 14139032
-0.277114 0.319509 8.8429298 12693138
-0.209589 0.315916 8.8657799 12826789
-0.16485199 0.316926 8.8637199 12300963
-0.14317501 0.31612599 8.8651695 5198956
0.081147999 0.32108301 8.84097 8923716
0.109869 0.32082501 8.8398304 10108245
0.122195 0.328013 8.8479204 9712463
0.135416 0.32277101 8.8211098 8527164
0.14244799 0.32669601 8.8297901 8724030
0.164628 0.325165 8.8449001 8396604
0.194857 0.32110199 8.8531704 5641772
0.28113201 0.333684 8.8244696 5315134
0.29161099 0.32833901 8.8271198 3873076
0.33146101 0.329797 8.8334999 8073793
0.36710501 0.32520801 8.8640499 5527395
0.38078201 0.326594 8.8787098 2895432
0.60523802 0.33019999 8.9419699 5117997
0.90016401 0.35814101 8.65273 11048059
1.97721 0.40127799 8.1545496 5196356
1.97091 0.40931699 8.1577101 5525064
1.98651 0.40695801 8.1605902 4670526
1.9870501 0.41579899 8.0028095 3027242
-2.2776401 0.34396201 7.65133 8226704
-2.2753301 0.343182 7.67593 7830919
-2.1842301 0.32188401 8.0714302 8422798
-2.08795 0.30969301 8.4122105 10728639
-1.83426 0.31222799 8.4470997 7565162
-1.19669 0.32306299 8.4745302 12691340
-0.34210899 0.31701499 8.88801 14599839
-0.33654299 0.326473 8.8815498 14533789
-0.31631699 0.321024 8.8891897 13349518
-0.282547 0.32946199 8.8496704 12494987
-0.21426 0.33102399 8.8567896 12694945
-0.16499799 0.33043101 8.8746901 12564131
-0.151236 0.330605 8.8801899 8157823
-0.137943 0.32836199 8.8766603 5462130
-0.10406 0.32518801 8.8549004 7290465
-0.069878303 0.32950601 8.8615799 6298935
0.101269 0.33230901 8.8471699 10042710
0.123916 0.339726 8.8404198 9778256
0.16153599 0.33857301 8.8463602 9446982
0.18690901 0.334833 8.8450699 7806777
0.324442 0.33917901 8.8321695 6628150
0.372637 0.33776101 8.8743095 4803677
0.386509 0.33966601 8.8923302 2763077
0.64446998 0.33913001 8.9545698 5905203
0.86138898 0.36416799 8.6104498 8351585
0.87824398 0.369894 8.6145096 10521716
1.97686 0.41486999 8.1590099 5327686
1.99361 0.41484901 8.1601 4144440
-2.2741499 0.345406 7.7064099 6581368
-2.1784201 0.333913 8.0604296 8357005
-2.0732701 0.32127199 8.3831797 9609643
-0.327292 0.335042 8.8718395 13678481
-0.287444 0.33940101 8.8434296 12428678
-0.26544899 0.33971399 8.8573999 12826012
-0.132588 0.34006801 8.8829403 5001069
-0.088676199 0.33700201 8.8619003 8268110
-0.065025799 0.34486699 8.8643503 5576754
-0.041484401 0.339524 8.8837299 7677504
0.085784599 0.349439 8.8372002 8990023
0.085785203 0.34945801 8.8373804 8990023
0.105051 0.34318599 8.8386898 10898530
0.14391699 0.35071701 8.8454905 9577801
0.141459 0.34274 8.8513203 9512519
0.175427 0.342841 8.8554897 8791619
0.18642899 0.345575 8.8471603 8594239
0.200289 0.342805 8.84307 8660032
0.209709 0.355066 8.7337999 10433106
0.27238899 0.35043699 8.8133097 6430024
0.31809199 0.34737599 8.8226099 5905973
0.36514401 0.34872901 8.84231 9473680
0.37860101 0.346982 8.8509903 3158601
0.39783701 0.34829599 8.89849 3548225
0.49171901 0.35694599 8.8986397 4989247
0.60260999 0.35456601 8.9529495 4264742
0.61860502 0.35585299 8.9652395 5839152
0.62442499 0.35566401 8.96451 6232627
0.63562399 0.35537699 8.9560804 6692407
0.65191603 0.35038301 8.9560299 6627641
0.89020598 0.37265 8.5805798 11048059
1.97425 0.421078 8.1901398 5656393
1.98576 0.422281 8.1668797 4867648
1.96947 0.43523499 8.01019 3815732
1.9895999 0.43224099 8.1264696 4407356
1.97074 0.43558401 8.0153198 3815732
-2.26723 0.36432201 7.5855098 10925505
-2.2769899 0.354417 7.68366 6712698
-2.17349 0.34650999 8.0518599 9081243
-2.2513399 0.312208 8.5598602 13093843
-2.0885999 0.32610801 8.4273996 9938865
-2.0720601 0.322429 8.4139204 9543592
-1.47135 0.34989399 8.2743797 6446167
-1.4493001 0.34874201 8.2924604 6117458
-1.19899 0.34458899 8.4589005 12627091
-0.34145501 0.34879801 8.8753099 14665375
-0.34657899 0.339957 8.8822098 14731165
-0.33050999 0.34493101 8.8597202 13875860
-0.27865899 0.348593 8.8450804 12824725
-0.26927301 0.35160601 8.8401499 12957085
-0.21803001 0.34269199 8.8702803 12892322
-0.21246199 0.35183701 8.8561096 12760738
-0.14010701 0.351221 8.8787899 5329761
-0.092685901 0.34956101 8.86689 6763350
-0.099774197 0.35073701 8.8687401 6308195
-0.077995002 0.348398 8.87045 8203600
-0.041485 0.34910601 8.8780403 7678274
0.060022801 0.351482 8.8428698 9056839
0.080123499 0.354036 8.83953 8990021
0.078620501 0.361375 8.8319902 8859205
0.101426 0.361031 8.8479404 10833761
0.113857 0.36106801 8.8490496 10964578
0.130417 0.35161501 8.8449802 9054280
0.18755899 0.35537601 8.8632097 10563148
0.25398201 0.36071801 8.84165 8923219
0.26807699 0.365105 8.8134804 6102600
0.36801299 0.359622 8.8434496 8091519
0.38130701 0.35882899 8.84692 3353926
0.41722301 0.361366 8.88624 6761031
0.43101701 0.36096999 8.8975897 6167865
0.49191499 0.36701301 8.89499 5841219
0.61767799 0.365749 8.9562902 6889788
0.62871301 0.36510101 8.9463396 7086139
0.80986798 0.37756699 8.8022499 3088163
0.89414901 0.37458 8.8946304 9929837
1.97932 0.42934501 8.1800604 5327685
1.9856 0.434874 8.1343403 4801856
1.99025 0.432421 8.12887 4473148
1.98041 0.445995 8.0232 3552817
-2.2672 0.374309 7.6202502 7042175
-2.1691899 0.32478401 8.6049204 12370378
-2.07283 0.33907801 8.4333096 9214625
-1.47525 0.359029 8.2679501 9077885
-1.45689 0.35481599 8.2843304 6906975
-1.19962 0.35174301 8.4610395 10851197
-1.1898 0.35793301 8.4670496 8746338
-1.16698 0.353129 8.4898901 9469803
-1.15626 0.35855299 8.49687 8417377
-0.33597699 0.35683501 8.8674002 14336411
-0.32238901 0.35782999 8.8674002 13152138
-0.28811401 0.358953 8.8519297 12428678
-0.179277 0.36449599 8.8362703 12695203
-0.176331 0.358767 8.8444796 12695203
-0.16409101 0.35938501 8.8478899 12695200
-0.159134 0.35796499 8.8760996 12498079
-0.068599798 0.36092001 8.8635597 6761548
-0.073621199 0.35889199 8.8599195 7482960
0.0908392 0.36272901 8.8376102 9780561
0.37305599 0.37320799 8.8594799 5457749
0.38661399 0.376151 8.8693504 5715537
0.420048 0.37490299 8.8969297 8203856
0.59610301 0.37085801 8.9518604 6299962
0.61168098 0.376412 8.9567003 7546950
0.623523 0.37650701 8.9526796 7677765
0.64398903 0.37212601 8.9432201 7611456
0.63387501 0.37593001 8.94172 7677251
0.79533601 0.38379699 8.8750296 2628641
0.90020698 0.385075 8.8488102 10258802
1.2937 0.374228 9.21101 11902337
1.98588 0.449341 8.1160803 4801856
1.98656 0.44952199 8.1188498 4801856
1.97531 0.45458001 8.0390501 4012854
1.97656 0.45490599 8.04424 4013110
1.98365 0.45501599 8.0042105 3093036
-2.1705999 0.338503 8.5922899 12567498
-2.1004601 0.34009701 8.4883204 9346470
-1.4072 0.42581499 7.19877 7563883
-1.13183 0.361696 8.5117798 8746342
-0.34744 0.36367401 8.8983297 14731168
-0.341681 0.36909699 8.8765697 14599582
-0.327611 0.36788699 8.8680897 13415053
-0.13698 0.37055099 8.8865499 7894139
-0.14014401 0.367908 8.8768797 9078408
-0.0221952 0.37699801 8.8769598 8598601
-0.0292303 0.36841601 8.86444 8598089
0.262683 0.38073301 8.8087997 6234184
0.37280801 0.38552201 8.8682203 6704984
0.44716701 0.379397 8.9062796 8007248
0.55866897 0.38624901 8.9130802 6759745
0.57146603 0.38054201 8.9186201 6628160
0.59647298 0.38099 8.9505701 7153475
0.58430803 0.37972501 8.9338503 6694208
0.58505702 0.389413 8.9402905 7548235
0.67662501 0.38908499 8.91852 6628925
0.80535698 0.387155 8.9464703 2759973
0.89648098 0.39327499 8.9689703 9863788
