ply                 
format ascii 1.0    
element vertex 1236
property float x    
property float y    
property float z    
property uchar red  
property uchar green
property uchar blue 
end_header          
-2.64581 -0.47006 4.35428 83 64 58 
-0.299532 -0.295872 2.73264 208 153 122 
-1.44929 -0.378606 3.55623 246 229 213 
-2.55035 -0.475708 4.48723 113 72 50 
-0.423833 -0.300077 2.82356 188 161 142 
-1.26892 -0.36066 3.40803 203 166 140 
-1.1783 -0.350799 3.33627 253 222 201 
-1.16413 -0.350124 3.32481 250 218 193 
-0.363557 -0.293738 2.78077 255 234 217 
-2.57116 -0.461144 4.4467 104 68 46 
-1.49518 -0.361353 3.49473 213 186 159 
-1.48406 -0.362601 3.50694 83 41 19 
-2.59034 -0.454377 4.43634 124 88 62 
-1.50516 -0.356136 3.49386 88 56 33 
-2.58152 -0.449715 4.44303 217 189 167 
-1.45346 -0.360352 3.55371 150 95 65 
-0.21122 -0.271109 2.66372 166 136 108 
-0.435225 -0.285591 2.82969 223 200 184 
-1.59327 -0.340676 3.38985 136 95 73 
-2.53654 -0.447358 4.4996 104 64 39 
-1.54891 -0.34385 3.44562 225 197 173 
-1.49492 -0.348712 3.50219 210 174 150 
0.943338 -0.407809 4.17985 200 173 154 
8.37771 -1.55297 16.0698 236 226 217 
-0.421893 -0.274928 2.8204 194 172 149 
-0.303558 -0.265695 2.73787 255 229 211 
-1.50461 -0.335473 3.49709 111 58 26 
-1.27758 -0.326116 3.41079 255 239 224 
-0.279602 -0.262234 2.71844 255 233 212 
-0.590661 -0.25768 2.68501 76 55 36 
8.34939 -1.50049 15.9703 153 140 132 
-0.334446 -0.263876 2.75832 250 225 205 
-0.760205 -0.252407 2.65267 255 255 244 
0.936412 -0.394861 4.1841 254 237 221 
-0.246149 -0.255306 2.69238 248 230 210 
0.900662 -0.394467 4.21121 251 230 211 
-2.56934 -0.41643 4.45896 207 175 152 
0.946975 -0.387164 4.17379 222 199 183 
8.56645 -1.47033 15.9826 255 255 251 
-0.260475 -0.248155 2.69678 161 133 112 
7.96459 -1.46069 16.2496 254 253 249 
-0.252482 -0.246397 2.69413 160 136 112 
-1.54713 -0.312026 3.44175 101 65 41 
-0.295692 -0.248927 2.72569 185 158 137 
-1.49631 -0.316493 3.49723 251 226 206 
-1.30394 -0.309286 3.43921 255 243 228 
-1.51074 -0.306103 3.48523 245 214 194 
7.95604 -1.40171 16.3125 255 253 254 
-0.409454 -0.242812 2.8123 220 193 172 
-0.373499 -0.240966 2.78632 255 237 219 
-0.200938 -0.22963 2.66023 194 173 152 
-0.442141 -0.242552 2.82781 237 218 203 
1.03265 -0.348343 4.09359 242 222 195 
-0.667121 -0.222566 2.6012 220 197 183 
7.95338 -1.36919 16.4067 192 188 185 
-2.59866 -0.372541 4.42097 125 96 78 
0.924006 -0.352754 4.19095 187 160 143 
-2.51894 -0.377013 4.49591 244 214 190 
-1.30465 -0.288423 3.43427 255 249 223 
-2.53115 -0.374096 4.49375 95 60 38 
-1.44973 -0.296607 3.54854 242 221 204 
-2.45555 -0.36758 4.43965 183 143 118 
-0.307673 -0.227872 2.73484 137 106 85 
-0.67518 -0.214471 2.59314 124 97 80 
7.83001 -1.32923 16.4473 255 255 248 
-0.214182 -0.219963 2.66331 248 229 215 
0.899004 -0.342812 4.20711 250 231 216 
-2.52905 -0.364099 4.49345 87 55 34 
0.929413 -0.33791 4.18621 193 167 150 
9.29639 -1.30772 16.6629 255 254 251 
-0.627644 -0.211485 2.64366 92 74 52 
-1.3055 -0.270253 3.43554 210 188 164 
0.609018 -0.303933 3.86758 229 182 162 
0.93452 -0.327793 4.17934 255 236 219 
-0.289573 -0.21484 2.72375 177 149 127 
-0.43448 -0.221075 2.83042 144 118 101 
-0.411548 -0.216744 2.80822 255 241 224 
-1.55235 -0.262803 3.43544 237 211 186 
-0.425682 -0.216611 2.82377 255 248 233 
0.928958 -0.317941 4.18795 206 180 165 
7.91839 -1.22741 16.4157 255 252 249 
7.84165 -1.22737 16.4631 255 255 251 
-1.59414 -0.256728 3.39815 125 80 51 
-0.567829 -0.205564 2.70559 175 153 132 
1.02394 -0.307667 4.0998 179 157 134 
0.908495 -0.315367 4.20517 183 156 137 
-2.52185 -0.334596 4.48959 230 206 182 
9.31475 -1.21577 16.576 189 162 153 
9.26694 -1.09435 15.024 138 125 116 
-0.202555 -0.197241 2.65992 229 203 178 
9.35575 -1.08362 14.9897 255 255 251 
-2.60015 -0.321334 4.42422 108 76 61 
-0.326306 -0.200487 2.75228 222 195 168 
9.08228 -1.15337 16.264 253 254 255 
1.01532 -0.293099 4.10452 255 253 231 
9.29989 -1.06669 15.1298 255 255 250 
0.563515 -0.276218 3.86832 242 205 186 
-1.47962 -0.25078 3.5183 95 50 19 
-1.46489 -0.251465 3.53472 133 88 57 
-1.31296 -0.244432 3.43618 51 32 25 
-0.434122 -0.202174 2.8287 255 248 231 
0.432367 -0.26385 3.75148 255 238 226 
-2.51095 -0.314216 4.48248 255 236 223 
-0.281962 -0.191306 2.71066 255 241 218 
7.92139 -1.11998 16.4113 253 252 248 
-1.16482 -0.228864 3.31825 226 196 172 
-2.55288 -0.306672 4.47062 120 85 65 
-0.273679 -0.183949 2.70741 173 141 120 
-1.28149 -0.229804 3.41251 171 145 128 
-0.288052 -0.184172 2.71368 185 141 112 
1.03772 -0.273917 4.08398 255 231 209 
7.95787 -1.07818 16.4019 152 141 135 
0.927993 -0.27847 4.18656 255 234 216 
-1.16329 -0.218974 3.31829 243 213 189 
-0.281358 -0.178553 2.71079 253 226 205 
0.919018 -0.272422 4.19713 173 148 128 
-0.431224 -0.18431 2.82475 253 231 210 
0.987211 -0.265209 4.12957 204 175 159 
-1.52162 -0.222437 3.46681 136 108 86 
-0.545618 -0.177383 2.72859 119 84 64 
-1.58406 -0.215956 3.39596 202 161 117 
7.90053 -1.00695 16.165 255 253 254 
7.86329 -1.02041 16.4801 254 255 250 
-1.5315 -0.217965 3.4619 59 33 16 
-0.719555 -0.16024 2.54872 239 218 199 
0.978406 -0.256306 4.14076 247 228 213 
-1.30688 -0.210141 3.4306 255 241 221 
0.89938 -0.256359 4.20509 255 243 228 
-0.386249 -0.171179 2.79073 141 101 75 
-2.51322 -0.271366 4.47406 72 50 36 
-1.55977 -0.206873 3.42664 206 176 148 
8.25351 -0.954351 16.1737 106 88 76 
-0.700762 -0.154854 2.56542 54 37 27 
-0.65363 -0.157476 2.61375 110 93 77 
-0.688828 -0.154999 2.57352 163 135 114 
9.51658 -0.870708 14.9087 191 172 165 
8.30891 -0.914213 15.9134 88 65 51 
0.952177 -0.242192 4.16263 199 173 156 
7.87384 -0.928151 16.2315 255 255 255 
-2.50335 -0.260208 4.47042 222 191 170 
-0.461572 -0.164439 2.81537 102 66 42 
-0.48934 -0.162711 2.78946 82 60 39 
0.552735 -0.222057 3.86801 77 30 10 
-1.5962 -0.193841 3.38043 111 80 59 
-0.649059 -0.151999 2.61872 185 169 144 
0.942261 -0.23454 4.16993 255 235 216 
0.964521 -0.234302 4.14528 254 237 217 
0.922046 -0.232649 4.18855 251 229 215 
0.978614 -0.230656 4.1313 156 129 108 
-0.41389 -0.157515 2.81054 255 248 227 
-0.239531 -0.150564 2.67963 187 159 138 
-0.6537 -0.144865 2.61306 189 176 167 
8.36438 -0.853364 16.0099 157 143 132 
-2.51601 -0.242299 4.47499 78 59 45 
-0.590042 -0.146486 2.68013 150 128 105 
0.949975 -0.223893 4.15818 203 181 160 
8.22611 -0.854217 16.1305 120 106 97 
-0.580843 -0.145894 2.68945 65 43 29 
7.96469 -0.851372 16.2243 255 255 253 
8.11918 -0.858079 16.3008 255 253 252 
-0.608201 -0.143078 2.65922 229 210 195 
-1.16204 -0.176315 3.31548 248 217 197 
-0.665897 -0.138901 2.59801 203 175 163 
8.37939 -0.825689 16.1117 255 254 251 
8.37168 -0.819376 15.9494 255 255 250 
8.55889 -0.823698 16.0157 255 254 250 
-0.287842 -0.143084 2.71831 255 232 209 
0.92167 -0.218169 4.18599 255 238 223 
0.985356 -0.215919 4.13245 254 232 211 
-1.30533 -0.178411 3.43022 224 217 199 
-0.335946 -0.144493 2.75195 173 143 119 
8.22869 -0.815121 16.0762 253 253 251 
1.02255 -0.210122 4.10212 165 138 119 
0.954371 -0.211315 4.15573 249 228 209 
7.89162 -0.800794 16.1401 134 118 105 
0.910075 -0.210252 4.1929 255 246 232 
1.00263 -0.206929 4.11893 189 166 148 
-0.36791 -0.140758 2.77983 255 242 227 
-0.245924 -0.135395 2.6799 173 140 121 
7.89768 -0.793966 16.2527 255 255 248 
-0.400324 -0.140346 2.79651 255 243 223 
0.989464 -0.204069 4.12769 203 177 160 
-0.4354 -0.140191 2.82462 246 229 213 
-0.425466 -0.140493 2.81735 253 235 215 
0.976922 -0.202889 4.13208 243 222 203 
-1.58914 -0.16368 3.38442 188 153 131 
7.91737 -0.754454 16.4628 214 204 195 
-1.61724 -0.157145 3.36025 208 180 158 
-1.49754 -0.163002 3.49128 84 49 27 
-1.47368 -0.159981 3.51717 210 176 149 
7.73526 -0.696376 15.9304 254 255 250 
-1.56333 -0.151653 3.41603 70 41 25 
-0.323297 -0.122512 2.73453 244 218 195 
-1.55415 -0.151276 3.42652 181 150 129 
0.916446 -0.181605 4.18683 255 243 225 
-1.61542 -0.146161 3.35778 91 60 39 
-1.59348 -0.145635 3.37253 106 75 54 
-1.6251 -0.143311 3.35391 228 203 181 
-1.56328 -0.145674 3.41605 82 53 35 
-1.54595 -0.142925 3.42366 65 37 15 
9.44432 -0.610887 14.9536 255 254 252 
0.317122 -0.151276 3.63041 81 56 49 
-0.472929 -0.11622 2.80575 70 43 24 
-0.417003 -0.1147 2.80746 253 231 208 
-0.338695 -0.112316 2.74753 184 152 127 
-1.49557 -0.140828 3.49979 115 66 34 
0.995162 -0.163282 4.1217 213 187 170 
9.54344 -0.58181 14.9369 153 138 131 
-1.51991 -0.137328 3.46605 134 107 88 
9.35781 -0.576812 14.9322 157 135 122 
-1.57343 -0.1345 3.41121 227 200 179 
-1.55605 -0.135119 3.42723 242 212 188 
-1.58713 -0.132864 3.39189 220 192 168 
-0.701578 -0.101022 2.56065 203 191 169 
-0.572672 -0.106016 2.69305 235 217 197 
-1.53392 -0.133489 3.45349 203 168 146 
-0.466824 -0.108338 2.80632 229 213 198 
0.897612 -0.155726 4.19612 220 211 196 
-0.329256 -0.103156 2.7455 255 241 219 
-1.48802 -0.129343 3.49841 181 135 101 
-1.43151 -0.130246 3.52851 195 168 147 
-0.382584 -0.103768 2.78698 113 72 52 
0.937006 -0.151326 4.16702 183 155 141 
-1.45326 -0.127457 3.54017 255 233 210 
-1.57435 -0.122136 3.40839 107 70 51 
-1.55387 -0.122154 3.42235 84 53 32 
-1.53351 -0.122116 3.46231 83 56 35 
-1.47866 -0.124009 3.52181 111 62 30 
0.564871 -0.135336 3.87373 248 212 190 
0.607714 -0.134122 3.86068 255 214 192 
9.54393 -0.498398 14.9442 141 125 125 
-0.380099 -0.0967466 2.78629 245 224 207 
9.37714 -0.494907 14.9388 141 127 116 
0.322266 -0.122529 3.62614 249 228 207 
0.928303 -0.138638 4.17391 255 250 234 
1.68768 -0.16528 5.04976 89 72 52 
-1.63642 -0.110243 3.3379 196 177 160 
-1.31464 -0.110479 3.42732 56 43 34 
-0.368491 -0.0894677 2.77946 251 230 213 
-1.50993 -0.109548 3.47968 84 49 27 
-0.408295 -0.0893636 2.80797 162 130 105 
-1.55039 -0.107197 3.43493 172 141 120 
0.315947 -0.112381 3.62787 46 33 27 
1.01898 -0.122447 4.09231 195 169 152 
-1.64405 -0.0992334 3.33371 204 182 161 
0.936306 -0.122031 4.16855 255 243 227 
0.964431 -0.121087 4.14108 255 240 225 
-0.816537 -0.077244 2.59582 163 137 112 
0.999148 -0.116969 4.10725 202 177 157 
0.322449 -0.103203 3.62584 235 217 195 
-0.326022 -0.0771954 2.74361 118 78 52 
1.0099 -0.112609 4.10021 255 238 219 
0.956641 -0.112147 4.14703 200 169 148 
-0.304524 -0.0748913 2.71518 254 228 205 
0.990366 -0.109727 4.11991 255 237 216 
-1.45597 -0.0942396 3.53892 137 88 58 
-1.2204 -0.0892865 3.34072 202 167 145 
8.90136 -0.393276 15.3845 211 208 203 
9.55431 -0.369169 14.9481 139 125 116 
-1.50803 -0.0871654 3.47828 185 154 133 
0.324625 -0.0896577 3.62495 225 203 180 
0.95267 -0.101001 4.15354 253 234 219 
1.00012 -0.0964569 4.10217 181 151 127 
0.970411 -0.0937278 4.1365 166 134 111 
-1.16362 -0.0735624 3.30768 255 232 213 
-1.45154 -0.0781501 3.53598 253 236 218 
0.896366 -0.0909276 4.19216 255 250 238 
-1.70663 -0.0699112 3.36472 177 144 113 
-1.62939 -0.0707246 3.33761 79 54 34 
1.12899 -0.084929 4.11764 128 109 92 
-1.65059 -0.0667228 3.32016 243 224 209 
-1.4598 -0.0707312 3.53691 113 71 47 
0.968071 -0.0799998 4.13547 255 237 220 
9.5529 -0.269583 14.9356 129 110 106 
-2.50966 -0.0849618 4.45835 245 227 213 
-0.202058 -0.0493318 2.64513 215 169 145 
-1.16399 -0.0566633 3.30574 245 215 189 
-2.2532 -0.0708714 4.23499 248 225 207 
1.00231 -0.0671327 4.10264 181 153 132 
0.988191 -0.0657752 4.11482 173 145 123 
-1.45586 -0.0554539 3.5379 173 131 106 
-0.475727 -0.0454331 2.79439 210 178 153 
-1.64406 -0.0506443 3.31832 129 97 76 
0.980281 -0.0574735 4.12142 255 240 221 
-1.44546 -0.0502073 3.53811 255 238 215 
0.901354 -0.0521408 4.19217 255 242 227 
-1.51528 -0.0435482 3.47068 91 56 36 
-1.64328 -0.0338245 3.31851 103 71 46 
4.86912 -0.0934923 10.445 87 90 9 
0.935403 -0.0392746 4.16125 197 165 142 
1.05979 -0.0364187 4.05233 251 234 216 
-0.341885 -0.025499 2.72911 168 144 118 
-1.44275 -0.0295155 3.53603 243 223 199 
-1.56192 -0.0271634 3.41028 78 54 44 
-0.493314 -0.0226249 2.77622 131 105 88 
-1.75806 -0.0260044 3.41138 255 245 225 
-1.65232 -0.0244642 3.31428 235 214 197 
5.44366 -0.0597796 9.82187 147 149 66 
-1.30582 -0.0224922 3.41754 241 226 207 
-1.50126 -0.0224972 3.48339 187 158 128 
0.895413 -0.026234 4.19145 255 252 239 
-1.64414 -0.0185861 3.31674 102 74 53 
-0.67118 -0.0129442 2.58561 98 81 65 
5.49471 -0.0328217 9.80546 138 149 71 
-0.616228 -0.0108339 2.64644 255 249 232 
4.9257 -0.0305021 10.3765 102 112 26 
-1.50827 -0.0128765 3.46976 109 73 51 
1.01186 -0.0119153 4.08693 181 149 126 
5.36139 -0.0168466 9.87333 91 105 28 
-0.178578 -0.00733171 2.62242 47 39 18 
-1.59559 -0.00746017 3.37474 73 51 30 
-0.46563 -0.00227055 2.79925 250 228 214 
4.92066 0.00379364 10.3515 229 230 128 
0.990441 -0.000790658 4.11366 252 229 211 
-0.179731 -0.000455698 2.62474 198 193 164 
-1.65213 0.00108659 3.31497 206 179 160 
-1.31504 0.00136455 3.41967 60 43 36 
-1.49944 0.00380391 3.47659 97 63 38 
5.79702 0.0199729 9.51323 190 191 131 
-2.5161 0.00601225 4.47171 91 68 54 
-1.50966 0.00727326 3.46768 61 29 16 
-0.451178 0.00596715 2.78605 197 174 156 
-2.42192 0.012278 4.37427 255 244 230 
-0.836416 0.00565936 2.60836 244 222 198 
-0.772553 0.00571565 2.55226 192 164 142 
-0.273298 0.00568068 2.64898 127 101 74 
0.991427 0.0116111 4.10767 190 159 138 
0.910734 0.0135072 4.18359 222 197 177 
4.87395 0.0419787 10.4457 181 187 101 
0.951338 0.0169157 4.14649 248 223 203 
-1.30872 0.0135801 3.41445 243 238 208 
-0.468574 0.011955 2.7944 243 225 205 
5.1785 0.0579763 10.1387 164 173 80 
5.46954 0.0539176 9.84719 143 154 75 
-0.378199 0.0152012 2.72736 218 197 170 
0.948709 0.028542 4.14669 213 185 164 
6.25686 0.0751417 8.87288 136 143 66 
5.40548 0.0866249 9.92894 201 215 140 
-0.410642 0.0219549 2.75346 188 160 139 
-1.30969 0.02827 3.41451 244 232 210 
5.64363 0.0898679 9.58151 64 78 1 
5.11946 0.0985904 10.202 189 201 115 
-0.326367 0.0237995 2.68698 110 84 67 
0.98821 0.0397454 4.10987 253 231 210 
6.32487 0.0904323 8.84351 78 80 30 
0.969384 0.0421985 4.1248 237 215 194 
5.95487 0.101934 9.2978 157 170 98 
-1.53412 0.0346594 3.44253 190 163 142 
-1.31696 0.0352912 3.41473 59 43 30 
-0.485218 0.0289845 2.78444 250 233 215 
-0.434402 0.0286267 2.76675 195 176 159 
-0.209791 0.0267771 2.60014 123 97 70 
4.86798 0.121395 10.4395 230 240 153 
-0.334745 0.0301878 2.69592 211 183 159 
4.81366 0.133895 10.4753 79 90 11 
4.842 0.131165 10.4636 99 114 45 
-0.395509 0.0345256 2.73577 186 161 141 
-0.375489 0.0335922 2.72206 247 228 214 
4.94874 0.14428 10.3746 179 195 124 
5.05576 0.14161 10.2902 69 82 2 
-1.31067 0.0436967 3.41163 248 233 214 
-0.40424 0.0353915 2.74293 181 156 136 
5.01606 0.145306 10.355 206 185 138 
6.42033 0.121507 8.6707 204 199 117 
-1.58538 0.0451832 3.38331 222 203 186 
-0.213704 0.0343583 2.60216 215 189 166 
-0.468436 0.0397237 2.79195 227 207 182 
-0.323472 0.0377139 2.68263 111 84 63 
5.487 0.152926 9.77393 137 153 80 
6.48147 0.133174 8.60884 62 74 10 
-0.349161 0.0426904 2.70511 151 121 95 
-0.336919 0.0418436 2.6947 139 108 87 
1.05956 0.0667163 4.0409 255 246 231 
5.514 0.169719 9.76795 54 65 0 
-1.46524 0.0613437 3.51693 104 63 35 
-1.30553 0.059946 3.41073 255 247 231 
-0.343626 0.0481036 2.69877 245 224 203 
-1.58821 0.0628369 3.38341 201 182 165 
6.29588 0.173254 8.91658 191 176 143 
-1.49695 0.0647086 3.47989 89 57 34 
1.0215 0.0799851 4.0711 169 140 96 
5.47534 0.202178 9.89916 106 107 31 
-0.202701 0.0517375 2.59562 178 160 136 
-0.364055 0.0537586 2.71161 185 157 136 
-0.313723 0.0542879 2.67184 123 93 67 
0.90016 0.0877956 4.16901 157 119 80 
4.83515 0.227611 10.5338 182 169 114 
6.02678 0.198542 9.19312 91 57 9 
6.14682 0.197429 9.09249 181 181 107 
-1.21489 0.0704144 3.32978 255 237 216 
-1.18405 0.0692619 3.30344 255 246 225 
6.4896 0.187895 8.58714 149 142 88 
5.40376 0.224028 9.89519 117 125 50 
-0.668346 0.0558418 2.58717 58 40 28 
-0.266613 0.0569726 2.63867 90 59 38 
6.4199 0.195977 8.60348 46 53 0 
-1.17294 0.072768 3.28955 249 224 202 
0.909304 0.0932047 4.15185 159 127 89 
-1.5266 0.0772549 3.44395 86 59 38 
4.72761 0.250786 10.6612 252 230 207 
5.45419 0.232692 9.89649 201 188 92 
-0.349321 0.061885 2.70024 246 224 203 
-0.295797 0.0608911 2.66219 165 135 111 
-1.60122 0.0781832 3.35804 67 38 20 
-0.319956 0.0625113 2.67549 215 191 167 
5.95292 0.228197 9.30613 91 99 24 
6.03952 0.227897 9.20931 224 205 173 
6.12156 0.224385 9.11763 206 197 132 
-0.593455 0.0636399 2.66709 62 41 24 
4.89103 0.260701 10.4864 112 100 42 
5.66778 0.238711 9.48909 107 116 33 
6.02973 0.231062 9.12189 102 103 25 
4.86024 0.268155 10.5033 222 207 184 
5.45807 0.255087 9.86238 90 101 23 
6.26082 0.229487 8.95827 210 198 172 
-1.61103 0.083829 3.35325 88 57 39 
6.0946 0.23676 9.04627 97 87 25 
6.40484 0.227757 8.70705 215 198 155 
-0.0853291 0.0684765 2.73009 30 22 0 
0.904723 0.106856 4.15784 255 243 198 
5.67263 0.253122 9.53813 227 233 159 
6.35941 0.231327 8.73402 117 109 46 
-0.398918 0.0697197 2.73467 180 149 128 
-0.368622 0.0689388 2.71492 247 225 204 
0.960033 0.106926 4.10378 87 59 35 
6.01472 0.247719 9.2548 211 195 161 
1.00067 0.107807 4.07509 60 34 7 
5.47083 0.266212 9.81653 142 152 65 
5.48776 0.265816 9.78712 197 212 121 
6.32504 0.242143 8.90277 211 193 157 
6.4813 0.235923 8.65063 95 103 44 
6.21542 0.245846 8.98179 217 199 163 
6.33 0.240932 8.76416 225 196 164 
-0.481778 0.0754493 2.78336 219 193 168 
0.889442 0.115613 4.17536 234 213 192 
0.930917 0.11408 4.14075 163 133 99 
-1.51966 0.0961227 3.45379 186 158 136 
1.00905 0.116974 4.06354 231 213 193 
5.1518 0.296863 10.113 213 191 152 
6.11507 0.265428 9.07298 184 181 126 
0.499059 0.107571 3.72609 160 138 91 
-0.467113 0.0806681 2.79244 249 237 221 
1.0537 0.120617 4.02301 227 209 187 
-0.589027 0.0796609 2.66839 74 51 35 
-0.301563 0.0833531 2.6691 244 225 208 
-2.42604 0.140722 4.37623 250 237 220 
-1.67407 0.10511 3.32675 179 146 127 
-0.36407 0.0857713 2.7125 174 140 115 
1.06837 0.130074 4.01166 196 177 147 
-0.433646 0.0916387 2.76498 255 240 223 
6.23313 0.303571 8.87506 183 190 94 
-0.215909 0.0872888 2.59723 115 85 61 
0.965364 0.139787 4.10288 187 160 141 
0.987162 0.139316 4.08832 184 159 139 
-1.53981 0.117902 3.42426 60 35 15 
-0.229213 0.0892883 2.60778 132 100 77 
-0.329596 0.0922645 2.68221 239 215 191 
-1.30933 0.122152 3.40511 218 200 176 
5.388 0.350953 9.50809 143 158 41 
0.896266 0.154448 4.17511 253 234 217 
-1.48834 0.129864 3.48856 94 49 26 
-1.31791 0.129783 3.40645 50 31 17 
0.917068 0.16172 4.14999 255 243 227 
5.91515 0.352219 8.86072 202 219 117 
-1.4675 0.137679 3.51915 106 66 40 
1.00214 0.160965 4.07327 203 178 158 
-1.60591 0.131492 3.35329 66 44 33 
-1.53145 0.134733 3.43205 75 43 28 
-0.266746 0.103248 2.63382 247 229 207 
0.971914 0.16691 4.09729 200 174 157 
-1.3118 0.139045 3.40326 232 217 196 
-0.214659 0.10531 2.59645 233 212 195 
-0.468567 0.114912 2.78954 255 239 223 
-1.59824 0.138612 3.35716 209 187 164 
-1.21115 0.13818 3.31587 255 235 214 
-1.5428 0.146245 3.43115 181 155 128 
-0.341036 0.119388 2.6893 166 138 117 
-0.225461 0.115032 2.60179 224 209 190 
-0.503846 0.123128 2.75819 179 149 125 
-0.324752 0.119396 2.67563 143 115 93 
-0.295711 0.118683 2.6537 149 118 97 
0.987843 0.185426 4.08688 201 174 157 
-0.448794 0.128822 2.77737 255 240 222 
-1.1544 0.154822 3.26703 255 235 214 
-0.345698 0.12737 2.69336 246 224 203 
-1.4527 0.168683 3.52197 255 242 225 
-0.259917 0.127409 2.62666 127 103 79 
-1.64557 0.160568 3.30591 114 89 69 
0.895626 0.204595 4.16332 255 238 217 
-1.45907 0.174434 3.51783 233 211 190 
-0.351198 0.132617 2.69157 241 219 198 
-1.31749 0.169488 3.4034 54 36 32 
-0.295874 0.13288 2.65059 106 79 58 
-0.334387 0.135233 2.67859 160 132 111 
-0.236778 0.131501 2.60891 136 110 87 
-0.400747 0.13987 2.73608 244 219 197 
-1.20628 0.171731 3.31372 255 242 221 
-1.10833 0.166859 3.22745 255 251 234 
-0.344617 0.139072 2.68826 183 156 137 
0.990444 0.213105 4.08156 173 135 116 
-0.0765149 0.142832 2.73667 194 176 154 
-1.56454 0.17764 3.40503 81 53 32 
-0.229755 0.13614 2.60469 212 185 164 
1.03925 0.213707 4.03545 184 153 133 
-1.16137 0.172749 3.27374 255 245 226 
0.999599 0.217387 4.07301 255 233 212 
-0.394683 0.144618 2.73178 173 143 117 
0.974761 0.221429 4.09551 255 232 211 
-1.46077 0.189897 3.51568 224 193 172 
-1.52909 0.185764 3.42806 124 98 73 
-0.295614 0.143249 2.64608 91 66 46 
-0.375489 0.147496 2.70933 131 94 68 
-0.329718 0.146403 2.67457 229 204 182 
-1.65351 0.181427 3.30525 238 218 194 
0.925026 0.229791 4.13457 211 178 159 
-0.308374 0.147741 2.65479 207 181 158 
0.894457 0.233064 4.16455 105 72 53 
0.952366 0.230715 4.11204 208 183 163 
-1.58903 0.192456 3.36841 134 112 91 
-0.266314 0.152306 2.62899 211 183 159 
0.907845 0.242198 4.145 255 245 232 
0.899838 0.243543 4.15862 255 255 241 
0.946491 0.243367 4.11679 253 246 230 
0.991251 0.242839 4.07348 247 222 200 
-1.46202 0.211072 3.51831 152 105 79 
-1.11907 0.196756 3.23683 255 248 230 
-0.686399 0.155128 2.56125 207 194 178 
-0.354797 0.163525 2.69551 153 117 93 
0.955975 0.251496 4.10979 191 164 143 
-1.45263 0.217966 3.52017 255 244 229 
-1.31763 0.210436 3.40194 45 32 26 
0.936096 0.257196 4.12589 210 183 166 
1.03163 0.253218 4.0429 189 164 144 
-1.54863 0.214002 3.41687 206 181 161 
-0.392913 0.170752 2.72718 224 204 180 
-1.4569 0.220778 3.51649 255 238 221 
-0.347265 0.168431 2.68918 236 208 186 
0.897426 0.2656 4.16063 255 251 235 
0.948476 0.262108 4.11877 255 249 233 
0.943308 0.267206 4.11829 255 249 233 
0.912794 0.270057 4.1457 255 251 235 
-0.409929 0.178302 2.74358 255 250 232 
-0.308569 0.1738 2.65992 209 183 160 
-0.528793 0.180795 2.72619 203 179 155 
-0.389715 0.179663 2.72152 247 222 200 
-1.45796 0.233633 3.51568 252 230 216 
-1.3111 0.227928 3.39862 237 231 219 
-1.13612 0.218063 3.24245 255 246 227 
-0.30058 0.182545 2.65266 142 117 95 
-1.55147 0.235572 3.41494 83 57 34 
-0.452656 0.193681 2.7702 244 219 197 
-0.389836 0.189547 2.72285 114 83 62 
-1.5434 0.239937 3.41723 167 139 117 
0.942359 0.290845 4.12088 207 176 158 
-0.585216 0.188434 2.66835 225 203 182 
-0.544716 0.190882 2.71149 200 181 149 
-1.50192 0.245406 3.46467 75 44 23 
0.98979 0.291978 4.07875 178 140 119 
0.955233 0.296489 4.11341 255 253 240 
-1.12386 0.234192 3.23366 201 174 155 
3.20628 0.566215 7.68373 231 215 200 
-0.457125 0.202314 2.77561 182 150 127 
-1.30969 0.249902 3.39828 227 220 204 
-0.304012 0.1955 2.654 133 105 84 
-0.408693 0.202668 2.73717 224 196 174 
3.01737 0.48808 6.4812 235 222 214 
0.926694 0.311148 4.1323 196 161 139 
0.953296 0.309013 4.10761 204 176 155 
-0.185973 0.195737 2.60776 119 101 87 
1.02188 0.310874 4.04452 181 153 129 
-0.380572 0.209096 2.71193 212 185 158 
-0.358479 0.209599 2.69442 231 200 171 
3.17025 0.606128 7.7054 198 182 156 
-1.46681 0.274387 3.50833 108 66 42 
-1.64463 0.260137 3.29893 117 82 60 
-0.322473 0.210545 2.66757 198 167 139 
0.958768 0.325425 4.10466 183 158 138 
0.936049 0.328857 4.12183 206 175 155 
-1.50825 0.276912 3.45667 73 42 24 
-1.65352 0.267499 3.30202 240 223 205 
0.84313 0.337 4.10215 79 49 25 
-1.31024 0.278022 3.39547 211 198 181 
0.894058 0.345124 4.1547 239 220 203 
-0.788331 0.212181 2.55293 255 239 225 
-0.316278 0.222498 2.66487 116 84 59 
-0.251901 0.217808 2.61262 175 145 119 
-1.45375 0.296253 3.51659 255 246 229 
-0.808424 0.216101 2.57033 251 235 220 
-0.244116 0.220301 2.60863 107 77 53 
-1.12436 0.273164 3.23194 252 235 219 
-0.274492 0.222911 2.62343 102 75 54 
-0.260289 0.222465 2.617 109 78 60 
0.95884 0.350221 4.10164 198 167 147 
0.999651 0.34648 4.06378 249 224 202 
-0.322363 0.228844 2.66756 204 172 147 
0.906608 0.357224 4.14287 212 187 167 
3.40316 0.657059 7.57052 231 215 179 
-0.598901 0.229147 2.64512 47 30 23 
-0.333355 0.231905 2.67069 248 221 202 
0.929764 0.360511 4.12773 253 236 220 
-1.56904 0.296068 3.38795 148 122 95 
-0.800273 0.225054 2.56629 202 171 150 
-0.351846 0.238606 2.68945 132 98 71 
-1.46209 0.31341 3.51508 123 72 51 
-0.321866 0.237563 2.66145 133 102 74 
-0.306255 0.237873 2.65083 116 86 60 
-1.1782 0.296775 3.28713 255 241 221 
-0.262159 0.237465 2.6155 124 96 75 
0.959663 0.37563 4.10016 255 235 214 
0.999195 0.372628 4.06113 174 140 112 
-1.53243 0.312261 3.42472 154 127 106 
-1.45577 0.321487 3.51374 244 227 207 
-1.28805 0.309504 3.36973 172 140 117 
1.25419 0.388795 4.17982 229 211 189 
-1.58392 0.31441 3.3742 70 43 22 
-1.46431 0.327582 3.51293 78 55 39 
-1.63961 0.310945 3.30859 84 53 33 
-1.60027 0.314122 3.34885 101 69 46 
-0.616702 0.247105 2.63103 211 182 164 
0.984294 0.388042 4.07691 185 143 121 
-1.31714 0.322174 3.39358 46 31 24 
-1.64711 0.316058 3.30339 84 58 45 
0.942983 0.395601 4.11148 254 233 214 
-1.54702 0.32957 3.41179 76 48 26 
-1.45259 0.341618 3.51207 239 216 198 
-1.55414 0.331913 3.39983 123 88 66 
-1.52094 0.335156 3.43741 236 215 188 
-1.65348 0.322785 3.29611 214 195 165 
-1.59236 0.328515 3.36134 207 181 154 
0.976956 0.40135 4.08206 241 214 195 
-1.60744 0.329267 3.34754 115 85 61 
-1.30992 0.337075 3.39085 255 240 217 
0.915174 0.412575 4.13367 193 170 152 
-1.54906 0.339985 3.40658 245 221 195 
-0.27207 0.261131 2.61814 207 180 153 
1.00814 0.407038 4.0528 216 180 156 
-1.59458 0.338027 3.34882 70 47 29 
0.975856 0.417187 4.08384 248 221 200 
-1.55623 0.346481 3.40049 80 52 28 
-1.51475 0.35191 3.43877 93 61 36 
-1.5646 0.346977 3.3863 107 79 57 
-0.38088 0.280218 2.70793 235 203 178 
0.962401 0.427356 4.09362 245 221 197 
2.95437 0.43741 4.16147 166 155 151 
2.98664 0.436357 4.13234 177 168 163 
2.99901 0.433139 4.11112 188 174 171 
-1.30913 0.35788 3.39081 246 231 212 
0.947267 0.441523 4.10716 176 148 127 
-1.56057 0.362827 3.38148 74 52 31 
-0.237463 0.282385 2.59759 134 107 80 
-1.31702 0.369276 3.38877 42 27 20 
1.22698 0.455317 4.14859 97 66 46 
-0.405324 0.29995 2.72685 250 224 201 
-0.275425 0.290984 2.62277 229 202 173 
1.02121 0.451156 4.04088 216 185 156 
-1.56697 0.37718 3.3863 183 168 113 
-1.28057 0.374106 3.36259 238 219 202 
-0.355512 0.299307 2.68744 255 245 224 
-0.413141 0.305607 2.72925 187 151 125 
-0.426456 0.308035 2.74262 197 163 138 
0.723743 0.448265 3.95576 142 127 86 
0.975806 0.469101 4.07962 173 145 121 
1.04371 0.463424 4.02647 160 123 96 
-0.630546 0.301981 2.61115 201 180 161 
-0.310465 0.306644 2.6467 218 182 156 
-0.352369 0.311299 2.67991 235 205 179 
-0.267074 0.304919 2.61356 195 164 135 
-0.317815 0.30978 2.64987 147 110 81 
-0.30288 0.308832 2.64271 126 91 69 
0.981036 0.479299 4.06819 236 208 184 
1.0095 0.477495 4.04882 224 190 163 
-0.469209 0.329917 2.77568 255 240 223 
-1.10847 0.385214 3.2163 255 240 225 
0.951332 0.494337 4.10287 180 150 126 
-0.475853 0.336783 2.7761 129 101 79 
1.02493 0.492269 4.0383 135 90 61 
2.6009 0.46127 3.71654 139 125 116 
-0.538564 0.336792 2.71294 183 157 132 
-1.40457 0.424782 3.37196 231 217 190 
0.996558 0.520569 4.06095 136 96 70 
-0.322265 0.341181 2.65067 161 126 98 
-0.620402 0.341513 2.62195 206 179 158 
-0.0974739 0.362502 2.69698 116 110 84 
1.39812 0.552456 4.08471 23 13 3 
-0.838935 0.353693 2.58465 206 183 165 
-0.47254 0.378792 2.7724 253 234 217 
-0.362655 0.368258 2.68206 227 196 168 
-0.324457 0.366304 2.65373 212 180 155 
-0.296445 0.36611 2.63396 193 156 127 
-0.426019 0.382047 2.73302 186 154 129 
-0.824624 0.364625 2.57364 190 174 159 
-0.411101 0.385674 2.72362 220 188 163 
-0.573237 0.379175 2.66772 56 39 21 
-0.257387 0.370495 2.59944 124 90 62 
-0.473108 0.405237 2.76694 245 224 205 
-0.558628 0.394618 2.6802 212 190 167 
-0.254083 0.383458 2.59567 151 117 89 
-0.983378 0.414446 2.75359 47 24 8 
-0.271498 0.39349 2.61249 203 170 139 
-0.809657 0.39166 2.55854 188 169 154 
-0.978896 0.420828 2.74405 198 211 158 
-0.597609 0.407581 2.63675 78 60 40 
-0.577913 0.413275 2.66108 224 206 182 
-0.287637 0.417995 2.62081 228 197 168 
-0.982852 0.440057 2.74633 91 71 34 
-0.275351 0.418524 2.61311 227 197 169 
-0.281604 0.424129 2.61536 158 122 90 
-0.974603 0.45019 2.74335 101 83 19 
-0.965262 0.452608 2.74287 255 244 212 
-0.271685 0.431532 2.60598 230 203 173 
-0.288353 0.43722 2.61918 230 197 166 
-0.2979 0.441443 2.62581 147 112 82 
-1.33589 0.422404 2.4745 44 40 3 
-0.248025 0.442447 2.58956 231 201 175 
-0.223986 0.44301 2.56803 232 198 173 
-1.3296 0.426951 2.47568 158 175 104 
-1.33771 0.438044 2.46587 173 176 107 
-0.788332 0.450739 2.49398 143 119 83 
-0.193854 0.469609 2.58943 94 66 52 
0.376937 0.393702 1.38045 34 21 4 
0.35847 0.403182 1.40662 140 117 103 
0.322172 0.446968 1.42904 158 117 95 
0.310854 0.451434 1.43898 255 243 216 
0.317019 0.450348 1.43553 253 241 219 
0.323635 0.450781 1.42811 255 255 232 
0.275969 0.464187 1.46582 170 126 97 
0.273384 0.469852 1.47059 255 253 232 
0.341735 0.453433 1.41033 151 119 98 
0.368697 0.446761 1.38874 138 108 84 
9.31081 -0.947986 15.0603 144 120 108 
0.265122 -1.89597 3.66069 75 61 48 
-0.133297 -1.63203 3.19109 87 95 98 
0.351257 -1.83845 3.74238 184 171 154 
-0.0182398 -1.62406 3.3169 222 203 186 
-0.0267525 -1.60976 3.30495 72 58 49 
-0.023307 -1.59122 3.31118 231 209 185 
-0.107042 -1.54004 3.21382 50 39 37 
0.103278 -1.64635 3.45635 195 174 157 
-0.483777 -1.29851 2.79304 162 155 145 
-0.0902679 -1.49026 3.21977 75 57 45 
-0.486916 -1.29008 2.80126 36 29 21 
-0.474608 -1.28495 2.80167 122 106 90 
-0.147148 -1.44292 3.16431 95 81 72 
0.113417 -1.57429 3.45704 58 49 40 
-0.453152 -1.26916 2.79768 45 35 26 
-0.137442 -1.43662 3.17134 237 214 196 
0.243337 -1.6311 3.60375 81 79 67 
-0.456668 -1.26162 2.80043 249 231 217 
-0.471911 -1.26158 2.8107 231 214 196 
-0.514948 -1.26418 2.81596 123 124 119 
-0.0717704 -1.4312 3.2363 193 161 136 
0.562025 -1.73858 3.95821 173 167 145 
-0.521595 -1.24831 2.85392 45 31 22 
-0.46664 -1.21763 2.8074 191 164 143 
-0.533302 -1.23776 2.86198 215 197 177 
-0.46274 -1.20844 2.80862 74 45 29 
0.549091 -1.68575 3.94321 193 169 157 
-0.673367 -1.2643 2.96013 115 114 112 
-0.47611 -1.20434 2.81738 255 241 228 
-0.457773 -1.19968 2.82344 195 174 153 
-0.516709 -1.20798 2.84786 254 250 238 
0.561705 -1.66603 3.95925 184 172 160 
-0.485996 -1.18616 2.82126 250 242 231 
-0.673255 -1.25115 2.98325 63 39 27 
0.373948 -1.55562 3.73596 54 43 39 
0.653468 -1.68006 4.0379 135 117 97 
-0.522386 -1.17042 2.82083 148 120 108 
-0.455558 -1.17468 2.8298 29 16 8 
-0.689076 -1.2384 2.99049 246 221 199 
-0.644253 -1.21463 2.94941 174 142 119 
-0.753342 -1.24566 3.05213 229 211 187 
-0.505462 -1.15713 2.83776 45 35 23 
-0.239127 -1.21809 3.03576 72 49 31 
-0.389758 -1.14892 2.86505 255 247 230 
0.704036 -1.62706 4.0934 110 93 75 
-0.411365 -1.13714 2.88481 223 205 183 
-0.875553 -1.22327 3.14336 251 225 210 
-0.988428 -1.25492 3.22949 157 153 150 
0.407143 -1.45791 3.76331 59 42 35 
-0.945381 -1.24121 3.20614 238 223 202 
0.141325 -1.3307 3.45549 69 55 44 
-0.404261 -1.10904 2.88116 255 233 213 
-0.963641 -1.23627 3.22798 249 226 208 
-1.06588 -1.25353 3.29616 148 144 141 
-1.01836 -1.23624 3.27291 230 210 186 
0.725763 -1.55651 4.12735 214 196 184 
-0.992703 -1.22641 3.24768 190 158 137 
-0.415218 -1.08726 2.88764 255 243 226 
-0.890446 -1.18334 3.15382 185 149 123 
-0.838981 -1.16652 3.11396 244 216 194 
0.249072 -1.33143 3.57318 96 79 69 
-0.180928 -1.1509 3.08942 41 36 33 
0.080248 -1.24977 3.36593 32 17 10 
0.641755 -1.49058 4.02631 216 203 168 
-1.05323 -1.21322 3.29682 241 218 202 
-0.39499 -1.05236 2.87622 224 205 188 
0.642481 -1.47096 4.03121 230 207 191 
-1.17867 -1.22957 3.39645 234 213 192 
-0.424102 -1.04601 2.8839 187 151 127 
-0.508301 -1.02305 2.83404 182 184 163 
-1.13935 -1.20631 3.37265 139 94 71 
-0.953757 -1.14289 3.20572 129 91 70 
-0.494685 -1.01783 2.8488 179 150 134 
0.845619 -1.50231 4.22416 233 233 235 
0.850249 -1.47993 4.23627 99 82 66 
-1.13873 -1.17533 3.3636 186 144 120 
0.810831 -1.47026 4.21969 188 163 97 
-0.0931482 -1.09832 3.17926 208 185 169 
-0.231449 -1.03565 3.02469 251 234 216 
-0.447287 -0.987699 2.89934 250 228 207 
-0.457842 -0.984449 2.89413 100 67 50 
-0.0234442 -1.10401 3.25028 63 51 39 
-0.599101 -0.913004 2.72408 210 193 177 
-1.30195 -1.15842 3.499 41 26 21 
0.786061 -1.37234 4.18208 37 32 26 
0.782932 -1.3479 4.18281 50 43 37 
-0.0636379 -1.0233 3.20091 53 36 29 
-1.44083 -1.15157 3.6087 131 91 66 
0.905078 -1.37397 4.30857 240 223 213 
0.350633 -1.15187 3.63127 11 6 2 
-0.260273 -0.947367 2.98899 51 41 39 
-1.1526 -1.0614 3.37425 250 229 212 
-1.05646 -1.02826 3.27446 198 154 127 
-1.03465 -1.02557 3.26492 183 143 118 
-0.404087 -0.896588 2.85832 254 231 213 
-0.596778 -0.852954 2.72067 63 54 45 
-1.45481 -1.10994 3.58968 141 99 77 
-0.0485062 -0.99587 3.21458 58 42 29 
-2.54165 -1.42826 4.68616 42 37 33 
-1.16109 -1.02876 3.37636 178 141 114 
-1.18577 -1.02649 3.39037 187 149 126 
0.974761 -1.31999 4.37082 215 203 189 
-0.378634 -0.857256 2.8399 62 40 27 
0.956671 -1.30554 4.35588 141 113 92 
0.996089 -1.3153 4.3876 40 28 16 
-1.47142 -1.07336 3.58425 238 223 204 
-2.59182 -1.37931 4.63334 59 53 53 
0.429343 -1.10708 3.71902 47 32 25 
-1.4637 -1.05916 3.5785 250 233 217 
-1.44883 -1.06311 3.59858 100 59 39 
-0.45547 -0.848279 2.8764 249 224 204 
-1.12928 -0.981459 3.34737 250 229 212 
-0.683744 -0.767437 2.62342 248 235 218 
-0.160128 -0.904022 3.09657 98 80 66 
0.444063 -1.08906 3.73716 167 135 114 
-1.45148 -1.04638 3.60121 53 27 4 
-1.27982 -1.00552 3.46345 243 226 210 
-2.55712 -1.33374 4.62242 226 223 214 
-1.16362 -0.972712 3.36924 188 159 141 
-1.91918 -1.15944 4.04059 255 242 218 
-0.455814 -0.823442 2.87023 217 191 174 
-0.657114 -0.760127 2.64843 71 54 34 
-1.45311 -1.02146 3.57999 66 41 19 
-0.429549 -0.819232 2.8695 248 226 205 
-0.438972 -0.818913 2.87593 248 225 207 
-0.0150317 -0.914825 3.23748 102 76 59 
-1.05818 -0.924834 3.28063 164 128 104 
0.453923 -1.05439 3.7451 143 112 94 
-1.44707 -1.00641 3.59434 140 93 63 
-2.88192 -1.15357 4.13671 74 61 53 
-1.00249 -0.902302 3.22512 210 175 155 
-0.0226266 -0.900906 3.22829 208 191 171 
-0.766547 -0.752792 2.69341 106 84 43 
-0.582845 -0.758423 2.72097 104 88 73 
-1.30568 -0.966231 3.48633 59 41 31 
-2.91761 -1.12842 4.09097 118 105 97 
-0.212212 -0.837082 3.02502 196 180 165 
-1.48806 -0.977412 3.54861 78 57 36 
-0.423836 -0.790976 2.86603 246 223 205 
-1.50692 -0.969237 3.52186 217 192 170 
-0.677204 -0.717956 2.62117 121 94 65 
-2.911 -1.11626 4.10292 50 36 35 
-0.411906 -0.778001 2.85612 255 232 214 
-1.4375 -0.975075 3.59407 253 232 211 
0.906547 -1.16387 4.29176 253 246 218 
-0.445623 -0.781346 2.87425 240 215 193 
-2.88858 -1.11154 4.12356 40 30 28 
-0.0463857 -0.866503 3.20187 229 206 190 
-2.96298 -1.08951 4.05384 115 100 93 
-0.40202 -0.764862 2.85143 205 174 153 
-2.18111 -1.13838 4.27344 181 139 115 
-2.76796 -1.13597 4.26911 97 87 77 
-0.501787 -0.752117 2.81817 41 29 17 
-2.68705 -1.15591 4.35804 119 106 98 
-2.9215 -1.08422 4.09529 124 109 102 
-1.43272 -0.953136 3.59596 236 214 191 
-2.45808 -1.19254 4.51489 255 255 222 
-1.08813 -0.874255 3.30194 205 180 158 
-1.2557 -0.910559 3.44624 187 151 129 
-2.88895 -1.08943 4.13542 114 107 101 
-0.0385402 -0.846599 3.20557 194 173 156 
-2.93716 -1.07206 4.08243 42 31 25 
-2.76899 -1.11752 4.25964 44 30 21 
-2.79377 -1.10842 4.23577 108 91 81 
-0.0576769 -0.839207 3.19054 235 216 199 
-0.279404 -0.773127 2.94953 231 206 186 
-2.81221 -1.09504 4.20789 46 32 23 
-2.84244 -1.0873 4.18439 112 103 88 
-2.8102 -1.09602 4.22669 49 35 26 
-2.8759 -1.06631 4.1436 39 30 21 
-1.43147 -0.925873 3.59386 225 197 175 
-2.72402 -1.1054 4.312 120 106 97 
-0.377899 -0.72988 2.83124 110 82 61 
-2.76812 -1.09353 4.26734 111 102 95 
-2.74525 -1.09227 4.28938 106 96 87 
-1.3068 -0.887894 3.47895 43 24 18 
-2.88674 -1.05314 4.13763 106 93 85 
-1.47591 -0.900037 3.55271 201 161 136 
-1.08023 -0.833861 3.2897 208 180 159 
-2.54659 -1.13705 4.50738 113 81 66 
-0.678273 -0.665145 2.61984 66 45 28 
-2.91779 -1.03318 4.0969 116 102 93 
-2.97471 -1.00672 3.99959 46 31 24 
-2.73549 -1.07792 4.2993 62 42 31 
-2.67797 -1.09348 4.37916 58 38 27 
-2.65355 -1.09434 4.38515 46 29 21 
-2.48616 -1.13151 4.53577 226 209 191 
-1.4393 -0.898711 3.59143 245 220 198 
-2.79562 -1.05288 4.22942 114 96 86 
-2.87835 -1.02763 4.13217 119 101 89 
-2.14509 -1.04953 4.21877 176 136 111 
-0.750445 -0.668906 2.6754 207 181 164 
-2.90665 -1.01582 4.0978 129 112 102 
-0.670481 -0.653616 2.62389 178 158 134 
-2.77982 -1.05146 4.24663 52 38 29 
-0.382224 -0.701775 2.8291 250 227 209 
-0.0483911 -0.792519 3.19888 230 211 194 
-2.74221 -1.05597 4.28863 204 214 189 
-2.49688 -1.11695 4.53272 67 53 44 
-2.47184 -1.11244 4.51766 255 239 225 
-2.92286 -1.0067 4.09027 54 39 32 
-2.80008 -1.03595 4.22752 44 27 19 
-2.87782 -1.01279 4.14223 95 57 44 
-2.7534 -1.04676 4.28314 70 38 23 
-2.77295 -1.0397 4.25481 206 183 169 
-0.0784219 -0.776062 3.16634 67 59 56 
0.448566 -0.928446 3.79259 235 218 200 
-1.44783 -0.876417 3.58782 87 46 28 
-2.94922 -0.988901 4.0578 128 111 101 
-1.4552 -0.867871 3.57431 109 74 52 
-1.48127 -0.859175 3.54768 126 100 77 
-2.67252 -1.05164 4.3643 62 32 21 
-0.435475 -0.694565 2.8673 247 222 202 
-2.81072 -1.01168 4.20956 56 29 18 
-2.90633 -0.987122 4.11022 125 106 92 
-2.75517 -1.02475 4.26667 200 169 151 
-2.82416 -1.00277 4.19764 195 173 152 
-0.0309731 -0.766931 3.20425 222 201 184 
-2.83857 -0.997268 4.19133 109 76 59 
-2.77134 -1.01189 4.26351 63 39 27 
-2.85887 -0.985452 4.1552 139 104 85 
-2.71288 -1.02312 4.31528 72 41 23 
-2.5617 -1.06636 4.50615 66 38 24 
-2.6786 -1.02968 4.36607 102 63 46 
-2.66391 -1.02812 4.37577 194 166 144 
-2.58009 -1.04867 4.46611 110 75 56 
-2.79326 -0.992054 4.23061 85 52 35 
-2.97698 -0.932842 3.98117 20 16 15 
-2.50212 -1.06317 4.54571 203 176 155 
-1.30541 -0.814742 3.47494 73 49 37 
-2.93535 -0.949695 4.06705 125 121 110 
-2.703 -1.00902 4.32452 185 125 88 
-2.83315 -0.975271 4.18448 205 174 154 
-1.28155 -0.806421 3.45203 255 241 222 
-2.68468 -1.00953 4.34397 180 135 102 
-2.7729 -0.99027 4.26369 59 37 24 
-2.7592 -0.991756 4.2698 218 192 175 
-2.85841 -0.967097 4.16578 84 58 45 
-2.71922 -1.00332 4.32019 101 63 50 
-2.92371 -0.94348 4.08038 38 29 22 
-2.62368 -1.01943 4.41926 190 159 141 
-0.418853 -0.660144 2.84635 255 235 221 
-2.89891 -0.94041 4.10325 47 32 29 
-2.67992 -0.994021 4.35808 111 72 43 
-0.382772 -0.647825 2.82296 245 226 209 
-2.78779 -0.964842 4.23175 63 45 31 
-0.406349 -0.647423 2.82904 242 221 204 
0.441992 -0.859304 3.78344 253 242 222 
-2.64116 -0.993246 4.39428 126 100 83 
-2.65352 -0.984808 4.38367 83 55 41 
-2.55419 -1.01064 4.49555 205 169 147 
-2.78235 -0.950012 4.24063 212 175 149 
-0.636047 -0.599938 2.66295 46 38 27 
-2.72482 -0.960959 4.29757 118 89 71 
-0.429023 -0.639915 2.84864 255 236 217 
-2.53914 -1.00892 4.5184 213 187 164 
-1.50468 -0.789825 3.52616 60 40 16 
-2.56718 -0.998753 4.48191 89 60 42 
-2.76198 -0.948443 4.26349 217 200 182 
-2.80292 -0.936574 4.21399 74 48 31 
-2.59117 -0.991906 4.46478 77 48 30 
-0.439706 -0.635215 2.85573 217 189 168 
-2.83107 -0.923192 4.18374 62 41 24 
-2.5802 -0.98464 4.4717 198 167 146 
-0.0955844 -0.690241 3.13119 88 74 61 
-2.56629 -0.983861 4.48787 71 36 17 
-1.58697 -0.75267 3.42387 122 91 71 
-2.52568 -0.990922 4.5317 95 64 43 
-2.6986 -0.948143 4.34329 97 68 52 
-2.67404 -0.950553 4.35541 90 59 39 
-2.59973 -0.968925 4.44651 194 159 140 
-2.92245 -0.89155 4.09571 87 70 62 
-2.73512 -0.934354 4.29337 240 215 193 
-1.05804 -0.710293 3.25915 247 225 204 
-0.592336 -0.589182 2.70178 45 33 19 
-2.81587 -0.908937 4.19969 62 39 25 
-1.31918 -0.746658 3.4554 42 32 23 
-2.83348 -0.901482 4.18636 47 28 14 
0.0132675 -0.693573 3.22257 230 209 192 
-2.65289 -0.941257 4.39455 69 43 28 
-2.62561 -0.945385 4.41208 79 50 32 
-1.30213 -0.74401 3.46573 37 19 9 
-0.0127206 -0.691188 3.214 76 65 63 
-0.769863 -0.576206 2.68107 254 233 214 
-0.395045 -0.606296 2.81967 194 166 144 
-2.8233 -0.894513 4.19584 213 194 177 
-2.60836 -0.946935 4.44043 71 45 28 
-2.57545 -0.955243 4.48134 97 66 45 
-2.68685 -0.920443 4.35261 54 31 17 
-2.64147 -0.930518 4.40325 186 151 129 
-2.73202 -0.905548 4.29851 96 62 50 
-1.44519 -0.754147 3.57961 156 120 98 
-1.0746 -0.690157 3.2752 109 77 62 
-0.427422 -0.60139 2.84655 255 234 215 
-2.52332 -0.951091 4.53288 69 42 25 
-0.391169 -0.595196 2.81861 255 238 217 
-2.83486 -0.875668 4.17089 68 42 27 
-0.656957 -0.553591 2.63177 239 210 196 
-1.24841 -0.716595 3.422 192 157 137 
-1.59557 -0.714646 3.4192 228 205 187 
-2.74423 -0.889419 4.27498 164 133 113 
-2.75996 -0.88677 4.2717 89 57 44 
-2.65949 -0.907956 4.38854 67 44 28 
-0.379782 -0.583814 2.80627 181 153 131 
-2.74145 -0.889162 4.30068 193 165 144 
-2.69075 -0.897925 4.34291 213 190 172 
-2.94458 -0.838867 4.05965 131 118 109 
-1.58755 -0.706205 3.42213 186 155 134 
-0.335004 -0.57719 2.7865 245 227 207 
-0.669318 -0.54184 2.62023 153 122 101 
-0.506251 -0.576807 2.79503 233 214 181 
-0.454328 -0.588578 2.85328 227 202 182 
-2.57075 -0.916212 4.47533 119 84 64 
-0.0275446 -0.657672 3.20092 175 152 138 
-2.80774 -0.859727 4.20827 253 232 213 
-2.59434 -0.908462 4.4531 252 227 187 
-2.72081 -0.875689 4.29973 57 38 23 
-2.83502 -0.847252 4.17453 77 51 36 
-2.61754 -0.898173 4.43171 61 32 16 
-0.657526 -0.536141 2.62979 212 171 149 
-1.29897 -0.702358 3.46277 245 226 209 
-1.59722 -0.691827 3.42275 250 233 217 
-2.68314 -0.877725 4.35855 84 59 39 
-2.60371 -0.892347 4.43431 152 126 113 
-0.0154378 -0.648071 3.20671 69 43 30 
-2.56555 -0.900821 4.48173 177 150 131 
-2.63541 -0.883531 4.40211 221 192 174 
-2.87083 -0.830567 4.14442 128 110 98 
-2.78274 -0.843873 4.21701 88 59 45 
-2.71824 -0.857843 4.30506 158 120 99 
-2.52573 -0.898514 4.52889 96 67 49 
-0.670121 -0.523022 2.61637 79 56 38 
-2.84891 -0.825412 4.16856 72 58 47 
-0.658021 -0.523296 2.62792 58 39 25 
-1.52572 -0.689653 3.48651 94 63 45 
-2.8342 -0.822607 4.1736 207 188 173 
-2.56142 -0.88418 4.49506 78 45 28 
-0.374108 -0.555431 2.80351 172 137 115 
-2.81463 -0.819385 4.17206 62 33 15 
-2.69498 -0.847141 4.32731 83 56 47 
-0.58103 -0.533042 2.70911 70 47 41 
-2.74995 -0.83492 4.27108 193 168 146 
-1.58633 -0.669589 3.42278 118 89 73 
-2.85485 -0.807791 4.15967 222 205 195 
-2.86632 -0.805947 4.14857 56 37 30 
-2.62419 -0.855245 4.41506 241 214 193 
-2.7849 -0.820776 4.24355 123 97 82 
-2.5807 -0.861116 4.46265 185 151 123 
-1.60113 -0.662143 3.42067 246 230 215 
-0.421177 -0.550137 2.83946 251 226 204 
-2.90469 -0.783368 4.10551 97 83 74 
-2.71376 -0.824129 4.31925 74 47 30 
-2.86415 -0.788723 4.13743 229 209 198 
-2.61984 -0.840145 4.41297 86 58 44 
-2.807 -0.802954 4.22208 37 22 15 
-1.48991 -0.666561 3.54004 52 29 13 
-0.533896 -0.519364 2.75852 49 33 17 
-0.0246539 -0.600547 3.19642 194 176 164 
-2.97298 -0.752219 4.02604 37 24 16 
-2.80659 -0.789413 4.23323 112 103 94 
-2.74118 -0.798056 4.27399 203 171 146 
-2.53851 -0.839431 4.50362 151 116 96 
-0.281666 -0.512515 2.73532 160 132 110 
-2.87362 -0.766924 4.11709 253 238 219 
-2.72983 -0.796008 4.27465 189 161 139 
-2.79301 -0.786517 4.23941 30 16 13 
-2.18121 -0.786017 4.23459 248 229 212 
-2.18948 -0.79114 4.26536 241 222 205 
-0.00101341 -0.59741 3.21504 82 68 57 
-2.71788 -0.796169 4.29386 114 87 70 
-0.710673 -0.489415 2.63129 241 220 201 
-2.62182 -0.816113 4.42263 52 29 11 
-1.12742 -0.614768 3.31615 83 45 22 
-2.70596 -0.795721 4.31763 245 214 193 
-2.75113 -0.786381 4.27354 197 169 147 
-0.59449 -0.501314 2.71037 88 55 36 
-2.62845 -0.806744 4.40639 55 34 17 
-2.59184 -0.814966 4.45135 115 78 62 
-2.56937 -0.816021 4.46906 66 39 22 
-2.72237 -0.779717 4.28145 211 180 160 
-2.55674 -0.814161 4.48695 180 142 119 
-2.74621 -0.773916 4.27586 197 170 151 
0.888094 -0.767224 4.2337 174 156 144 
-0.720745 -0.478087 2.63311 168 141 122 
-2.66322 -0.786234 4.36964 213 186 169 
-1.55182 -0.622285 3.45219 123 81 56 
-2.70573 -0.774271 4.30543 92 59 42 
-1.53612 -0.618072 3.46879 151 127 99 
-1.13611 -0.594406 3.33381 206 164 142 
0.464914 -0.673922 3.78871 36 35 31 
-1.44179 -0.630591 3.57134 255 246 233 
-2.52881 -0.795738 4.52438 88 60 39 
-0.600521 -0.476376 2.69132 218 181 154 
-2.70792 -0.75744 4.30792 212 184 163 
-2.65296 -0.771716 4.39194 75 44 26 
-1.58995 -0.598964 3.41203 124 88 66 
-2.78708 -0.740157 4.23778 157 135 121 
-2.81347 -0.736984 4.23208 24 15 10 
-2.74803 -0.745504 4.28905 75 49 36 
-0.519184 -0.485062 2.77734 80 53 36 
-2.73216 -0.743733 4.29382 236 208 187 
-0.606541 -0.466851 2.6829 118 100 90 
0.321516 -0.631527 3.65134 57 52 46 
-0.380568 -0.4859 2.80922 205 178 159 
-0.359758 -0.483176 2.79087 186 153 134 
-2.53545 -0.766974 4.50921 202 170 147 
-1.44109 -0.608591 3.57062 255 250 235 
-2.76031 -0.723827 4.26993 74 57 47 
-2.62894 -0.746026 4.40644 74 46 25 
-2.60812 -0.750747 4.43927 95 60 40 
-1.58778 -0.577927 3.40944 149 105 80 
-0.425791 -0.483022 2.83973 182 150 125 
-2.63991 -0.740639 4.38776 82 49 30 
-2.75144 -0.717611 4.27752 245 223 186 
-0.27581 -0.458914 2.72862 248 230 210 
-1.5767 -0.573135 3.43163 197 153 128 
-2.79337 -0.707938 4.25357 85 73 49 
-2.77803 -0.706348 4.25814 90 63 42 
-2.94209 -0.672691 4.0651 108 103 97 
-2.70474 -0.712941 4.31923 145 102 85 
-2.66781 -0.721188 4.37404 50 32 20 
-0.478916 -0.466454 2.81635 91 58 39 
-0.301395 -0.449919 2.74918 172 145 124 
-2.76115 -0.692681 4.26756 237 212 181 
-0.282204 -0.446728 2.73669 175 145 119 
0.435545 -0.615675 3.78184 246 222 198 
-2.62125 -0.713132 4.40899 82 51 30 
-0.543655 -0.446384 2.74923 93 73 74 
-1.45464 -0.574026 3.56159 135 85 58 
-0.374284 -0.4516 2.79965 254 232 211 
-0.352751 -0.449895 2.78644 177 152 132 
-0.31131 -0.445103 2.75566 255 237 220 
-0.292918 -0.442736 2.74247 253 230 212 
-0.332583 -0.446166 2.76846 163 136 117 
-1.60386 -0.546333 3.40725 255 243 226 
-0.569168 -0.436242 2.70754 64 42 31 
-0.427484 -0.451597 2.83634 250 229 210 
-0.32251 -0.439984 2.76214 255 240 226 
-2.67847 -0.685554 4.33734 227 202 182 
-1.45379 -0.561422 3.56868 159 115 86 
-0.3993 -0.444915 2.81686 205 173 152 
-2.71308 -0.676766 4.34491 233 211 188 
1.04435 -0.687642 4.42291 248 226 205 
-2.7494 -0.663364 4.2751 68 38 27 
-0.320089 -0.431154 2.76292 255 243 227 
0.545537 -0.603596 3.88657 228 190 169 
-2.66028 -0.674735 4.35339 78 52 39 
-0.350338 -0.432199 2.7855 169 136 117 
-0.30418 -0.427522 2.7482 255 250 233 
-0.163867 -0.421834 2.71598 26 26 18 
-1.44439 -0.546391 3.56525 255 248 229 
-2.76418 -0.650834 4.26185 252 229 197 
-0.290717 -0.41871 2.73425 192 165 146 
-0.338726 -0.42349 2.77069 251 226 206 
-2.66508 -0.659839 4.34724 212 189 173 
-1.51663 -0.530533 3.49601 61 38 22 
-1.59007 -0.514459 3.40739 112 71 51 
-1.43817 -0.535486 3.56532 255 255 241 
-2.64916 -0.648688 4.35479 63 41 27 
-2.68083 -0.645771 4.34231 168 133 114 
-2.58029 -0.661739 4.46276 188 156 133 
-0.296593 -0.410245 2.74195 251 238 222 
-0.283146 -0.407673 2.72718 255 239 223 
1.00457 -0.645438 4.36416 77 64 56 
-1.44799 -0.524717 3.56401 251 238 222 
-2.75179 -0.629574 4.28324 162 141 124 
-0.197939 -0.393908 2.67435 47 37 27 
-2.73391 -0.62733 4.30047 30 22 19 
-2.56609 -0.64981 4.46589 89 52 33 
-1.44021 -0.516941 3.56386 255 252 241 
-0.46302 -0.412496 2.83027 96 64 41 
-2.70543 -0.627094 4.34003 64 46 42 
-0.550207 -0.398624 2.73871 48 38 26 
-0.288616 -0.39796 2.73124 186 159 138 
-0.487 -0.406925 2.80803 199 167 144 
-2.61169 -0.635609 4.41871 65 33 12 
-0.512917 -0.40272 2.7813 60 37 19 
-2.69039 -0.621975 4.3438 239 213 196 
-2.53428 -0.645312 4.51468 62 36 21 
-1.17764 -0.477627 3.35045 255 255 233 
-0.359935 -0.398517 2.78527 191 165 148 
-2.50763 -0.637866 4.50985 225 199 184 
-1.46869 -0.502363 3.54689 183 138 109 
-1.30213 -0.488371 3.44675 250 232 210 
-0.669133 -0.371073 2.60757 99 58 40 
-1.45692 -0.49983 3.55328 133 89 64 
-0.280053 -0.385441 2.72785 250 233 217 
-1.18694 -0.470698 3.35097 255 234 215 
-2.61243 -0.615789 4.4146 183 155 143 
-0.545261 -0.384541 2.73828 80 57 41 
9.47067 -2.48097 17.9835 255 255 250 
-2.58337 -0.618993 4.44656 140 106 94 
-2.70913 -0.600603 4.32234 251 226 186 
-2.69404 -0.602609 4.34411 81 48 31 
-1.58529 -0.474854 3.41508 159 109 86 
-2.53506 -0.621797 4.51092 78 56 42 
-0.590641 -0.374423 2.6996 62 43 28 
-2.55476 -0.616668 4.48335 239 204 182 
-0.429903 -0.392393 2.83768 255 236 221 
-1.44031 -0.488283 3.55942 255 254 238 
-1.57574 -0.468009 3.42037 231 191 165 
9.2306 -2.3365 17.2762 185 167 157 
-2.57855 -0.605821 4.45585 78 47 27 
-0.300969 -0.373287 2.74298 253 236 220 
-1.19145 -0.452487 3.34876 248 223 201 
-0.279943 -0.368981 2.72771 252 229 211 
