ply                 
format ascii 1.0    
element vertex 1244
property float x    
property float y    
property float z    
property uchar red  
property uchar green
property uchar blue 
end_header          
-1.54479 -0.756637 3.47223 222 197 175 
-2.56817 -0.97462 4.48439 200 160 161 
-2.51457 -0.982751 4.52382 104 77 58 
-1.45039 -0.778465 3.57773 242 217 195 
-2.58208 -0.966292 4.4677 148 116 95 
-2.54651 -0.972856 4.50495 250 215 193 
-1.08764 -0.707869 3.27315 138 92 66 
-2.96149 -0.870682 4.0387 139 129 120 
-2.96598 -0.864347 4.03698 31 21 11 
-2.93336 -0.872467 4.0755 143 130 122 
-2.71835 -0.922375 4.30687 88 62 49 
-2.74363 -0.914864 4.27898 162 142 141 
-0.339921 -0.595219 2.78063 255 253 241 
-0.324401 -0.594484 2.77504 243 222 195 
-2.63924 -0.938458 4.40395 85 50 31 
-2.81596 -0.892532 4.20301 248 233 226 
-1.45805 -0.758213 3.56794 161 126 104 
-2.76318 -0.90204 4.25892 208 191 148 
-2.70701 -0.915991 4.32423 150 122 108 
-1.70071 -0.742056 3.502 89 65 41 
-1.3054 -0.732103 3.46205 203 190 146 
-2.78355 -0.892656 4.23333 211 190 171 
-2.62268 -0.931412 4.41814 67 47 36 
-2.72591 -0.904058 4.30047 68 42 29 
-0.767653 -0.565294 2.67881 143 116 97 
-2.76349 -0.892597 4.26115 97 64 49 
-2.73892 -0.892885 4.28465 175 144 124 
-1.44661 -0.746897 3.58003 255 240 212 
-2.75677 -0.884935 4.26564 206 175 154 
-2.83396 -0.866505 4.18095 175 153 130 
-1.49839 -0.730112 3.52149 102 70 49 
-2.73528 -0.886691 4.28818 82 50 35 
-2.63865 -0.910631 4.40152 170 139 119 
-0.315542 -0.574381 2.76553 255 253 240 
-2.70274 -0.894467 4.33013 217 195 181 
0.0134895 -0.66191 3.20102 225 199 182 
-2.68991 -0.894938 4.34763 226 202 190 
-2.67973 -0.89365 4.35274 246 234 192 
-2.65488 -0.900048 4.38454 142 133 128 
-2.66947 -0.89461 4.36664 214 187 168 
-1.55402 -0.710321 3.46157 95 63 40 
-1.44552 -0.734159 3.5787 235 209 186 
-2.85439 -0.852228 4.1619 192 166 153 
-2.78673 -0.865744 4.22956 218 192 175 
-2.69308 -0.88688 4.34431 61 25 9 
0.0185382 -0.65682 3.2086 51 26 4 
-2.68412 -0.885733 4.3499 87 51 37 
-2.67447 -0.887166 4.35791 68 37 19 
-2.80517 -0.864054 4.25285 93 64 46 
-2.61476 -0.89934 4.43092 199 171 157 
-1.25357 -0.69464 3.41564 255 248 229 
-2.79674 -0.851865 4.20422 216 187 171 
-2.74392 -0.866157 4.27874 70 37 20 
-1.51932 -0.708629 3.49456 119 82 56 
-2.68025 -0.880595 4.35648 169 152 142 
0.0108294 -0.649711 3.20784 191 155 131 
-2.79195 -0.849907 4.21043 75 46 30 
-2.75922 -0.860738 4.26706 79 44 24 
-2.70325 -0.874053 4.32958 167 135 114 
-2.66727 -0.881091 4.36961 227 199 178 
-2.59934 -0.896638 4.44827 85 52 35 
-2.54009 -0.909327 4.50923 206 170 148 
-1.4713 -0.716866 3.54581 189 163 136 
-2.83817 -0.840461 4.17499 246 225 208 
-2.65869 -0.882378 4.3795 171 142 124 
-2.59513 -0.896721 4.45497 116 81 59 
-2.73895 -0.861765 4.28355 221 186 166 
-2.64455 -0.884001 4.39812 225 196 180 
-1.54643 -0.69615 3.45748 105 64 42 
-2.77821 -0.851631 4.24183 216 181 162 
-1.51791 -0.700111 3.49327 218 193 173 
-2.60737 -0.886288 4.43522 248 217 197 
-2.61427 -0.883222 4.42975 76 47 33 
-2.5983 -0.887073 4.445 193 162 160 
-0.00845297 -0.642883 3.20882 212 177 157 
-2.77213 -0.846947 4.24902 203 172 151 
-2.70235 -0.86284 4.32942 138 121 111 
-2.88265 -0.821666 4.13124 114 97 87 
-2.77255 -0.841237 4.2293 85 52 33 
-2.75535 -0.846905 4.26005 94 59 39 
-0.45726 -0.568127 2.84472 255 250 228 
-2.71874 -0.855057 4.31059 129 96 79 
-1.54225 -0.688982 3.46815 86 55 34 
-2.76698 -0.843206 4.25541 110 79 59 
-2.68303 -0.862017 4.34857 238 213 193 
-0.998852 -0.636011 3.19957 57 22 2 
-2.87256 -0.820019 4.14181 132 118 107 
-2.70553 -0.854183 4.31669 66 44 33 
-2.71276 -0.852316 4.3143 237 220 190 
-2.6072 -0.874067 4.43174 55 32 14 
1.03783 -0.873192 4.41381 46 37 28 
-2.85789 -0.818629 4.15356 67 53 40 
-2.52809 -0.890445 4.52082 103 74 58 
-0.455317 -0.563187 2.84866 74 43 22 
-2.83418 -0.819003 4.1619 231 214 196 
-2.73626 -0.841406 4.28611 97 59 40 
-1.21004 -0.664164 3.3752 185 166 149 
-2.84105 -0.813941 4.1523 222 204 190 
-2.72017 -0.845105 4.31234 105 72 53 
-1.45803 -0.69823 3.56677 237 197 171 
-2.74349 -0.836267 4.28063 206 170 148 
-1.56705 -0.6725 3.44034 64 43 26 
-1.54739 -0.677887 3.46393 195 173 152 
-0.79815 -0.528883 2.70038 171 149 128 
-2.75047 -0.83243 4.27157 72 44 33 
-2.60252 -0.86447 4.43856 187 154 135 
-2.97947 -0.782238 4.02118 114 101 95 
-2.73326 -0.835016 4.29019 203 175 163 
-2.67117 -0.847698 4.36249 229 206 172 
-2.59288 -0.865285 4.44842 214 180 155 
-0.685131 -0.507207 2.60155 224 196 174 
-2.7105 -0.836461 4.31671 235 208 191 
-2.74761 -0.821797 4.27141 194 175 160 
-0.584452 -0.522887 2.70501 132 110 89 
-0.438376 -0.549218 2.84293 168 141 120 
-2.93612 -0.78024 4.07109 149 136 130 
-2.92405 -0.780158 4.07918 135 122 116 
-2.70748 -0.827146 4.3232 102 69 54 
-2.16022 -0.801004 4.20427 227 196 175 
-2.7343 -0.815173 4.28815 58 31 14 
-2.71098 -0.820273 4.31596 163 132 114 
-1.46523 -0.678422 3.56064 78 42 18 
-2.58961 -0.839913 4.45045 155 126 108 
-2.73411 -0.806603 4.28238 177 160 142 
-2.95614 -0.761939 4.04978 150 132 122 
-2.94761 -0.763768 4.0586 124 105 98 
-2.35031 -0.819644 4.36752 255 235 214 
-1.50981 -0.65801 3.50285 160 138 117 
-2.70729 -0.802533 4.32116 243 208 189 
-1.15987 -0.619171 3.326 123 92 72 
-2.35325 -0.807682 4.36727 255 245 226 
-2.55003 -0.828321 4.49331 189 154 132 
-2.5901 -0.817299 4.44969 65 30 11 
-2.54221 -0.82474 4.49458 78 42 20 
-2.62964 -0.80608 4.40855 127 101 86 
-2.53375 -0.824762 4.51414 200 165 145 
-0.258608 -0.499714 2.71795 255 250 236 
-2.61289 -0.808175 4.42883 194 159 140 
-2.59669 -0.811745 4.44423 176 140 116 
-2.68404 -0.791289 4.34777 183 149 150 
-2.56742 -0.814304 4.47274 165 129 105 
-2.58755 -0.810175 4.45434 165 132 113 
-1.50636 -0.638623 3.50564 64 45 30 
-1.44798 -0.648169 3.5701 255 243 224 
-1.59937 -0.616914 3.40401 250 245 215 
-2.58237 -0.80504 4.458 71 38 19 
-1.29129 -0.621486 3.44415 165 134 114 
-2.6764 -0.784389 4.35474 197 169 155 
-2.59959 -0.798393 4.4379 191 156 137 
-1.59423 -0.610822 3.40192 129 99 75 
-1.43731 -0.640187 3.56644 171 150 131 
-2.63893 -0.785473 4.39337 106 70 54 
-0.643097 -0.474929 2.63976 224 193 164 
-2.62337 -0.78804 4.41717 205 169 147 
-1.45522 -0.637505 3.56648 124 88 62 
-2.65103 -0.781652 4.38767 100 69 51 
-2.58268 -0.79514 4.46224 187 152 130 
-0.324469 -0.494701 2.76487 189 166 148 
-2.67368 -0.775062 4.35542 101 66 47 
0.32043 -0.650561 3.64891 43 35 22 
-2.69447 -0.768281 4.32994 184 162 151 
-1.52927 -0.615497 3.48141 196 174 160 
-2.55984 -0.788392 4.47768 220 187 168 
-2.68197 -0.762978 4.34175 90 54 32 
-0.77143 -0.470122 2.67238 142 123 108 
-0.326588 -0.485961 2.76939 188 162 145 
-0.303873 -0.48357 2.75383 125 94 73 
-2.68864 -0.756996 4.33933 226 219 213 
-2.55075 -0.783664 4.48994 240 205 183 
-2.60277 -0.771969 4.43191 53 21 6 
-2.56414 -0.781085 4.47977 82 46 30 
-0.297381 -0.479412 2.74721 255 243 222 
-2.61936 -0.766689 4.42108 230 195 173 
-2.53314 -0.774735 4.47108 119 84 62 
-2.5435 -0.77954 4.50226 112 77 55 
-1.56146 -0.597228 3.4435 193 156 129 
-2.63013 -0.760684 4.40205 209 178 157 
-2.53726 -0.778616 4.5104 222 190 169 
-1.59009 -0.589887 3.41564 205 171 146 
-1.47847 -0.610821 3.54229 69 41 19 
-1.47191 -0.611372 3.54302 181 154 127 
-2.64538 -0.755353 4.38899 174 145 139 
-0.398887 -0.486929 2.82022 173 144 126 
-2.99857 -0.683991 3.99808 101 88 80 
-2.57104 -0.762731 4.47064 232 198 173 
-0.432606 -0.486372 2.84126 171 143 122 
-1.58185 -0.582058 3.41555 127 81 55 
0.330919 -0.623513 3.65247 230 206 180 
-2.72926 -0.728826 4.29395 225 194 173 
-2.54748 -0.762837 4.49777 203 168 146 
-2.53015 -0.764286 4.51315 111 80 62 
1.16389 -0.77068 4.54383 177 174 159 
-0.292908 -0.465374 2.74208 181 158 140 
-0.265418 -0.461342 2.72169 141 129 81 
-2.5373 -0.75966 4.50721 187 155 132 
-1.53229 -0.585983 3.47459 206 175 155 
1.1888 -0.763813 4.55039 186 194 173 
-2.60574 -0.740088 4.43444 229 201 179 
-2.6876 -0.722455 4.33737 149 113 99 
-0.448324 -0.476287 2.85037 240 213 192 
0.635689 -0.648633 3.90072 76 44 19 
-1.53733 -0.575217 3.46223 66 32 5 
-2.76467 -0.705626 4.25932 101 64 37 
-2.68747 -0.713847 4.32314 112 79 62 
-1.54429 -0.571645 3.45781 199 160 117 
-2.98133 -0.662424 4.01665 92 82 73 
-2.94742 -0.668471 4.05251 110 105 99 
-1.13312 -0.548287 3.32167 98 62 38 
-2.59804 -0.729564 4.43666 197 165 144 
-1.03369 -0.532639 3.2267 92 57 27 
-2.60844 -0.726362 4.42877 233 199 174 
1.03611 -0.72606 4.42223 230 214 201 
-2.68576 -0.705017 4.32193 238 209 191 
-2.61781 -0.719254 4.41528 108 71 52 
-1.45504 -0.580178 3.56022 116 75 53 
-0.271977 -0.445266 2.72634 112 82 58 
-0.307546 -0.447933 2.74947 255 238 221 
-0.316931 -0.447858 2.75691 185 164 147 
0.603391 -0.630976 3.89124 114 73 51 
0.620213 -0.63204 3.89845 130 93 66 
-2.53118 -0.726788 4.51188 90 63 46 
-1.1814 -0.537707 3.33924 119 78 56 
-2.98384 -0.645153 4.01409 105 95 86 
-1.4438 -0.571949 3.56322 255 247 227 
-2.72707 -0.690568 4.31242 66 51 44 
-0.687468 -0.416697 2.59678 143 111 90 
-2.72137 -0.688203 4.31713 250 227 209 
-0.409081 -0.45151 2.82241 183 152 131 
-0.286952 -0.42933 2.73473 255 246 224 
-2.55102 -0.699977 4.49168 218 183 161 
-1.49561 -0.547727 3.51129 74 33 11 
-1.55508 -0.53595 3.44772 216 185 157 
-2.77957 -0.659224 4.256 236 212 174 
-0.376139 -0.432603 2.79704 161 133 112 
-2.62669 -0.67692 4.40641 145 108 92 
-2.562 -0.686569 4.47691 97 56 34 
-2.17906 -0.645676 4.20626 183 153 127 
-2.64329 -0.672706 4.38664 132 100 103 
-0.391297 -0.431774 2.8085 196 170 147 
9.04473 -2.61234 17.1277 180 176 175 
-2.60969 -0.674514 4.42565 213 182 161 
-1.46167 -0.541256 3.55056 251 242 203 
-2.53347 -0.68406 4.50924 106 74 53 
-2.56325 -0.677225 4.47532 182 150 127 
-1.55825 -0.522132 3.44693 99 57 35 
-0.367044 -0.423886 2.7899 176 150 133 
-2.5855 -0.670327 4.45244 198 163 141 
-0.272991 -0.411532 2.71999 116 93 75 
-2.60974 -0.664357 4.42261 219 189 165 
-1.4723 -0.531418 3.53973 225 203 145 
-1.58262 -0.51133 3.41176 138 96 72 
-0.608821 -0.401059 2.67879 71 50 33 
-2.55677 -0.666293 4.47931 173 137 115 
-2.57394 -0.660912 4.46324 190 149 127 
-1.47367 -0.523614 3.53496 103 71 46 
-2.6318 -0.649586 4.39866 197 184 176 
-2.61294 -0.652535 4.4169 90 52 31 
-2.60481 -0.651238 4.4216 210 172 151 
-2.58001 -0.657581 4.45997 80 42 21 
-1.5714 -0.506152 3.43476 124 80 55 
-2.54059 -0.661114 4.50439 151 119 96 
-2.59757 -0.64887 4.43588 206 171 149 
-2.55619 -0.654927 4.48141 87 49 26 
-1.18589 -0.489144 3.34569 247 227 203 
-0.687555 -0.379584 2.59869 255 237 217 
-2.60906 -0.642622 4.42265 73 37 15 
-2.59233 -0.64485 4.44078 83 48 26 
-1.47257 -0.514391 3.54022 90 45 16 
-1.59697 -0.493113 3.40041 255 228 214 
-2.62621 -0.635634 4.39715 216 189 170 
-1.54772 -0.497028 3.44401 221 183 162 
-2.96335 -0.580081 4.02983 101 96 90 
-2.5809 -0.640767 4.45569 179 141 120 
-2.57348 -0.641655 4.46108 92 56 34 
-2.5279 -0.646592 4.50875 246 227 210 
-0.276862 -0.392573 2.7227 147 130 100 
-2.69108 -0.620223 4.33239 249 221 200 
-1.5525 -0.491601 3.44292 229 184 163 
-1.47624 -0.504304 3.53094 83 44 15 
-2.71018 -0.614255 4.33023 255 246 224 
-2.57021 -0.634942 4.4678 192 150 125 
-2.66128 -0.613712 4.3491 230 204 187 
-2.53481 -0.634723 4.5077 237 220 204 
-2.56523 -0.627535 4.47432 112 74 51 
-1.48458 -0.493504 3.52107 240 207 153 
-0.312056 -0.384555 2.74744 175 148 127 
-2.68841 -0.600991 4.33479 243 216 197 
-2.59542 -0.613669 4.43614 200 172 148 
0.556827 -0.537566 3.88389 87 36 17 
-2.55442 -0.614412 4.47583 106 74 51 
-2.57483 -0.609691 4.46179 108 68 43 
-2.56577 -0.605575 4.47013 86 48 25 
-1.02592 -0.436559 3.22709 104 83 66 
-1.60182 -0.457479 3.39206 255 225 207 
-1.56032 -0.463248 3.43313 78 45 26 
-2.57165 -0.600577 4.46651 192 150 125 
-1.46337 -0.475028 3.54575 101 66 38 
-1.31179 -0.457158 3.44488 50 37 29 
-2.59906 -0.579082 4.43087 151 120 100 
0.536035 -0.507605 3.8784 200 165 143 
-1.17199 -0.43421 3.32774 165 134 113 
-1.46848 -0.459726 3.53744 200 179 158 
-2.55691 -0.578986 4.48327 158 123 101 
-2.57833 -0.574395 4.45563 83 47 25 
-1.56808 -0.441586 3.42657 225 184 156 
-1.53468 -0.444756 3.46616 197 163 136 
7.74206 -2.18956 17.2627 255 253 239 
-1.57143 -0.434922 3.4229 239 193 160 
-2.6967 -0.549686 4.34362 84 63 60 
-1.52305 -0.438344 3.47799 167 137 113 
-1.6026 -0.425587 3.39241 242 210 187 
-1.15664 -0.41755 3.32749 126 89 70 
-0.685903 -0.325625 2.5886 253 226 209 
-0.440414 -0.353653 2.83864 255 242 223 
7.74182 -2.1331 17.254 253 239 228 
-1.59097 -0.419448 3.399 128 79 49 
-1.59826 -0.417247 3.39685 231 197 172 
-0.445387 -0.349611 2.83882 109 82 61 
-2.60799 -0.540432 4.41993 208 194 131 
-1.55234 -0.420014 3.44112 69 33 11 
-2.5845 -0.540153 4.44951 60 31 13 
-1.57385 -0.414991 3.41806 214 167 137 
-1.56151 -0.411057 3.4276 95 58 32 
-1.52863 -0.41463 3.47178 210 165 132 
-2.53546 -0.534138 4.49964 200 168 143 
-1.59565 -0.404007 3.39381 92 50 26 
-1.54414 -0.410604 3.45217 92 53 24 
0.922514 -0.499605 4.20458 159 139 115 
-1.51745 -0.411312 3.48574 249 247 232 
-2.57204 -0.5242 4.45929 72 37 17 
-2.53772 -0.522955 4.49244 152 110 86 
-1.3056 -0.401172 3.43787 245 232 213 
-1.48506 -0.410927 3.53475 94 57 30 
-1.5691 -0.395378 3.41942 204 157 129 
-1.60524 -0.391087 3.39042 255 224 205 
-1.46159 -0.405632 3.54788 255 227 196 
-2.53911 -0.509932 4.49462 102 68 43 
-1.59587 -0.38263 3.3892 103 61 37 
-1.60343 -0.380255 3.38744 251 220 199 
-1.44933 -0.396048 3.55108 255 239 222 
-2.17803 -0.465174 4.19806 243 206 187 
-1.31219 -0.381921 3.43972 52 37 30 
-0.731721 -0.291096 2.62777 146 116 92 
-1.30828 -0.375565 3.43859 190 172 148 
-0.773188 -0.290929 2.66038 255 245 221 
0.950923 -0.452678 4.1705 169 151 103 
-1.45845 -0.384292 3.55121 158 118 92 
0.897087 -0.451573 4.21134 255 248 224 
-1.48936 -0.374626 3.50006 109 73 47 
-2.62752 -0.462435 4.3453 188 167 148 
-1.53495 -0.368977 3.46174 90 53 26 
-1.49489 -0.369402 3.49995 253 230 199 
-0.447872 -0.299896 2.83397 115 92 74 
-2.54915 -0.47017 4.4832 223 188 166 
-2.63156 -0.454787 4.34262 48 29 14 
-2.59429 -0.464318 4.431 221 187 162 
-2.58845 -0.465014 4.43429 100 65 43 
0.896827 -0.441127 4.21272 246 230 214 
0.94638 -0.436019 4.17559 150 130 105 
-2.59854 -0.458159 4.42684 109 73 49 
-2.58807 -0.456324 4.43613 222 191 170 
-1.16057 -0.341241 3.32059 131 93 70 
0.331978 -0.373761 3.63806 87 74 58 
-1.50689 -0.352509 3.49083 84 54 30 
-1.66306 -0.345567 3.43389 161 133 109 
-1.55932 -0.342452 3.42834 108 73 53 
-2.59645 -0.439157 4.42956 125 88 62 
0.996634 -0.40754 4.13284 105 79 52 
-0.283523 -0.266933 2.721 181 154 133 
-2.59962 -0.429917 4.42325 254 217 198 
-1.57368 -0.332057 3.41298 222 184 161 
-1.547 -0.33275 3.44436 108 72 48 
-2.58972 -0.424121 4.4335 248 219 203 
-1.52875 -0.331364 3.46134 91 57 29 
-0.409892 -0.268255 2.80898 117 86 58 
-0.202147 -0.254289 2.65579 220 205 172 
-1.55924 -0.325197 3.43091 207 172 150 
-2.5857 -0.417416 4.43761 114 82 61 
-1.45548 -0.334257 3.54903 177 143 118 
-1.16493 -0.310444 3.31692 227 189 166 
-1.50751 -0.322324 3.48977 103 48 18 
-1.13931 -0.30605 3.3158 99 81 67 
7.55523 -1.5292 16.6088 164 150 139 
0.963291 -0.381386 4.15976 199 174 152 
-0.203022 -0.24369 2.65507 207 188 173 
7.963 -1.46547 16.3632 213 204 199 
-2.55983 -0.400743 4.46888 170 124 98 
-2.54057 -0.402148 4.48845 156 118 95 
-1.51371 -0.311856 3.48131 230 207 191 
0.918417 -0.375468 4.19758 178 155 137 
9.69792 -1.50678 16.9416 236 219 209 
0.442861 -0.33353 3.75205 241 214 184 
-0.432867 -0.250045 2.83358 255 248 230 
-0.385565 -0.246533 2.79842 88 61 42 
0.337955 -0.319027 3.63668 234 209 179 
7.83997 -1.44109 16.4979 227 223 220 
-1.1595 -0.28875 3.31479 99 66 47 
-0.426144 -0.244093 2.82377 169 144 124 
-0.363273 -0.240344 2.77929 255 251 241 
-1.50916 -0.296384 3.48472 204 175 157 
-0.338935 -0.235107 2.76154 111 79 54 
-1.16546 -0.279498 3.31577 246 210 188 
-0.366614 -0.233449 2.77728 137 109 87 
-0.348499 -0.232494 2.76471 255 230 208 
-0.379121 -0.233126 2.78435 154 129 109 
1.04645 -0.34015 4.07832 233 211 188 
-1.55173 -0.281146 3.43426 117 82 62 
9.32023 -1.3659 16.7772 144 139 136 
-0.312416 -0.22464 2.74046 123 82 60 
-0.302627 -0.221625 2.73616 241 213 191 
-0.337511 -0.222528 2.7553 255 243 218 
7.86231 -1.31861 16.4749 144 139 133 
-1.55651 -0.269942 3.42955 213 185 161 
-0.306189 -0.215712 2.73658 76 44 19 
-0.419044 -0.221011 2.81264 182 157 137 
-0.374369 -0.218291 2.78293 248 223 203 
1.06515 -0.317621 4.07081 204 181 137 
-1.55091 -0.266454 3.4363 84 52 29 
7.84506 -1.27826 16.5606 157 143 142 
7.8758 -1.27506 16.4983 144 134 125 
-0.394904 -0.216359 2.79615 255 244 223 
-2.54062 -0.343757 4.48838 103 72 52 
-0.44237 -0.215638 2.82768 254 231 215 
-0.308516 -0.207501 2.73899 86 50 34 
0.946362 -0.313151 4.17738 171 150 133 
-0.323109 -0.205864 2.74877 74 38 12 
-0.433031 -0.211449 2.82467 229 213 197 
-0.355215 -0.207026 2.76832 87 56 35 
-0.243758 -0.200488 2.68728 154 133 112 
-0.311892 -0.203174 2.74306 255 240 219 
-1.4797 -0.259098 3.51926 204 168 142 
-0.385425 -0.200818 2.79087 255 249 235 
7.88202 -1.16795 16.5033 148 144 141 
0.949192 -0.292735 4.17179 192 171 154 
0.322774 -0.252584 3.6337 237 211 186 
-1.56875 -0.234823 3.41173 198 171 141 
-0.332198 -0.19067 2.75191 88 54 27 
-0.339591 -0.189351 2.7579 121 87 60 
-1.508 -0.236712 3.48463 174 137 108 
-1.46441 -0.238411 3.52866 250 213 184 
-1.44515 -0.238634 3.5399 203 180 162 
-1.60378 -0.224082 3.37752 248 216 191 
7.89351 -1.07116 16.64 164 150 147 
8.7332 -1.03236 16.1284 101 88 80 
-0.246425 -0.170929 2.68644 186 161 141 
7.88157 -1.00907 16.2687 253 254 249 
-1.5683 -0.208082 3.41244 220 185 163 
8.01616 -0.991021 16.3579 175 171 170 
-0.373427 -0.169376 2.78033 57 19 0 
-2.61378 -0.265771 4.40388 124 97 80 
-1.14032 -0.199287 3.30885 116 95 78 
-0.407405 -0.169652 2.80513 118 84 59 
-0.389982 -0.168562 2.79839 98 52 29 
0.944789 -0.24872 4.17027 255 234 216 
-0.248956 -0.160622 2.68732 131 106 86 
0.972382 -0.246715 4.14412 176 154 133 
-1.3071 -0.199992 3.42227 249 231 209 
-0.324528 -0.161818 2.74103 213 181 158 
0.937671 -0.243626 4.17586 181 158 140 
-0.33087 -0.15989 2.74291 69 35 8 
0.9136 -0.243724 4.19402 178 155 139 
-0.29721 -0.15807 2.72155 63 29 2 
-0.364636 -0.159754 2.77004 254 230 206 
-0.321173 -0.157699 2.74114 66 31 9 
8.51089 -0.902164 15.9391 204 190 179 
-1.1685 -0.187334 3.31194 249 213 189 
-0.421915 -0.158644 2.81323 95 70 48 
8.36798 -0.901459 16.0962 204 190 177 
-1.56427 -0.189358 3.41756 226 194 171 
-1.53993 -0.191298 3.4427 152 121 100 
-1.55579 -0.189179 3.42578 207 173 148 
-0.341824 -0.153042 2.75487 73 41 16 
-1.17039 -0.180796 3.31151 126 90 68 
-0.374333 -0.151863 2.7781 238 210 186 
0.935572 -0.225358 4.17122 203 180 164 
0.928093 -0.225138 4.17983 196 175 158 
-0.370364 -0.147216 2.77694 124 92 69 
-0.297987 -0.14533 2.72498 124 105 72 
0.905545 -0.221929 4.19936 196 167 151 
-1.15578 -0.172798 3.3149 112 77 55 
0.977701 -0.216259 4.13666 166 139 120 
1.03187 -0.21244 4.08722 189 164 142 
-1.56183 -0.175944 3.4228 143 108 80 
-0.44056 -0.14494 2.82202 148 126 105 
-1.55629 -0.171556 3.42407 255 249 221 
8.01805 -0.790796 15.9499 239 229 220 
0.905745 -0.203597 4.19766 192 173 159 
0.943136 -0.203176 4.16605 255 246 227 
-1.56416 -0.163886 3.41963 182 144 121 
0.913432 -0.200306 4.19326 252 233 218 
7.97616 -0.764028 16.1586 92 75 67 
-1.1669 -0.154061 3.31435 155 126 110 
9.42773 -0.689394 14.897 218 216 217 
-0.312578 -0.124357 2.7319 88 54 29 
-0.820596 -0.11477 2.60171 111 81 57 
-0.794347 -0.114325 2.58037 91 64 43 
-0.358548 -0.122081 2.77048 80 38 14 
-0.346365 -0.122003 2.76487 114 82 57 
-0.374416 -0.120863 2.77951 98 64 39 
-1.5951 -0.144375 3.38724 88 56 35 
-1.47201 -0.150368 3.51934 73 33 8 
-0.381985 -0.119728 2.79004 100 68 45 
0.981163 -0.177741 4.13966 204 178 161 
8.04793 -0.686243 16.1816 255 253 237 
-1.60562 -0.143243 3.36985 224 196 172 
0.896629 -0.177831 4.20037 255 247 234 
-0.395161 -0.116833 2.79533 70 39 21 
0.955635 -0.172585 4.15323 192 166 149 
-1.55486 -0.140868 3.42251 44 13 0 
-0.40807 -0.116576 2.80371 138 112 95 
-0.385328 -0.115414 2.79386 255 246 222 
-1.60492 -0.135745 3.37155 249 222 193 
-0.314695 -0.110542 2.7327 109 62 32 
9.4292 -0.599803 15.0063 161 148 139 
-1.5415 -0.137207 3.44282 74 43 23 
-0.323069 -0.109074 2.74016 122 83 52 
7.92212 -0.619815 15.8652 255 252 240 
-0.319162 -0.105718 2.73799 255 246 222 
0.886668 -0.161135 4.19786 121 90 72 
-2.52544 -0.169781 4.46425 75 49 34 
9.4044 -0.562528 14.9844 255 254 249 
0.956462 -0.15509 4.15386 178 155 139 
-1.52408 -0.12711 3.46216 146 120 97 
-0.396053 -0.100192 2.79222 109 63 39 
-0.418456 -0.0994346 2.81052 117 83 58 
-1.63211 -0.116187 3.33283 81 53 32 
-1.56187 -0.116028 3.41931 72 45 24 
-1.58843 -0.112954 3.38638 206 180 157 
-0.361096 -0.0931437 2.77095 177 152 130 
-0.327125 -0.0904348 2.7443 255 241 217 
7.91278 -0.535252 16.5041 143 123 114 
-1.50612 -0.112091 3.47838 191 164 121 
-0.340152 -0.0891352 2.75115 255 244 222 
0.920643 -0.133091 4.17996 186 153 134 
-0.383178 -0.0881902 2.78834 127 97 73 
0.909539 -0.13226 4.19102 187 164 146 
0.997021 -0.130457 4.11478 167 145 124 
0.976196 -0.128657 4.13364 184 161 143 
7.98504 -0.511173 16.5087 253 252 247 
-1.34531 -0.103748 3.40855 112 98 89 
-1.30946 -0.103845 3.4212 218 202 189 
-1.55811 -0.10264 3.40824 59 28 7 
-1.54494 -0.101849 3.44031 82 51 33 
-1.52812 -0.102936 3.45459 164 133 112 
-0.398725 -0.0832224 2.79819 255 245 232 
7.94236 -0.481693 16.4724 149 130 123 
-0.320837 -0.0809399 2.73422 248 218 192 
7.93909 -0.479942 16.5425 161 142 135 
-1.44305 -0.10023 3.53151 193 168 146 
-1.48393 -0.098978 3.50647 239 209 185 
0.998166 -0.116592 4.11445 205 180 160 
-1.56124 -0.0953165 3.41774 166 139 112 
-0.435398 -0.07802 2.8231 248 229 215 
0.975221 -0.113637 4.13747 210 184 167 
-1.44872 -0.0951699 3.53401 255 244 222 
-1.55596 -0.0912152 3.41996 75 44 24 
-0.343628 -0.0719043 2.75095 255 237 216 
11.0838 -0.394349 15.1063 130 119 117 
-2.52717 -0.115519 4.46153 100 74 59 
-1.56397 -0.0870799 3.41364 180 156 130 
-1.31595 -0.0861726 3.41922 58 48 39 
-0.360314 -0.0690109 2.76583 255 250 230 
-1.56623 -0.0788468 3.41025 190 173 147 
-2.61741 -0.100387 4.39375 105 90 71 
-1.57554 -0.0745011 3.40221 167 139 115 
0.956634 -0.0916484 4.14566 180 145 123 
0.336583 -0.0761271 3.62134 219 200 168 
-1.6946 -0.0672126 3.3509 251 229 208 
-1.67149 -0.0665305 3.33167 255 235 214 
-1.63955 -0.0669678 3.32837 191 166 146 
0.909295 -0.0841167 4.18911 192 176 160 
-0.36712 -0.0534566 2.77227 95 67 45 
-1.63512 -0.0623459 3.33423 76 51 29 
-1.61138 -0.0633985 3.35787 177 150 129 
-1.65336 -0.0586722 3.31517 249 227 214 
-1.58716 -0.0582539 3.38477 133 108 86 
-1.51587 -0.0604565 3.46849 191 157 132 
-1.76002 -0.056092 3.40149 157 132 110 
0.904203 -0.0678872 4.19325 197 178 161 
0.959336 -0.0668858 4.14514 172 149 131 
-1.56714 -0.0425655 3.40972 152 137 118 
-1.54575 -0.0431329 3.4377 179 150 132 
4.69283 -0.112896 10.6198 198 212 133 
-1.51224 -0.0370073 3.46977 184 158 133 
-1.1599 -0.0343452 3.30017 132 100 75 
4.88267 -0.095463 10.4258 183 189 91 
5.22977 -0.0917614 10.1417 223 232 143 
4.7452 -0.0858125 10.5727 110 121 45 
-1.49749 -0.0269075 3.48186 82 47 27 
-1.46118 -0.0278484 3.52871 211 202 171 
-1.45513 -0.0283478 3.53113 112 87 65 
-1.31383 -0.0264157 3.41409 213 198 177 
4.86838 -0.0766549 10.4555 189 192 111 
4.90645 -0.0766407 10.393 67 74 0 
-0.369037 -0.0196749 2.74218 236 211 171 
4.73098 -0.0719883 10.5932 210 220 131 
5.52446 -0.0584651 9.77567 96 97 21 
-1.6239 -0.0188182 3.34126 148 122 95 
-1.31754 -0.0196845 3.41517 50 40 31 
-1.56219 -0.0183572 3.41929 155 130 110 
4.66998 -0.0556377 10.6479 191 204 125 
-0.292913 -0.0125646 2.67771 162 135 116 
-1.63613 -0.0143605 3.32905 74 55 40 
-1.15928 -0.0139878 3.29928 112 80 55 
5.68 -0.0400372 9.63935 89 96 26 
6.3013 -0.0391003 8.83391 156 166 106 
-1.53277 -0.0131557 3.4488 233 211 188 
5.34308 -0.0368895 9.92608 69 82 10 
6.41487 -0.035118 8.70867 171 180 99 
6.29059 -0.0317176 8.88792 87 93 29 
0.98236 -0.00878231 4.12177 186 150 126 
-1.46334 -0.00573655 3.52529 125 88 61 
5.66691 -0.0164656 9.649 175 188 134 
4.7835 -0.0123138 10.5569 93 102 9 
5.4801 -0.0127084 9.84941 76 85 2 
-1.55924 -0.00403771 3.41548 200 183 129 
4.69674 -0.00906259 10.6261 196 205 122 
5.33858 -0.00726461 9.96224 176 189 110 
5.71829 -0.00666701 9.5866 79 78 14 
6.32294 -0.00568245 8.7887 163 168 114 
4.68477 -0.00232309 10.6454 110 119 36 
5.40518 -0.00268274 9.90558 70 86 15 
5.26902 0.00239074 10.0731 47 60 0 
5.45226 6.48859e-05 9.86174 67 80 10 
5.86735 0.00258321 9.36569 51 63 0 
5.36851 0.0041453 9.94902 192 202 133 
5.71022 0.0046124 9.59859 234 238 179 
4.69463 0.00930932 10.5899 111 121 32 
5.35571 0.00963343 9.96247 51 64 0 
-1.5587 0.00350932 3.41854 51 29 18 
4.87676 0.0111858 10.4738 35 35 0 
5.40085 0.0104576 9.87709 183 197 122 
5.98141 0.0111555 9.23087 88 101 29 
-1.52401 0.00608144 3.4563 81 46 27 
-1.45612 0.00662105 3.5287 155 121 94 
0.957549 0.00822318 4.13948 189 164 144 
5.17145 0.0245671 10.1542 81 90 9 
5.43088 0.0266723 9.86141 60 75 6 
-1.76425 0.010431 3.40666 255 244 233 
5.36565 0.0296453 9.96655 185 199 102 
5.38764 0.0324035 9.95054 165 178 99 
5.41184 0.028792 9.89213 63 77 15 
5.66564 0.02943 9.61299 75 88 9 
-0.264306 0.008898 2.64375 224 218 204 
4.85973 0.039788 10.4737 118 117 27 
4.90258 0.0415261 10.4434 68 81 9 
4.69635 0.0463841 10.5908 139 150 81 
4.71114 0.0500244 10.5794 212 223 145 
4.83924 0.05056 10.4694 204 216 140 
4.91605 0.0554274 10.4 64 77 0 
-0.630692 0.0140372 2.63031 69 44 24 
5.46648 0.056017 9.88498 52 63 0 
-1.6343 0.0200902 3.32818 182 150 127 
4.70257 0.0632393 10.637 187 199 123 
4.77978 0.0640588 10.5611 190 203 124 
5.92968 0.0529465 9.28518 177 189 125 
-1.61826 0.0209345 3.34536 196 174 150 
5.62279 0.0637726 9.64384 72 86 11 
-1.45929 0.0239931 3.52701 145 105 79 
6.31056 0.0608514 8.82982 191 194 125 
-0.282141 0.0190815 2.65576 190 162 140 
5.14663 0.0741904 10.1773 208 210 126 
0.966218 0.0316432 4.12847 184 159 137 
4.73246 0.0900456 10.6204 41 48 0 
5.08294 0.086926 10.2242 49 61 0 
5.21002 0.0879069 10.1239 212 221 128 
6.35252 0.0725516 8.74052 186 189 120 
5.4142 0.086291 9.90791 79 92 12 
5.94639 0.0824644 9.28951 163 176 106 
4.7282 0.103308 10.6532 222 209 177 
6.33312 0.0825135 8.74911 175 188 135 
0.907854 0.0445797 4.18306 187 165 144 
4.76602 0.116971 10.6377 110 97 44 
5.91152 0.102633 9.32135 41 54 0 
6.2961 0.0962971 8.84279 105 118 62 
5.14588 0.116683 10.2364 85 96 20 
5.60147 0.111269 9.70178 186 198 122 
5.00406 0.122869 10.382 61 56 0 
6.04458 0.105886 9.18926 125 126 50 
6.46729 0.0975912 8.57602 202 193 100 
-0.468476 0.0333023 2.78624 97 66 38 
6.54271 0.101773 8.5924 59 59 7 
-0.288076 0.0321209 2.65542 164 144 120 
-1.25869 0.0435923 3.36128 151 120 100 
6.31339 0.111815 8.85154 36 34 0 
6.51102 0.111536 8.60169 55 43 0 
5.60742 0.132061 9.6982 62 74 2 
5.14809 0.142777 10.2004 189 193 116 
6.26789 0.124254 8.87837 164 148 115 
5.30731 0.143142 10.0298 203 214 154 
5.89137 0.136234 9.36871 81 91 5 
6.34167 0.125774 8.79789 177 190 134 
4.93855 0.156415 10.4209 57 68 0 
5.1734 0.158619 10.1388 83 94 16 
5.61854 0.153789 9.71007 169 181 115 
-0.473656 0.0441608 2.79026 112 85 64 
4.97035 0.168603 10.3783 115 124 43 
4.99416 0.165811 10.333 79 90 14 
-0.200537 0.0416613 2.59847 214 194 169 
6.47263 0.139381 8.64903 49 60 0 
4.87019 0.175944 10.5028 29 41 0 
5.14672 0.17025 10.1919 84 97 15 
6.31134 0.146878 8.87033 182 188 150 
-1.59383 0.0571828 3.37586 77 50 33 
5.5768 0.168469 9.73887 33 45 0 
5.66999 0.163849 9.59349 103 116 46 
5.39506 0.173605 9.87282 174 184 115 
4.83734 0.193414 10.5209 66 77 0 
5.17523 0.186604 10.1749 96 92 18 
-1.58451 0.0622107 3.38025 86 59 38 
6.51823 0.157816 8.61147 181 174 119 
-1.64784 0.0628301 3.30784 110 82 61 
5.20663 0.19016 10.0317 63 66 0 
5.67168 0.181273 9.63139 91 102 26 
6.34046 0.16695 8.81397 118 125 71 
-1.60629 0.0643994 3.35604 173 151 128 
5.52329 0.187926 9.77878 179 193 134 
5.9177 0.179966 9.3248 84 76 11 
5.95848 0.180782 9.32476 55 65 5 
-1.53107 0.0674342 3.43865 75 50 30 
6.18083 0.184493 9.03367 91 80 24 
6.25186 0.182559 8.95636 101 90 34 
6.52646 0.174224 8.62742 77 75 16 
5.42418 0.206716 9.8972 212 218 148 
6.02173 0.191145 9.23091 161 174 104 
6.42054 0.181499 8.72825 194 197 152 
5.63487 0.204408 9.69013 74 89 22 
5.73935 0.205648 9.52605 86 98 22 
6.00739 0.198813 9.23661 108 89 47 
4.84376 0.231442 10.4812 96 82 21 
5.65173 0.210781 9.64432 201 215 140 
6.30004 0.192963 8.90896 211 194 148 
6.31065 0.19392 8.87904 181 169 109 
-0.25593 0.0574156 2.63246 85 63 39 
6.20115 0.19988 9.01412 199 185 146 
5.04429 0.232528 10.2793 62 74 2 
5.07664 0.233188 10.227 72 83 5 
5.44652 0.228666 9.8653 186 190 105 
5.54286 0.222237 9.75111 202 214 114 
6.05166 0.210693 9.2027 81 57 19 
6.32121 0.206958 8.97476 238 226 178 
-1.54584 0.0802608 3.42854 146 118 96 
5.43754 0.235275 9.91804 76 72 0 
5.66485 0.226444 9.57005 102 110 33 
6.09113 0.215535 9.13511 211 198 145 
-1.48367 0.0837651 3.49049 76 46 20 
5.46236 0.235933 9.83061 190 198 121 
5.9529 0.224734 9.34584 217 229 157 
-1.50011 0.0863306 3.4805 82 48 23 
6.05273 0.230939 9.26969 86 62 26 
6.20663 0.225429 9.02911 121 103 55 
6.25671 0.224827 8.91741 128 108 73 
5.67135 0.244849 9.6443 117 128 49 
5.66804 0.245014 9.60468 210 219 136 
6.47076 0.220389 8.70141 77 65 7 
4.7178 0.275608 10.6584 137 117 84 
5.56142 0.249535 9.68506 202 218 111 
6.50305 0.222049 8.62768 70 51 0 
0.915799 0.110933 4.14546 104 76 37 
6.48434 0.232275 8.62725 239 234 214 
-0.315494 0.0739562 2.6705 255 239 215 
5.09803 0.284739 10.2814 83 87 3 
5.55084 0.266962 9.6743 104 118 7 
5.90193 0.258362 9.3534 217 229 131 
6.26881 0.246873 8.93518 231 210 181 
-1.30615 0.0953023 3.39455 73 50 36 
5.40095 0.279436 9.93607 93 85 0 
6.48364 0.24342 8.64215 87 70 52 
-1.47119 0.10219 3.50432 225 233 194 
5.10126 0.298847 10.25 206 216 129 
5.12327 0.298322 10.2418 100 94 10 
6.49311 0.25137 8.6742 210 190 165 
6.18905 0.269989 9.0446 226 205 184 
5.06061 0.293059 9.73387 216 191 109 
-1.60508 0.103334 3.35111 69 47 23 
4.7419 0.31275 10.035 213 213 117 
-1.31653 0.106824 3.40185 58 37 34 
0.942676 0.128136 4.12685 240 216 190 
5.81351 0.289664 9.28697 119 134 17 
5.82751 0.290704 9.27188 102 115 0 
6.33051 0.275697 8.77699 205 196 121 
-0.459085 0.0890299 2.7829 202 179 161 
6.18734 0.28694 9.02382 138 145 42 
4.71337 0.328406 10.1259 108 98 3 
-0.438302 0.0902149 2.76744 188 162 145 
5.78885 0.303562 9.2362 202 216 105 
-1.52367 0.113431 3.44654 167 140 119 
-1.58415 0.112843 3.3784 155 139 114 
-1.31502 0.114378 3.40127 221 205 192 
-1.48879 0.118004 3.48793 82 50 25 
-0.33825 0.0904944 2.68523 245 221 197 
5.76165 0.317533 9.08522 112 125 19 
-1.61198 0.122005 3.34968 212 210 197 
-1.55421 0.127557 3.41208 197 169 145 
-1.22997 0.126239 3.32818 251 224 203 
-1.57162 0.130804 3.39594 163 147 98 
-1.52288 0.133391 3.44702 78 46 25 
4.78897 0.387758 10.0329 216 228 144 
-1.57974 0.131936 3.38191 158 133 111 
-1.61638 0.132218 3.34604 185 174 152 
4.76423 0.398133 10.0478 204 219 116 
-0.423595 0.109792 2.76061 125 94 76 
5.47781 0.368347 9.23719 98 113 10 
5.89602 0.35318 8.87531 90 102 0 
0.897723 0.167551 4.1651 255 240 223 
-1.59266 0.138269 3.36522 215 189 164 
0.957229 0.171734 4.11162 255 237 223 
5.77999 0.373274 8.90132 115 129 18 
-1.5532 0.14902 3.4154 198 167 147 
-0.460917 0.120857 2.77737 182 161 142 
-1.58522 0.149681 3.37368 185 160 138 
-1.53743 0.151661 3.42873 63 36 19 
-1.54539 0.152949 3.42025 187 159 137 
-1.31478 0.153242 3.39836 243 227 212 
-1.09334 0.146832 3.21028 176 154 133 
-1.58801 0.155567 3.37372 97 72 50 
-1.55845 0.158401 3.40749 92 64 40 
-1.50864 0.161575 3.46873 185 144 124 
-1.46007 0.162937 3.5181 254 236 214 
-1.0979 0.153053 3.21356 255 242 224 
-0.431041 0.131413 2.76652 129 98 77 
-0.308046 0.12796 2.66186 216 191 169 
-0.463212 0.142379 2.78376 215 194 177 
-1.49203 0.180869 3.47854 213 179 154 
-0.281802 0.138348 2.63758 215 202 196 
0.964339 0.213392 4.09759 168 140 118 
-0.356919 0.148035 2.69376 168 136 113 
-1.23088 0.192695 3.32664 195 164 143 
-1.55996 0.201868 3.41931 148 122 97 
-1.14135 0.191683 3.25112 199 173 156 
-0.43304 0.169107 2.75558 166 135 117 
0.967223 0.26128 4.0998 255 255 236 
-0.384354 0.174693 2.72374 105 78 51 
-0.459132 0.180105 2.77748 193 165 143 
-0.396154 0.178698 2.72279 161 130 125 
0.904427 0.273824 4.15262 183 154 136 
-1.55232 0.225698 3.40926 80 52 30 
-0.454012 0.188957 2.77105 171 143 121 
-1.56766 0.237326 3.39351 91 71 47 
-0.405535 0.197093 2.73148 111 74 47 
-1.54213 0.254649 3.41852 171 150 123 
-0.414824 0.204801 2.74183 136 105 84 
-0.461949 0.208671 2.77498 250 226 202 
-1.51864 0.260525 3.44045 77 51 28 
-1.16102 0.247721 3.2616 255 236 218 
-1.61897 0.254248 3.33083 157 125 78 
3.21098 0.585259 7.68579 185 158 141 
-0.411897 0.209096 2.73372 247 217 193 
0.989616 0.311891 4.07568 190 163 142 
0.963055 0.316633 4.10182 255 244 227 
0.942926 0.320601 4.1163 255 246 226 
-1.64137 0.264981 3.30683 72 43 25 
3.2052 0.620013 7.69132 254 229 207 
-0.471314 0.227633 2.77952 255 243 223 
-1.52146 0.284852 3.43762 201 171 147 
0.904914 0.344423 4.1486 188 157 139 
-1.60011 0.279372 3.34863 82 59 41 
0.974716 0.340293 4.08734 187 156 136 
0.994239 0.339787 4.07085 188 153 133 
-0.477289 0.234218 2.78036 107 79 58 
0.900824 0.351658 4.15241 255 238 221 
-1.61816 0.285025 3.33729 114 87 68 
-1.43791 0.299067 3.49556 186 158 137 
-0.28579 0.227752 2.63702 63 31 8 
0.988838 0.353489 4.07755 202 175 154 
-1.63026 0.28969 3.32284 187 151 127 
-0.360456 0.235118 2.69544 255 231 209 
1.02319 0.353312 4.0458 163 132 111 
-0.29804 0.237688 2.64698 193 163 137 
0.916334 0.376341 4.13728 179 152 133 
1.04691 0.368955 4.0205 180 146 121 
-1.62257 0.306976 3.32756 210 184 169 
-0.338738 0.246537 2.67529 221 187 162 
-1.63159 0.307664 3.32 188 146 124 
-0.394776 0.261169 2.71692 131 90 62 
-1.62429 0.320434 3.32911 212 185 166 
-1.50659 0.33494 3.45116 127 93 66 
-1.60621 0.325618 3.34954 171 150 105 
-1.56443 0.332419 3.3918 236 216 191 
1.00762 0.398335 4.05421 136 102 77 
-1.51627 0.339286 3.437 86 50 24 
-0.359454 0.265297 2.68896 232 201 173 
0.997143 0.401548 4.06744 152 120 97 
-1.53741 0.337592 3.4126 94 64 38 
-1.54358 0.340767 3.41122 213 191 144 
-1.5125 0.345446 3.442 199 165 137 
-1.50613 0.348978 3.44695 108 73 45 
-0.30946 0.269873 2.65485 208 177 149 
-1.49989 0.352342 3.44982 218 190 153 
1.00484 0.414407 4.0611 148 116 91 
-1.50463 0.359257 3.44534 220 192 144 
-1.51623 0.359595 3.43668 101 67 42 
0.93808 0.430489 4.11608 185 160 140 
-1.54166 0.357125 3.40693 226 200 173 
0.980139 0.428695 4.0873 185 153 132 
-1.58789 0.354428 3.3624 174 147 128 
-1.5227 0.360353 3.42624 148 116 91 
-1.63884 0.348518 3.30412 90 58 33 
-1.22444 0.35381 3.31234 165 144 127 
-1.64706 0.353874 3.29677 96 69 42 
-1.53788 0.367621 3.41352 186 165 144 
-0.477836 0.300181 2.77486 73 51 30 
-1.62275 0.359737 3.3218 187 156 127 
1.00455 0.441649 4.06071 148 112 86 
-0.385968 0.296908 2.70818 160 126 101 
-1.73606 0.378549 3.35401 122 102 77 
-0.258402 0.294508 2.60943 198 167 139 
-0.279073 0.300006 2.62349 234 207 178 
-1.31841 0.393942 3.38549 46 33 25 
-0.256113 0.309599 2.60759 210 183 154 
1.01915 0.47892 4.04247 156 114 89 
1.04667 0.478068 4.02448 148 111 84 
-1.30669 0.420333 3.3731 94 75 60 
-1.5316 0.428952 3.17212 157 172 105 
-0.98774 0.382287 2.74326 94 64 12 
-0.300741 0.369975 2.63431 108 71 42 
-1.04493 0.392857 2.78239 221 236 169 
-1.15231 0.419099 2.88182 122 92 68 
-1.21619 0.436696 2.93319 152 135 66 
-0.316267 0.426732 2.64072 172 136 110 
-1.33521 0.430192 2.46899 39 41 0 
-0.383257 0.489855 2.68833 151 132 90 
0.323957 0.450169 1.43346 174 143 115 
0.324764 0.453087 1.43181 255 250 225 
0.337975 0.451837 1.42239 154 117 90 
0.335402 0.453628 1.42345 255 255 227 
0.362452 0.45295 1.40048 242 213 179 
0.311656 0.471892 1.44065 219 194 154 
0.379393 0.45398 1.38451 221 204 150 
0.199442 -1.85535 3.58005 93 77 64 
0.221898 -1.86641 3.60196 225 214 194 
0.288084 -1.72222 3.65348 59 51 32 
0.378384 -1.77057 3.76133 205 196 189 
-0.472269 -1.30066 2.7789 141 136 117 
-0.484283 -1.2995 2.78938 153 148 142 
-0.459923 -1.27536 2.79137 146 130 114 
-0.129314 -1.44709 3.17597 70 51 36 
-0.47525 -1.27585 2.80511 141 131 121 
-0.45703 -1.26252 2.79428 254 235 220 
-0.473019 -1.26444 2.80956 227 212 193 
-0.0810501 -1.43624 3.22683 48 35 27 
-0.418781 -1.25286 2.82665 46 41 35 
-0.499546 -1.25469 2.83473 42 28 19 
-0.511178 -1.24739 2.84561 228 209 194 
-0.0976313 -1.40472 3.21061 207 182 162 
-0.521369 -1.24953 2.8529 41 23 13 
-0.465228 -1.21751 2.80294 200 173 154 
-0.255348 -1.31108 3.02127 199 180 165 
-0.533646 -1.23812 2.85557 207 190 170 
-0.553207 -1.2461 2.88484 236 215 194 
-0.462359 -1.20927 2.80513 68 41 24 
-0.511369 -1.22488 2.84413 225 199 182 
-0.500544 -1.21603 2.83334 138 93 74 
-0.453395 -1.20613 2.81142 32 25 9 
-0.474654 -1.2061 2.81373 255 244 230 
-0.560466 -1.23321 2.88277 198 167 149 
-0.570838 -1.23431 2.89558 241 218 200 
-0.446913 -1.19928 2.81993 82 68 55 
-0.605208 -1.24171 2.92424 254 237 211 
-0.473525 -1.19509 2.81546 73 53 42 
-0.572447 -1.22648 2.89702 154 118 96 
-0.43053 -1.19665 2.83184 80 61 54 
-0.440788 -1.19429 2.82992 215 199 176 
-0.48514 -1.1876 2.81756 251 243 232 
-0.598031 -1.22833 2.91743 147 106 84 
-0.588439 -1.22241 2.90261 186 148 125 
-0.674037 -1.25278 2.98095 63 39 27 
-0.490413 -1.18637 2.82147 251 241 231 
-0.466154 -1.18805 2.82376 72 58 47 
-0.6563 -1.242 2.96353 249 231 209 
-0.458661 -1.18276 2.82355 224 199 177 
-0.646726 -1.23765 2.96197 186 154 131 
-0.407138 -1.18811 2.84346 55 50 46 
-0.493317 -1.18229 2.8324 57 47 35 
-0.709338 -1.25174 3.00856 45 35 26 
-0.484485 -1.17757 2.82921 32 27 23 
-0.456963 -1.17705 2.82861 38 24 15 
0.287335 -1.5091 3.6307 224 217 209 
-0.432031 -1.17893 2.83685 228 213 190 
0.11226 -1.41911 3.43356 209 181 167 
-0.513852 -1.16826 2.83181 196 170 155 
-0.477868 -1.16415 2.84049 142 133 124 
-0.824697 -1.25938 3.08335 150 151 146 
-0.485227 -1.15923 2.84144 31 22 13 
-0.550228 -1.13689 2.80199 233 216 196 
-0.396903 -1.16091 2.8714 56 45 39 
-0.862609 -1.25978 3.11958 135 136 131 
-0.763903 -1.23231 3.04832 244 222 201 
-0.753118 -1.2283 3.04374 157 130 109 
0.0374433 -1.34937 3.34811 225 207 193 
-0.800772 -1.23796 3.07833 237 217 193 
-0.237785 -1.22175 3.03906 81 47 48 
-0.390654 -1.15291 2.86984 255 247 230 
-0.41088 -1.13889 2.88182 237 220 200 
-0.901079 -1.23944 3.16313 223 205 183 
-0.430835 -1.13112 2.89463 44 35 28 
-0.930272 -1.24417 3.19126 236 219 193 
-0.386414 -1.11793 2.86536 255 251 224 
-0.990978 -1.25644 3.22756 157 153 150 
-0.944059 -1.24042 3.19668 218 202 179 
-0.429592 -1.12254 2.89418 212 195 177 
-0.96635 -1.24583 3.21781 47 33 30 
-0.392549 -1.11116 2.87283 152 107 86 
-0.454734 -1.1162 2.89753 166 135 114 
-0.427283 -1.11615 2.89954 160 127 108 
-0.966468 -1.23834 3.22231 228 205 189 
-0.818684 -1.18901 3.09277 255 252 232 
-0.467523 -1.10519 2.88105 125 99 84 
-0.986057 -1.2363 3.23364 219 196 178 
-0.960547 -1.22638 3.21499 239 216 198 
-0.879136 -1.19999 3.14737 255 234 212 
-0.437389 -1.09879 2.90379 177 155 141 
-0.416368 -1.08977 2.88589 255 240 223 
0.461898 -1.43687 3.81982 71 61 52 
-0.868524 -1.17676 3.13059 255 252 230 
-0.383215 -1.07646 2.86096 76 41 19 
-0.782091 -1.14887 3.06295 169 124 101 
-1.03312 -1.22449 3.27006 176 144 123 
-0.875816 -1.16669 3.13528 168 130 107 
-0.408044 -1.06888 2.87808 255 234 213 
-1.05761 -1.21621 3.29652 242 219 205 
-1.19074 -1.24994 3.39595 144 145 139 
-0.417616 -1.06308 2.88323 251 233 213 
-0.466401 -1.0602 2.88069 132 91 71 
-0.407169 -1.05837 2.87651 122 86 64 
-0.916279 -1.16385 3.17215 179 137 113 
-1.10924 -1.21862 3.33812 229 199 175 
-1.18086 -1.23401 3.39478 230 208 184 
-0.422168 -1.04752 2.88459 146 110 86 
-0.430524 -1.05194 2.89914 181 149 128 
-1.09541 -1.20125 3.32684 175 133 108 
-1.0524 -1.18741 3.29231 255 244 220 
-0.449703 -1.04655 2.8993 247 228 214 
-0.385699 -1.03153 2.85797 164 146 126 
-0.850668 -1.11691 3.1139 163 125 102 
-1.29169 -1.24842 3.4866 135 132 127 
-1.01193 -1.16653 3.25552 190 148 123 
-0.504686 -1.01645 2.83618 81 58 40 
-0.91032 -1.13137 3.16635 255 251 235 
-1.10267 -1.18861 3.33717 176 135 113 
-1.06372 -1.1681 3.29281 150 108 83 
-0.438862 -1.02404 2.89158 176 149 132 
-1.22191 -1.2115 3.43805 170 126 99 
-1.30075 -1.23346 3.50265 191 170 151 
-0.407621 -1.01102 2.8675 255 245 228 
-0.971029 -1.13095 3.21483 255 245 231 
-0.848984 -1.09385 3.10635 134 96 75 
-0.40121 -1.00545 2.86516 181 137 110 
-0.425794 -1.00414 2.87851 168 128 103 
-1.10013 -1.16033 3.33241 179 142 115 
-1.02235 -1.13377 3.25484 184 144 119 
0.833256 -1.46923 4.22861 186 170 155 
-1.30866 -1.21166 3.50225 51 36 33 
-1.23154 -1.18929 3.43903 171 129 105 
-1.09824 -1.13979 3.32233 166 128 107 
-0.015819 -1.11773 3.26342 167 149 129 
-0.447971 -0.987399 2.89286 255 235 214 
-0.925397 -1.07566 3.16343 255 249 227 
-0.890843 -1.06511 3.13552 174 138 112 
0.620097 -1.35184 3.98599 223 209 182 
-0.935 -1.0724 3.17225 255 241 226 
-1.17985 -1.14356 3.39053 255 238 217 
-1.19498 -1.14564 3.40642 245 221 197 
-1.09442 -1.10736 3.31279 255 243 222 
-1.30292 -1.16131 3.49382 43 25 21 
-0.383116 -0.946252 2.8497 242 215 194 
-1.13476 -1.11019 3.35539 247 226 207 
-1.39328 -1.17855 3.57448 109 62 34 
0.919218 -1.41553 4.30332 66 50 34 
-0.949689 -1.04375 3.18662 255 252 236 
-1.05144 -1.07233 3.28025 255 239 223 
-1.10199 -1.08096 3.31694 147 114 95 
-1.09448 -1.07263 3.30967 245 220 198 
-1.30756 -1.12776 3.49359 46 32 23 
-0.476439 -0.923126 2.85658 201 176 179 
-0.932503 -1.02328 3.17282 255 242 226 
-1.66581 -1.22519 3.81778 252 242 230 
-1.44374 -1.15166 3.60265 150 108 84 
-1.07201 -1.05174 3.29327 186 145 127 
-1.43623 -1.14221 3.60487 255 249 225 
-0.454909 -0.915894 2.88657 96 61 42 
-0.58112 -0.864007 2.72937 62 46 33 
-1.15586 -1.06059 3.36368 244 223 206 
-1.1971 -1.06868 3.39234 246 221 199 
-1.05705 -1.02987 3.27147 190 150 124 
-1.25382 -1.08361 3.45472 190 149 121 
-0.596588 -0.853608 2.71802 63 54 45 
-0.388001 -0.893485 2.84786 255 246 227 
-1.05019 -1.02412 3.26983 255 237 215 
-1.06558 -1.02028 3.28368 245 220 198 
-1.04451 -1.01676 3.27059 248 225 207 
-1.45893 -1.10998 3.57985 123 85 66 
-1.17636 -1.04717 3.37203 155 121 96 
-1.43589 -1.11583 3.60267 253 228 206 
-1.24128 -1.06072 3.43506 170 134 110 
-1.86738 -1.22449 3.97795 46 31 24 
0.405318 -1.13381 3.67872 200 193 183 
-1.47976 -1.09177 3.57442 213 190 172 
-1.43869 -1.09424 3.59908 253 232 211 
-1.08758 -1.00359 3.30062 255 243 226 
0.46799 -1.132 3.73467 68 60 47 
-0.474303 -0.866629 2.85689 88 57 37 
-1.10344 -0.999996 3.31322 245 224 205 
-1.47727 -1.07712 3.58143 250 238 216 
-0.451884 -0.865602 2.87802 238 216 195 
0.425879 -1.11352 3.70965 40 27 19 
-0.395322 -0.852449 2.84353 255 241 222 
-2.65013 -1.37576 4.61608 247 245 230 
-0.472379 -0.853723 2.85731 66 43 29 
-0.381662 -0.849876 2.84313 222 197 177 
-1.48056 -1.06786 3.585 247 231 216 
-1.10504 -0.985925 3.31791 255 234 217 
-1.45169 -1.06471 3.59446 103 65 44 
0.0231208 -0.973116 3.28512 166 149 133 
-0.481002 -0.842584 2.84774 207 178 160 
0.442139 -1.09933 3.72543 102 69 50 
-0.309122 -0.861874 2.92212 51 38 29 
0.430859 -1.09354 3.72093 161 139 125 
-2.61217 -1.355 4.61541 77 64 48 
-1.13273 -0.982263 3.34109 248 227 210 
-1.44319 -1.05518 3.59596 241 219 198 
-1.14452 -0.978408 3.34994 184 149 127 
-0.46331 -0.836655 2.86713 65 40 18 
0.434447 -1.08233 3.73758 21 16 13 
0.444237 -1.07744 3.73645 166 139 122 
-2.93419 -1.16881 4.08252 90 83 73 
-2.13782 -1.2093 4.22491 226 204 165 
-1.06716 -0.940124 3.28381 255 235 218 
-1.27217 -0.987984 3.46147 189 148 128 
0.444955 -1.0685 3.75346 21 20 16 
-1.22944 -0.970227 3.41839 181 150 130 
-1.42761 -1.01238 3.58894 181 150 130 
-1.44921 -1.00866 3.58721 137 93 64 
-0.44966 -0.809291 2.87389 252 234 214 
-0.766184 -0.756143 2.69062 108 87 44 
-0.576555 -0.765716 2.73431 51 42 35 
-2.93692 -1.13682 4.07796 36 23 15 
-0.765125 -0.750519 2.68677 95 74 45 
-0.406413 -0.791751 2.84786 250 225 205 
-2.92687 -1.129 4.07761 122 109 101 
-2.89239 -1.14166 4.13289 32 21 17 
-2.88221 -1.14339 4.13623 93 80 72 
-1.01164 -0.891976 3.22621 252 225 206 
-1.51095 -0.968656 3.51795 218 194 170 
-1.00152 -0.888946 3.2265 194 154 129 
-1.45253 -0.982659 3.58256 109 79 55 
-2.81043 -1.15004 4.21673 108 99 92 
-2.06642 -1.13016 4.14274 177 135 110 
-2.92009 -1.11501 4.09253 45 31 30 
-1.44246 -0.97642 3.59015 253 232 211 
-2.8986 -1.11314 4.11355 38 29 24 
-2.96844 -1.09166 4.04608 124 109 102 
-2.90758 -1.10902 4.10919 118 109 102 
-2.92257 -1.10394 4.09343 113 100 94 
-2.77355 -1.13639 4.25855 100 90 80 
-2.69441 -1.15744 4.34908 121 108 100 
-1.3016 -0.927677 3.47757 238 217 196 
-2.74016 -1.14075 4.29288 124 111 102 
-1.00125 -0.856903 3.21948 182 140 115 
-2.97797 -1.06179 4.00321 191 160 140 
-1.43739 -0.953432 3.59188 244 222 198 
-0.394053 -0.755689 2.83889 188 160 139 
-2.91717 -1.08505 4.09804 124 111 103 
-2.89481 -1.09073 4.12394 102 95 89 
-2.82524 -1.11046 4.19907 118 104 95 
-2.82979 -1.10439 4.19069 108 98 88 
-1.28498 -0.912747 3.45857 175 139 115 
-2.94307 -1.0713 4.0739 43 33 24 
-2.96367 -1.06397 4.05026 105 94 90 
-2.86827 -1.09092 4.15414 117 106 100 
-1.27412 -0.906505 3.45319 255 238 218 
-1.30073 -0.910416 3.4737 254 234 210 
-2.82144 -1.09666 4.19633 46 32 21 
-1.26359 -0.899424 3.43908 255 231 212 
-2.85002 -1.08853 4.17646 110 103 87 
-2.81451 -1.09823 4.21725 48 34 25 
-1.55898 -0.904851 3.47176 184 162 141 
-0.788511 -0.708026 2.71042 202 179 161 
-2.49594 -1.17347 4.51683 59 46 38 
-2.48133 -1.17493 4.51836 228 209 194 
0.0420083 -0.848685 3.26341 255 240 202 
-1.91689 -1.03966 4.01806 162 122 96 
-1.44943 -0.930302 3.59225 130 85 56 
-3.01998 -1.03013 3.98649 225 204 183 
-0.377492 -0.731494 2.8272 104 77 56 
-2.98066 -1.02811 3.99018 39 25 24 
-2.91133 -1.05479 4.1006 129 120 113 
-2.73115 -1.10698 4.30454 119 106 97 
-2.7747 -1.09301 4.25885 116 107 100 
-2.92015 -1.04731 4.09574 55 42 36 
-2.89411 -1.05392 4.12784 106 93 85 
-2.7398 -1.09521 4.29019 43 30 21 
-0.68475 -0.670668 2.61478 229 204 184 
-0.583665 -0.696415 2.71486 69 49 40 
-1.30963 -0.88689 3.47498 53 33 26 
-2.87513 -1.05396 4.14216 176 158 144 
-2.90007 -1.04283 4.10835 40 27 21 
-1.55067 -0.878448 3.45715 101 75 60 
-2.90913 -1.03926 4.10389 116 103 95 
-2.55375 -1.13791 4.49793 113 81 66 
-3.02426 -1.00539 3.97652 204 182 161 
-2.92584 -1.03408 4.08723 116 102 93 
-2.88282 -1.04487 4.13123 57 43 34 
-0.453248 -0.725019 2.86433 213 188 168 
-2.91488 -1.03083 4.09582 43 28 23 
-2.86294 -1.04442 4.14898 153 137 124 
-2.87589 -1.04201 4.14875 51 37 28 
-2.74178 -1.07625 4.28959 64 44 33 
-0.377119 -0.710618 2.82418 114 84 60 
0.966019 -1.09266 4.35521 69 50 35 
-2.68263 -1.09389 4.36959 53 33 22 
0.461327 -0.952201 3.80275 62 54 43 
-3.01444 -0.992606 3.97945 194 173 156 
-1.44152 -0.895274 3.5817 248 223 201 
-2.96002 -1.00717 4.0479 59 40 33 
0.473187 -0.951142 3.81591 220 202 178 
-2.81709 -1.04616 4.20796 114 100 89 
-2.67346 -1.08684 4.37197 106 92 79 
-2.59676 -1.10705 4.45916 86 69 59 
-0.45839 -0.71546 2.86664 130 99 81 
-2.85658 -1.03181 4.16011 159 130 112 
-2.84525 -1.03493 4.17629 76 53 39 
-1.47359 -0.880925 3.54975 177 132 109 
-2.78892 -1.04905 4.23863 52 38 29 
-2.50525 -1.11892 4.52671 72 57 50 
-1.30035 -0.861334 3.47292 235 213 190 
0.396229 -0.923617 3.73051 166 154 140 
-2.92932 -1.00781 4.08201 48 33 26 
-2.82513 -1.03614 4.19272 51 32 25 
-2.75107 -1.05733 4.27927 204 214 189 
-2.69035 -1.08104 4.37711 119 99 88 
-1.44286 -0.884425 3.58602 255 242 226 
-0.392942 -0.700149 2.83064 188 159 141 
-2.70231 -1.06462 4.33353 160 138 125 
-2.88388 -1.01407 4.13311 89 52 36 
-2.8394 -1.02498 4.18065 187 159 138 
-2.80831 -1.03355 4.21324 46 29 21 
-2.78084 -1.04048 4.24436 206 178 166 
-2.71945 -1.05715 4.31394 75 52 38 
-2.85735 -1.01495 4.14291 53 37 24 
-0.413148 -0.699351 2.84438 167 139 117 
-1.45076 -0.87731 3.58216 87 46 28 
-2.85629 -1.01622 4.16434 61 37 25 
-2.95637 -0.987686 4.04713 135 118 108 
