ply                 
format ascii 1.0    
element vertex 533
property float x    
property float y    
property float z    
property uchar red  
property uchar green
property uchar blue 
end_header          
-0.203728 0.0728851 1.43487 0 0 0 
-0.192866 0.059698 1.43476 0 0 0 
-0.126525 0.034392 1.24105 0 0 0 
-0.125647 -0.108953 1.29138 0 0 0 
-0.112298 0.572348 1.18145 21 5 5 
-0.113398 0.548483 1.19228 1 1 1 
-0.111706 0.322927 1.22691 0 0 0 
-0.111581 0.0707394 1.23852 0 0 0 
-0.107305 0.48233 1.19581 0 0 0 
-0.108541 0.00319115 1.22958 0 0 0 
-0.108541 0.00319115 1.22958 0 0 0 
-0.105691 -0.0958085 1.27321 0 0 0 
-0.0863577 0.0041584 1.21777 0 0 0 
-0.0867836 0.209383 1.21359 0 0 0 
-0.086409 0.212338 1.21336 0 0 0 
-0.0853642 0.13224 1.21998 0 0 0 
-0.0853642 0.13224 1.21998 0 0 0 
-0.0849249 0.111979 1.21988 0 0 0 
-0.0844923 0.303733 1.20635 0 0 0 
-0.083148 0.26229 1.2085 0 0 0 
-0.0825859 0.207026 1.21292 0 0 0 
-0.0821283 0.213204 1.21152 0 0 0 
-0.0814191 0.217187 1.21047 0 0 0 
-0.0802528 0.220691 1.21036 0 0 0 
-0.0790195 0.232645 1.20792 0 0 0 
-0.0787001 0.168868 1.21404 0 0 0 
-0.0831918 -0.237243 1.31269 0 0 0 
-0.0756591 0.165855 1.21304 0 0 0 
-0.0779253 -0.138706 1.27044 0 0 0 
-0.0738993 0.203247 1.20878 0 0 0 
-0.0729207 0.237156 1.20621 0 0 0 
-0.0774474 -0.179877 1.28698 0 0 0 
-0.0725611 0.198023 1.20842 0 0 0 
-0.0719834 0.275309 1.20363 0 0 0 
-0.0754719 -0.190934 1.29175 0 0 0 
-0.0700339 0.234864 1.205 0 0 0 
-0.0700339 0.234864 1.205 0 0 0 
-0.068966 0.217022 1.20534 0 0 0 
-0.0724982 -0.236572 1.30526 0 0 0 
-0.0663454 0.317527 1.19867 10 6 57 
-0.0663454 0.317527 1.19867 10 6 57 
-0.0732113 -0.309116 1.33861 0 0 0 
-0.0732113 -0.309116 1.33861 0 0 0 
-0.0712113 -0.297494 1.33212 0 0 0 
-0.0620406 0.288888 1.19932 17 62 17 
-0.0630224 -0.162976 1.26975 0 0 0 
-0.0585132 0.149058 1.20842 0 0 0 
-0.061661 -0.303195 1.32897 0 0 0 
-0.0608897 -0.277776 1.31794 0 0 0 
-0.053333 0.29112 1.19701 81 255 78 
-0.0530166 -0.277889 1.31248 0 0 0 
-0.0446685 -0.11085 1.23748 0 0 0 
-0.0450415 -0.165256 1.25886 0 0 0 
-0.042181 0.00103871 1.20069 50 49 47 
-0.0385 0.558361 1.167 38 254 39 
-0.0409253 -0.313055 1.31858 0 0 0 
-0.0357957 -0.18593 1.26179 0 0 0 
-0.0333181 -0.170811 1.25391 0 0 0 
-0.0305856 -0.212037 1.26857 0 0 0 
-0.031726 -0.281887 1.29949 0 0 0 
-0.027334 0.165285 1.19022 4 254 11 
-0.0266486 0.221649 1.18649 30 28 29 
-0.0230366 0.101866 1.19306 254 61 59 
-0.0233772 0.315584 1.1803 35 33 34 
-0.0204818 0.0989954 1.19381 43 44 254 
-0.019891 0.0907455 1.19422 254 63 61 
-0.018703 0.257099 1.18293 37 254 46 
-0.0172137 0.0871911 1.19393 57 60 254 
-0.0148566 0.034705 1.19701 3 254 24 
-0.00456833 0.201747 1.18755 64 254 63 
0.00672223 -0.374654 1.40968 0 0 0 
0.0338903 -0.213014 1.26603 25 20 254 
-0.148084 0.0337903 1.26043 0 0 0 
-0.140704 0.184835 1.25469 0 0 0 
-0.133602 0.0210676 1.24636 0 0 0 
-0.132084 0.213749 1.2427 0 0 0 
-0.131143 0.0339365 1.24447 0 0 0 
-0.132396 0.104898 1.25311 0 0 0 
-0.117988 0.033363 1.23295 0 0 0 
-0.118615 -0.0544713 1.25689 0 0 0 
-0.115072 -0.0279272 1.24019 0 0 0 
-0.11293 0.0249916 1.23145 0 0 0 
-0.111982 0.360151 1.21582 0 0 0 
-0.11797 -0.138548 1.29609 0 0 0 
-0.111107 -0.0662516 1.26218 0 0 0 
-0.109579 -0.0471189 1.24921 0 0 0 
-0.0994778 0.619963 1.14881 0 0 0 
-0.106002 -0.0326514 1.2376 0 0 0 
-0.10023 0.475713 1.19499 0 0 0 
-0.101105 -0.0414682 1.23873 0 0 0 
-0.0985637 0.344667 1.20963 0 0 0 
-0.0992375 0.153419 1.22452 0 0 0 
-0.104983 -0.154351 1.29424 0 0 0 
-0.0926953 0.501493 1.18636 0 0 1 
-0.0959348 -0.111558 1.27057 0 0 0 
-0.0945427 -0.0930685 1.26397 0 0 0 
-0.088877 0.553088 1.17818 63 60 59 
-0.0866905 0.256042 1.21093 0 0 0 
-0.0863217 0.17697 1.21635 0 0 0 
-0.0947218 -0.26611 1.3315 0 0 0 
-0.0849108 0.0252348 1.21554 0 0 0 
-0.0860361 -0.0925971 1.25756 0 0 0 
-0.0886902 -0.173135 1.29106 0 0 0 
-0.0870212 -0.128741 1.27195 0 0 0 
-0.0822621 0.196376 1.21275 0 0 0 
-0.0863224 -0.13889 1.27539 0 0 0 
-0.0818067 0.248853 1.20826 0 0 0 
-0.080725 0.0435112 1.21257 0 0 0 
-0.0831078 -0.067462 1.24497 0 0 0 
-0.0793139 -0.000280725 1.21322 0 0 0 
-0.076232 0.525693 1.17983 63 65 254 
-0.0770224 0.178291 1.2113 0 0 0 
-0.0836588 -0.269705 1.32751 0 0 0 
-0.0743778 -0.035383 1.21756 0 0 0 
-0.0737014 0.13575 1.21356 0 0 0 
-0.0724576 0.0553966 1.20902 0 0 0 
-0.0783188 -0.218364 1.2992 0 0 0 
-0.0699397 0.295969 1.20125 0 0 2 
-0.0785273 -0.31527 1.34327 0 0 0 
-0.0770218 -0.296949 1.33439 0 0 0 
-0.0682821 0.186549 1.20722 0 0 0 
-0.0727277 -0.206847 1.29349 0 0 0 
-0.0663283 0.0242442 1.20802 0 0 0 
-0.0661769 0.0867628 1.21386 0 0 0 
-0.0716634 -0.264583 1.31708 0 0 0 
-0.0649188 -0.0503272 1.22099 0 0 0 
-0.0655742 -0.0892919 1.24283 0 0 0 
-0.0624904 0.0409938 1.20458 0 0 0 
-0.0659148 -0.180511 1.27918 0 0 0 
-0.0684866 -0.32013 1.33747 0 0 0 
-0.0648331 -0.223122 1.29416 0 0 0 
-0.066343 -0.348666 1.34983 0 0 0 
-0.0571604 0.56639 1.16485 254 44 43 
-0.0589297 -0.110185 1.24565 0 0 0 
-0.0582101 -0.0865365 1.23729 0 0 0 
-0.0553955 0.189537 1.2031 19 15 122 
-0.0602919 -0.315328 1.33137 0 0 0 
-0.0534687 0.202724 1.20071 52 46 226 
-0.0514471 -0.0990986 1.2375 0 0 0 
-0.0528253 -0.165151 1.26323 0 0 0 
-0.0556089 -0.350379 1.34447 0 0 0 
-0.0485772 0.0581619 1.20969 21 21 23 
-0.0486598 -0.131645 1.24836 0 0 0 
-0.050126 -0.238135 1.2897 0 0 0 
-0.0500384 -0.289771 1.31396 0 0 0 
-0.0450567 0.162851 1.20324 34 34 34 
-0.0429033 0.205775 1.19968 35 36 254 
-0.044761 -0.267256 1.30096 0 0 0 
-0.0402652 0.617049 1.15514 0 0 3 
-0.0446978 -0.280833 1.30621 0 0 0 
-0.0402469 -0.0872733 1.22497 0 0 0 
-0.0398957 -0.0996014 1.22943 0 0 0 
-0.0452798 -0.389075 1.35167 0 0 0 
-0.0382236 0.0639962 1.20726 254 32 30 
-0.0379295 0.0842843 1.2053 253 68 68 
-0.0441089 -0.410012 1.35999 0 0 0 
-0.041683 -0.29798 1.31096 0 0 0 
-0.0372007 0.0516465 1.20292 36 34 35 
-0.039053 -0.238419 1.28446 0 0 0 
-0.0345235 0.606136 1.15776 255 71 67 
-0.0336171 0.337448 1.18021 33 32 30 
-0.031667 0.0071847 1.19885 27 26 24 
-0.0313731 -0.0205799 1.19678 82 81 79 
-0.0364065 -0.34915 1.33015 0 0 0 
-0.0301703 0.260477 1.18376 58 58 58 
-0.028488 0.0797533 1.19417 254 54 52 
-0.0305589 -0.230634 1.27501 0 0 0 
-0.027831 0.134539 1.19073 64 65 254 
-0.0274996 0.208181 1.18659 72 254 75 
-0.03089 -0.332783 1.31818 0 0 0 
-0.0261259 0.1962 1.18807 70 71 254 
-0.0281959 -0.293684 1.30041 0 0 0 
-0.0256769 -0.164018 1.24949 0 0 0 
-0.0248874 0.45554 1.17349 24 25 254 
-0.0234832 0.0343443 1.19552 63 254 79 
-0.023998 0.408194 1.17415 254 14 13 
-0.0231256 0.0484426 1.19468 254 3 1 
-0.0249134 -0.345372 1.32159 0 0 0 
-0.0248242 -0.360557 1.32617 0 0 0 
-0.0209598 0.0117643 1.19625 60 59 57 
-0.0220613 0.48225 1.17099 42 41 39 
-0.020899 0.0610819 1.19453 16 14 15 
-0.0203379 0.301625 1.18033 40 254 41 
-0.0224345 -0.401617 1.34179 0 0 0 
-0.0184575 0.267226 1.18217 254 42 40 
-0.01822 0.203868 1.18518 254 27 27 
-0.0180039 0.122595 1.19191 254 46 45 
-0.0193697 -0.319278 1.3058 0 0 0 
-0.0183185 -0.242918 1.27807 0 0 0 
-0.0166407 0.228781 1.1857 254 59 59 
-0.0160686 0.276735 1.18157 40 38 39 
-0.0151946 0.179027 1.18801 67 254 56 
-0.0145767 0.243164 1.18437 254 48 48 
-0.0171573 -0.416119 1.34544 0 0 0 
-0.0144648 -0.163698 1.25156 0 0 0 
-0.012071 -0.0869478 1.22714 81 79 255 
-0.0123966 -0.285218 1.29371 0 0 0 
-0.0106387 0.106672 1.1919 254 51 49 
-0.0108431 0.213968 1.18657 30 29 27 
-0.0103553 0.0584755 1.1943 34 34 34 
-0.013523 -0.459264 1.36048 0 0 0 
-0.00944246 -0.0417761 1.20432 56 254 84 
-0.0114676 -0.313967 1.30381 0 0 0 
-0.00967757 0.135532 1.19074 41 254 47 
-0.00964979 0.293797 1.18147 254 37 37 
-0.01023 0.507876 1.17064 254 36 34 
-0.00871829 0.120596 1.19243 55 53 54 
-0.00974148 -0.337843 1.31364 0 0 0 
-0.00730591 0.0329833 1.19474 49 254 54 
-0.00859814 0.555568 1.16684 254 34 33 
-0.00861542 -0.294052 1.29696 0 0 0 
-0.00756386 0.315186 1.18018 41 39 40 
-0.00662351 0.227088 1.18478 14 14 254 
-0.00564165 0.047273 1.1936 52 254 51 
-0.00676601 -0.320913 1.30688 0 0 0 
-0.00447332 0.0693713 1.19445 21 21 254 
-0.00378838 -0.00757025 1.19183 63 254 69 
-0.00587437 -0.400454 1.33575 0 0 0 
-0.00422814 0.333781 1.17935 47 47 47 
-0.00470976 -0.330204 1.31138 0 0 0 
-0.00549986 -0.629319 1.40198 0 0 0 
-0.00286713 0.306166 1.18075 254 52 51 
-0.00224517 0.254222 1.1844 44 43 39 
-0.00168857 -0.129367 1.2426 30 32 39 
-0.00200461 0.569965 1.16149 23 254 25 
3.17301e-05 0.00111606 1.19504 254 5 4 
-0.00126913 0.401325 1.17653 254 57 55 
-0.00070758 0.425864 1.17575 54 52 254 
-0.00055242 0.437183 1.17434 53 51 254 
0.000194439 -0.290906 1.29769 0 0 0 
0.000894656 0.182007 1.18766 57 254 66 
0.00102896 0.623042 1.13751 0 0 1 
0.00242223 0.22251 1.18597 47 254 52 
0.00215616 -0.636628 1.39275 0 0 0 
0.00362966 0.048633 1.19491 254 8 7 
0.00386315 0.122544 1.19098 50 51 254 
0.00441505 -0.0596235 1.21896 52 49 254 
0.00300631 0.490349 1.1724 61 254 50 
0.00409073 -0.3621 1.32344 0 0 0 
0.00494248 -0.0805644 1.22901 254 84 84 
0.00346958 0.553309 1.16966 254 49 47 
0.00384261 0.563117 1.16491 48 47 45 
0.00543265 0.141228 1.19103 33 31 32 
0.00472331 -0.552515 1.38621 0 0 0 
0.00573853 0.231679 1.18645 22 254 25 
0.00706131 -0.198663 1.25842 230 56 57 
0.00670902 -0.311459 1.30655 0 0 0 
0.00774819 -0.0190251 1.19669 35 31 22 
0.00768499 0.176184 1.18908 60 254 59 
0.0082197 0.111049 1.19212 53 254 43 
0.0102939 -0.12753 1.24462 32 254 36 
0.0100714 -0.343785 1.3191 0 0 0 
0.0114813 -0.0891411 1.23419 27 28 254 
0.0112675 0.100492 1.19413 64 64 254 
0.0122966 -0.393126 1.33547 0 0 0 
0.0120588 0.151536 1.19145 254 56 52 
0.0126826 -0.37587 1.32976 0 0 0 
0.01305 0.0166128 1.1965 45 41 42 
0.0134296 -0.0989877 1.23646 50 51 254 
0.0118854 0.575624 1.16258 254 50 48 
0.014517 -0.40894 1.34095 0 0 0 
0.0143848 0.0906248 1.1943 38 38 38 
0.0153313 -0.585212 1.39432 0 0 0 
0.0151651 0.307586 1.18274 42 30 32 
0.0170627 -0.108455 1.24047 48 46 254 
0.0155901 0.349673 1.17955 45 46 254 
0.0160733 0.236015 1.18697 27 29 254 
0.0177629 -0.303651 1.30408 0 0 0 
0.0177329 0.0339243 1.19603 254 1 0 
0.0185286 -0.239651 1.26154 59 58 56 
0.0175721 0.116186 1.1931 65 65 67 
0.0199557 -0.208027 1.26045 254 46 45 
0.0204583 -0.088924 1.23526 104 105 254 
0.0183052 0.493931 1.17522 29 30 254 
0.0222679 -0.362682 1.32615 0 0 0 
0.0220248 0.2128 1.18865 254 44 22 
0.0229702 0.128411 1.19314 42 40 41 
0.0254691 -0.628836 1.39489 0 0 0 
0.0232423 0.407963 1.18246 39 38 36 
0.0278681 -0.104781 1.24152 115 113 254 
0.0292811 -0.305333 1.30681 0 0 0 
0.0266883 0.353881 1.18175 254 65 65 
0.0300875 -0.390382 1.33829 0 0 0 
0.0303826 -0.348601 1.32403 0 0 0 
0.0309325 -0.403238 1.3416 0 0 0 
0.0294307 -0.0186099 1.20009 125 116 254 
0.030048 0.0491359 1.1981 254 40 39 
0.0287858 0.576868 1.16616 51 254 48 
0.0337475 -0.201312 1.2639 49 44 254 
0.0371865 -0.313911 1.31216 0 0 0 
0.0354843 0.353501 1.18502 254 55 53 
0.0369333 0.101451 1.19836 254 37 37 
0.0377329 0.0292826 1.19998 53 51 52 
0.0380865 0.217026 1.19174 254 47 27 
0.0385827 0.193116 1.19224 37 22 25 
0.0392515 0.111507 1.19775 31 31 254 
0.039313 0.126154 1.1966 27 28 254 
0.0400053 0.150548 1.19427 254 52 50 
0.0433608 -0.323419 1.31626 0 0 0 
0.0424026 0.457896 1.18333 47 45 46 
0.0452748 -0.0180532 1.20404 70 63 254 
0.045472 0.198677 1.19522 31 27 26 
0.0470347 0.0187322 1.20363 49 47 254 
0.0463438 0.212956 1.19526 27 254 33 
0.0453345 0.407046 1.18552 51 254 50 
0.0457325 0.423037 1.18528 254 54 52 
0.0453886 0.618474 1.16551 52 53 253 
0.0498607 0.0527033 1.20316 16 16 16 
0.0544964 -0.312402 1.31499 0 0 0 
0.0526107 0.325216 1.19262 23 24 254 
0.0511679 0.580861 1.17127 48 254 47 
0.0574015 -0.208675 1.26689 254 51 47 
0.0550604 0.0983517 1.20396 21 19 20 
0.0576753 -0.121734 1.2517 24 25 254 
0.0559294 0.131368 1.20113 21 254 29 
0.0625858 0.108149 1.20601 57 57 254 
0.0645891 0.0193719 1.20993 49 48 46 
0.0704624 0.126299 1.20825 254 27 27 
0.0747374 -0.128109 1.25798 41 254 47 
0.0729161 0.308878 1.20089 254 47 45 
0.0744518 0.109733 1.21146 254 58 58 
0.0757021 0.0375829 1.21474 59 62 254 
0.0760253 0.137182 1.20997 254 21 19 
0.083068 0.0112252 1.21832 33 31 254 
0.0873191 -0.0622452 1.23893 254 111 110 
0.0889171 0.0538053 1.22015 16 255 16 
-0.203156 0.525465 1.35455 0 0 0 
-0.164596 0.0606034 1.4859 0 0 0 
-0.200999 0.483675 1.34626 0 0 0 
-0.203106 0.458047 1.31747 0 0 0 
-0.197764 0.478381 1.32825 0 0 0 
-0.191171 0.286289 1.3485 0 0 0 
-0.196449 0.48728 1.31828 0 0 0 
-0.1878 0.0695123 1.34481 0 0 0 
-0.19511 0.49822 1.31454 0 0 0 
-0.183685 0.105904 1.34338 0 0 0 
-0.196839 0.457686 1.29683 0 0 0 
-0.160487 -0.106784 1.39232 0 0 0 
-0.144596 -0.224659 1.41106 0 0 0 
-0.175518 0.0269647 1.30266 0 0 0 
-0.170764 0.101309 1.30858 0 0 0 
-0.174904 0.286363 1.29381 0 0 0 
-0.171791 0.164105 1.30178 0 0 0 
-0.188108 0.612023 1.24279 6 2 2 
-0.17342 -0.00721962 1.28859 0 0 0 
-0.180436 0.534715 1.25618 0 0 0 
-0.170227 0.27871 1.28896 0 0 0 
-0.172813 0.458251 1.26976 0 0 0 
-0.167424 0.0178453 1.28962 0 0 0 
-0.16409 0.110909 1.29467 0 0 0 
-0.16998 0.390485 1.27347 0 0 0 
-0.177988 0.554877 1.24571 2 9 2 
-0.168309 -0.00520484 1.27741 0 0 0 
-0.164782 0.168134 1.28461 0 0 0 
-0.164286 0.00471645 1.28763 0 0 0 
-0.162652 0.118852 1.28993 0 0 0 
-0.134725 -0.23727 1.36151 0 0 0 
-0.161651 0.216777 1.27885 0 0 0 
-0.162721 0.268145 1.27423 0 0 0 
-0.162006 0.237592 1.27636 0 0 0 
-0.161772 0.0567276 1.27837 0 0 0 
-0.161509 0.225223 1.2743 0 0 0 
-0.160579 0.0267558 1.27885 0 0 0 
-0.158705 0.0683281 1.28028 0 0 0 
-0.157137 0.00164219 1.2676 0 0 0 
-0.153448 0.222762 1.26883 0 0 0 
-0.151855 0.141564 1.27372 0 0 0 
-0.144034 -0.0884912 1.2969 0 0 0 
-0.130662 -0.164872 1.33415 0 0 0 
-0.167457 0.583352 1.21921 8 46 8 
-0.142078 -0.0993473 1.29628 0 0 0 
-0.148975 0.0716435 1.27456 0 0 0 
-0.15167 0.19584 1.26479 0 0 0 
-0.151184 0.230203 1.26335 0 0 0 
-0.149378 0.168315 1.26622 0 0 0 
-0.152092 0.304017 1.25662 0 0 0 
-0.141751 -0.0745371 1.28761 0 0 0 
-0.130591 -0.153789 1.31584 0 0 0 
-0.135372 -0.112348 1.3004 0 0 0 
-0.147747 0.186357 1.26183 0 0 0 
-0.145109 -0.0471309 1.27065 0 0 0 
-0.144819 0.0966897 1.26877 0 0 0 
-0.147505 0.0325182 1.26162 0 0 0 
-0.14433 0.21073 1.25655 0 0 0 
-0.141557 0.149614 1.2592 0 0 0 
-0.143206 0.265826 1.2508 0 0 0 
-0.0997954 -0.281869 1.37058 0 0 0 
-0.130424 -0.086522 1.28567 0 0 0 
-0.116278 -0.186124 1.31751 0 0 0 
-0.11426 -0.194231 1.32013 0 0 0 
-0.139094 0.0326459 1.25277 0 0 0 
-0.135755 0.0859094 1.26009 0 0 0 
-0.138433 -0.021125 1.25206 0 0 0 
-0.121769 -0.126653 1.29598 0 0 0 
-0.140611 0.357743 1.24049 1 2 1 
-0.129058 -0.0664512 1.27414 0 0 0 
-0.0988192 -0.282924 1.35435 0 0 0 
-0.133518 -0.0407549 1.25908 0 0 0 
-0.13544 0.0562658 1.25112 27 9 9 
-0.138157 0.334323 1.24017 0 0 0 
-0.116985 -0.138732 1.29861 0 0 0 
-0.131931 0.105054 1.25431 2 1 1 
-0.13247 0.0670465 1.24985 12 12 18 
-0.131671 0.120272 1.25097 0 0 0 
-0.113012 -0.147693 1.29825 0 0 0 
-0.13362 0.277826 1.2398 1 1 1 
-0.131928 0.0410665 1.24584 50 205 51 
-0.111034 -0.156087 1.3009 0 0 0 
-0.131146 0.0308078 1.24587 227 72 70 
-0.130351 0.215037 1.24366 5 3 2 
-0.0825008 -0.335393 1.37102 0 0 0 
-0.0976276 -0.236621 1.32719 0 0 0 
-0.132052 0.372046 1.22812 39 38 36 
-0.140858 0.563059 1.20344 29 29 21 
-0.0886821 -0.288939 1.34174 0 0 0 
-0.12567 -0.0290547 1.24428 61 57 56 
-0.12295 0.101485 1.24677 23 113 17 
-0.103142 -0.153037 1.29498 0 0 0 
-0.100118 -0.169551 1.29773 0 0 0 
-0.0918607 -0.225962 1.31664 0 0 0 
-0.133756 0.551134 1.20275 254 8 8 
-0.134953 0.57132 1.19368 37 34 25 
-0.123367 0.46003 1.21557 254 125 126 
-0.0998189 -0.121272 1.27945 0 0 0 
-0.106814 -0.0662872 1.25926 41 43 208 
-0.119414 0.340778 1.22358 45 43 254 
-0.0779178 -0.265358 1.3253 0 0 0 
-0.0976015 -0.106395 1.27235 2 2 2 
-0.0899213 -0.165178 1.29121 0 0 0 
-0.055785 -0.412936 1.37265 0 0 0 
-0.0636259 -0.347713 1.3509 0 0 0 
-0.109035 -0.0211083 1.23549 254 71 68 
-0.103539 -0.0488621 1.24715 70 68 69 
-0.0861013 -0.157057 1.28463 0 0 0 
-0.0689489 -0.282928 1.32625 0 0 0 
-0.113199 0.454834 1.21172 9 254 32 
-0.0699832 -0.254645 1.31479 0 0 0 
-0.0464217 -0.421501 1.37025 0 0 0 
-0.115183 0.506026 1.19448 24 26 21 
-0.0468195 -0.405522 1.36389 0 0 0 
-0.120403 0.615432 1.17798 12 99 14 
-0.0955209 -0.0509941 1.24355 254 57 56 
-0.0552727 -0.336082 1.33986 0 0 0 
-0.0611987 -0.288334 1.32522 0 0 0 
-0.0992938 -0.0292323 1.23211 69 64 61 
-0.0785634 -0.158821 1.27906 0 0 0 
-0.0345701 -0.46888 1.38262 0 0 0 
-0.0823607 -0.111632 1.26475 251 48 46 
-0.0986145 0.0247703 1.22506 254 47 46 
-0.0394042 -0.429515 1.36719 0 0 0 
-0.0557494 -0.298701 1.32481 0 0 0 
-0.06198 -0.259595 1.30737 0 0 0 
-0.0514809 -0.320052 1.33122 0 0 0 
-0.0962229 -0.0191942 1.22353 58 54 254 
-0.0108775 -0.64288 1.42591 0 0 0 
-0.0933667 0.1258 1.22545 41 39 40 
-0.0568012 -0.270013 1.31438 0 0 0 
-0.04177 -0.378885 1.34992 0 0 0 
-0.0486132 -0.308828 1.32555 0 0 0 
-0.0153544 -0.550018 1.40362 0 0 0 
-0.00869717 -0.586833 1.4178 0 0 0 
-0.0546288 -0.253469 1.30506 0 0 0 
-0.0427773 -0.329525 1.33073 0 0 0 
-0.0306619 -0.415443 1.35644 0 0 0 
-0.0686066 -0.139044 1.26592 54 53 49 
-0.0837058 -0.0408327 1.22959 57 52 49 
-0.0337709 -0.378285 1.34375 0 0 0 
-0.0852574 0.18652 1.21719 33 254 26 
0.00936407 -0.707153 1.43603 0 0 0 
-0.0839774 -0.0200204 1.21774 92 254 88 
-0.0676858 -0.109662 1.2533 69 68 64 
-0.0560572 -0.189342 1.27981 11 12 12 
-0.0596735 -0.154341 1.26636 51 47 44 
-0.0505218 -0.216161 1.28548 101 105 72 
-0.0341902 -0.323507 1.32096 0 0 0 
-0.0951621 0.598675 1.16993 35 33 34 
-0.057769 -0.143044 1.25971 63 58 254 
-0.0622324 -0.0986618 1.2474 254 27 26 
-0.0240243 -0.369051 1.33321 0 0 0 
-0.0142272 -0.436472 1.35523 0 0 0 
-0.0912856 0.584494 1.1694 43 41 42 
0.00869926 -0.631341 1.39854 0 0 0 
0.019346 -0.726579 1.42243 0 0 0 
0.00942925 -0.64215 1.39787 0 0 0 
-0.059069 -0.0777497 1.23658 49 47 254 
-0.0682707 0.0671693 1.21485 35 33 255 
-0.0445367 -0.187017 1.26934 4 254 85 
-0.0134486 -0.39846 1.33903 0 0 0 
-0.0320272 -0.274285 1.29696 0 1 1 
-0.020209 -0.332458 1.31705 0 0 0 
-0.0574059 -0.0670561 1.22886 254 59 57 
-0.0373895 -0.204162 1.27172 58 55 254 
-0.0276226 -0.263088 1.2915 121 113 78 
-0.0552623 -0.0587455 1.22265 83 81 82 
-0.0671327 0.458493 1.19032 38 254 40 
-0.0367707 -0.177432 1.25866 44 45 254 
-0.054432 -0.0514548 1.21768 76 254 90 
-0.0598979 0.237756 1.2025 254 28 27 
-0.0388727 -0.1461 1.24914 54 52 254 
-0.0575597 0.00832265 1.2075 55 51 254 
-0.0474144 -0.0814555 1.22839 46 254 48 
-0.0555817 0.0255028 1.20574 54 255 65 
-0.0447564 -0.0656333 1.22156 70 71 254 
-0.0458407 0.22773 1.20114 255 4 2 
0.0217713 -0.408168 1.34545 0 0 0 
0.00234784 -0.297034 1.3031 1 1 1 
-0.0561171 0.615925 1.15741 61 57 54 
-0.0109035 -0.210916 1.2572 64 59 254 
-0.0335347 0.0920301 1.20474 41 40 38 
-0.0341845 0.106208 1.20036 44 255 43 
-0.035032 0.19375 1.19579 41 39 40 
-0.0341517 0.175344 1.19557 69 255 76 
-0.0352238 0.203364 1.19186 55 55 55 
-0.03532 0.243237 1.19059 32 30 31 
0.0256179 -0.317099 1.3142 37 42 148 
-0.00991456 -0.0873469 1.23148 52 51 49 
-0.0278608 0.143842 1.19288 41 44 255 
-0.0265283 0.117485 1.1931 255 37 33 
-0.0243397 0.0694832 1.19742 49 48 46 
0.0102918 -0.196735 1.26166 26 254 33 
0.00345133 -0.118524 1.2433 66 254 65 
-0.00764713 0.0245226 1.19773 255 11 10 
-0.00287051 0.108271 1.19257 48 50 49 
-0.00396673 0.216014 1.18819 36 34 254 
0.00188155 0.1824 1.18955 255 47 43 
0.00497122 0.122704 1.19309 35 255 39 
0.00872224 -0.0191248 1.19853 116 111 255 
0.00606142 0.217045 1.18736 36 34 255 
0.0138569 0.0921419 1.19677 255 31 30 
0.0188952 0.0272355 1.19853 255 32 30 
0.00921535 0.553075 1.17384 29 28 254 
0.0332707 0.407991 1.18543 255 45 44 
0.0464411 0.619177 1.16734 254 33 31 
