ply                 
format ascii 1.0    
element vertex 1311
property float x    
property float y    
property float z    
property uchar red  
property uchar green
property uchar blue 
end_header          
-0.0826558 0.2174 1.20829 0 0 0 
-0.081488 0.22091 1.20818 0 0 0 
-0.08026 0.23288 1.20573 0 0 0 
-0.07992 0.169009 1.21192 0 0 0 
-0.0841174 -0.237798 1.31127 0 0 0 
-0.0768765 0.165991 1.21092 0 0 0 
-0.0789661 -0.139069 1.26878 0 0 0 
-0.0751276 0.203439 1.2066 0 0 0 
-0.0741561 0.237398 1.20399 0 0 0 
-0.0784378 -0.180318 1.28541 0 0 0 
-0.0737879 0.198206 1.20625 0 0 0 
-0.0732261 0.275607 1.20137 0 0 0 
-0.0764443 -0.191398 1.29021 0 0 0 
-0.0712678 0.235101 1.20278 0 0 0 
-0.0712678 0.235101 1.20278 0 0 0 
-0.0701964 0.217233 1.20314 0 0 0 
-0.0734229 -0.237129 1.30381 0 0 0 
-0.0675944 0.317885 1.19635 10 6 57 
-0.0675944 0.317885 1.19635 10 6 57 
-0.0740379 -0.309833 1.33734 0 0 0 
-0.0740379 -0.309833 1.33734 0 0 0 
-0.0720527 -0.298185 1.33082 0 0 0 
-0.0632795 0.289204 1.19703 17 62 17 
-0.0640347 -0.163392 1.2681 0 0 0 
-0.0597135 0.149164 1.20628 0 0 0 
-0.0624906 -0.303902 1.32765 0 0 0 
-0.0617512 -0.278427 1.31655 0 0 0 
-0.0545641 0.291439 1.1947 81 255 78 
-0.0538771 -0.278543 1.31106 0 0 0 
-0.0457421 -0.111179 1.23564 0 0 0 
-0.0460496 -0.165684 1.25714 0 0 0 
-0.0433649 0.000890685 1.19865 50 49 47 
-0.0398004 0.55902 1.16433 38 254 39 
-0.0417393 -0.313793 1.3172 0 0 0 
-0.0367753 -0.186401 1.26009 0 0 0 
-0.0343171 -0.171254 1.25217 0 0 0 
-0.0315325 -0.212561 1.26692 0 0 0 
-0.0325786 -0.282558 1.29801 0 0 0 
-0.0285336 0.165404 1.18797 4 254 11 
-0.0278613 0.221854 1.18418 30 28 29 
-0.0242161 0.101883 1.19088 254 61 59 
-0.0246071 0.315928 1.17788 35 33 34 
-0.0216543 0.099009 1.19163 43 44 254 
-0.0210608 0.0907456 1.19204 254 63 61 
-0.0199142 0.257358 1.18057 37 254 46 
-0.0183791 0.0871852 1.19175 57 60 254 
-0.0160047 0.0346118 1.19488 3 254 24 
-0.00573768 0.201927 1.18523 64 254 63 
0.00629475 -0.375592 1.40867 0 0 0 
0.0330718 -0.213564 1.26429 25 20 254 
-0.149096 0.0337003 1.25725 0 0 0 
-0.141738 0.184847 1.25139 0 0 0 
-0.134642 0.020962 1.24316 0 0 0 
-0.13315 0.213775 1.23936 0 0 0 
-0.132188 0.0338395 1.24126 0 0 0 
-0.133423 0.104856 1.24985 0 0 0 
-0.119057 0.0332604 1.22971 0 0 0 
-0.119605 -0.0546311 1.25369 0 0 0 
-0.116111 -0.0280731 1.23696 0 0 0 
-0.113998 0.024882 1.22819 0 0 0 
-0.113124 0.360255 1.21235 0 0 0 
-0.118836 -0.138762 1.29291 0 0 0 
-0.112075 -0.0664191 1.25895 0 0 0 
-0.110586 -0.0472763 1.24597 0 0 0 
-0.100831 0.620159 1.14518 0 0 0 
-0.107042 -0.0328023 1.23435 0 0 0 
-0.101435 0.475871 1.19142 0 0 0 
-0.102136 -0.0416258 1.23547 0 0 0 
-0.0997131 0.344761 1.20613 0 0 0 
-0.100327 0.153398 1.22114 0 0 0 
-0.105842 -0.15458 1.29102 0 0 0 
-0.0939225 0.501661 1.18276 0 0 1 
-0.096861 -0.11176 1.26731 0 0 0 
-0.0954889 -0.0932577 1.2607 0 0 0 
-0.0901298 0.553276 1.17454 63 60 59 
-0.0878195 0.256083 1.20746 0 0 0 
-0.0874272 0.176961 1.21292 0 0 0 
-0.0954529 -0.266427 1.32831 0 0 0 
-0.0860042 0.0251178 1.2122 0 0 0 
-0.0869945 -0.0927886 1.25426 0 0 0 
-0.0895441 -0.173382 1.28781 0 0 0 
-0.0879344 -0.128957 1.26867 0 0 0 
-0.083377 0.196379 1.20929 0 0 0 
-0.087224 -0.139114 1.27211 0 0 0 
-0.0829393 0.248889 1.20477 0 0 0 
-0.0818256 0.0434063 1.20921 0 0 0 
-0.0841036 -0.0676383 1.24166 0 0 0 
-0.0804075 -0.000417973 1.20987 0 0 0 
-0.0774687 0.525874 1.17617 63 65 254 
-0.078136 0.178281 1.20784 0 0 0 
-0.084392 -0.270027 1.32427 0 0 0 
-0.0754515 -0.0355453 1.21422 0 0 0 
-0.0748018 0.135712 1.21012 0 0 0 
-0.0735635 0.0552986 1.20562 0 0 0 
-0.079136 -0.218648 1.29593 0 0 0 
-0.0710884 0.296032 1.1977 0 0 2 
-0.0792056 -0.315632 1.34004 0 0 0 
-0.0777267 -0.297295 1.33114 0 0 0 
-0.0694019 0.186543 1.20373 0 0 0 
-0.0735582 -0.207123 1.2902 0 0 0 
-0.0674296 0.0241226 1.20462 0 0 0 
-0.0672662 0.0866896 1.21041 0 0 0 
-0.072418 -0.264904 1.3138 0 0 0 
-0.0659734 -0.0505001 1.21761 0 0 0 
-0.0665605 -0.089487 1.23946 0 0 0 
-0.0636005 0.040883 1.20116 0 0 0 
-0.0667847 -0.180769 1.27585 0 0 0 
-0.0691731 -0.320498 1.33421 0 0 0 
-0.0656539 -0.223413 1.29085 0 0 0 
-0.0669885 -0.349059 1.34658 0 0 0 
-0.0584317 0.566587 1.16112 254 44 43 
-0.0599005 -0.110396 1.24228 0 0 0 
-0.0592074 -0.0867317 1.2339 0 0 0 
-0.0565181 0.18953 1.19956 19 15 122 
-0.0609901 -0.315693 1.32808 0 0 0 
-0.0545982 0.202725 1.19716 52 46 226 
-0.0524374 -0.0993039 1.2341 0 0 0 
-0.0537339 -0.165402 1.25985 0 0 0 
-0.0562611 -0.350775 1.34118 0 0 0 
-0.0496628 0.0580655 1.2062 21 21 23 
-0.0496124 -0.131873 1.24496 0 0 0 
-0.0509469 -0.238441 1.28634 0 0 0 
-0.0507822 -0.290117 1.31062 0 0 0 
-0.0461685 0.162826 1.19968 34 34 34 
-0.0440281 0.205777 1.19609 35 36 254 
-0.0455413 -0.267584 1.2976 0 0 0 
-0.0415578 0.617268 1.15133 0 0 3 
-0.0454613 -0.281172 1.30284 0 0 0 
-0.0412673 -0.0874741 1.22152 0 0 0 
-0.0409014 -0.0998103 1.22599 0 0 0 
-0.0458989 -0.389506 1.34836 0 0 0 
-0.0393093 0.0639026 1.20373 254 32 30 
-0.0390227 0.0842046 1.20176 253 68 68 
-0.0447004 -0.410463 1.35669 0 0 0 
-0.0424284 -0.298334 1.30759 0 0 0 
-0.0382975 0.0515419 1.1994 36 34 35 
-0.0398806 -0.238726 1.28106 0 0 0 
-0.0358033 0.606352 1.15394 255 71 67 
-0.0348056 0.337527 1.17653 33 32 30 
-0.032768 0.0070454 1.19534 27 26 24 
-0.0324777 -0.0207407 1.19328 82 81 79 
-0.0370858 -0.349547 1.32679 0 0 0 
-0.0313387 0.260508 1.18011 58 58 58 
-0.0296073 0.0796649 1.1906 254 54 52 
-0.0314091 -0.230937 1.27158 0 0 0 
-0.0289651 0.134488 1.18713 64 65 254 
-0.0286528 0.208179 1.18295 72 254 75 
-0.0316022 -0.333167 1.3148 0 0 0 
-0.0272726 0.19619 1.18443 70 71 254 
-0.0289625 -0.294036 1.29699 0 0 0 
-0.0266058 -0.164272 1.24601 0 0 0 
-0.0261002 0.455687 1.16971 24 25 254 
-0.0245907 0.0342233 1.19196 63 254 79 
-0.0252041 0.408313 1.1704 254 14 13 
-0.0242367 0.0483315 1.19111 254 3 1 
-0.0256095 -0.345767 1.31818 0 0 0 
-0.0255052 -0.360965 1.32277 0 0 0 
-0.0220613 0.0116269 1.19269 60 59 57 
-0.0232818 0.482411 1.16718 42 41 39 
-0.0220101 0.0609798 1.19094 16 14 15 
-0.0215133 0.301681 1.17662 40 254 41 
-0.0230632 -0.402063 1.33841 0 0 0 
-0.0196229 0.267261 1.17847 254 42 40 
-0.0193702 0.203862 1.18151 254 27 27 
-0.0191263 0.122536 1.18828 254 46 45 
-0.020111 -0.319652 1.30237 0 0 0 
-0.0191492 -0.24323 1.2746 0 0 0 
-0.0177906 0.228792 1.18201 254 59 59 
-0.017235 0.276776 1.17786 40 38 39 
-0.0163319 0.179004 1.18434 67 254 56 
-0.0157304 0.243184 1.18067 254 48 48 
-0.0177697 -0.416577 1.34205 0 0 0 
-0.015379 -0.163952 1.24803 0 0 0 
-0.0130639 -0.0871479 1.22358 81 79 255 
-0.0131719 -0.285563 1.29023 0 0 0 
-0.0117544 0.106601 1.18826 254 51 49 
-0.0119849 0.213969 1.18286 30 29 27 
-0.0114594 0.058371 1.19068 34 34 34 
-0.014084 -0.459763 1.35709 0 0 0 
-0.0105066 -0.0419504 1.20074 56 254 84 
-0.0122094 -0.314336 1.30034 0 0 0 
-0.0107987 0.135481 1.18708 41 254 47 
-0.0108133 0.293848 1.17773 254 37 37 
-0.0114454 0.508052 1.16678 254 36 34 
-0.0098323 0.120535 1.18877 55 53 54 
-0.0104502 -0.338232 1.31017 0 0 0 
-0.00840405 0.0328603 1.19112 49 254 54 
-0.00982783 0.555769 1.16295 254 34 33 
-0.00937727 -0.294404 1.29347 0 0 0 
-0.00873173 0.31525 1.17641 41 39 40 
-0.00776884 0.227096 1.18106 14 14 254 
-0.00674334 0.0471599 1.18997 52 254 51 
-0.00749427 -0.321287 1.30339 0 0 0 
-0.00557366 0.0692745 1.19079 21 21 254 
-0.00488945 -0.00772427 1.18822 63 254 69 
-0.00650853 -0.400897 1.3323 0 0 0 
-0.00539781 0.333857 1.17556 47 47 47 
-0.0054221 -0.330585 1.30789 0 0 0 
-0.00591699 -0.629999 1.39867 0 0 0 
-0.00402919 0.306224 1.17697 254 52 51 
-0.00339103 0.254249 1.18065 44 43 39 
-0.00262361 -0.129595 1.23901 30 32 39 
-0.00324722 0.570171 1.15757 23 254 25 
-0.00105785 0.000969692 1.1914 254 5 4 
-0.00245124 0.401441 1.17269 254 57 55 
-0.00189385 0.425995 1.1719 54 52 254 
-0.00174387 0.43732 1.17048 53 51 254 
-0.000558842 -0.291254 1.29416 0 0 0 
-0.000232609 0.181986 1.18393 57 254 66 
-0.000289271 0.62326 1.13358 0 0 1 
0.00128728 0.222516 1.18221 47 254 52 
0.00171763 -0.637314 1.38942 0 0 0 
0.00253816 0.0485211 1.19123 254 8 7 
0.00275329 0.122483 1.18727 50 51 254 
0.00340655 -0.0598057 1.21532 52 49 254 
0.00180713 0.490517 1.16851 61 254 50 
0.00342432 -0.362508 1.31993 0 0 0 
0.00396671 -0.080759 1.22538 254 84 84 
0.00225716 0.553512 1.16573 254 49 47 
0.00261506 0.563321 1.16097 48 47 45 
0.00432226 0.14118 1.1873 33 31 32 
0.00426187 -0.553108 1.38281 0 0 0 
0.00460656 0.231691 1.18267 22 254 25 
0.00618632 -0.198942 1.25482 230 56 57 
0.00598923 -0.311823 1.303 0 0 0 
0.0066707 -0.0191859 1.19303 35 31 22 
0.00656742 0.17616 1.18533 60 254 59 
0.00711729 0.11098 1.18839 53 254 43 
0.00937342 -0.127756 1.24098 32 254 36 
0.00939459 -0.344176 1.31555 0 0 0 
0.0105266 -0.0893404 1.23053 27 28 254 
0.0101743 0.100417 1.1904 64 64 254 
0.0116754 -0.39356 1.33194 0 0 0 
0.0109535 0.151495 1.18769 254 56 52 
0.0120429 -0.37629 1.32622 0 0 0 
0.0119725 0.016478 1.1928 45 41 42 
0.0124841 -0.0991938 1.2328 50 51 254 
0.0106552 0.575834 1.15861 254 50 48 
0.0139152 -0.409389 1.33742 0 0 0 
0.0132951 0.0905422 1.19055 38 38 38 
0.0149052 -0.585838 1.39089 0 0 0 
0.0140217 0.307646 1.17889 42 30 32 
0.0161326 -0.108667 1.2368 48 46 254 
0.0144333 0.349758 1.17567 45 46 254 
0.0149495 0.23603 1.18315 27 29 254 
0.0170431 -0.304008 1.30048 0 0 0 
0.0166556 0.0338017 1.1923 254 1 0 
0.0176745 -0.239963 1.25792 59 58 56 
0.0164786 0.11612 1.18933 65 65 67 
0.0190968 -0.208313 1.25681 254 46 45 
0.0195131 -0.0891227 1.23156 104 105 254 
0.0171249 0.494103 1.17126 29 30 254 
0.0216233 -0.363088 1.32257 0 0 0 
0.0209123 0.212799 1.18482 254 44 22 
0.0218793 0.128354 1.18934 42 40 41 
0.0250557 -0.629508 1.39145 0 0 0 
0.0220947 0.408087 1.17853 39 38 36 
0.0269481 -0.10499 1.23779 115 113 254 
0.028578 -0.30569 1.30316 0 0 0 
0.0255455 0.35397 1.17783 254 65 65 
0.0294879 -0.390811 1.33469 0 0 0 
0.0297363 -0.348994 1.3204 0 0 0 
0.0303448 -0.403679 1.33799 0 0 0 
0.0283779 -0.0187693 1.19634 125 116 254 
0.0289838 0.0490247 1.19431 254 40 39 
0.027578 0.577082 1.16213 51 254 48 
0.0329076 -0.20159 1.2602 49 44 254 
0.0365059 -0.314273 1.30848 0 0 0 
0.0343574 0.353591 1.18106 254 55 53 
0.0358699 0.101376 1.19452 254 37 37 
0.0366808 0.0291576 1.19617 53 51 52 
0.0369936 0.217028 1.18784 254 47 27 
0.0374936 0.193102 1.18835 37 22 25 
0.0381868 0.11144 1.1939 31 31 254 
0.0382436 0.126096 1.19274 27 28 254 
0.0389271 0.150506 1.1904 254 52 50 
0.0426977 -0.323788 1.31256 0 0 0 
0.0412663 0.45805 1.17929 47 45 46 
0.0442438 -0.0182109 1.20021 70 63 254 
0.044396 0.198669 1.1913 31 27 26 
0.0460007 0.018601 1.19978 49 47 254 
0.0452674 0.212958 1.19132 27 254 33 
0.044211 0.40717 1.1815 51 254 50 
0.0446073 0.423171 1.18125 254 54 52 
0.0441863 0.618712 1.16139 52 53 253 
0.048824 0.052596 1.19928 16 16 16 
0.0538362 -0.31276 1.31124 0 0 0 
0.0515205 0.32529 1.1886 23 24 254 
0.0499901 0.581081 1.16714 48 254 47 
0.0565866 -0.208956 1.26309 254 51 47 
0.0540256 0.0982769 1.20003 21 19 20 
0.0568072 -0.121952 1.24785 24 25 254 
0.0548837 0.131315 1.19719 21 254 29 
0.061561 0.108082 1.20205 57 57 254 
0.0635845 0.0192434 1.206 49 48 46 
0.0694477 0.126245 1.20424 254 27 27 
0.0738991 -0.128328 1.25405 41 254 47 
0.0718653 0.308944 1.19679 254 47 45 
0.0734506 0.109668 1.20745 254 58 58 
0.0747176 0.037469 1.21076 59 62 254 
0.0750181 0.137136 1.20594 254 21 19 
0.0821003 0.011094 1.21431 33 31 254 
0.0864234 -0.0624211 1.23492 254 111 110 
0.0879551 0.0537048 1.21609 16 255 16 
-0.202936 0.527056 1.35442 0 0 0 
-0.163364 0.0608498 1.48769 0 0 0 
-0.200802 0.485123 1.34611 0 0 0 
-0.203062 0.459326 1.31711 0 0 0 
-0.197649 0.479755 1.32794 0 0 0 
-0.19087 0.287171 1.34862 0 0 0 
-0.196384 0.488646 1.31788 0 0 0 
-0.187453 0.0696826 1.34516 0 0 0 
-0.195064 0.499603 1.31409 0 0 0 
-0.183336 0.106196 1.34368 0 0 0 
-0.196879 0.458904 1.29629 0 0 0 
-0.159718 -0.107261 1.39334 0 0 0 
-0.143613 -0.225651 1.41241 0 0 0 
-0.175335 0.0269652 1.30269 0 0 0 
-0.170546 0.101552 1.30858 0 0 0 
-0.17483 0.287137 1.29345 0 0 0 
-0.17163 0.164536 1.30164 0 0 0 
-0.188451 0.613393 1.24163 6 2 2 
-0.173296 -0.00733533 1.28854 0 0 0 
-0.180656 0.535993 1.25522 0 0 0 
-0.170158 0.279454 1.28857 0 0 0 
-0.17291 0.45941 1.26899 0 0 0 
-0.167275 0.0178089 1.28955 0 0 0 
-0.163922 0.111169 1.29453 0 0 0 
-0.170025 0.391491 1.27282 0 0 0 
-0.178262 0.556162 1.24465 2 9 2 
-0.168224 -0.00531894 1.27727 0 0 0 
-0.164686 0.168555 1.28432 0 0 0 
-0.164131 0.00463679 1.28757 0 0 0 
-0.162505 0.119132 1.28975 0 0 0 
-0.133964 -0.238272 1.3624 0 0 0 
-0.161585 0.217331 1.27845 0 0 0 
-0.162699 0.268835 1.27373 0 0 0 
-0.161961 0.238201 1.27592 0 0 0 
-0.161669 0.0568059 1.27816 0 0 0 
-0.161469 0.225794 1.27386 0 0 0 
-0.16046 0.0267413 1.27869 0 0 0 
-0.158581 0.0684437 1.28008 0 0 0 
-0.157058 0.00154377 1.26737 0 0 0 
-0.153405 0.22332 1.26835 0 0 0 
-0.151756 0.141895 1.27337 0 0 0 
-0.143714 -0.0888863 1.29703 0 0 0 
-0.130051 -0.165568 1.33469 0 0 0 
-0.167844 0.584607 1.21791 8 46 8 
-0.141749 -0.0997808 1.29641 0 0 0 
-0.14884 0.0717651 1.27431 0 0 0 
-0.151633 0.196317 1.26431 0 0 0 
-0.151163 0.230774 1.26282 0 0 0 
-0.149317 0.168716 1.26578 0 0 0 
-0.152133 0.304773 1.25595 0 0 0 
-0.141475 -0.0748844 1.28764 0 0 0 
-0.130086 -0.154432 1.31621 0 0 0 
-0.134986 -0.112832 1.30058 0 0 0 
-0.147708 0.186804 1.26134 0 0 0 
-0.144948 -0.0473864 1.27051 0 0 0 
-0.144705 0.096883 1.26844 0 0 0 
-0.147424 0.0325108 1.26131 0 0 0 
-0.144312 0.211238 1.25599 0 0 0 
-0.141495 0.149954 1.25874 0 0 0 
-0.143231 0.266475 1.25012 0 0 0 
-0.098782 -0.283105 1.37162 0 0 0 
-0.130103 -0.0869151 1.2857 0 0 0 
-0.115682 -0.186901 1.31794 0 0 0 
-0.113636 -0.195043 1.32059 0 0 0 
-0.139025 0.0326333 1.25239 0 0 0 
-0.135646 0.0860632 1.25971 0 0 0 
-0.13835 -0.0213031 1.25174 0 0 0 
-0.121337 -0.127194 1.29615 0 0 0 
-0.14071 0.358608 1.23963 1 2 1 
-0.128799 -0.0667761 1.27405 0 0 0 
-0.0978923 -0.284145 1.35524 0 0 0 
-0.13337 -0.040995 1.25884 0 0 0 
-0.135371 0.0563233 1.25071 27 9 9 
-0.13824 0.335131 1.23933 0 0 0 
-0.116512 -0.139321 1.29882 0 0 0 
-0.131842 0.10526 1.25385 2 1 1 
-0.132397 0.0671355 1.24941 12 12 18 
-0.131603 0.12052 1.25047 0 0 0 
-0.112518 -0.148317 1.29847 0 0 0 
-0.133669 0.278492 1.23903 1 1 1 
-0.131868 0.0410748 1.2454 50 205 51 
-0.110512 -0.156745 1.30115 0 0 0 
-0.131079 0.0307851 1.24544 227 72 70 
-0.130346 0.215543 1.24299 5 3 2 
-0.0813685 -0.336886 1.37214 0 0 0 
-0.0968635 -0.237621 1.32778 0 0 0 
-0.132188 0.372922 1.22715 39 38 36 
-0.141228 0.56426 1.20206 29 29 21 
-0.0877693 -0.29018 1.34253 0 0 0 
-0.125571 -0.0292627 1.24392 61 57 56 
-0.122862 0.101675 1.24626 23 113 17 
-0.102615 -0.153686 1.29518 0 0 0 
-0.0995543 -0.170264 1.29797 0 0 0 
-0.0911287 -0.226915 1.31713 0 0 0 
-0.134098 0.55232 1.20138 254 8 8 
-0.135356 0.57251 1.19222 37 34 25 
-0.123567 0.461085 1.2144 254 125 126 
-0.0993718 -0.121802 1.27948 0 0 0 
-0.106532 -0.0666206 1.25906 41 43 208 
-0.119513 0.34158 1.22261 45 43 254 
-0.0770465 -0.266493 1.32591 0 0 0 
-0.0971873 -0.106871 1.27231 2 2 2 
-0.0893424 -0.16588 1.2914 0 0 0 
-0.0544561 -0.414827 1.37391 0 0 0 
-0.0624949 -0.349255 1.35187 0 0 0 
-0.108909 -0.0212981 1.23506 254 71 68 
-0.103314 -0.0491399 1.24683 70 68 69 
-0.0855427 -0.157728 1.28475 0 0 0 
-0.068015 -0.284148 1.32691 0 0 0 
-0.113378 0.45588 1.21053 9 254 32 
-0.0691313 -0.255734 1.3153 0 0 0 
-0.0450455 -0.423443 1.37151 0 0 0 
-0.115483 0.507124 1.19311 24 26 21 
-0.0454893 -0.407376 1.36507 0 0 0 
-0.120854 0.616666 1.17637 12 99 14 
-0.0952764 -0.0512821 1.24321 254 57 56 
-0.0541606 -0.337567 1.34071 0 0 0 
-0.0602243 -0.289585 1.32588 0 0 0 
-0.0991378 -0.029451 1.23166 69 64 61 
-0.0779967 -0.159501 1.27915 0 0 0 
-0.0330263 -0.4711 1.38407 0 0 0 
-0.0819107 -0.112134 1.26466 251 48 46 
-0.0985121 0.0247154 1.22449 254 47 46 
-0.0379987 -0.431502 1.36843 0 0 0 
-0.0547416 -0.300001 1.32548 0 0 0 
-0.0611236 -0.260704 1.30783 0 0 0 
-0.0504024 -0.321459 1.33198 0 0 0 
-0.0961036 -0.0193845 1.22301 58 54 254 
-0.0088413 -0.646183 1.42806 0 0 0 
-0.0932706 0.126044 1.22476 41 39 40 
-0.0558706 -0.27118 1.31492 0 0 0 
-0.0405007 -0.380599 1.35094 0 0 0 
-0.0475552 -0.310182 1.32624 0 0 0 
-0.013523 -0.552744 1.40541 0 0 0 
-0.00671827 -0.589811 1.41979 0 0 0 
-0.0537462 -0.254559 1.3055 0 0 0 
-0.0416457 -0.330984 1.3315 0 0 0 
-0.0292696 -0.417356 1.35757 0 0 0 
-0.0680682 -0.139653 1.26588 54 53 49 
-0.0834852 -0.0410937 1.22914 57 52 49 
-0.0324879 -0.379998 1.34471 0 0 0 
-0.0851908 0.18693 1.21637 33 254 26 
0.0116386 -0.710911 1.4384 0 0 0 
-0.0838313 -0.020218 1.21717 92 254 88 
-0.0672247 -0.110163 1.25313 69 68 64 
-0.0553523 -0.190156 1.27996 11 12 12 
-0.0590789 -0.155012 1.26635 51 47 44 
-0.0497429 -0.217088 1.28571 101 105 72 
-0.0330663 -0.324938 1.32164 0 0 0 
-0.0955547 0.599898 1.16828 35 33 34 
-0.0572065 -0.143673 1.25962 63 58 254 
-0.0617803 -0.099126 1.24717 254 27 26 
-0.0227461 -0.370719 1.33407 0 0 0 
-0.0127263 -0.438513 1.3564 0 0 0 
-0.0916596 0.585697 1.16777 43 41 42 
0.0107065 -0.634545 1.40042 0 0 0 
0.0216235 -0.730431 1.42471 0 0 0 
0.011443 -0.645413 1.39976 0 0 0 
-0.0586699 -0.0781423 1.23623 49 47 254 
-0.0680946 0.0672353 1.21417 35 33 255 
-0.0438284 -0.187825 1.2694 4 254 85 
-0.0120558 -0.400291 1.33999 0 0 0 
-0.0310506 -0.275479 1.29737 0 1 1 
-0.0190186 -0.333943 1.31772 0 0 0 
-0.0570459 -0.0674133 1.22845 254 59 57 
-0.0366201 -0.205044 1.27183 58 55 254 
-0.0266561 -0.264235 1.29186 121 113 78 
-0.0549297 -0.0590761 1.22218 83 81 82 
-0.0672385 0.459547 1.18898 38 254 40 
-0.0360844 -0.178204 1.25862 44 45 254 
-0.054126 -0.0517621 1.21717 76 254 90 
-0.0598143 0.238298 1.20152 254 28 27 
-0.0382663 -0.146749 1.24899 54 52 254 
-0.0573505 0.00820395 1.20683 55 51 254 
-0.0469993 -0.0818658 1.228 46 254 48 
-0.0553788 0.0254361 1.20505 54 255 65 
-0.0443718 -0.0659913 1.2211 70 71 254 
-0.0456932 0.228252 1.20017 255 4 2 
0.0234416 -0.410119 1.34652 0 0 0 
0.00358222 -0.298377 1.30362 1 1 1 
-0.0564274 0.617209 1.15566 61 57 54 
-0.0100609 -0.21184 1.25722 64 59 254 
-0.0332512 0.092167 1.20396 41 40 38 
-0.0339345 0.106383 1.19954 44 255 43 
-0.0348485 0.194175 1.19483 41 39 40 
-0.033957 0.175717 1.19463 69 255 76 
-0.0350679 0.203811 1.19086 55 55 55 
-0.0351883 0.243791 1.18953 32 30 31 
0.0270807 -0.318579 1.31487 37 42 148 
-0.00927094 -0.0877978 1.23114 52 51 49 
-0.0276373 0.144123 1.19196 41 44 255 
-0.0262857 0.117689 1.19221 255 37 33 
-0.0240407 0.0695463 1.19663 49 48 46 
0.011283 -0.197628 1.26171 26 254 33 
0.00425643 -0.119099 1.2431 66 254 65 
-0.00723691 0.0244442 1.197 255 11 10 
-0.00250125 0.108453 1.1917 48 50 49 
-0.00367605 0.21651 1.18716 36 34 254 
0.0022255 0.182804 1.18857 255 47 43 
0.00538027 0.122933 1.19222 35 255 39 
0.00924897 -0.0193493 1.19788 116 111 255 
0.00639911 0.21755 1.18632 36 34 255 
0.0143503 0.0922803 1.19596 255 31 30 
0.0194585 0.027164 1.19782 255 32 30 
0.00933078 0.554422 1.1723 29 28 254 
0.0336527 0.409053 1.18416 255 45 44 
0.0466758 0.62073 1.16568 254 33 31 
-0.183743 0.0586944 1.41511 0 0 0 
-0.17229 0.11702 1.40102 0 0 0 
-0.109574 0.430451 1.20367 0 0 0 
-0.104404 0.128766 1.22512 0 0 0 
-0.103236 0.410788 1.20163 0 0 0 
-0.103487 -0.207701 1.31158 0 0 0 
-0.0898166 0.350002 1.19878 0 0 0 
-0.0740907 0.101537 1.21054 0 0 0 
-0.0684698 -0.057538 1.22475 0 0 0 
-0.0672809 0.262958 1.19621 0 0 1 
-0.0560531 -0.226305 1.28678 0 0 0 
-0.0464686 0.0388739 1.196 58 61 253 
-0.0457868 -0.00789968 1.19101 95 254 64 
-0.03124 0.286318 1.177 30 30 30 
-0.0274696 0.614423 1.14859 16 16 84 
-0.023078 -0.190299 1.2554 0 0 0 
-0.0211168 -0.0989346 1.227 4 2 2 
-0.0170214 -0.208948 1.26372 0 0 0 
-0.0112878 -0.571565 1.39746 0 0 0 
-0.00731771 0.0863521 1.18921 76 78 254 
-0.00593443 -0.561029 1.39322 0 0 0 
-0.00446557 -0.412631 1.33859 0 0 0 
-0.00113673 -0.349385 1.31581 0 0 0 
-0.00204053 -0.305994 1.40934 0 0 0 
0.00587007 -0.277835 1.29168 0 0 0 
0.00895968 0.0731086 1.19097 55 254 56 
0.00669724 0.308436 1.60464 28 254 16 
0.0146045 0.567784 1.159 34 32 33 
0.0205093 0.0734181 1.19186 39 39 39 
0.0282822 0.118592 1.19137 56 254 57 
0.0284277 0.617078 1.15513 84 82 251 
0.0358653 0.0623064 1.19646 254 8 8 
0.0343681 0.501413 1.17387 40 41 254 
0.0484091 0.0668864 1.19915 254 31 31 
0.0634091 0.320112 1.19107 42 38 37 
-0.200257 0.550864 1.40617 0 0 0 
-0.185635 -0.00756619 1.44195 0 0 0 
-0.211034 0.464897 1.34066 0 0 0 
-0.195055 0.0494852 1.39063 0 0 0 
-0.194942 0.00399707 1.39067 0 0 0 
-0.203831 0.490409 1.34243 0 0 0 
-0.189717 0.202474 1.3901 0 0 0 
-0.197985 -0.00587322 1.36446 0 0 0 
-0.193399 0.284705 1.37245 0 0 0 
-0.196163 0.38852 1.36129 0 0 0 
-0.189089 0.190601 1.38299 0 0 0 
-0.19464 0.304043 1.3627 0 0 0 
-0.185087 0.0834854 1.3953 0 0 0 
-0.18994 0.198239 1.36722 0 0 0 
-0.192588 0.0279798 1.361 0 0 0 
-0.192932 0.0516526 1.35873 0 0 0 
-0.193152 0.00858081 1.35859 0 0 0 
-0.201711 0.497827 1.32382 0 0 0 
-0.187661 0.159913 1.36732 0 0 0 
-0.189294 0.176725 1.36155 0 0 0 
-0.189864 0.211807 1.35902 0 0 0 
-0.172879 0.333696 1.40886 0 0 0 
-0.170684 -0.0749539 1.42138 0 0 0 
-0.200989 0.547432 1.31665 0 0 0 
-0.190841 0.234996 1.35127 0 0 0 
-0.200297 0.492306 1.31484 0 0 0 
-0.185647 0.142402 1.36536 0 0 0 
-0.190668 0.0607688 1.35026 0 0 0 
-0.190734 0.199796 1.34638 0 0 0 
-0.200861 0.50163 1.30875 0 0 0 
-0.193599 0.362179 1.33221 0 0 0 
-0.185106 0.102646 1.35731 0 0 0 
-0.189462 -0.0169576 1.34549 0 0 0 
-0.199606 0.557196 1.30233 0 0 0 
-0.185001 0.126362 1.3519 0 0 0 
-0.186845 0.0698271 1.34703 0 0 0 
-0.17912 -0.0436203 1.37001 0 0 0 
-0.183971 0.0939894 1.35066 0 0 0 
-0.185066 0.144304 1.3457 0 0 0 
-0.198869 0.4755 1.29782 0 0 0 
-0.188876 0.290259 1.32645 0 0 0 
-0.18721 0.202017 1.33126 0 0 0 
-0.163825 -0.0843645 1.40231 0 0 0 
-0.187201 0.0205062 1.3293 0 0 0 
-0.170794 -0.0574548 1.37905 0 0 0 
-0.20206 0.503876 1.27584 0 0 0 
-0.184476 0.184533 1.32875 0 0 0 
-0.187435 0.281524 1.31823 0 0 0 
-0.183509 0.165775 1.32722 0 0 0 
-0.179827 0.0732076 1.33854 0 0 0 
-0.174566 -0.0462541 1.35289 0 0 0 
-0.185006 0.294076 1.31503 0 0 0 
-0.184104 0.192119 1.31841 0 0 0 
-0.183149 0.179904 1.31862 0 0 0 
-0.204399 0.460522 1.25096 0 0 0 
-0.1874 0.330334 1.30191 0 0 0 
-0.183004 -0.0188029 1.31821 0 0 0 
-0.190227 0.391835 1.28751 0 0 0 
-0.179661 0.127201 1.31972 0 0 0 
-0.197023 0.489429 1.26104 0 0 0 
-0.180287 0.00220959 1.31576 0 0 0 
-0.194129 0.453655 1.26553 0 0 0 
-0.182907 0.297566 1.29711 0 0 0 
-0.1479 -0.144448 1.4049 0 0 0 
-0.184001 0.370023 1.29069 0 0 0 
-0.175917 -0.0340454 1.31687 0 0 0 
-0.180557 -0.00556859 1.2971 0 0 0 
-0.178825 0.248587 1.29613 0 0 0 
-0.193059 0.521723 1.24877 0 0 0 
-0.176899 0.0451391 1.3025 0 0 0 
-0.169052 -0.0462425 1.32655 0 0 0 
-0.140422 -0.2053 1.41054 0 0 0 
-0.15035 -0.0368392 1.37782 0 0 0 
-0.175611 0.0269502 1.3019 0 0 0 
-0.171474 -0.040999 1.308 0 0 0 
-0.137572 -0.263831 1.40682 0 0 0 
-0.176879 0.264718 1.28594 0 0 0 
-0.175312 0.226498 1.28892 0 0 0 
-0.137825 -0.190078 1.40022 0 0 0 
-0.173859 -0.00719415 1.28694 0 0 0 
-0.13858 -0.158401 1.38767 0 0 0 
-0.168307 0.162153 1.29825 0 0 0 
-0.155835 -0.0831109 1.33511 0 0 0 
-0.169295 0.151935 1.29206 0 0 0 
-0.13194 -0.214793 1.38896 0 0 0 
-0.134258 -0.261943 1.38267 0 0 0 
-0.136261 -0.161003 1.37531 0 0 0 
-0.164673 0.134322 1.28446 0 0 0 
-0.147763 -0.096573 1.33415 0 0 0 
-0.167629 0.237332 1.27357 0 0 0 
-0.141185 -0.140687 1.35051 0 0 0 
-0.186234 0.58257 1.21278 4 4 4 
-0.156936 0.140924 1.2836 0 0 0 
-0.131323 -0.203226 1.35733 0 0 0 
-0.139139 -0.131949 1.3309 0 0 0 
-0.15849 0.111081 1.27439 0 0 0 
-0.128094 -0.263008 1.36128 0 0 0 
-0.160801 0.194855 1.2642 0 0 0 
-0.156798 0.168338 1.26846 0 0 0 
-0.129779 -0.19762 1.34555 0 0 0 
-0.159024 0.260229 1.25596 0 0 0 
-0.157447 0.182214 1.26078 0 0 0 
-0.157455 0.238271 1.25948 0 0 0 
-0.158889 0.270872 1.25058 0 0 0 
-0.128098 -0.21047 1.33817 0 0 0 
-0.146655 0.0660927 1.27337 0 0 0 
-0.151094 -0.0307686 1.26024 0 0 0 
-0.166082 0.542013 1.21112 231 60 60 
-0.0859932 -0.334054 1.4341 0 0 0 
-0.123822 -0.182773 1.33104 0 0 0 
-0.147104 0.105159 1.26358 0 0 0 
-0.142958 -0.058822 1.27571 0 0 0 
-0.156648 0.381792 1.23377 0 0 0 
-0.133537 -0.121478 1.30086 0 0 0 
-0.127697 -0.163327 1.31482 0 0 0 
-0.148175 0.219703 1.25066 0 0 0 
-0.150947 0.282324 1.24023 0 0 0 
-0.123153 -0.172434 1.31606 0 0 0 
-0.151837 0.348419 1.23323 0 0 0 
-0.111692 -0.236164 1.34413 0 0 0 
-0.14407 0.0171288 1.25492 0 0 0 
-0.140546 -0.0548111 1.26312 0 0 0 
-0.08444 -0.330705 1.41185 0 0 0 
-0.141678 0.124934 1.25675 0 0 0 
-0.114429 -0.206284 1.32849 0 0 0 
-0.0943759 -0.298644 1.37797 0 0 0 
-0.132272 -0.0734663 1.27699 0 0 0 
-0.103656 -0.256015 1.35262 0 0 0 
-0.138655 0.0731858 1.25535 0 0 0 
-0.0817191 -0.343152 1.4034 0 0 0 
-0.108286 -0.232021 1.32972 0 0 0 
-0.0859287 -0.322374 1.38441 0 0 0 
-0.136787 -0.0184791 1.2506 29 31 25 
-0.155044 0.525638 1.19686 44 39 254 
-0.114495 -0.172084 1.30905 0 0 0 
-0.137936 0.232005 1.23951 1 1 1 
-0.0930216 -0.296449 1.35891 0 0 0 
-0.150531 0.463621 1.20328 51 254 67 
-0.105392 -0.20976 1.32546 0 0 0 
-0.134835 -0.0294168 1.24754 1 1 1 
-0.0968558 -0.272808 1.34549 0 0 0 
-0.12218 -0.0859756 1.27881 0 0 0 
-0.13409 0.0257677 1.24661 49 50 137 
-0.0577476 -0.416108 1.43528 0 0 0 
-0.135628 0.256835 1.22845 6 29 5 
-0.0747852 -0.363603 1.38786 0 0 0 
-0.113303 -0.119369 1.28809 0 0 0 
-0.0847375 -0.312255 1.36165 0 0 0 
-0.0995929 -0.221374 1.32234 0 0 0 
-0.0717535 -0.373625 1.39299 0 0 0 
-0.122788 -0.0540808 1.26076 0 0 0 
-0.145913 0.489257 1.19435 24 254 103 
-0.0816488 -0.327237 1.36261 0 0 0 
-0.0765472 -0.351504 1.37286 0 0 0 
-0.136126 0.346704 1.21582 58 244 63 
-0.115062 -0.0749731 1.27125 0 0 0 
-0.0828157 -0.320283 1.35372 0 0 0 
-0.0600509 -0.413554 1.41068 0 0 0 
-0.0992584 -0.195405 1.31028 0 0 0 
-0.110776 -0.107923 1.27889 0 0 0 
-0.0666422 -0.380095 1.38706 0 0 0 
-0.123722 0.0252866 1.23972 37 253 94 
-0.104199 -0.137388 1.28598 0 0 0 
-0.124419 0.189114 1.23071 75 253 67 
-0.0804825 -0.307084 1.34422 0 0 0 
-0.0735113 -0.34743 1.36043 0 0 0 
-0.0693593 -0.367821 1.3697 0 0 0 
-0.0804468 -0.279021 1.33768 0 0 0 
-0.0836658 -0.222606 1.30951 0 0 0 
-0.110679 0.0773906 1.23718 38 39 254 
-0.115692 0.163163 1.2223 55 254 57 
-0.0422456 -0.465751 1.4011 0 0 0 
-0.0646812 -0.34264 1.34084 0 0 0 
-0.058031 -0.361867 1.35643 0 0 0 
-0.0989113 -0.0727884 1.25559 49 254 53 
-0.118093 0.343944 1.20306 71 69 70 
-0.12318 0.463977 1.18517 19 19 29 
-0.0812466 -0.16556 1.28482 0 0 0 
-0.0973454 -0.0590161 1.2445 63 254 62 
-0.0307158 -0.50704 1.40494 0 0 0 
-0.0494461 -0.372709 1.35375 0 0 0 
-0.0128965 -0.56994 1.43406 0 0 0 
-0.117287 0.490049 1.1756 254 50 49 
-0.0676029 -0.198824 1.29513 0 0 0 
-0.0321172 -0.469198 1.37671 0 0 0 
-0.00815134 -0.588849 1.43153 0 0 0 
-0.0554722 -0.307969 1.31911 0 0 0 
-0.0235146 -0.50903 1.39454 0 0 0 
-0.00882383 -0.646595 1.42823 0 0 0 
-0.106373 0.353118 1.19279 254 21 21 
-0.0805736 -0.0991528 1.25626 41 37 34 
-0.0878983 -0.0557499 1.23817 51 52 254 
-0.033267 -0.427973 1.36568 0 0 0 
-0.0824502 -0.0819072 1.249 64 254 53 
-0.0938563 0.103863 1.21807 74 74 254 
-0.00667911 -0.628112 1.41878 0 0 0 
-0.0921221 0.0342852 1.21547 254 23 22 
-0.0866138 -0.0522046 1.22765 70 66 67 
0.0083472 -0.721869 1.44062 0 0 0 
-0.0539432 -0.263254 1.29247 0 0 0 
-0.0117274 -0.502955 1.38629 0 0 0 
-0.0159774 -0.474179 1.37455 0 0 0 
0.00283973 -0.371442 1.41298 0 0 0 
-0.0725458 -0.0740588 1.24089 78 77 75 
-0.0475215 -0.593746 1.30198 0 0 0 
-0.080062 -0.0325002 1.22296 65 62 57 
-0.0980586 0.451787 1.1759 62 254 69 
-0.0828603 0.149645 1.20881 52 48 254 
-0.0535864 -0.177532 1.27462 138 17 16 
0.0053356 -0.629316 1.4087 0 0 0 
-0.0176567 -0.430859 1.35494 0 0 0 
-0.0739763 0.0520433 1.22008 13 13 255 
0.0210835 -0.723926 1.4361 0 0 0 
-0.0681432 -0.069633 1.23196 254 72 71 
0.0216052 -0.689705 1.43482 0 0 0 
-0.031139 -0.319503 1.31361 0 0 0 
0.00125141 -0.506349 1.38303 0 0 0 
0.0199893 -0.654694 1.42465 0 0 0 
-0.086518 0.387038 1.17897 43 254 41 
-0.0563797 -0.119625 1.24911 254 57 55 
0.0261227 -0.735704 1.43462 0 0 0 
-0.0896408 0.477397 1.16828 27 25 254 
-0.0150631 -0.377776 1.33019 0 0 0 
0.00866629 -0.514529 1.38285 0 0 0 
-0.0801041 0.360227 1.18159 36 34 254 
-0.0355594 -0.250516 1.28211 47 189 44 
0.0165625 -0.65023 1.3967 0 0 0 
0.01175 -0.530397 1.38367 0 0 0 
0.0212012 -0.570411 1.40447 0 0 0 
0.00350043 -0.45143 1.3551 0 0 0 
-0.0478154 -0.123637 1.23899 254 60 59 
0.024403 -0.641769 1.39795 0 0 0 
-0.0205095 -0.289661 1.29644 2 3 2 
0.0231993 -0.517974 1.38614 0 0 0 
-0.001931 -0.375219 1.32916 0 0 0 
0.00215111 -0.393087 1.33799 0 0 0 
-0.061898 0.244175 1.18712 35 33 34 
0.0533291 -0.645893 1.43197 0 0 0 
-0.0109086 -0.275895 1.29329 51 49 228 
-0.0362005 -0.127987 1.23825 69 65 254 
-0.0592571 0.219165 1.1829 82 83 254 
-0.0198553 -0.220031 1.26903 49 45 254 
-0.00151534 -0.257718 1.29075 254 80 79 
-0.00710162 -0.244795 1.27407 88 88 78 
-0.03115 -0.081611 1.21656 71 254 63 
0.00297253 -0.266883 1.28561 59 58 56 
-0.0451495 0.323351 1.17333 43 42 40 
-0.0410022 0.218038 1.18229 64 64 62 
-0.0445923 0.30841 1.16942 49 52 255 
0.0318354 -0.34434 1.32793 0 0 0 
-0.0215933 -0.0621892 1.21167 4 5 0 
-0.0446029 0.415137 1.15923 31 254 47 
-0.0399156 0.292762 1.16811 255 36 34 
0.0410167 -0.363597 1.3346 1 1 1 
0.00494919 -0.186687 1.25743 254 25 24 
0.0461696 -0.374028 1.34012 0 0 0 
-0.0356441 0.224532 1.17066 37 38 255 
-0.0364593 0.327446 1.16404 28 26 254 
-0.00338603 -0.101888 1.23295 20 254 18 
-0.0109458 -0.0604464 1.2143 61 54 254 
0.0485453 -0.343062 1.33097 252 71 67 
0.015952 -0.229806 1.26117 254 19 19 
0.00723078 -0.129794 1.23594 67 254 71 
-0.0273887 0.342951 1.16388 255 50 49 
-0.0175887 0.130334 1.17982 255 42 41 
0.0705832 -0.317993 1.34608 71 254 85 
0.0314015 -0.247319 1.2673 72 70 254 
0.0367673 -0.189518 1.26903 30 29 27 
0.0365878 -0.174763 1.2675 51 49 254 
0.032301 -0.234367 1.2591 69 254 65 
-0.00342861 0.139277 1.18152 44 42 45 
-0.00607035 0.180483 1.17293 255 47 43 
-0.00219657 0.0967179 1.18083 255 36 38 
0.0355398 -0.135281 1.25393 254 67 66 
-0.000503274 0.191603 1.17826 10 5 9 
-0.00686258 0.351546 1.16413 55 55 255 
0.0489765 -0.190181 1.26954 55 53 254 
0.0170478 -0.0409701 1.20715 52 255 72 
0.0083587 0.0833681 1.18727 33 31 32 
0.0438679 -0.10938 1.25006 61 59 255 
0.0368827 -0.0780354 1.23658 94 89 255 
0.00398434 0.225695 1.17044 44 43 41 
0.102045 0.0262866 1.35391 10 8 9 
0.00625624 0.25536 1.17277 44 42 254 
0.0584007 -0.148195 1.26645 255 53 49 
0.00872406 0.3459 1.1669 255 30 28 
0.0320531 -0.0332688 1.21206 53 50 45 
0.0210001 0.0506831 1.18851 10 255 11 
0.0146372 0.296266 1.17331 24 20 17 
0.05364 -0.105004 1.24684 64 62 255 
0.0109724 0.387042 1.16465 35 36 255 
0.0182956 0.25454 1.1759 31 22 23 
0.0291029 -0.013664 1.19213 59 255 67 
0.0319752 0.0162253 1.19633 255 46 46 
0.0738878 -0.168651 1.27326 254 44 43 
0.077931 -0.189415 1.27995 35 34 32 
0.0306232 0.0844822 1.19194 74 72 73 
0.0316518 0.0353753 1.19252 39 255 59 
0.0661677 -0.0857684 1.24463 21 20 18 
0.034428 0.233365 1.18447 17 19 255 
0.0752507 -0.116169 1.25502 58 255 62 
0.0736702 -0.101515 1.25202 39 255 43 
0.0595188 -0.0464183 1.22359 67 63 255 
0.0564692 -0.0382832 1.21732 54 255 51 
0.0396641 0.242698 1.18487 25 255 46 
0.0391438 0.283322 1.18038 26 27 255 
0.0430735 0.208323 1.18725 31 255 49 
0.051365 0.00926952 1.20291 255 24 20 
0.0364781 0.377974 1.17352 255 44 42 
0.0453733 0.165125 1.18982 41 40 38 
0.077084 -0.08368 1.24593 70 255 60 
0.0531637 0.120219 1.19743 36 255 41 
0.0541657 0.0259601 1.1999 46 255 31 
0.0462364 0.257653 1.18293 43 24 26 
0.0623025 0.0574527 1.20521 255 46 45 
0.0655246 0.0863774 1.20472 22 23 255 
0.0765343 -0.0341534 1.22217 65 63 50 
0.0576458 0.299557 1.18628 45 26 28 
0.0626981 0.231068 1.1953 28 30 255 
0.0659047 0.183185 1.19984 24 255 19 
0.0615504 0.252535 1.19157 24 255 39 
0.0729046 0.0631993 1.21098 24 24 24 
0.0821405 -0.046772 1.22647 76 70 255 
0.0690213 0.160684 1.20168 28 255 34 
0.0776862 0.0934422 1.20931 51 255 7 
0.0698435 0.308008 1.19334 10 254 30 
0.0892847 0.0537913 1.21835 13 11 255 
0.125237 0.207945 1.26691 52 50 53 
0.107909 0.0578247 1.23734 21 21 255 
0.10556 0.0121126 1.2323 255 41 40 
0.114343 0.237683 1.24337 34 33 255 
0.109695 0.028846 1.23481 255 45 44 
0.121543 0.056142 1.24816 17 15 255 
0.11705 0.0419569 1.23982 38 255 36 
0.14747 0.631414 1.21435 254 46 44 
-0.220633 0.592953 1.35681 0 0 0 
-0.202348 -0.00154207 1.39013 0 0 0 
-0.2021 0.484982 1.36166 0 0 0 
-0.195459 0.0500388 1.38538 0 0 0 
-0.198767 0.583782 1.35236 0 0 0 
-0.194372 0.332208 1.36488 0 0 0 
-0.204642 0.461331 1.33436 0 0 0 
-0.198497 0.526953 1.34745 0 0 0 
-0.176536 -0.070494 1.41146 0 0 0 
-0.178966 -0.0585154 1.39979 0 0 0 
-0.198448 0.496011 1.34076 0 0 0 
-0.193124 0.0201111 1.36079 0 0 0 
-0.197278 -0.00353608 1.35058 0 0 0 
-0.190141 0.180517 1.36183 0 0 0 
-0.188405 0.312048 1.35788 0 0 0 
-0.19552 0.523298 1.33243 0 0 0 
-0.195766 0.535915 1.32761 0 0 0 
-0.194269 0.582767 1.32754 0 0 0 
-0.194019 0.55273 1.32337 0 0 0 
-0.184804 0.118575 1.34967 0 0 0 
-0.163994 -0.0992258 1.40206 0 0 0 
-0.183658 0.0897189 1.34939 0 0 0 
-0.183717 0.143406 1.34344 0 0 0 
-0.186455 0.0205967 1.33105 0 0 0 
-0.15946 -0.0999952 1.37912 0 0 0 
-0.183418 -0.0187938 1.31726 0 0 0 
-0.178503 0.127386 1.32238 0 0 0 
-0.143291 -0.242995 1.4102 0 0 0 
-0.175495 -0.0339373 1.31784 0 0 0 
-0.142334 -0.201919 1.39514 0 0 0 
-0.141071 -0.20697 1.38643 0 0 0 
-0.182525 0.480788 1.27247 0 0 0 
-0.179531 0.460895 1.27405 0 0 0 
-0.136883 -0.212875 1.37791 0 0 0 
-0.169845 0.0271347 1.29473 0 0 0 
-0.169631 0.0397 1.29166 0 0 0 
-0.169572 0.260855 1.28679 0 0 0 
-0.138311 -0.158808 1.3624 0 0 0 
-0.140635 -0.141552 1.34296 0 0 0 
-0.163798 0.0106544 1.28225 0 0 0 
-0.162764 0.0464859 1.28143 0 0 0 
-0.162751 0.317521 1.27691 0 0 0 
-0.157408 0.140818 1.28259 0 0 0 
-0.0997212 -0.303385 1.40595 0 0 0 
-0.0981379 -0.314587 1.40781 0 0 0 
-0.102727 -0.296014 1.39699 0 0 0 
-0.156826 -0.0149811 1.26947 0 0 0 
-0.15356 0.287883 1.26606 0 0 0 
-0.165261 0.611783 1.22375 8 7 7 
-0.135567 -0.0699281 1.28062 0 0 0 
-0.142612 0.0171059 1.2579 0 0 0 
-0.142826 0.0415179 1.25644 0 0 0 
-0.140078 0.240141 1.25369 0 0 0 
-0.0538387 -0.44129 1.39743 0 0 0 
-0.127707 0.00256981 1.24512 59 255 66 
-0.113613 -0.0744464 1.26942 0 0 0 
-0.120745 0.111947 1.24548 43 45 130 
-0.0310943 -0.510781 1.42871 0 0 0 
-0.118387 0.0869322 1.24508 56 202 30 
-0.116661 0.00881455 1.23682 254 51 51 
-0.0545435 -0.308727 1.34599 0 0 0 
-0.110472 -0.00718143 1.22752 75 74 72 
-0.0282308 -0.482322 1.38367 0 0 0 
-0.117091 0.536417 1.20228 22 254 20 
-0.0090576 -0.633052 1.41388 0 0 0 
-0.00836339 -0.642984 1.40712 0 0 0 
-0.0953246 0.0931673 1.23007 18 20 254 
-0.0363695 -0.368753 1.3421 0 0 0 
-0.0555914 -0.237015 1.29755 0 0 0 
0.0154974 -0.719239 1.42698 0 0 0 
-0.0703108 -0.122012 1.26131 252 69 70 
0.017933 -0.704633 1.42963 0 0 0 
0.0248524 -0.723066 1.42616 0 0 0 
-0.00995781 -0.446387 1.35802 0 0 0 
-0.00487487 -0.468885 1.36557 0 0 0 
-0.0114144 -0.422665 1.35058 0 0 0 
-0.0137981 -0.408967 1.3452 0 0 0 
0.018824 -0.589621 1.40007 0 0 0 
-0.0162305 -0.36408 1.32845 0 0 0 
-0.073722 0.0929839 1.21989 37 35 36 
-0.0333035 -0.218789 1.27582 70 70 68 
0.00315856 -0.402991 1.34068 0 0 0 
-0.065142 0.120934 1.21525 49 50 254 
-0.0102807 -0.304654 1.30417 0 0 0 
0.0372469 -0.485676 1.37686 0 0 0 
-0.0407533 0.0734507 1.21041 21 20 18 
-0.0406236 0.191326 1.20243 254 9 7 
-0.00681191 -0.182448 1.25848 68 52 53 
-0.0285211 0.058064 1.20146 55 54 52 
-0.0371957 0.466547 1.18017 254 40 38 
-0.0332984 0.31238 1.18677 51 49 254 
-0.0242979 0.18382 1.19201 46 47 254 
-0.0180778 0.136572 1.19565 34 32 255 
-0.00257511 -0.0340739 1.20448 28 24 254 
-0.00216463 0.243253 1.18764 26 27 255 
-0.00376497 0.483335 1.17557 34 32 254 
0.025283 0.0982621 1.19909 255 44 42 
0.0276379 0.109548 1.19825 52 50 51 
0.0653085 -0.106163 1.25249 55 56 255 
0.0366247 -0.0192886 1.20839 26 22 255 
0.0267283 0.311371 1.18856 254 39 38 
0.0354481 0.0735944 1.20119 2 255 12 
0.0352281 0.276816 1.19243 36 254 36 
-0.180831 0.0319835 1.34793 0 0 0 
-0.168999 0.19888 1.28417 0 0 0 
-0.164271 0.154031 1.28016 0 0 0 
-0.162119 0.190403 1.27436 0 0 0 
-0.152554 0.578856 1.20343 0 0 0 
-0.139575 0.494385 1.2063 0 0 0 
-0.132005 0.355659 1.22542 0 0 0 
-0.123938 0.596979 1.17917 1 1 1 
-0.121612 0.0658931 1.23993 0 0 0 
-0.11853 0.476352 1.19875 0 0 0 
-0.109798 0.177488 1.222 0 0 0 
-0.111426 -0.21282 1.31709 0 0 0 
-0.0999346 0.547298 1.17978 148 31 31 
-0.0989932 0.184071 1.21761 0 0 0 
-0.109193 -0.264019 1.34935 0 0 0 
-0.0902786 0.517657 1.17586 27 24 18 
-0.0915188 0.458935 1.19476 0 0 0 
-0.08979 -0.0740486 1.24614 0 0 0 
-0.085999 0.0147063 1.21247 0 0 0 
-0.0819461 0.462299 1.1863 4 5 3 
-0.0845835 -0.208214 1.29487 0 0 0 
-0.07719 -0.0483515 1.22201 0 0 0 
-0.0685493 0.615886 1.1559 2 0 0 
-0.0640103 0.621887 1.13581 0 0 0 
-0.0680909 -0.19469 1.2817 0 0 0 
-0.0583755 -0.207363 1.27668 0 0 0 
-0.05544 -0.389223 1.35403 0 0 0 
-0.0425078 0.621462 1.13225 0 0 0 
-0.0436763 0.475513 1.17205 35 36 254 
-0.0473704 -0.360745 1.33752 0 0 0 
-0.046168 -0.401411 1.35156 0 0 0 
-0.0372746 0.410293 1.16864 254 33 32 
-0.0345035 0.534029 1.16584 55 254 48 
-0.033692 -0.311337 1.30398 0 0 0 
-0.0346924 -0.398175 1.34422 0 0 0 
-0.0248859 0.151237 1.18198 83 254 82 
-0.0225736 0.622061 1.13193 0 0 0 
-0.0218662 -0.144252 1.23856 0 0 0 
-0.0229706 -0.394798 1.33068 0 0 0 
-0.021295 -0.27434 1.28309 0 0 0 
-0.0179372 -0.0518287 1.20239 74 74 254 
-0.0162331 -0.636989 1.42126 0 0 0 
-0.0132599 -0.488128 1.36727 0 0 0 
-0.00881512 -0.121459 1.23411 69 43 44 
-0.00858407 -0.196387 1.25053 0 0 0 
-0.00732539 -0.380946 1.32496 0 0 0 
-0.00568529 0.592871 1.15634 41 40 254 
-0.00137965 0.354109 1.17202 29 29 254 
0.000792525 -0.0924243 1.22751 20 18 19 
0.00439936 -0.629834 1.39157 0 0 0 
0.00475819 -0.334269 1.31389 0 0 0 
0.00513739 0.471589 1.16836 48 46 254 
0.0101654 -0.662771 1.41668 0 0 0 
0.0087017 0.393463 1.17484 24 25 254 
0.0110876 -0.540948 1.37938 0 0 0 
0.00999338 0.410672 1.17505 47 47 47 
0.0124517 -0.331308 1.3073 0 0 0 
0.0132068 0.200542 1.18369 23 24 254 
0.0153167 -0.682569 1.42165 0 0 0 
0.0150658 -0.222544 1.24934 59 253 61 
0.0161401 -0.555468 1.38561 0 0 0 
0.0161642 -0.526253 1.37951 0 0 0 
0.0156909 -0.175395 1.25403 44 43 41 
0.0172074 -0.512429 1.37232 0 0 0 
0.0178237 -0.277079 1.25969 0 0 0 
0.015405 0.456611 1.17306 23 24 254 
0.0190277 -0.386544 1.32954 0 0 0 
0.0164593 0.560142 1.16639 30 28 29 
0.0192237 -0.0744611 1.22432 66 65 63 
0.0185215 0.623193 1.14668 15 15 67 
0.0280517 -0.591478 1.3907 0 0 0 
0.0275791 -0.264745 1.25963 0 0 1 
0.0292442 -0.328501 1.31249 0 0 0 
0.0277237 -0.000391844 1.18876 25 24 22 
0.0310928 -0.552902 1.38962 0 0 0 
0.0318326 -0.19143 1.25893 95 254 92 
0.030293 0.516547 1.17467 52 50 51 
0.0310588 0.36762 1.18056 22 20 21 
0.0297796 0.621563 1.14423 27 26 25 
0.0361055 -0.299213 1.30226 0 0 0 
0.0392865 -0.397916 1.33821 0 0 0 
0.0407384 -0.373482 1.32851 0 0 0 
0.0353038 0.482382 1.17669 254 66 65 
0.0439696 -0.570571 1.41255 0 0 0 
0.0390319 0.0916852 1.19312 40 254 87 
0.0405967 -0.0511188 1.21572 67 63 60 
0.0383607 0.400029 1.17906 25 26 254 
0.0441845 -0.337627 1.31955 0 0 0 
0.0428323 -0.191939 1.25858 37 254 41 
0.0468735 -0.521309 1.39852 0 0 0 
0.0462703 -0.433755 1.35297 0 0 0 
0.0401876 0.389745 1.18226 41 42 254 
0.043018 0.314595 1.185 32 254 48 
0.0447053 0.600562 1.16494 32 254 34 
0.0528803 -0.296118 1.30188 2 2 1 
0.0511458 -0.0874809 1.23647 30 254 24 
0.0491285 0.447835 1.183 28 254 31 
0.0548666 -0.198089 1.26119 42 40 41 
0.0520957 0.273569 1.19051 29 254 35 
0.0516719 0.465466 1.18323 36 34 35 
0.0527549 0.568986 1.17499 40 38 39 
0.0561662 0.062434 1.19219 30 30 254 
0.0549 0.412542 1.18303 42 254 42 
0.0570438 0.15026 1.19688 53 51 52 
0.0633321 -0.185113 1.26666 45 254 43 
0.0592757 0.439705 1.18638 28 27 25 
0.059729 0.543693 1.183 254 29 27 
0.0661391 -0.205195 1.2684 254 60 56 
0.0664319 -0.156586 1.26098 45 43 254 
0.0703619 -0.213234 1.2793 254 51 47 
0.0687678 -0.100151 1.24152 54 53 51 
0.0658641 0.626027 1.15001 62 60 210 
0.0716505 -0.0310961 1.21325 70 67 254 
0.070115 0.332139 1.19581 254 37 33 
0.073894 -0.0829606 1.23932 254 32 30 
0.0702062 0.433485 1.18854 43 41 254 
0.0762284 -0.149656 1.26066 42 254 26 
0.0762146 -0.115843 1.2488 254 105 103 
0.0741362 0.0714082 1.20783 14 14 14 
0.0709687 0.587742 1.17454 44 254 50 
0.0735255 0.289387 1.19302 254 38 36 
0.0727623 0.45043 1.19109 254 65 64 
0.0746459 0.259436 1.19853 31 31 31 
0.0856603 -0.0966158 1.24632 30 29 27 
0.0834831 0.125859 1.21179 61 61 254 
0.084613 0.040418 1.21555 49 254 50 
0.0912572 -0.183292 1.28809 254 44 43 
0.0865295 0.450078 1.2131 62 60 63 
0.100548 -0.345345 1.3869 46 254 72 
0.0886469 0.343689 1.2162 254 28 26 
0.0944014 -0.148807 1.27624 254 39 35 
0.0937104 -0.10539 1.25526 92 91 89 
0.0907241 0.255187 1.22171 34 254 34 
0.0883862 0.512569 1.20094 41 254 39 
0.0912122 0.194431 1.22303 40 254 46 
0.0881336 0.564414 1.19562 35 254 26 
0.0905299 0.388814 1.21585 254 37 35 
0.0923472 0.166601 1.22639 33 31 32 
0.0946183 0.0755662 1.2298 254 54 54 
0.0955257 0.0262164 1.22155 55 254 49 
0.0959644 0.181254 1.22682 38 38 38 
0.0959972 0.403701 1.22263 254 56 55 
0.0973527 0.23821 1.22597 30 30 30 
0.0963786 0.417507 1.21794 41 39 254 
0.0964721 0.48855 1.20626 254 53 51 
0.097438 0.444066 1.21681 254 54 52 
0.0996442 0.22291 1.23101 30 30 32 
0.100659 0.128009 1.23636 29 29 29 
0.105088 -0.139268 1.28685 79 74 255 
0.100465 0.00239375 1.22062 34 35 254 
0.10179 0.157967 1.23244 44 42 43 
0.0994426 0.466977 1.21851 22 20 21 
0.102643 0.0194529 1.22553 62 60 254 
0.105972 0.101976 1.23896 255 28 28 
0.104238 0.389714 1.22635 30 30 254 
0.106367 0.0397253 1.22712 15 16 254 
0.105876 0.267943 1.23309 55 255 59 
0.111049 0.0778659 1.23892 55 255 58 
0.110582 0.207981 1.2381 254 24 24 
0.109614 0.420155 1.22979 36 34 35 
0.112525 0.0915247 1.24142 59 59 255 
0.110679 0.452495 1.22671 254 51 50 
0.113183 0.04776 1.22887 61 57 56 
0.113878 0.217994 1.24205 29 30 255 
0.114596 0.136854 1.24436 32 254 35 
0.115389 0.121155 1.24515 255 27 27 
0.112464 0.474619 1.22501 28 26 27 
0.114834 0.462253 1.23234 11 10 8 
0.115581 0.509021 1.22081 47 45 48 
0.119597 0.151507 1.25017 31 29 30 
0.119313 0.0589561 1.23736 43 43 43 
0.117701 0.422506 1.23927 70 68 69 
0.118286 0.435964 1.23925 35 254 34 
0.1188 0.385737 1.24015 42 254 62 
0.123341 0.0892108 1.25288 255 54 52 
0.120342 0.475123 1.23508 65 64 62 
0.120001 0.499591 1.22444 23 24 254 
0.140733 -0.263469 1.42151 35 31 28 
0.122859 0.569657 1.22639 60 58 59 
0.12903 0.0303998 1.24772 254 44 42 
0.128671 0.0096887 1.2384 40 39 37 
0.127142 0.50811 1.23245 254 37 36 
0.135645 0.111463 1.26928 255 63 63 
0.149417 -0.220453 1.39473 28 27 255 
0.136981 0.0606879 1.26353 52 255 57 
0.136024 0.348709 1.26233 254 41 40 
0.136185 0.388628 1.26145 54 50 49 
0.135827 0.474157 1.25883 47 45 254 
0.154352 0.0901984 1.44579 53 255 60 
0.137296 0.370214 1.26467 57 254 61 
0.144039 0.267865 1.28722 255 47 46 
0.144743 0.0827092 1.27781 69 65 64 
0.15299 -0.126171 1.35607 55 51 48 
0.143803 0.00616134 1.26107 50 48 255 
0.143739 0.426765 1.27127 254 50 49 
0.155229 -0.136221 1.36354 255 59 58 
0.139493 0.628381 1.2266 36 37 254 
0.155083 -0.11467 1.35268 51 52 255 
0.141005 0.596543 1.23173 254 20 18 
0.149291 0.381556 1.28366 32 31 29 
0.151251 0.0239561 1.27418 81 255 69 
0.153961 0.352597 1.31535 255 48 46 
0.153625 0.00541239 1.27119 255 64 63 
0.171362 -0.0772844 1.35673 55 53 255 
0.1591 0.631705 1.21832 80 254 66 
-0.170397 0.124146 1.30101 0 0 0 
-0.162932 0.541254 1.22927 0 0 0 
-0.128148 -0.207751 1.33065 0 0 0 
-0.128721 0.145006 1.24239 0 0 0 
-0.125217 -0.152785 1.30445 0 0 0 
-0.122417 -0.256202 1.35383 0 0 0 
-0.117026 0.603441 1.17615 20 18 139 
-0.110756 0.49627 1.19076 24 137 27 
-0.0864071 0.620483 1.13945 0 0 0 
-0.0563271 -0.398864 1.36219 0 0 0 
-0.0666328 0.575491 1.16079 254 36 32 
-0.0542577 0.308798 1.19273 49 49 254 
-0.044903 -0.227674 1.27923 0 0 0 
-0.0466636 -0.152996 1.25098 0 0 0 
-0.023999 -0.475997 1.3706 0 0 0 
-0.0160487 -0.499187 1.37657 0 0 0 
-0.0256292 0.364674 1.17439 33 34 254 
-0.0259437 0.446477 1.16966 57 55 254 
0.000884998 -0.613555 1.39786 0 0 0 
0.00253964 -0.321528 1.30681 0 0 0 
-0.00909901 0.418389 1.17064 254 46 45 
-0.0074412 0.454791 1.16957 254 54 53 
0.0232548 -0.643603 1.39006 0 0 0 
0.00547069 0.271362 1.17961 25 26 254 
0.00663703 0.29096 1.17815 44 28 29 
0.0382157 0.576515 1.16323 33 31 32 
0.0434691 0.375778 1.18235 42 40 41 
0.0705531 -0.179495 1.26948 78 254 86 
0.0589877 0.56047 1.17865 41 39 40 
-0.17372 0.0594591 1.41682 0 0 0 
-0.163753 0.0606462 1.46521 0 0 0 
-0.133329 0.1717 1.24456 0 0 0 
-0.118245 0.382219 1.211 0 0 0 
-0.0470559 -0.440393 1.37277 0 0 0 
-0.0432399 -0.46083 1.37789 0 0 0 
-0.0570624 0.343338 1.18734 254 58 56 
-0.0316973 -0.455438 1.36813 0 0 0 
-0.00564427 -0.630925 1.37819 0 0 0 
0.0136902 -0.352119 1.31956 0 0 0 
0.0185193 0.0086983 1.19483 38 40 255 
0.0198962 0.369577 1.17464 254 46 46 
0.0307609 -0.0606445 1.22379 60 254 64 
0.024477 0.455993 1.17192 52 254 50 
0.0302691 0.560669 1.16469 55 56 254 
-0.179409 0.591225 1.23131 17 4 4 
-0.134953 0.0634974 1.42201 0 0 0 
-0.0771761 -0.0610829 1.23522 1 1 1 
-0.0407581 -0.305215 1.34348 0 0 0 
-0.0998186 0.0595658 1.47074 0 0 0 
0.0119089 -0.603155 1.42471 0 0 0 
-0.19135 0.495816 1.27771 0 0 0 
-0.173437 0.5425 1.24467 0 0 0 
-0.086534 -0.311332 1.35718 0 0 0 
-0.0819893 -0.278392 1.33393 0 0 0 
-0.0247713 -0.507996 1.39164 0 0 0 
-0.065522 -0.000213333 1.21318 45 44 40 
-0.198119 0.50843 1.33798 0 0 0 
-0.192203 -0.0219412 1.36196 0 0 0 
-0.148277 -0.134033 1.37003 0 0 0 
-0.149749 -0.0959022 1.32449 0 0 0 
-0.130349 -0.197199 1.34427 0 0 0 
-0.0909927 -0.325334 1.39734 0 0 0 
-0.147864 0.328826 1.25454 0 0 0 
-0.144385 0.343225 1.24829 0 0 0 
-0.0776911 -0.359002 1.39552 0 0 0 
-0.128333 0.132099 1.24991 1 3 1 
-0.145819 0.592992 1.20339 43 13 13 
-0.145225 0.607145 1.20325 6 6 5 
-0.135641 0.498096 1.21432 45 254 55 
-0.118707 -0.0186465 1.2401 67 65 66 
-0.117741 0.359729 1.22339 64 67 254 
-0.106057 0.0443935 1.22859 254 90 88 
-0.00784973 -0.526093 1.3885 0 0 0 
-0.0855223 0.336689 1.20749 47 45 46 
-0.302563 0.650753 1.35647 0 0 0 
-0.257479 0.64233 1.35792 0 0 0 
-0.15277 0.0385076 1.49449 0 0 0 
-0.19574 0.0431414 1.41496 0 0 0 
-0.246001 0.637383 1.3303 168 48 46 
-0.187926 0.123051 1.41979 0 0 0 
-0.284712 0.644989 1.27133 0 0 0 
-0.187491 0.180843 1.41599 0 0 0 
-0.186664 0.145099 1.41749 0 0 0 
-0.220609 0.580878 1.35975 0 0 0 
-0.186088 0.0800826 1.41502 0 0 0 
-0.187733 0.134755 1.40733 0 0 0 
-0.200008 -0.0138892 1.38776 0 0 0 
-0.189936 0.177388 1.39706 0 0 0 
-0.213049 0.561034 1.35663 0 0 0 
-0.238594 0.639105 1.31535 71 59 246 
-0.192449 0.112226 1.38964 0 0 0 
-0.191042 -0.0319235 1.39025 0 0 0 
-0.189758 0.122842 1.38678 0 0 0 
-0.187919 0.0832451 1.38942 0 0 0 
-0.194252 0.334122 1.37362 0 0 0 
-0.204376 0.503714 1.355 0 0 0 
-0.19292 0.258922 1.37504 0 0 0 
-0.196709 -0.0151516 1.37558 0 0 0 
-0.185647 -0.0402947 1.38624 0 0 0 
-0.187909 0.101457 1.37494 0 0 0 
-0.19289 0.319518 1.36205 0 0 0 
-0.172583 -0.0712688 1.3962 0 0 0 
-0.155772 -0.141032 1.41984 0 0 0 
-0.200303 0.539545 1.34024 0 0 0 
-0.203797 0.383092 1.32292 0 0 0 
-0.197438 0.491093 1.32688 0 0 0 
-0.195884 0.563448 1.31886 25 24 21 
-0.18854 0.232127 1.33381 0 0 0 
-0.194097 0.508506 1.31786 0 0 0 
-0.194601 0.579758 1.31329 54 46 230 
-0.194738 0.480316 1.3107 0 0 0 
-0.194462 0.511302 1.30682 0 0 0 
-0.196744 0.54358 1.30135 111 3 3 
-0.179971 -0.030365 1.32916 0 0 0 
-0.168999 -0.0549813 1.34205 0 0 0 
-0.137276 -0.259028 1.37759 0 0 0 
-0.176719 0.15781 1.31813 0 0 0 
-0.220496 0.630008 1.25224 57 56 51 
-0.19085 0.519181 1.28455 48 252 49 
-0.155068 -0.0789735 1.32429 0 0 0 
-0.204186 0.623985 1.24277 83 80 75 
-0.0820856 -0.353184 1.40369 0 0 0 
