ply                 
format ascii 1.0    
element vertex 1298
property float x    
property float y    
property float z    
property uchar red  
property uchar green
property uchar blue 
end_header          
-0.110772 -0.229121 1.34392 0 0 0 
-0.0824685 -0.386459 1.41714 0 0 0 
-0.13427 -0.0567397 1.28031 0 0 0 
-0.157593 0.50168 1.21218 24 254 103 
-0.0925101 -0.338421 1.38563 0 0 0 
-0.0873077 -0.363508 1.39627 0 0 0 
-0.147674 0.355326 1.23425 58 244 63 
-0.126386 -0.0782538 1.29117 0 0 0 
-0.0936638 -0.331201 1.37643 0 0 0 
-0.0704887 -0.427797 1.43554 0 0 0 
-0.110358 -0.202333 1.33148 0 0 0 
-0.122026 -0.112176 1.29906 0 0 0 
-0.0771692 -0.393102 1.41102 0 0 0 
-0.135093 0.0249101 1.25869 37 253 94 
-0.1153 -0.142524 1.3064 0 0 0 
-0.135733 0.193376 1.24956 75 253 67 
-0.0912105 -0.31755 1.36662 0 0 0 
-0.0841158 -0.359236 1.38341 0 0 0 
-0.0798806 -0.380326 1.39304 0 0 0 
-0.0911405 -0.288603 1.35987 0 0 0 
-0.0942974 -0.230363 1.33078 0 0 0 
-0.121658 0.0785024 1.25621 38 39 254 
-0.126715 0.166683 1.24093 55 254 57 
-0.0520765 -0.481618 1.4257 0 0 0 
-0.0749167 -0.354199 1.36321 0 0 0 
-0.0681375 -0.37413 1.37938 0 0 0 
-0.10968 -0.0759864 1.27513 49 254 53 
-0.129052 0.352479 1.22126 71 69 70 
-0.134183 0.475717 1.20286 19 19 29 
-0.0916743 -0.171541 1.30533 0 0 0 
-0.108007 -0.0618014 1.26371 63 254 62 
-0.0401941 -0.524286 1.42974 0 0 0 
-0.0592773 -0.385308 1.37666 0 0 0 
-0.0219199 -0.589543 1.46007 0 0 0 
-0.128071 0.502462 1.19308 254 50 49 
-0.0776789 -0.205841 1.31606 0 0 0 
-0.041513 -0.485006 1.4005 0 0 0 
-0.0170143 -0.609051 1.45745 0 0 0 
-0.0653135 -0.318377 1.34084 0 0 0 
-0.0327163 -0.526272 1.41901 0 0 0 
-0.0176952 -0.668619 1.45398 0 0 0 
-0.116957 0.361882 1.21074 254 21 21 
-0.0908178 -0.103123 1.27593 41 37 34 
-0.0982512 -0.0584361 1.25726 51 52 254 
-0.0426436 -0.442412 1.3891 0 0 0 
-0.0927086 -0.0853641 1.26844 64 254 53 
-0.104251 0.105721 1.23665 74 74 254 
-0.0154361 -0.649453 1.44422 0 0 0 
-0.102458 0.0341745 1.23393 254 23 22 
-0.0968708 -0.0547754 1.24643 70 66 67 
1.09594e-06 -0.74657 1.46694 0 0 0 
-0.0635937 -0.272195 1.31337 0 0 0 
-0.0205093 -0.51998 1.41057 0 0 0 
-0.0248466 -0.490184 1.39839 0 0 0 
-0.00556009 -0.384551 1.4385 0 0 0 
-0.0824755 -0.07728 1.26015 78 77 75 
-0.0570473 -0.612598 1.32297 0 0 0 
-0.090105 -0.0345064 1.24166 65 62 57 
-0.108314 0.463217 1.19348 62 254 69 
-0.0928839 0.152797 1.22723 52 48 254 
-0.0631391 -0.183865 1.295 138 17 16 
-0.00298036 -0.650648 1.43387 0 0 0 
-0.0264896 -0.445358 1.37811 0 0 0 
-0.0838273 0.0524443 1.2388 13 13 255 
0.0131886 -0.748715 1.46238 0 0 0 
-0.0778932 -0.0727148 1.25098 254 72 71 
0.0137301 -0.713365 1.46107 0 0 0 
-0.0402065 -0.330285 1.33533 0 0 0 
-0.00709437 -0.523505 1.40731 0 0 0 
0.0120992 -0.677094 1.45053 0 0 0 
-0.096471 0.396728 1.19667 43 254 41 
-0.0658733 -0.124192 1.26873 254 57 55 
0.0184064 -0.76089 1.46088 0 0 0 
-0.0996328 0.489502 1.18569 27 25 254 
-0.0237025 -0.390475 1.35256 0 0 0 
0.000564509 -0.531972 1.40718 0 0 0 
-0.0898978 0.3692 1.19938 36 34 254 
-0.0446061 -0.259065 1.30282 47 189 44 
0.00866971 -0.67216 1.42152 0 0 0 
0.00374176 -0.548358 1.40804 0 0 0 
0.013431 -0.589891 1.42967 0 0 0 
-0.00465665 -0.466642 1.37844 0 0 0 
-0.0570095 -0.128302 1.25833 254 60 59 
0.0167642 -0.663482 1.42289 0 0 0 
-0.0291664 -0.299476 1.31769 2 3 2 
0.0155635 -0.535616 1.41072 0 0 0 
-0.0101518 -0.387871 1.3516 0 0 0 
-0.00597353 -0.406363 1.36077 0 0 0 
-0.0712013 0.249971 1.20513 35 33 34 
0.0465519 -0.668267 1.45844 0 0 0 
-0.019247 -0.285306 1.31454 51 49 228 
-0.0450499 -0.132786 1.25765 69 65 254 
-0.0684677 0.224248 1.20077 82 83 254 
-0.0283588 -0.22765 1.28946 49 45 254 
-0.0095503 -0.266589 1.31201 254 80 79 
-0.015236 -0.253194 1.29475 88 88 78 
-0.0397389 -0.0850288 1.23537 71 254 63 
-0.00490041 -0.276015 1.30672 59 58 56 
-0.0539053 0.331351 1.19109 43 42 40 
-0.0496913 0.223119 1.20026 64 64 62 
-0.0533132 0.315976 1.18707 49 52 255 
0.0247099 -0.356133 1.35065 0 0 0 
-0.0298705 -0.0650465 1.23043 4 5 0 
-0.0532747 0.425625 1.17665 31 254 47 
-0.048499 0.299894 1.18573 255 36 34 
0.0341638 -0.376055 1.35761 1 1 1 
-0.00273736 -0.193314 1.27772 254 25 24 
0.0394661 -0.386863 1.36336 0 0 0 
-0.0441132 0.229773 1.18835 37 38 255 
-0.044918 0.335542 1.1816 28 26 254 
-0.0112192 -0.105944 1.25246 20 254 18 
-0.0189156 -0.063262 1.23323 61 54 254 
0.0419552 -0.354882 1.35393 252 71 67 
0.00859147 -0.237747 1.28163 254 19 19 
-0.000290154 -0.134683 1.25561 67 254 71 
-0.0355861 0.351505 1.18152 255 50 49 
-0.025586 0.132967 1.19783 255 42 41 
0.0646705 -0.329172 1.36978 71 254 85 
0.0245017 -0.255839 1.28807 72 70 254 
0.0300282 -0.196317 1.28994 30 29 27 
0.0298462 -0.181112 1.28836 51 49 254 
0.0254602 -0.242465 1.27963 69 254 65 
-0.0110209 0.142183 1.19967 44 42 45 
-0.0136997 0.184538 1.19084 255 47 43 
-0.00975554 0.0984135 1.19893 255 36 38 
0.0288249 -0.140408 1.27439 254 67 66 
-0.0079881 0.195996 1.19638 10 5 9 
-0.0144747 0.360398 1.1819 55 55 255 
0.0426253 -0.197021 1.29056 55 53 254 
0.00995147 -0.0432222 1.22608 52 255 72 
0.00109257 0.0846985 1.20564 33 31 32 
0.037432 -0.113733 1.27049 61 59 255 
0.0302839 -0.0814246 1.25655 94 89 255 
-0.00333817 0.231042 1.18838 44 43 41 
0.0971495 0.0259951 1.37836 10 8 9 
-0.00101269 0.261559 1.19081 44 42 254 
0.0523696 -0.153771 1.28749 255 53 49 
0.00156363 0.354656 1.18486 255 30 28 
0.0254012 -0.035306 1.23126 53 50 45 
0.0141069 0.0510847 1.20698 10 255 11 
0.00761774 0.303652 1.19145 24 20 17 
0.0475222 -0.109226 1.26724 64 62 255 
0.00387215 0.39695 1.18257 35 36 255 
0.0113768 0.260755 1.19413 31 22 23 
0.0224441 -0.0151145 1.21074 59 255 67 
0.0253842 0.0156371 1.2151 255 46 46 
0.0683267 -0.174886 1.29463 254 44 43 
0.0724765 -0.196312 1.30155 35 34 32 
0.0240117 0.0858664 1.21062 74 72 73 
0.0250613 0.0353411 1.21117 39 255 59 
0.060462 -0.0894201 1.26508 21 20 18 
0.0279598 0.239036 1.20305 17 19 255 
0.0698 -0.120765 1.27585 58 255 62 
0.0681728 -0.105659 1.27274 39 255 43 
0.0536785 -0.0488621 1.24336 67 63 255 
0.0505511 -0.0404782 1.23687 54 255 51 
0.0333584 0.248652 1.20351 25 255 46 
0.0328294 0.290426 1.1989 26 27 255 
0.0368487 0.213293 1.20595 31 255 49 
0.0453488 0.00848084 1.22202 255 24 20 
0.0301074 0.387758 1.19188 255 44 42 
0.0392104 0.168854 1.20858 41 40 38 
0.0717169 -0.0872775 1.26651 70 255 60 
0.0472168 0.122667 1.21645 36 255 41 
0.0482432 0.0256603 1.21895 46 255 31 
0.040133 0.264045 1.20157 43 24 26 
0.0566097 0.058079 1.22449 255 46 45 
0.0599348 0.087855 1.22404 22 23 255 
0.0712343 -0.0362359 1.24203 65 63 50 
0.0518733 0.307201 1.20512 45 26 28 
0.0570434 0.236759 1.21439 28 30 255 
0.0603449 0.187497 1.21908 24 255 19 
0.0558792 0.25884 1.21057 24 255 39 
0.0675405 0.0640049 1.23055 24 24 24 
0.0770053 -0.0492367 1.2465 76 70 255 
0.0635462 0.164343 1.22098 28 255 34 
0.0724634 0.0951425 1.22886 51 255 7 
0.0644161 0.315958 1.21248 10 254 30 
0.0843972 0.0543291 1.23824 13 11 255 
0.121341 0.213265 1.28869 52 50 53 
0.103553 0.0585002 1.25796 21 21 255 
0.101156 0.0114079 1.25274 255 41 40 
0.110163 0.243824 1.26433 34 33 255 
0.105418 0.0286469 1.25536 255 45 44 
0.117596 0.0567779 1.26922 17 15 255 
0.112987 0.0421574 1.26059 38 255 36 
0.144307 0.649324 1.23472 254 46 44 
-0.233071 0.612677 1.38595 0 0 0 
-0.214164 -0.00284646 1.42091 0 0 0 
-0.21378 0.501128 1.39145 0 0 0 
-0.206962 0.0506144 1.41614 0 0 0 
-0.210289 0.603387 1.38183 0 0 0 
-0.205762 0.342924 1.39485 0 0 0 
-0.216464 0.476158 1.36238 0 0 0 
-0.210028 0.544413 1.37653 0 0 0 
-0.187197 -0.074397 1.44426 0 0 0 
-0.189754 -0.0619353 1.43178 0 0 0 
-0.209992 0.512246 1.3694 0 0 0 
-0.204568 0.0195962 1.39003 0 0 0 
-0.208919 -0.00488432 1.37905 0 0 0 
-0.201402 0.185749 1.39149 0 0 0 
-0.199552 0.322004 1.38755 0 0 0 
-0.206942 0.540394 1.36068 0 0 0 
-0.207202 0.553368 1.35559 0 0 0 
-0.205628 0.6019 1.35563 0 0 0 
-0.20538 0.570722 1.35117 0 0 0 
-0.195872 0.121554 1.37863 0 0 0 
-0.174113 -0.104193 1.43457 0 0 0 
-0.194686 0.0916758 1.37832 0 0 0 
-0.194739 0.147245 1.3721 0 0 0 
-0.197652 0.0200996 1.3587 0 0 0 
-0.169426 -0.104907 1.4103 0 0 0 
-0.194517 -0.0206375 1.34412 0 0 0 
-0.18934 0.130594 1.3499 0 0 0 
-0.152482 -0.253509 1.44363 0 0 0 
-0.186263 -0.0363032 1.34494 0 0 0 
-0.151508 -0.210763 1.42768 0 0 0 
-0.150213 -0.215942 1.41844 0 0 0 
-0.193493 0.495553 1.29756 0 0 0 
-0.19038 0.475049 1.29928 0 0 0 
-0.145856 -0.222018 1.4095 0 0 0 
-0.180392 0.026866 1.32074 0 0 0 
-0.18017 0.0398538 1.31752 0 0 0 
-0.180048 0.268475 1.3127 0 0 0 
-0.147376 -0.165848 1.39306 0 0 0 
-0.149854 -0.147848 1.37238 0 0 0 
-0.174117 0.00983461 1.30771 0 0 0 
-0.173029 0.0468676 1.30693 0 0 0 
-0.17294 0.327022 1.30254 0 0 0 
-0.167415 0.144398 1.30843 0 0 0 
-0.106853 -0.316446 1.44032 0 0 0 
-0.105188 -0.328113 1.44234 0 0 0 
-0.11004 -0.30867 1.4307 0 0 0 
-0.166882 -0.0166454 1.29438 0 0 0 
-0.163392 0.296345 1.29129 0 0 0 
-0.175561 0.630229 1.24685 8 7 7 
-0.144703 -0.0734749 1.30665 0 0 0 
-0.152082 0.0165163 1.2826 0 0 0 
-0.152301 0.0417373 1.2811 0 0 0 
-0.149383 0.246982 1.27854 0 0 0 
-0.0587553 -0.460022 1.43244 0 0 0 
-0.136576 0.00150913 1.26953 59 255 66 
-0.121817 -0.0781464 1.29543 0 0 0 
-0.12928 0.114538 1.27024 43 45 130 
-0.0346609 -0.533093 1.46643 0 0 0 
-0.126828 0.0886921 1.26984 56 202 30 
-0.125074 0.00796809 1.26109 254 51 51 
-0.0597223 -0.321655 1.37787 0 0 0 
-0.11865 -0.00854911 1.25144 75 74 72 
-0.0319113 -0.502733 1.41851 0 0 0 
-0.125465 0.552677 1.22541 22 254 20 
-0.0115773 -0.660354 1.4511 0 0 0 
-0.0108893 -0.670554 1.4439 0 0 0 
-0.102801 0.095157 1.25466 18 20 254 
-0.0406745 -0.384058 1.3742 0 0 0 
-0.0610416 -0.246807 1.32658 0 0 0 
0.0143968 -0.750814 1.46577 0 0 0 
-0.0765926 -0.127415 1.288 252 69 70 
0.0169902 -0.735706 1.46869 0 0 0 
0.02427 -0.75495 1.46518 0 0 0 
-0.0128281 -0.465179 1.39181 0 0 0 
-0.00743529 -0.488738 1.39996 0 0 0 
-0.0144019 -0.440403 1.38389 0 0 0 
-0.0169388 -0.426071 1.37812 0 0 0 
0.0177491 -0.615279 1.4373 0 0 0 
-0.019589 -0.379211 1.36031 0 0 0 
-0.080273 0.0949978 1.24452 37 35 36 
-0.0377781 -0.227867 1.30425 70 70 68 
0.000877054 -0.41997 1.37382 0 0 0 
-0.071317 0.123904 1.2399 49 50 254 
-0.0134663 -0.317303 1.33482 0 0 0 
0.0370462 -0.506889 1.41326 0 0 0 
-0.0458426 0.0748578 1.2354 21 20 18 
-0.0457109 0.196735 1.22714 254 9 7 
-0.0100699 -0.190214 1.28672 68 52 53 
-0.0330881 0.0589536 1.22629 55 54 52 
-0.0421483 0.481137 1.20415 254 40 38 
-0.0380876 0.321845 1.211 51 49 254 
-0.0286797 0.188996 1.2166 46 47 254 
-0.0221606 0.14017 1.22054 34 32 255 
-0.00591127 -0.0363519 1.23005 28 24 254 
-0.00550189 0.250577 1.21265 26 27 255 
-0.00717181 0.498844 1.2002 34 32 254 
0.023318 0.100672 1.22527 255 44 42 
0.0257887 0.112364 1.22446 52 50 51 
0.0657514 -0.111308 1.28249 55 56 255 
0.0352621 -0.0210649 1.23524 26 22 255 
0.0248304 0.321311 1.21446 254 39 38 
0.0340004 0.075153 1.22773 2 255 12 
0.0337692 0.285622 1.21872 36 254 36 
-0.190455 0.031489 1.35877 0 0 0 
-0.17814 0.201559 1.29167 0 0 0 
-0.173291 0.155816 1.28736 0 0 0 
-0.171086 0.192845 1.28131 0 0 0 
-0.161201 0.587111 1.20744 0 0 0 
-0.148 0.501305 1.21029 0 0 0 
-0.140321 0.360564 1.23009 0 0 0 
-0.132075 0.604952 1.18204 1 1 1 
-0.129707 0.0659116 1.24486 0 0 0 
-0.126596 0.482833 1.20232 0 0 0 
-0.117688 0.179334 1.2262 0 0 0 
-0.119424 -0.218323 1.32566 0 0 0 
-0.1077 0.554522 1.18256 148 31 31 
-0.106701 0.186 1.22159 0 0 0 
-0.117192 -0.270936 1.3597 0 0 0 
-0.0978878 0.52434 1.17841 27 24 18 
-0.0991515 0.465067 1.19806 0 0 0 
-0.0973118 -0.0764641 1.2511 0 0 0 
-0.0934479 0.0138425 1.21591 0 0 0 
-0.0894253 0.468331 1.18921 4 5 3 
-0.092022 -0.213412 1.30217 0 0 0 
-0.084488 -0.0502537 1.2258 0 0 0 
-0.0758587 0.623597 1.15768 2 0 0 
-0.0712584 0.629182 1.13677 0 0 0 
-0.0752136 -0.199508 1.28828 0 0 0 
-0.0653147 -0.212372 1.28296 0 0 0 
-0.0622515 -0.398909 1.36439 0 0 0 
-0.0494746 0.628678 1.13304 0 0 0 
-0.0505899 0.481495 1.17429 35 36 254 
-0.0540258 -0.369552 1.34694 0 0 0 
-0.0527777 -0.411318 1.36174 0 0 0 
-0.044084 0.415237 1.17062 254 33 32 
-0.0413032 0.540779 1.16789 55 254 48 
-0.0401154 -0.318644 1.31156 0 0 0 
-0.0410646 -0.407885 1.35397 0 0 0 
-0.03144 0.152435 1.18413 83 254 82 
-0.0292793 0.629294 1.13267 0 0 0 
-0.0282117 -0.147829 1.24294 0 0 0 
-0.0291182 -0.404203 1.33962 0 0 0 
-0.0275214 -0.280667 1.28957 0 0 0 
-0.0243069 -0.0537232 1.20516 74 74 254 
-0.0220019 -0.65388 1.43541 0 0 0 
-0.0191059 -0.500241 1.37823 0 0 0 
-0.0149536 -0.12462 1.23829 69 43 44 
-0.0146647 -0.200958 1.25543 0 0 0 
-0.0131648 -0.389972 1.33359 0 0 0 
-0.0121022 0.60031 1.15804 41 40 254 
-0.00764896 0.358284 1.17403 29 29 254 
-0.00520773 -0.0950626 1.2314 20 18 19 
-0.000953984 -0.645742 1.40381 0 0 0 
-0.000874204 -0.342178 1.32196 0 0 0 
-0.00106802 0.477486 1.17039 48 46 254 
0.00503458 -0.680173 1.43049 0 0 0 
0.00258211 0.398286 1.17703 24 25 254 
0.00583433 -0.554525 1.391 0 0 0 
0.00389121 0.415767 1.17729 47 47 47 
0.00695198 -0.339063 1.31499 0 0 0 
0.00721687 0.202521 1.18597 23 24 254 
0.0103318 -0.700595 1.43574 0 0 0 
0.0094004 -0.22756 1.25411 59 253 61 
0.0110266 -0.569527 1.39759 0 0 0 
0.011025 -0.539505 1.39117 0 0 0 
0.0100446 -0.179625 1.25911 44 43 41 
0.0120641 -0.525206 1.38354 0 0 0 
0.0122526 -0.283173 1.2649 0 0 0 
0.00936823 0.462377 1.17528 23 24 254 
0.0137488 -0.395771 1.33841 0 0 0 
0.010398 0.567354 1.16848 30 28 29 
0.0135162 -0.0767852 1.22807 66 65 63 
0.01241 0.630863 1.14801 15 15 67 
0.0232404 -0.606498 1.40294 0 0 0 
0.0221807 -0.270619 1.26485 0 0 1 
0.0241 -0.336282 1.32048 0 0 0 
0.0220051 -0.00146031 1.19095 25 24 22 
0.0263418 -0.56701 1.40186 0 0 0 
0.0264963 -0.195988 1.26423 95 254 92 
0.0244756 0.52329 1.17705 52 50 51 
0.0253 0.372156 1.18297 22 20 21 
0.023816 0.629165 1.14546 27 26 25 
0.0310511 -0.306272 1.30972 0 0 0 
0.0344716 -0.407539 1.34757 0 0 0 
0.0359065 -0.382431 1.33734 0 0 0 
0.0295754 0.488639 1.17911 254 66 65 
0.0396315 -0.585674 1.42624 0 0 0 
0.0334906 0.0920462 1.19565 40 254 87 
0.0352024 -0.0530284 1.2191 67 63 60 
0.0327007 0.405049 1.18144 25 26 254 
0.0393773 -0.345701 1.32792 0 0 0 
0.0376929 -0.196504 1.26387 37 254 41 
0.0425305 -0.534906 1.41138 0 0 0 
0.0416806 -0.444417 1.36315 0 0 0 
0.0345716 0.39466 1.18478 41 42 254 
0.037468 0.318374 1.18751 32 254 48 
0.0390481 0.608395 1.16703 32 254 34 
0.0481566 -0.303117 1.30933 2 2 1 
0.0460323 -0.0900701 1.2408 30 254 24 
0.0436453 0.453688 1.18565 28 254 31 
0.0499592 -0.202789 1.26661 42 40 41 
0.0467195 0.276778 1.19322 29 254 35 
0.0462272 0.471608 1.18592 36 34 35 
0.0472709 0.576582 1.17747 40 38 39 
0.0508898 0.0623433 1.19463 30 30 254 
0.0495105 0.417843 1.18562 42 254 42 
0.0517943 0.15157 1.19969 53 51 52 
0.0586081 -0.189627 1.27239 45 254 43 
0.0539686 0.445503 1.18917 28 27 25 
0.0543972 0.551084 1.1858 254 29 27 
0.0614791 -0.210093 1.27419 254 60 56 
0.0617294 -0.160536 1.26646 45 43 254 
0.0658451 -0.218386 1.28566 254 51 47 
0.0639897 -0.102981 1.24609 54 53 51 
0.0604353 0.633897 1.15149 62 60 210 
0.066749 -0.0326687 1.21654 70 67 254 
0.0650447 0.336368 1.19887 254 37 33 
0.0691906 -0.0854824 1.24381 254 32 30 
0.0650841 0.439238 1.19143 43 41 254 
0.0717032 -0.153479 1.26614 42 254 26 
0.0716134 -0.118987 1.25372 254 105 103 
0.0692316 0.0715039 1.21103 14 14 14 
0.0657594 0.595654 1.17705 44 254 50 
0.0684988 0.292896 1.19589 254 38 36 
0.0676933 0.456505 1.19413 254 65 64 
0.0696729 0.262524 1.2016 31 31 31 
0.0812102 -0.0994067 1.25115 30 29 27 
0.0787517 0.126869 1.21529 61 61 254 
0.0799321 0.0400234 1.21908 49 254 50 
0.0871974 -0.187958 1.295 254 44 43 
0.0818236 0.456579 1.2172 62 60 63 
0.0973942 -0.354648 1.39938 46 254 72 
0.0840079 0.348416 1.22027 254 28 26 
0.0903182 -0.152724 1.28257 254 39 35 
0.0894663 -0.108381 1.26055 92 91 89 
0.0861658 0.258462 1.22591 34 254 34 
0.0836256 0.519892 1.20456 41 254 39 
0.0866764 0.196673 1.22719 40 254 46 
0.0833286 0.572483 1.19907 35 254 26 
0.0859157 0.394312 1.21998 254 37 35 
0.0878566 0.168388 1.23067 33 31 32 
0.0901991 0.0757983 1.2341 254 54 54 
0.0910695 0.0255937 1.22535 55 254 49 
0.0915387 0.183301 1.23116 38 38 38 
0.0915232 0.40958 1.22714 254 56 55 
0.09294 0.241241 1.23036 30 30 30 
0.0918752 0.423542 1.22222 41 39 254 
0.0918837 0.495588 1.2101 254 53 51 
0.0929435 0.450546 1.22109 254 54 52 
0.0953078 0.225721 1.23563 30 30 32 
0.0963877 0.129186 1.24109 29 29 29 
0.101288 -0.143076 1.29378 79 74 255 
0.0960893 0.00137231 1.22434 34 35 254 
0.0975069 0.159649 1.23702 44 42 43 
0.0949931 0.473894 1.22292 22 20 21 
0.0983369 0.0187197 1.22952 62 60 254 
0.101816 0.102706 1.24378 255 28 28 
0.0999343 0.395416 1.23102 30 30 254 
0.102136 0.0393406 1.23124 15 16 254 
0.101662 0.271579 1.2379 55 255 59 
0.106986 0.0781708 1.2437 55 255 58 
0.106494 0.210599 1.24306 254 24 24 
0.10543 0.426467 1.2347 36 34 35 
0.108507 0.0920817 1.24636 59 59 255 
0.106488 0.45933 1.23151 254 51 50 
0.109083 0.0475181 1.2331 61 57 56 
0.109878 0.220828 1.24723 29 30 255 
0.110634 0.138238 1.24953 32 254 35 
0.111449 0.122261 1.25033 255 27 27 
0.10829 0.481818 1.22977 28 26 27 
0.110759 0.469379 1.23745 11 10 8 
0.111426 0.516751 1.22542 47 45 48 
0.115772 0.153195 1.25567 31 29 30 
0.115385 0.0589263 1.24202 43 43 43 
0.113735 0.429038 1.24467 70 68 69 
0.11433 0.442744 1.24467 35 254 34 
0.114864 0.391611 1.24553 42 254 62 
0.119611 0.0897696 1.25842 255 54 52 
0.116388 0.482546 1.24037 65 64 62 
0.115954 0.50724 1.22923 23 24 254 
0.138851 -0.271296 1.43649 35 31 28 
0.118874 0.578615 1.2314 60 58 59 
0.125367 0.0298793 1.2529 254 44 42 
0.124924 0.00879533 1.24306 40 39 37 
0.123289 0.516096 1.23767 254 37 36 
0.132286 0.112509 1.27575 255 63 63 
0.147507 -0.226933 1.40805 28 27 255 
0.1336 0.0607517 1.2696 52 255 57 
0.1326 0.354252 1.26884 254 41 40 
0.132754 0.394927 1.26798 54 50 49 
0.132361 0.482062 1.26537 47 45 254 
0.153042 0.0914482 1.46314 53 255 60 
0.133914 0.376206 1.27134 57 254 61 
0.140998 0.272135 1.29496 255 47 46 
0.14164 0.0832357 1.28471 69 65 64 
0.150799 -0.130146 1.36714 55 51 48 
0.140534 0.00520425 1.26692 50 48 255 
0.140538 0.433984 1.27839 254 50 49 
0.153162 -0.140471 1.37506 255 59 58 
0.135805 0.638442 1.23174 36 37 254 
0.152907 -0.118368 1.36357 51 52 255 
0.137394 0.606162 1.23709 254 20 18 
0.146319 0.38809 1.29141 32 31 29 
0.148245 0.0233401 1.28078 81 255 69 
0.15139 0.359023 1.32487 255 48 46 
0.150639 0.00444106 1.27761 255 64 63 
0.169605 -0.0801597 1.36798 55 53 255 
0.155693 0.64166 1.22309 80 254 66 
-0.179946 0.127559 1.33203 0 0 0 
-0.172043 0.559244 1.25693 0 0 0 
-0.136114 -0.216987 1.36354 0 0 0 
-0.136542 0.14909 1.27094 0 0 0 
-0.133007 -0.159789 1.33605 0 0 0 
-0.130216 -0.26748 1.38796 0 0 0 
-0.124382 0.623115 1.20178 20 18 139 
-0.117902 0.512467 1.21708 24 137 27 
-0.0926353 0.64037 1.16373 0 0 0 
-0.0614664 -0.41605 1.39736 0 0 0 
-0.0722091 0.594227 1.18607 254 36 32 
-0.0593509 0.318631 1.2195 49 49 254 
-0.0495539 -0.237503 1.3102 0 0 0 
-0.0513788 -0.159857 1.28055 0 0 0 
-0.0277994 -0.496507 1.40651 0 0 0 
-0.0195148 -0.520748 1.41287 0 0 0 
-0.0297053 0.376406 1.20051 33 34 254 
-0.0300582 0.46102 1.19557 57 55 254 
-0.00183303 -0.640217 1.43549 0 0 0 
-0.000233441 -0.335278 1.33953 0 0 0 
-0.0126063 0.432012 1.19668 254 46 45 
-0.0109023 0.469681 1.19558 254 54 53 
0.0214953 -0.671509 1.42746 0 0 0 
0.00254426 0.279917 1.20614 25 26 254 
0.00374473 0.300202 1.20462 44 28 29 
0.0363373 0.595741 1.18922 33 31 32 
0.0418839 0.388149 1.20922 42 40 41 
0.0703796 -0.187568 1.30076 78 254 86 
0.0578888 0.579412 1.20544 41 39 40 
-0.183825 0.0604858 1.45121 0 0 0 
-0.173673 0.0617675 1.50221 0 0 0 
-0.141363 0.176513 1.2711 0 0 0 
-0.125731 0.394096 1.23622 0 0 0 
-0.0520226 -0.458597 1.40588 0 0 0 
-0.0480571 -0.479896 1.41128 0 0 0 
-0.0624173 0.353865 1.2119 254 58 56 
-0.0360571 -0.47422 1.40112 0 0 0 
-0.0089238 -0.656785 1.41188 0 0 0 
0.0110591 -0.366572 1.35047 0 0 0 
0.0158901 0.00789625 1.22008 38 40 255 
0.0171657 0.381079 1.19909 254 46 46 
0.028609 -0.0639115 1.25037 60 254 64 
0.021868 0.470411 1.19629 52 254 50 
0.0278118 0.578556 1.18882 55 56 254 
-0.189076 0.609675 1.25589 17 4 4 
-0.143596 0.0646888 1.45698 0 0 0 
-0.0831985 -0.0643395 1.26108 1 1 1 
-0.0454788 -0.31799 1.37536 0 0 0 
-0.107971 0.0601688 1.49052 0 0 0 
0.00724826 -0.622613 1.44447 0 0 0 
-0.210909 0.502055 1.27957 0 0 0 
-0.192566 0.549137 1.24606 0 0 0 
-0.103716 -0.318237 1.36409 0 0 0 
-0.0990467 -0.284501 1.34016 0 0 0 
-0.0401393 -0.519826 1.40161 0 0 0 
-0.0821453 -0.00112376 1.21623 45 44 40 
-0.220541 0.514288 1.33952 0 0 0 
-0.214454 -0.0232963 1.36407 0 0 0 
-0.169491 -0.137147 1.37373 0 0 0 
-0.171027 -0.0982587 1.32659 0 0 0 
-0.151139 -0.201195 1.34757 0 0 0 
-0.110633 -0.332143 1.40378 0 0 0 
-0.169141 0.331831 1.25489 0 0 0 
-0.165587 0.346375 1.24858 0 0 0 
-0.0969474 -0.3665 1.4023 0 0 0 
-0.149153 0.132772 1.25056 1 3 1 
-0.167097 0.598365 1.20262 43 13 13 
-0.166494 0.612678 1.2025 6 6 5 
-0.156682 0.502741 1.21405 45 254 55 
-0.139305 -0.0198295 1.24066 67 65 66 
-0.138353 0.363075 1.22379 64 67 254 
-0.126367 0.0439936 1.22926 254 90 88 
-0.0249248 -0.537383 1.39721 0 0 0 
-0.105377 0.3399 1.2084 47 45 46 
-0.347826 0.641473 1.33559 0 0 0 
-0.302856 0.63406 1.33862 0 0 0 
-0.198184 0.0376899 1.48009 0 0 0 
-0.241062 0.0421759 1.398 0 0 0 
-0.291184 0.62894 1.31133 168 48 46 
-0.233281 0.121441 1.4032 0 0 0 
-0.329331 0.634728 1.25109 0 0 0 
-0.232856 0.178742 1.3994 0 0 0 
-0.232012 0.143305 1.40093 0 0 0 
-0.265956 0.57402 1.34174 0 0 0 
-0.231387 0.078825 1.39844 0 0 0 
-0.233028 0.133011 1.39064 0 0 0 
-0.245164 -0.0143374 1.37042 0 0 0 
-0.235208 0.175221 1.38023 0 0 0 
-0.258356 0.554473 1.33887 0 0 0 
-0.283673 0.630545 1.29662 71 59 246 
-0.237655 0.110613 1.37264 0 0 0 
-0.23617 -0.0322087 1.37325 0 0 0 
-0.234944 0.121134 1.36987 0 0 0 
-0.233091 0.0819118 1.37257 0 0 0 
-0.239492 0.330315 1.35653 0 0 0 
-0.249624 0.497876 1.33751 0 0 0 
-0.238123 0.255862 1.35798 0 0 0 
-0.241784 -0.0155766 1.35828 0 0 0 
-0.230727 -0.0405011 1.36941 0 0 0 
-0.23301 0.0999266 1.358 0 0 0 
-0.238051 0.315774 1.34495 0 0 0 
-0.217637 -0.0712396 1.37991 0 0 0 
-0.200802 -0.140578 1.40435 0 0 0 
-0.245465 0.533201 1.32286 0 0 0 
-0.248781 0.378212 1.30531 0 0 0 
-0.242485 0.485146 1.30953 0 0 0 
-0.240915 0.556623 1.30158 25 24 21 
-0.233474 0.229125 1.3167 0 0 0 
-0.239086 0.502308 1.30062 0 0 0 
-0.239602 0.572694 1.29605 54 46 230 
-0.239672 0.474334 1.29341 0 0 0 
-0.239387 0.504925 1.28954 0 0 0 
-0.241652 0.536725 1.284 111 3 3 
-0.224711 -0.0305898 1.31225 0 0 0 
-0.213757 -0.0549879 1.32556 0 0 0 
-0.181918 -0.257532 1.36238 0 0 0 
-0.221484 0.155598 1.30136 0 0 0 
-0.265116 0.620929 1.23416 57 56 51 
-0.23563 0.512487 1.26738 48 252 49 
-0.199648 -0.0787282 1.30822 0 0 0 
-0.248735 0.615163 1.22524 83 80 75 
-0.126265 -0.351771 1.39074 0 0 0 
-0.233194 0.562468 1.24007 40 40 40 
-0.1187 -0.381394 1.39827 0 0 0 
-0.25197 0.633919 1.21168 69 64 255 
-0.129127 -0.337324 1.37858 0 0 0 
-0.211564 -0.017103 1.26421 254 71 71 
-0.111714 -0.399537 1.39414 0 0 0 
-0.132179 -0.320045 1.36735 0 0 0 
-0.196647 -0.0735604 1.28333 0 0 0 
-0.107232 -0.414985 1.39954 0 0 0 
-0.213267 0.399135 1.25328 59 54 254 
-0.117009 -0.381791 1.38423 0 0 0 
-0.202043 0.157509 1.26335 70 66 63 
-0.107458 -0.406593 1.3874 0 0 0 
-0.112926 -0.390231 1.37876 0 0 0 
-0.114694 -0.378411 1.37202 0 0 0 
-0.149579 -0.247966 1.32729 0 0 0 
-0.0825449 -0.488205 1.40292 0 0 0 
-0.0576412 -0.641914 1.42136 0 0 0 
-0.0594665 -0.563495 1.41627 0 0 0 
-0.11485 -0.351565 1.34469 0 0 0 
-0.104418 -0.379886 1.3495 0 0 0 
-0.183285 0.00542037 1.23675 254 36 35 
-0.0281643 -0.737124 1.42329 0 0 0 
-0.135094 -0.193292 1.28988 1 1 1 
-0.0202793 -0.723638 1.42575 0 0 0 
-0.109192 -0.246179 1.29399 0 0 0 
-0.00807201 -0.573648 1.39119 0 0 0 
-0.0829075 -0.255801 1.2824 75 70 252 
-0.179395 0.610122 1.15884 254 54 54 
-0.138545 0.0143415 1.20808 40 41 255 
-0.144653 0.523158 1.17852 39 47 58 
0.0125874 -0.393379 1.33798 1 1 0 
-0.0513283 0.0687607 1.18579 24 255 16 
-0.140894 0.105737 1.24652 0 0 0 
-0.0647945 0.526981 1.1578 254 55 53 
-0.0263204 0.47261 1.15507 45 254 43 
-0.000849762 0.471761 1.15689 48 46 254 
0.000565012 0.370735 1.1615 254 39 37 
0.0108341 0.387623 1.16417 254 32 31 
0.012408 0.623161 1.13258 15 15 67 
0.0143842 0.281201 1.17099 29 254 48 
0.0148258 0.323137 1.16902 254 44 40 
0.0164028 0.607449 1.14307 254 48 47 
0.0214772 0.164469 1.18085 36 36 254 
0.0247598 0.531117 1.16091 34 35 254 
0.0273974 0.251321 1.1761 254 48 23 
0.0330332 0.441158 1.16631 39 254 40 
0.0354568 0.623275 1.1254 4 4 4 
0.0384326 0.306562 1.17471 43 41 254 
0.0397386 0.0978585 1.18998 76 76 254 
0.0380926 0.504851 1.16661 254 21 19 
0.0382566 0.481919 1.16646 254 41 39 
0.0386652 0.600347 1.15024 32 254 34 
0.0405667 0.359332 1.17327 22 254 24 
0.0488404 0.038398 1.19566 56 52 53 
0.0467593 0.568081 1.15909 40 38 39 
0.0532736 0.0554857 1.19771 20 254 19 
0.0493687 0.622089 1.14755 254 68 66 
0.0636518 0.219558 1.18929 254 27 25 
0.066294 0.331003 1.18566 254 34 30 
0.06477 0.579522 1.16381 46 47 254 
0.0685446 0.149383 1.19881 28 29 254 
0.0758169 0.0701692 1.20607 254 36 36 
0.0764434 0.415639 1.19433 32 254 37 
0.0779307 0.597981 1.16837 254 37 35 
0.0809379 0.449973 1.20005 62 60 63 
0.0809903 0.476475 1.19198 26 27 254 
0.0825694 0.349509 1.20491 30 31 254 
0.083288 0.329944 1.207 28 254 21 
0.0854067 0.255321 1.21175 34 254 34 
0.0870049 0.111093 1.22165 255 33 33 
0.0851313 0.388989 1.20464 254 37 35 
0.0896777 0.0757874 1.22715 254 54 54 
0.0861501 0.470481 1.19819 54 52 53 
0.0894604 0.278581 1.21444 254 32 30 
0.0909378 0.0407526 1.21759 254 55 53 
0.0898735 0.450509 1.20641 254 46 45 
0.0904513 0.402803 1.20828 254 56 55 
0.0931919 0.264223 1.21724 47 255 43 
0.0938938 0.240478 1.2189 254 28 28 
0.0940936 0.389611 1.2117 50 254 58 
0.0964371 0.181939 1.2225 38 36 37 
0.09369 0.534349 1.19675 46 47 254 
0.106441 0.221073 1.22945 16 16 254 
0.106491 0.347333 1.2245 254 6 4 
0.104537 0.55552 1.20414 54 55 254 
0.112462 0.107001 1.24203 255 30 30 
0.110265 0.416451 1.22504 56 55 53 
0.110204 0.510377 1.20973 47 45 48 
0.115706 0.493686 1.21443 254 46 45 
0.12146 0.122357 1.24962 64 62 255 
0.123493 0.364507 1.24024 48 46 254 
0.123133 0.489637 1.22616 56 54 254 
0.123728 0.511032 1.22262 254 47 46 
0.127506 0.348203 1.24831 43 42 40 
0.13553 0.0528692 1.25566 44 45 255 
0.134902 0.362384 1.25618 255 45 44 
0.136792 0.326913 1.27459 255 49 45 
0.138712 0.350981 1.2647 49 47 255 
0.140833 0.184163 1.269 255 31 27 
0.142305 0.0411776 1.26091 58 255 63 
0.147315 0.0574509 1.26687 85 79 81 
-0.0506614 0.491177 1.15904 38 37 35 
-0.0281727 -0.154019 1.24342 76 78 255 
-0.0194322 -0.281181 1.28959 0 0 0 
0.00127483 -0.154893 1.24879 51 254 56 
-0.00284215 0.0555238 1.18738 22 254 23 
0.00994555 -0.22835 1.25825 28 30 254 
0.00235386 0.0447315 1.18734 42 40 255 
0.0269298 -0.185874 1.26055 254 53 52 
0.0358778 -0.196656 1.26291 9 6 254 
0.0478318 -0.302616 1.30753 254 72 68 
0.0437461 -0.163389 1.25974 42 254 44 
0.048188 -0.143611 1.25417 93 91 254 
0.0573205 -0.0871787 1.23711 45 255 49 
0.050462 0.0861685 1.19625 255 21 19 
0.0666666 -0.215833 1.28249 59 55 52 
0.069835 -0.0387721 1.21574 36 33 26 
0.0720509 0.00475847 1.20959 255 47 46 
0.0808501 -0.0189268 1.2122 74 72 73 
0.118271 0.0510313 1.24026 30 255 33 
0.150443 0.0248325 1.27351 49 49 47 
-0.0113572 -0.672947 1.44298 0 0 0 
-0.0138829 0.523495 1.36856 254 43 41 
0.0375452 -0.11857 1.25676 78 255 87 
0.0156893 -0.0023388 1.20417 255 7 6 
-0.0446333 0.0179891 1.37388 51 49 50 
-0.00117992 -0.659088 1.4302 0 0 0 
-0.0599872 0.0481997 1.20494 28 26 255 
-0.0673541 0.0515608 1.2049 71 45 47 
0.0119815 -0.413251 1.38942 0 0 0 
0.0125366 -0.195746 1.25748 33 31 254 
0.0107733 0.387871 1.16555 254 32 31 
0.0153816 0.177911 1.18089 254 21 15 
0.014769 0.323329 1.17005 254 44 40 
0.0212342 -0.347897 1.32169 0 0 0 
0.0218204 -0.220316 1.25822 36 36 34 
0.0223246 0.262696 1.17665 47 21 20 
0.0226587 0.274159 1.17432 41 21 23 
0.0319256 0.471337 1.1644 72 70 71 
0.0489418 0.0382656 1.19694 56 52 53 
0.0577737 0.204042 1.18923 32 254 52 
0.0626678 0.0482311 1.20238 20 254 34 
0.0637371 0.484354 1.17581 29 27 28 
0.0686037 0.149023 1.19863 28 29 254 
0.0762539 0.0836994 1.20706 59 57 58 
0.0874795 0.129989 1.22235 43 43 43 
0.0846168 0.48071 1.19236 51 49 254 
0.0953982 0.140847 1.227 32 30 31 
0.0936114 0.533767 1.19526 46 47 254 
0.109412 0.00191795 1.22497 23 255 25 
0.114158 0.210634 1.23807 77 73 74 
0.115729 0.493738 1.21449 254 46 45 
0.125777 0.0421246 1.24365 75 255 42 
0.127295 0.0201625 1.24565 68 66 255 
0.123112 0.489535 1.22578 56 54 254 
0.131366 -0.030487 1.26214 50 255 56 
0.138174 0.327819 1.27596 11 10 255 
0.142341 0.0411711 1.26086 58 255 63 
0.0331417 -0.162177 1.25804 46 44 254 
0.0609399 0.394783 1.18368 254 54 52 
0.0780223 -0.0735286 1.23654 54 55 255 
-0.164772 -0.271812 1.39071 0 0 0 
-0.0209358 0.284426 1.18465 254 65 64 
-0.0281176 0.486009 1.17191 40 38 254 
0.0559151 -0.367504 1.41455 1 1 2 
-0.051915 0.499454 1.17967 28 26 27 
-0.165531 0.0515822 1.2717 0 0 0 
-0.146494 0.335376 1.24052 0 0 0 
-0.152287 0.219307 1.25723 0 0 0 
-0.146192 0.257309 1.24601 0 0 0 
-0.145204 0.227349 1.24814 0 0 0 
-0.1517 0.0710598 1.26994 0 0 0 
-0.147525 0.0820523 1.2663 0 0 0 
-0.127378 -0.0240239 1.24208 0 0 0 
-0.132022 0.17411 1.24217 0 0 0 
-0.136226 -0.0572597 1.27167 0 0 0 
-0.150245 -0.0812341 1.30012 0 0 0 
-0.159889 -0.117862 1.3215 0 0 0 
-0.104931 0.36856 1.20557 0 0 0 
-0.102039 0.353622 1.20196 0 0 0 
-0.115492 0.0896114 1.24179 0 0 0 
-0.0962701 0.302985 1.20353 0 0 0 
-0.102133 0.194041 1.21936 0 0 0 
-0.159196 -0.144153 1.33472 0 0 0 
-0.101529 0.182945 1.21974 0 0 0 
-0.107381 0.110988 1.23586 0 0 0 
-0.0939399 -0.0262428 1.22002 0 0 0 
-0.0990551 0.21984 1.21725 0 0 0 
-0.0942864 0.235148 1.21128 0 0 0 
-0.106163 -0.0525645 1.24678 0 0 0 
-0.0976295 0.202629 1.22371 0 0 0 
-0.0899205 0.204965 1.21094 0 0 0 
-0.0874296 0.236901 1.20545 0 0 0 
-0.084987 0.318761 1.19745 0 0 0 
-0.0895748 0.0547308 1.21843 0 0 0 
-0.138346 -0.1423 1.31385 0 0 0 
-0.0885162 0.215409 1.21098 0 0 0 
-0.0859291 0.0626423 1.21412 0 0 0 
-0.0884118 0.107969 1.22039 0 0 0 
-0.0874331 0.182972 1.21521 0 0 0 
-0.0791063 -0.0236782 1.2123 0 0 0 
-0.0876931 0.0719509 1.22404 0 0 0 
-0.084126 0.0422799 1.2201 0 0 0 
-0.0811324 0.26489 1.20454 0 0 0 
-0.0816869 0.320906 1.20384 0 0 0 
-0.085655 0.0902399 1.22299 0 0 0 
-0.077312 0.0401237 1.21178 0 0 0 
-0.149511 -0.215956 1.35566 0 0 0 
-0.0846864 0.0844972 1.2289 0 0 0 
-0.164491 -0.275907 1.38809 0 0 0 
-0.0751121 0.284142 1.20288 0 0 0 
-0.120358 -0.160222 1.30547 0 0 0 
-0.0878397 -0.0628464 1.2429 0 0 0 
-0.081096 -0.0610823 1.23427 0 0 0 
-0.0769668 0.0508361 1.22224 0 0 0 
-0.152354 -0.26059 1.375 0 0 0 
-0.0686744 0.204745 1.20617 0 0 0 
-0.130903 -0.209847 1.33917 0 0 0 
-0.0695219 0.193865 1.20923 0 0 0 
-0.0696205 0.224409 1.21304 0 0 0 
-0.0602408 0.0476481 1.20538 0 0 0 
-0.0599811 0.229035 1.19889 0 0 0 
-0.089531 -0.116377 1.2699 0 0 0 
-0.0743704 -0.0739517 1.24042 0 0 0 
-0.080871 -0.103166 1.25686 0 0 0 
-0.065822 0.0573917 1.22202 0 0 0 
-0.112103 -0.194005 1.32095 0 0 0 
-0.0468304 0.330552 1.17629 0 0 0 
-0.0810072 -0.124836 1.26227 0 0 0 
-0.0594169 0.0740853 1.21614 0 0 0 
-0.0597446 -0.069124 1.22412 0 0 0 
-0.0579517 0.0957435 1.21293 0 0 0 
-0.0487884 0.198656 1.19489 0 0 0 
-0.0657384 -0.1057 1.24311 0 0 0 
-0.0444992 0.205361 1.18887 0 0 0 
-0.0388526 0.331746 1.17218 0 0 0 
-0.0447015 0.220599 1.19007 0 0 0 
-0.0722812 -0.140987 1.26202 0 0 0 
-0.0463678 0.130898 1.20149 0 0 0 
-0.0458226 0.179223 1.19878 0 0 0 
-0.0459191 0.0949806 1.20439 0 0 0 
-0.0834227 -0.195837 1.28963 0 0 0 
-0.0388008 0.19727 1.18811 0 0 0 
-0.0346742 0.316669 1.17458 0 0 0 
-0.0412855 0.0911283 1.19865 0 0 0 
-0.0660635 -0.134454 1.25671 0 0 0 
-0.0874584 -0.196689 1.30086 0 0 0 
-0.0440774 0.113327 1.20468 0 0 0 
-0.0548828 -0.103969 1.23588 0 0 0 
-0.0371609 0.228105 1.18768 0 0 0 
-0.0325895 0.3479 1.17423 0 0 0 
-0.0373424 0.214327 1.19011 0 0 0 
-0.0394438 0.0405541 1.2043 0 0 0 
-0.0414132 -0.0653898 1.21425 0 0 0 
-0.0458397 -0.0915726 1.22398 0 0 0 
-0.0312558 0.308066 1.17657 0 0 0 
-0.03605 0.0504276 1.19993 0 0 0 
-0.0316786 0.258951 1.18403 0 0 0 
-0.0750791 -0.20218 1.28955 0 0 0 
-0.024953 0.285455 1.17074 0 0 0 
-0.0239822 0.444907 1.16289 60 60 60 
-0.0244477 0.311358 1.17103 1 0 0 
-0.0323422 0.123157 1.19725 0 0 0 
-0.0391545 -0.0667836 1.22136 0 0 0 
-0.0311127 -0.062391 1.20882 0 0 0 
-0.0495606 -0.147324 1.24982 0 0 0 
-0.0624065 -0.202507 1.27781 0 0 0 
-0.0518142 -0.15667 1.25597 0 0 0 
-0.0254028 0.131472 1.19196 0 0 0 
-0.0239865 0.232644 1.18472 0 0 2 
-0.0183367 0.261707 1.17516 2 2 1 
-0.0605546 -0.212048 1.28083 0 0 0 
-0.0178181 0.304565 1.17254 32 23 110 
-0.025487 0.099718 1.19815 1 1 1 
-0.0224591 0.19271 1.18873 0 0 0 
-0.0471133 -0.171571 1.25572 0 0 0 
-0.0133175 0.43961 1.15967 54 52 53 
-0.0429768 -0.157393 1.24833 0 0 0 
-0.0267305 -0.0542131 1.21172 0 0 0 
-0.0244285 0.0223766 1.20449 48 145 22 
-0.0149979 -0.00991585 1.19075 78 80 251 
-0.0122381 0.335068 1.16818 70 251 78 
-0.0648334 -0.24449 1.30032 0 0 0 
-0.019017 0.216802 1.18779 24 52 20 
-0.0807235 -0.286786 1.33387 0 0 0 
-0.0149561 0.290245 1.17748 52 54 52 
-0.0155413 0.35674 1.17561 54 56 254 
-0.015841 0.0332509 1.19415 11 241 45 
-0.0166151 0.202343 1.18679 40 94 38 
-0.0105501 0.425842 1.16348 59 254 65 
-0.0183125 0.0779485 1.1971 19 16 9 
-0.0209548 0.0433058 1.204 60 243 58 
-0.0103711 0.416528 1.1641 65 254 68 
-0.0106539 0.402247 1.16648 67 67 67 
-0.0156996 0.0141346 1.19712 74 73 71 
-0.0190978 0.109438 1.19874 1 1 1 
-0.073886 -0.295164 1.32687 0 0 0 
-0.0235362 -0.0636405 1.21978 0 0 0 
-0.0620262 -0.270044 1.30769 0 0 0 
-0.0353522 -0.164122 1.25107 0 0 0 
-0.0122911 -0.00125733 1.19889 88 90 254 
-0.080092 -0.329289 1.34901 0 0 0 
-0.0423951 -0.205159 1.26889 0 0 0 
-0.00469459 0.43527 1.16219 35 254 31 
-0.0100185 0.223335 1.18528 66 64 67 
-0.0334972 -0.17459 1.25348 0 0 0 
-0.0110874 0.115778 1.19463 27 31 157 
-0.012009 0.0552864 1.20065 14 253 2 
-0.0384184 -0.226708 1.26857 0 0 0 
-0.0216988 -0.0903746 1.22843 0 0 0 
-0.0307168 -0.149072 1.24938 0 0 0 
-0.00668628 0.122846 1.18921 59 63 240 
-0.0581009 -0.287866 1.3126 0 0 0 
-0.00880016 0.191753 1.19104 250 55 53 
-0.010759 0.104403 1.20047 76 77 81 
-0.0371113 -0.21667 1.27001 0 0 0 
-0.00824993 0.0856904 1.20045 58 60 59 
-0.00740257 0.174638 1.19509 64 66 255 
-0.000555286 -0.020777 1.19195 102 254 101 
-0.00292769 0.0219814 1.19921 254 1 1 
-0.0038041 0.151343 1.19423 252 54 52 
-0.0256047 -0.20832 1.25759 0 0 0 
-0.0180477 -0.126191 1.23835 0 0 0 
-0.00250162 0.0421867 1.19886 59 61 254 
-0.00349976 0.12196 1.1967 53 53 253 
-0.00633091 0.0434625 1.20789 61 254 62 
0.00143998 0.151735 1.18756 254 49 47 
-0.00308114 0.204393 1.19438 28 26 27 
-0.000265061 0.100362 1.19455 44 44 46 
0.000926385 0.23344 1.1868 30 254 34 
-0.0254002 -0.203576 1.26347 0 0 0 
0.00552121 0.350759 1.17265 81 81 83 
-0.000163585 0.110591 1.19728 65 65 67 
-0.0387829 -0.287222 1.29771 0 0 0 
-0.00638594 -0.0591205 1.22232 68 65 73 
0.00526094 -0.00198421 1.19643 86 86 254 
0.00759409 0.301446 1.17536 30 30 254 
0.006508 0.241593 1.18453 23 20 254 
-0.000633938 -0.0565985 1.21683 79 255 77 
0.00835472 0.221932 1.18587 27 27 254 
-0.00495606 -0.0838248 1.23037 14 9 5 
0.00464963 0.0944225 1.20153 74 254 60 
-0.00423226 -0.0895055 1.23813 42 28 29 
0.0134316 0.035599 1.19605 58 58 60 
-0.00735585 -0.205041 1.25309 0 0 0 
0.00122469 -0.0950338 1.23097 11 7 7 
-0.0458119 -0.36195 1.34406 0 0 0 
0.0115566 0.0656618 1.20276 21 21 254 
-0.0250777 -0.291333 1.30064 0 0 0 
-0.0185034 -0.28035 1.28725 0 0 0 
-0.0176315 -0.291914 1.28752 0 0 0 
0.0193584 0.358791 1.17465 46 254 55 
-0.0265456 -0.326416 1.30834 0 0 0 
0.0179736 -0.00224912 1.19841 254 107 107 
0.0161708 0.0499773 1.19934 254 40 38 
0.0201113 0.274672 1.17977 67 63 62 
-0.0313859 -0.339413 1.32168 0 0 0 
0.01363 0.0915217 1.20393 47 47 254 
-0.0189513 -0.307087 1.29565 0 0 0 
0.00183023 -0.131012 1.24267 0 0 0 
0.00369396 -0.100981 1.23868 26 30 35 
0.0156126 0.157786 1.20064 47 48 254 
0.0200077 -0.0260634 1.20163 57 254 76 
-0.0205084 -0.307918 1.3036 0 0 0 
-0.000285193 -0.186382 1.25455 0 0 0 
-0.0539928 -0.449076 1.38299 0 0 0 
-0.0249997 -0.347309 1.31724 0 0 0 
0.0170948 0.0502007 1.20667 51 50 254 
0.0107822 -0.0778063 1.23145 60 58 254 
-0.0117938 -0.288606 1.29241 0 0 0 
0.00826287 -0.112157 1.24033 102 73 77 
0.0227148 0.0341101 1.20313 66 69 254 
-0.0165259 -0.322651 1.30667 0 0 0 
0.00526001 -0.211771 1.25735 0 0 0 
-0.0107364 -0.295592 1.29747 0 0 0 
0.00796652 -0.196764 1.25217 0 0 0 
-0.0105699 -0.308667 1.30024 0 0 0 
-0.0159093 -0.344129 1.31382 0 0 0 
-0.0168779 -0.324206 1.31501 0 0 0 
0.0306348 0.360298 1.17543 54 57 254 
0.0275611 0.195452 1.19225 44 45 254 
-0.0294909 -0.41897 1.34963 0 0 0 
0.0124527 -0.239877 1.25009 0 0 0 
0.00850571 -0.240098 1.25851 0 0 0 
-0.0510518 -0.483877 1.40179 0 0 0 
0.032197 0.373604 1.17507 63 61 62 
0.00987286 -0.179419 1.25453 0 0 0 
-0.0148568 -0.35748 1.31786 0 0 0 
0.0311279 0.425097 1.17503 57 58 254 
0.0302772 0.0918083 1.19708 53 254 54 
0.0279901 0.108847 1.20106 254 50 48 
0.00811099 -0.2299 1.26294 0 0 0 
0.0276115 0.148832 1.19992 254 63 61 
0.0338544 0.38815 1.17457 48 49 255 
0.0298042 0.0805827 1.20374 45 45 47 
0.0367698 -0.00214968 1.19446 70 68 254 
-0.0431182 -0.499085 1.39613 0 0 0 
0.0371725 0.397739 1.1725 254 53 51 
0.0351887 0.0627262 1.19624 254 66 66 
0.0144518 -0.146426 1.25306 1 1 1 
-0.0443321 -0.505973 1.40241 0 0 0 
0.0351851 0.307814 1.18349 33 29 30 
0.0199704 -0.108367 1.24024 61 62 254 
-0.0160725 -0.38572 1.33491 0 0 0 
0.03551 0.283816 1.18475 27 28 254 
-0.0126733 -0.367445 1.32679 0 0 0 
0.0330041 0.249201 1.19352 61 254 68 
0.0389521 0.40861 1.17179 57 254 61 
0.039508 0.433168 1.17031 41 39 40 
-0.00480966 -0.32909 1.31074 0 0 0 
0.0265854 -0.0792338 1.23076 254 89 87 
0.0343848 0.0977049 1.20377 254 47 45 
0.0402265 0.420342 1.1745 48 49 254 
-0.00672002 -0.354468 1.32211 0 0 0 
0.0351999 0.198438 1.19887 27 254 25 
0.0200206 -0.238652 1.25737 0 0 0 
0.00107796 -0.317067 1.30487 0 0 0 
-0.0364833 -0.52667 1.40245 0 0 0 
0.0388224 0.121313 1.20041 254 89 89 
0.0202062 -0.201488 1.26038 0 0 0 
-0.0132076 -0.41939 1.34689 0 0 0 
0.0232234 -0.219562 1.25505 0 0 0 
0.000540892 -0.338245 1.31229 0 0 0 
0.0402568 0.00758175 1.20488 48 44 45 
-0.0155602 -0.413721 1.35241 0 0 0 
0.0228257 -0.250137 1.25955 0 0 0 
0.0400661 0.260485 1.19293 57 254 66 
0.0400675 0.0554195 1.20529 254 17 15 
0.0437517 0.325339 1.18262 39 37 38 
0.0296982 -0.110651 1.239 55 55 57 
-0.00391193 -0.384731 1.33348 0 0 0 
0.0402652 0.126439 1.20577 43 43 45 
0.0361013 -0.0598303 1.22574 40 40 40 
-0.000840957 -0.362885 1.3263 0 0 0 
0.0471393 0.411378 1.17505 54 55 255 
0.0400476 0.179555 1.20488 25 254 32 
0.0361267 -0.0706117 1.22874 118 254 113 
0.0420755 0.153469 1.20349 254 38 38 
0.0259995 -0.177396 1.26012 23 32 187 
0.0451926 0.037929 1.20526 61 62 254 
-0.0286126 -0.554828 1.40797 0 0 0 
0.00486994 -0.375583 1.32357 0 0 0 
0.0105661 -0.31087 1.30692 0 0 0 
0.0322302 -0.141469 1.25028 254 46 44 
0.00669498 -0.35504 1.32089 0 0 0 
0.0472208 0.0859536 1.20495 40 43 254 
0.047074 0.0553463 1.21013 14 12 13 
0.0399048 -0.0871213 1.23588 107 110 254 
0.049949 0.01549 1.20759 70 70 255 
0.0139793 -0.319467 1.30879 0 0 0 
0.0358091 -0.240696 1.25624 0 0 0 
0.0339854 -0.161915 1.25596 255 60 58 
0.0196212 -0.302525 1.30049 0 0 0 
0.0512271 0.105023 1.20488 255 59 57 
0.0484785 -0.0467397 1.22037 254 55 51 
0.0540323 0.301948 1.18956 39 39 255 
-0.0182197 -0.582689 1.40947 0 0 0 
0.0162496 -0.343417 1.32039 0 0 0 
-0.00625266 -0.530557 1.38323 0 0 0 
0.0529087 0.0884123 1.21085 254 33 33 
0.0151526 -0.368288 1.32515 0 0 0 
0.019806 -0.326572 1.31235 0 0 0 
0.0217232 -0.310521 1.30711 0 0 0 
0.00945443 -0.415657 1.34202 0 0 0 
-0.00434247 -0.52056 1.38055 0 0 0 
0.0490897 -0.219499 1.2405 26 156 84 
0.0506126 -0.0565146 1.22772 90 254 85 
0.0395395 -0.191703 1.26136 254 66 65 
0.0568133 0.0617662 1.20725 254 49 49 
0.0151245 -0.379308 1.33039 0 0 0 
0.0408694 -0.201492 1.26241 47 254 54 
0.0384531 -0.229024 1.27022 67 215 45 
0.0586253 0.289014 1.19279 59 255 62 
0.0609738 0.434288 1.17915 254 57 55 
0.0158266 -0.352871 1.33189 0 0 0 
0.0459856 -0.125794 1.24848 33 32 28 
0.0583855 0.127744 1.20729 255 39 37 
0.0580339 0.245218 1.20307 30 33 255 
0.0494747 -0.102432 1.24481 54 254 62 
0.0623836 0.0157651 1.209 255 55 54 
0.0612114 0.258254 1.19886 57 55 58 
0.0252178 -0.351034 1.31971 0 0 0 
0.0347382 -0.293255 1.29439 0 0 0 
0.0485761 -0.143457 1.25323 59 60 254 
-0.00664031 -0.601997 1.41016 0 0 0 
0.0607335 0.108202 1.21031 54 255 50 
0.0618784 0.317648 1.19512 31 255 27 
0.0545901 -0.0933687 1.23747 254 78 76 
0.0595782 0.163409 1.21136 255 59 59 
0.000625199 -0.638427 1.39807 0 0 0 
0.0617345 0.141085 1.20789 55 53 56 
0.00117698 -0.604169 1.3948 0 0 0 
0.034973 -0.306521 1.30277 0 0 0 
0.0587635 0.12375 1.22082 34 32 33 
0.0419112 -0.292693 1.28584 0 0 0 
0.063116 0.184481 1.20703 68 69 255 
0.0221753 -0.396267 1.33856 0 0 0 
0.0666053 0.306029 1.19216 20 21 255 
0.0309765 -0.316025 1.3138 0 0 0 
0.0597102 -0.0679437 1.23237 254 48 46 
0.0341371 -0.320097 1.30819 0 0 0 
0.0678534 0.383642 1.18624 254 66 64 
0.0669771 0.149373 1.2028 254 45 43 
0.0627744 0.142896 1.21451 40 38 41 
0.0661958 0.0554194 1.21268 11 12 254 
0.0665445 -0.0414522 1.21829 90 254 85 
0.0684152 0.0352039 1.21437 255 65 63 
0.0359983 -0.32624 1.31397 0 0 0 
0.0388364 -0.299603 1.30627 0 0 0 
0.0413444 -0.28043 1.30005 0 0 0 
0.0697681 0.093516 1.21121 97 255 59 
0.0674937 0.121549 1.21631 83 79 76 
0.0700341 0.127998 1.20991 84 83 81 
0.0346061 -0.320032 1.3222 0 0 0 
0.0732269 0.397108 1.18659 67 66 64 
0.0296598 -0.40623 1.34023 0 0 0 
0.070184 0.314839 1.19939 83 84 255 
0.0705461 0.137696 1.21209 15 15 15 
0.070071 0.462153 1.19449 56 54 255 
0.0577193 -0.181158 1.26478 49 254 60 
0.0703618 0.305978 1.20467 30 255 35 
0.0727858 0.409787 1.19261 66 255 65 
0.0568557 -0.189978 1.26832 254 35 33 
0.0726158 0.0700234 1.21522 255 86 84 
0.0602371 -0.189665 1.26162 63 61 62 
0.0353456 -0.325037 1.3298 0 0 0 
0.0675195 -0.0875377 1.23774 71 70 68 
0.0735809 0.0837675 1.21353 81 85 255 
0.0723972 0.105756 1.21588 82 255 82 
0.0723893 0.149883 1.21409 31 254 32 
0.0737436 0.347277 1.19847 87 255 75 
0.0396391 -0.347335 1.32454 0 0 0 
0.00571068 -0.680398 1.42757 0 0 0 
0.0616593 -0.160259 1.26152 73 74 254 
0.067725 -0.107185 1.24376 87 86 254 
0.0720137 0.271741 1.2108 36 34 255 
0.0728336 0.282601 1.20879 56 255 64 
0.0718663 0.316037 1.20956 255 82 80 
0.0714443 0.431538 1.2053 61 60 58 
0.0468236 -0.30363 1.31041 0 0 0 
0.0727299 0.36051 1.20664 52 48 47 
0.0461402 -0.324919 1.31399 0 0 0 
0.0616046 -0.208357 1.26984 55 52 254 
0.0743123 0.402972 1.20105 48 46 255 
0.0133128 -0.718883 1.42034 0 0 0 
0.0736912 0.345688 1.20706 61 255 59 
0.0731232 0.217225 1.21685 255 42 40 
0.0729616 0.255795 1.21638 55 54 52 
0.0803589 0.0137631 1.21433 54 55 255 
0.0502254 -0.316684 1.30899 0 0 0 
0.0720192 0.233581 1.22167 62 255 50 
0.0746683 0.155088 1.22044 47 254 46 
0.0751055 0.330994 1.20884 41 255 35 
0.0743132 0.168246 1.22155 254 14 13 
0.0749951 -0.127831 1.23799 254 64 60 
0.0727752 -0.096114 1.24206 254 50 49 
0.0714394 0.205663 1.22689 255 55 53 
0.0463145 -0.318375 1.32173 0 0 0 
0.0754618 0.13002 1.2227 29 27 28 
0.0753105 0.140438 1.22276 50 51 254 
0.0772406 0.380244 1.20373 48 46 255 
0.0767331 0.415466 1.20412 255 43 42 
0.0801852 0.421262 1.19563 254 63 62 
0.0778292 0.0942922 1.22198 255 74 72 
0.0761935 0.106556 1.22554 255 86 86 
0.0635897 -0.218939 1.27696 254 80 76 
0.0557036 -0.295911 1.30135 0 0 0 
0.048854 -0.34339 1.32196 0 0 0 
0.0741974 0.141953 1.23047 53 54 254 
0.0737064 -0.117443 1.24939 254 72 68 
0.0759174 0.130864 1.22952 40 38 39 
0.0742666 0.263787 1.22637 57 58 255 
0.0761458 0.277378 1.22113 36 34 255 
0.0815615 0.449029 1.19806 65 255 61 
0.08158 -0.0638259 1.23125 254 62 60 
0.0799414 0.0666951 1.2285 10 8 9 
0.0792402 0.0956543 1.22909 71 72 255 
0.0710042 -0.185276 1.26818 41 254 52 
0.0807908 0.422137 1.20739 254 69 68 
0.0793549 -0.108269 1.24693 59 254 74 
0.0704829 -0.211509 1.27809 65 64 60 
0.0263393 -0.601284 1.41432 0 0 0 
0.0512935 -0.374875 1.33924 0 0 0 
0.086038 0.0560955 1.22849 51 255 58 
0.0850068 0.326132 1.21641 47 46 44 
0.0834391 0.113527 1.23395 63 63 63 
0.0793656 -0.154831 1.26152 47 43 40 
0.0830953 0.136759 1.23555 73 255 65 
0.0943469 -0.00341081 1.21878 37 37 37 
0.0596592 -0.350245 1.331 0 0 0 
0.0883634 0.385235 1.21152 255 64 63 
0.0871777 0.0758156 1.23465 255 58 54 
0.0744786 -0.221441 1.28608 254 62 59 
0.0726483 -0.238284 1.2925 62 58 55 
0.0504435 -0.427962 1.36195 0 0 0 
0.0900695 0.450257 1.20592 75 73 255 
0.0666163 -0.296543 1.31371 29 31 25 
0.0918866 0.407337 1.20575 255 75 73 
0.064128 -0.314652 1.32352 2 1 2 
0.0901367 0.417474 1.21101 53 49 46 
0.0906228 0.344738 1.21826 48 47 45 
0.0887775 0.227129 1.23143 65 63 64 
0.0960485 0.00962541 1.22683 66 67 255 
0.0912724 0.405154 1.21657 255 45 45 
0.0943876 -0.0752063 1.2421 66 67 254 
0.0908969 0.128495 1.24095 30 29 27 
0.0932633 0.363876 1.21967 36 35 33 
0.0988449 0.0268867 1.22808 5 6 255 
0.0931918 0.10606 1.23847 59 255 59 
0.0980064 0.0390235 1.23049 41 255 44 
0.0927046 -0.113038 1.25761 57 58 254 
0.0753299 -0.278487 1.3142 71 68 254 
0.0941213 0.114797 1.24061 24 255 30 
0.0924702 0.177364 1.2409 49 255 47 
0.0689233 -0.327217 1.33554 2 0 0 
0.0977514 0.410342 1.21212 59 254 69 
0.093218 0.219886 1.23693 255 57 53 
0.0977017 0.446184 1.21156 54 51 46 
0.0970337 0.415993 1.21585 71 69 57 
0.0995317 0.389468 1.21508 53 52 50 
0.0756881 -0.289032 1.32438 63 254 82 
0.0609263 -0.43119 1.38348 0 0 0 
0.101329 0.323653 1.22644 37 255 41 
0.0993657 0.268206 1.23558 255 41 40 
0.099246 0.249716 1.23782 255 77 73 
0.105338 0.0569037 1.23478 255 42 42 
0.100787 0.0987015 1.24472 64 62 65 
0.0819886 -0.272656 1.32048 72 69 254 
0.0993343 0.200865 1.24296 53 52 255 
0.0976894 -0.110904 1.26885 50 254 63 
0.107154 0.0470774 1.23362 46 255 39 
0.103118 0.418478 1.22181 73 72 67 
0.0489406 -0.492052 1.42758 0 0 0 
0.105826 0.0790123 1.24269 69 67 68 
0.102553 0.369241 1.2326 52 50 255 
0.108143 0.0697986 1.24026 33 29 30 
0.113306 0.0608069 1.23753 79 73 73 
0.105374 0.231524 1.24827 60 58 255 
0.0840029 -0.298074 1.34417 48 254 79 
0.0928875 -0.23555 1.31884 83 75 254 
0.108017 0.2009 1.24927 57 255 50 
0.109211 0.107254 1.2527 255 66 64 
0.111018 0.421268 1.22678 254 59 38 
0.111513 0.152078 1.25163 62 63 255 
0.113281 0.440609 1.22988 57 38 34 
0.112039 0.414786 1.2349 51 48 43 
0.112527 0.116079 1.25434 57 56 54 
0.118019 -0.0374738 1.24955 71 71 71 
0.119281 0.0500805 1.24105 35 33 255 
0.113841 0.380115 1.23466 52 255 47 
0.0897041 -0.295322 1.34841 55 254 72 
0.112284 0.312927 1.24444 41 255 48 
0.115809 0.399058 1.23188 67 65 255 
0.0623524 -0.43855 1.43914 1 1 0 
0.113333 0.346261 1.24399 41 255 45 
0.117087 0.0897624 1.25472 84 85 255 
0.122494 0.0584587 1.24208 64 62 255 
0.0820085 -0.381556 1.38656 108 252 109 
0.116332 -0.0655618 1.27034 255 52 52 
0.123857 0.0201316 1.24426 41 41 41 
0.111265 -0.124654 1.29167 69 255 69 
0.118367 0.369341 1.24125 45 43 255 
0.0905177 -0.32781 1.36971 47 254 71 
0.12494 0.0439802 1.24728 255 54 50 
0.107816 -0.190807 1.31747 254 53 49 
0.0880768 -0.366211 1.38859 75 74 72 
0.135381 0.00650414 1.22816 52 53 255 
0.12212 0.351912 1.24642 40 38 255 
0.0912107 -0.347705 1.38465 83 83 254 
0.113051 -0.159577 1.30852 57 55 255 
0.121067 0.366364 1.24887 40 38 255 
0.131664 0.0516936 1.25073 42 40 255 
0.125426 0.406174 1.24385 54 50 255 
0.131502 -0.0322581 1.25904 255 57 55 
0.125747 0.442372 1.24344 68 50 46 
0.13001 0.0596663 1.26041 40 255 42 
0.125646 0.171484 1.26682 255 47 43 
0.127692 0.0938708 1.26709 255 36 34 
0.127107 0.40427 1.24991 83 255 81 
0.127021 0.390592 1.25115 67 255 66 
