ply                 
format ascii 1.0    
element vertex 1300
property float x    
property float y    
property float z    
property uchar red  
property uchar green
property uchar blue 
end_header          
0.101271 0.0284107 1.24406 255 45 44 
0.113301 0.0560525 1.25754 17 15 255 
0.108729 0.0416838 1.24911 38 255 36 
0.139409 0.637856 1.22167 254 46 44 
-0.2273 0.606506 1.38054 0 0 0 
-0.209269 -0.00196522 1.41528 0 0 0 
-0.208401 0.496041 1.38577 0 0 0 
-0.202134 0.0508223 1.41043 0 0 0 
-0.204874 0.59716 1.37616 0 0 0 
-0.20068 0.339632 1.38919 0 0 0 
-0.211185 0.471577 1.3574 0 0 0 
-0.204708 0.538908 1.37105 0 0 0 
-0.182741 -0.072575 1.43772 0 0 0 
-0.185283 -0.0603076 1.42557 0 0 0 
-0.204737 0.507162 1.36412 0 0 0 
-0.199909 0.0201508 1.38492 0 0 0 
-0.204264 -0.00405183 1.37428 0 0 0 
-0.196586 0.184318 1.38606 0 0 0 
-0.194615 0.318958 1.38198 0 0 0 
-0.20173 0.535034 1.3555 0 0 0 
-0.201988 0.547905 1.35051 0 0 0 
-0.200378 0.595882 1.35044 0 0 0 
-0.200188 0.565087 1.34612 0 0 0 
-0.191263 0.120881 1.37349 0 0 0 
-0.169943 -0.102012 1.42809 0 0 0 
-0.190133 0.0913518 1.37321 0 0 0 
-0.190139 0.146273 1.36704 0 0 0 
-0.193209 0.0206009 1.35415 0 0 0 
-0.165409 -0.102797 1.40432 0 0 0 
-0.190222 -0.0197007 1.33989 0 0 0 
-0.184917 0.129816 1.34526 0 0 0 
-0.14884 -0.249276 1.43677 0 0 0 
-0.182106 -0.0351943 1.34058 0 0 0 
-0.147874 -0.207189 1.42114 0 0 0 
-0.146632 -0.212346 1.41211 0 0 0 
-0.188747 0.491041 1.29352 0 0 0 
-0.185695 0.470715 1.29518 0 0 0 
-0.142382 -0.218383 1.40331 0 0 0 
-0.176324 0.0272229 1.31671 0 0 0 
-0.1761 0.0400648 1.31353 0 0 0 
-0.175716 0.266206 1.30848 0 0 0 
-0.14385 -0.163018 1.38721 0 0 0 
-0.14632 -0.145333 1.36701 0 0 0 
-0.170203 0.0103529 1.30386 0 0 0 
-0.169089 0.0469815 1.30303 0 0 0 
-0.168671 0.324125 1.29833 0 0 0 
-0.163432 0.143437 1.30428 0 0 0 
-0.104116 -0.311255 1.43287 0 0 0 
-0.102493 -0.322739 1.43482 0 0 0 
-0.107254 -0.303663 1.42353 0 0 0 
-0.163148 -0.0158707 1.29072 0 0 0 
-0.159331 0.293769 1.2872 0 0 0 
-0.171055 0.624645 1.2433 8 7 7 
-0.141334 -0.0720607 1.30249 0 0 0 
-0.148555 0.0169002 1.27891 0 0 0 
-0.148744 0.0418505 1.2774 0 0 0 
-0.145619 0.244908 1.27456 0 0 0 
-0.0571227 -0.452663 1.42459 0 0 0 
-0.13333 0.00201554 1.26587 59 255 66 
-0.118832 -0.0767165 1.29117 0 0 0 
-0.125997 0.113821 1.26631 43 45 130 
-0.0335721 -0.524175 1.45739 0 0 0 
-0.123615 0.0882471 1.26593 56 202 30 
-0.12201 0.00837917 1.25742 254 51 51 
-0.0579568 -0.316699 1.3712 0 0 0 
-0.115723 -0.00798487 1.24788 75 74 72 
-0.0308719 -0.494758 1.41064 0 0 0 
-0.121787 0.547616 1.22166 22 254 20 
-0.0111373 -0.6495 1.44226 0 0 0 
-0.0104813 -0.659627 1.43526 0 0 0 
-0.0999728 0.0945877 1.25068 18 20 254 
-0.0393468 -0.378215 1.3674 0 0 0 
-0.0592176 -0.243167 1.32099 0 0 0 
0.0141684 -0.738132 1.45622 0 0 0 
-0.0744041 -0.125436 1.2833 252 69 70 
0.0167268 -0.723209 1.459 0 0 0 
0.0238223 -0.742131 1.4555 0 0 0 
-0.0121296 -0.457924 1.38426 0 0 0 
-0.00687131 -0.481036 1.39216 0 0 0 
-0.0136429 -0.433585 1.37652 0 0 0 
-0.0161146 -0.419519 1.37092 0 0 0 
0.0176331 -0.605109 1.4283 0 0 0 
-0.0186603 -0.373475 1.35351 0 0 0 
-0.0778054 0.094379 1.24042 37 35 36 
-0.0363575 -0.224551 1.29878 70 70 68 
0.00136194 -0.413472 1.36644 0 0 0 
-0.0689561 0.122949 1.23572 49 50 254 
-0.0125827 -0.312583 1.32843 0 0 0 
0.036676 -0.498568 1.40445 0 0 0 
-0.0439508 0.0743853 1.23103 21 20 18 
-0.0436696 0.19492 1.22276 254 9 7 
-0.0090972 -0.187424 1.28117 68 52 53 
-0.0314286 0.0586301 1.22194 55 54 52 
-0.0398062 0.476352 1.19976 254 40 38 
-0.036014 0.318688 1.20665 51 49 254 
-0.0269256 0.187225 1.21219 46 47 254 
-0.0205731 0.138916 1.21604 34 32 255 
-0.00482145 -0.0356208 1.22539 28 24 254 
-0.00403969 0.248046 1.20794 26 27 255 
-0.00535061 0.493657 1.19541 34 32 254 
0.0240967 0.0997513 1.22013 255 44 42 
0.0265406 0.1113 1.21929 52 50 51 
0.0654343 -0.109514 1.27588 55 56 255 
0.0356643 -0.0205386 1.22991 26 22 255 
0.0258853 0.317837 1.20922 254 39 38 
0.034559 0.074512 1.22244 2 255 12 
0.0346222 0.282504 1.21333 36 254 36 
-0.188918 0.0316486 1.34859 0 0 0 
-0.176973 0.199183 1.28352 0 0 0 
-0.17225 0.15412 1.27935 0 0 0 
-0.170073 0.190625 1.27345 0 0 0 
-0.160328 0.580151 1.20146 0 0 0 
-0.147349 0.495366 1.20424 0 0 0 
-0.139806 0.356257 1.22355 0 0 0 
-0.131642 0.598044 1.17663 1 1 1 
-0.129517 0.0655229 1.23802 0 0 0 
-0.126257 0.477173 1.19643 0 0 0 
-0.11763 0.177428 1.21979 0 0 0 
-0.119342 -0.21428 1.31648 0 0 0 
-0.107599 0.548168 1.17711 148 31 31 
-0.106796 0.184008 1.21528 0 0 0 
-0.117081 -0.265815 1.3494 0 0 0 
-0.0979412 0.51838 1.17305 27 24 18 
-0.0991838 0.459629 1.19223 0 0 0 
-0.0976645 -0.0748822 1.24408 0 0 0 
-0.0938735 0.0141282 1.20982 0 0 0 
-0.0895993 0.462925 1.18359 4 5 3 
-0.0924276 -0.209596 1.29367 0 0 0 
-0.0850599 -0.0491033 1.21946 0 0 0 
-0.0761425 0.616691 1.15274 2 0 0 
-0.0716353 0.622486 1.1323 0 0 0 
-0.0758941 -0.195991 1.28016 0 0 0 
-0.0661642 -0.208696 1.27498 0 0 0 
-0.0631447 -0.391606 1.35385 0 0 0 
-0.050101 0.622 1.12861 0 0 0 
-0.051259 0.476022 1.16895 35 36 254 
-0.0550627 -0.362914 1.33696 0 0 0 
-0.0538446 -0.403834 1.35127 0 0 0 
-0.0448929 0.410582 1.1654 254 33 32 
-0.0420444 0.534652 1.16266 55 254 48 
-0.0413876 -0.313146 1.30268 0 0 0 
-0.0423359 -0.400541 1.34374 0 0 0 
-0.0326061 0.15091 1.17869 83 254 82 
-0.0301306 0.62258 1.12821 0 0 0 
-0.029604 -0.145316 1.23604 0 0 0 
-0.0306013 -0.39707 1.32985 0 0 0 
-0.0289827 -0.275934 1.28134 0 0 0 
-0.0257139 -0.0526153 1.19925 74 74 254 
-0.0237158 -0.641087 1.42233 0 0 0 
-0.0207974 -0.491045 1.36716 0 0 0 
-0.0165155 -0.12246 1.23148 69 43 44 
-0.0162811 -0.197634 1.24816 0 0 0 
-0.0149008 -0.383138 1.32397 0 0 0 
-0.013151 0.593558 1.15296 41 40 254 
-0.00894517 0.354242 1.16867 29 29 254 
-0.00688412 -0.0933434 1.22475 20 18 19 
-0.00306886 -0.633596 1.39184 0 0 0 
-0.00277462 -0.336232 1.31267 0 0 0 
-0.00234556 0.472025 1.16504 48 46 254 
0.00279275 -0.666959 1.41753 0 0 0 
0.00119571 0.39372 1.17155 24 25 254 
0.00367053 -0.544208 1.37943 0 0 0 
0.00250336 0.410981 1.17179 47 47 47 
0.00492723 -0.333231 1.30591 0 0 0 
0.00560911 0.200321 1.18037 23 24 254 
0.0079757 -0.686908 1.42259 0 0 0 
0.00741615 -0.223874 1.24685 59 253 61 
0.00876008 -0.558851 1.38578 0 0 0 
0.00878252 -0.529454 1.37957 0 0 0 
0.00809308 -0.176606 1.25167 44 43 41 
0.00981388 -0.515509 1.37221 0 0 0 
0.0101821 -0.278604 1.25734 0 0 0 
0.00795226 0.457036 1.16979 23 24 254 
0.0115721 -0.388802 1.32857 0 0 0 
0.00905729 0.560821 1.1631 30 28 29 
0.0115972 -0.0753409 1.22147 66 65 63 
0.0110957 0.623853 1.1431 15 15 67 
0.0207246 -0.595077 1.39093 0 0 0 
0.0199758 -0.266241 1.25727 0 0 1 
0.0218061 -0.330453 1.31117 0 0 0 
0.0200357 -0.00108992 1.18531 25 24 22 
0.0238042 -0.556321 1.38986 0 0 0 
0.0242921 -0.192713 1.25662 95 254 92 
0.0229255 0.517165 1.17145 52 50 51 
0.0236094 0.367833 1.17731 22 20 21 
0.0223676 0.622189 1.14058 27 26 25 
0.0286745 -0.301014 1.30074 0 0 0 
0.0319422 -0.400288 1.33738 0 0 0 
0.0333784 -0.3757 1.32748 0 0 0 
0.0279322 0.482909 1.17347 254 66 65 
0.0368286 -0.574297 1.41331 0 0 0 
0.0314527 0.0912025 1.1898 40 254 87 
0.0330095 -0.0519459 1.21269 67 63 60 
0.0309463 0.400322 1.17579 25 26 254 
0.0368279 -0.339661 1.31835 0 0 0 
0.0353249 -0.19323 1.25624 37 254 41 
0.0397251 -0.524674 1.39897 0 0 0 
0.0389919 -0.436376 1.35243 0 0 0 
0.0327835 0.390031 1.17903 41 42 254 
0.0355771 0.314677 1.18175 32 254 48 
0.0373955 0.601346 1.1616 32 254 34 
0.045514 -0.297919 1.30032 2 2 1 
0.0436477 -0.0884289 1.23377 30 254 24 
0.0417933 0.448303 1.17984 28 254 31 
0.0474043 -0.199415 1.25888 42 40 41 
0.0446712 0.27356 1.1873 29 254 35 
0.0443576 0.465993 1.18008 36 34 35 
0.0454847 0.569771 1.17179 40 38 39 
0.0486018 0.061868 1.1888 30 30 254 
0.0475536 0.412899 1.17982 42 254 42 
0.0495677 0.14993 1.19366 53 51 52 
0.0559318 -0.186421 1.26445 45 254 43 
0.0519762 0.440173 1.18325 28 27 25 
0.0524937 0.544473 1.1799 254 29 27 
0.0587409 -0.206574 1.26621 254 60 56 
0.0590379 -0.157793 1.25868 45 43 254 
0.0630223 -0.214677 1.27732 254 51 47 
0.0613355 -0.101154 1.23888 54 53 51 
0.0585596 0.626724 1.14639 62 60 210 
0.064149 -0.0318909 1.21013 70 67 254 
0.0628064 0.332331 1.19272 254 37 33 
0.0664803 -0.0839141 1.23665 254 32 30 
0.0629421 0.433949 1.18542 43 41 254 
0.0688711 -0.150847 1.25835 42 254 26 
0.0688275 -0.116908 1.24628 254 105 103 
0.0666947 0.0708808 1.20471 14 14 14 
0.06376 0.588585 1.17132 44 254 50 
0.0661809 0.289432 1.18984 254 38 36 
0.06553 0.45097 1.18803 254 65 64 
0.0673069 0.259418 1.19542 31 31 31 
0.0783065 -0.0976262 1.24376 30 29 27 
0.0761292 0.125491 1.20879 61 61 254 
0.0772134 0.0398099 1.21253 49 254 50 
0.0840611 -0.184675 1.2863 254 44 43 
0.0794445 0.450797 1.21044 62 60 63 
0.0937667 -0.347835 1.38719 46 254 72 
0.0815005 0.344044 1.21349 254 28 26 
0.0871851 -0.150043 1.27423 254 39 35 
0.0864207 -0.106446 1.25286 92 91 89 
0.083542 0.255265 1.21902 34 254 34 
0.0812965 0.513412 1.19811 41 254 39 
0.08399 0.19431 1.22031 40 254 46 
0.0810575 0.565395 1.19274 35 254 26 
0.0834232 0.389328 1.21318 254 37 35 
0.0851236 0.166399 1.2237 33 31 32 
0.0873471 0.0750783 1.22708 254 54 54 
0.0881764 0.0255677 1.21862 55 254 49 
0.0887666 0.181102 1.22416 38 38 38 
0.0889554 0.404321 1.22011 254 56 55 
0.0902005 0.238249 1.22334 30 30 30 
0.0893242 0.418142 1.21533 41 39 254 
0.0894158 0.489353 1.2035 254 53 51 
0.0904031 0.444792 1.21421 254 54 52 
0.0925129 0.222916 1.22847 30 30 32 
0.0934833 0.127705 1.23382 29 29 29 
0.0979753 -0.140501 1.28506 79 74 255 
0.0931073 0.00167317 1.21764 34 35 254 
0.0946212 0.157753 1.22985 44 42 43 
0.0924419 0.467806 1.21597 22 20 21 
0.09533 0.0187836 1.22266 62 60 254 
0.0988064 0.101588 1.23644 255 28 28 
0.097232 0.390307 1.22387 30 30 254 
0.0990911 0.0391164 1.2243 15 16 254 
0.0988134 0.26812 1.23063 55 255 59 
0.103882 0.0773936 1.23637 55 255 58 
0.103515 0.207961 1.23567 254 24 24 
0.102671 0.420893 1.22741 36 34 35 
0.105387 0.091103 1.23894 59 59 255 
0.10375 0.453337 1.2243 254 51 50 
0.105944 0.0471742 1.22609 61 57 56 
0.106851 0.218026 1.23971 29 30 255 
0.107518 0.136597 1.24198 32 254 35 
0.108306 0.120844 1.24277 255 27 27 
0.10555 0.475536 1.2226 28 26 27 
0.107958 0.463183 1.23005 11 10 8 
0.108684 0.51004 1.21834 47 45 48 
0.112581 0.151319 1.24792 31 29 30 
0.112149 0.0584142 1.23474 43 43 43 
0.110841 0.423327 1.23708 70 68 69 
0.111439 0.436842 1.23707 35 254 34 
0.111919 0.386414 1.23794 42 254 62 
0.116302 0.088799 1.25062 255 54 52 
0.113513 0.476131 1.23287 65 64 62 
0.113132 0.500607 1.22203 23 24 254 
0.134447 -0.265734 1.42276 35 31 28 
0.11607 0.570986 1.22409 60 58 59 
0.121936 0.02977 1.24529 254 44 42 
0.121505 0.00898303 1.23575 40 39 37 
0.120353 0.509238 1.23021 254 37 36 
0.128767 0.111167 1.26738 255 63 63 
0.143063 -0.222386 1.39534 28 27 255 
0.130032 0.0601825 1.26145 52 255 57 
0.129308 0.349382 1.26054 254 41 40 
0.129498 0.389472 1.25968 54 50 49 
0.129195 0.475372 1.2571 47 45 254 
0.148609 0.0901658 1.44815 53 255 60 
0.130616 0.370997 1.26295 57 254 61 
0.137435 0.268313 1.28588 255 47 46 
0.137928 0.0823112 1.27606 69 65 64 
0.146505 -0.127517 1.35585 55 51 48 
0.136821 0.00544787 1.25888 50 48 255 
0.137173 0.427859 1.26974 254 50 49 
0.148793 -0.137633 1.36349 255 59 58 
0.132819 0.629974 1.22435 36 37 254 
0.148599 -0.115955 1.3524 51 52 255 
0.134341 0.598055 1.22956 254 20 18 
0.142787 0.382527 1.28236 32 31 29 
0.144393 0.0233146 1.27228 81 255 69 
0.147649 0.353639 1.31474 255 48 46 
0.146743 0.0046958 1.26921 255 64 63 
0.165028 -0.0783992 1.35659 55 53 255 
0.15246 0.633236 1.21591 80 254 66 
-0.17861 0.126112 1.32122 0 0 0 
-0.170822 0.551016 1.24691 0 0 0 
-0.135651 -0.212614 1.35237 0 0 0 
-0.136145 0.147275 1.2612 0 0 0 
-0.132657 -0.156489 1.32542 0 0 0 
-0.129802 -0.262119 1.37623 0 0 0 
-0.12407 0.61411 1.19247 20 18 139 
-0.117719 0.505049 1.20762 24 137 27 
-0.0929195 0.631289 1.15494 0 0 0 
-0.0623591 -0.40798 1.3852 0 0 0 
-0.0727736 0.585578 1.17679 254 36 32 
-0.0602233 0.314078 1.21001 49 49 254 
-0.050747 -0.233022 1.29979 0 0 0 
-0.0525584 -0.156772 1.27069 0 0 0 
-0.029345 -0.486894 1.39404 0 0 0 
-0.0212188 -0.51063 1.40022 0 0 0 
-0.0310559 0.370939 1.19111 33 34 254 
-0.0313577 0.45424 1.18609 57 55 254 
-0.00391025 -0.627681 1.42236 0 0 0 
-0.0022946 -0.328963 1.32828 0 0 0 
-0.0142019 0.425633 1.18714 254 46 45 
-0.0125039 0.4627 1.18596 254 54 53 
0.0189396 -0.658447 1.41446 0 0 0 
0.000621714 0.275874 1.19663 25 26 254 
0.00181286 0.295838 1.19509 44 28 29 
0.0340297 0.586597 1.17916 33 31 32 
0.0393793 0.382244 1.19915 42 40 41 
0.0671055 -0.183954 1.28968 78 254 86 
0.0552201 0.570319 1.19491 41 39 40 
-0.181939 0.0602005 1.4376 0 0 0 
-0.171749 0.0614632 1.48714 0 0 0 
-0.14087 0.174249 1.26118 0 0 0 
-0.125457 0.388406 1.22642 0 0 0 
-0.0530819 -0.449737 1.39369 0 0 0 
-0.0491896 -0.470611 1.39898 0 0 0 
-0.0632578 0.348734 1.20226 254 58 56 
-0.0374297 -0.465105 1.38898 0 0 0 
-0.010889 -0.644318 1.39974 0 0 0 
0.00880064 -0.35966 1.33901 0 0 0 
0.0135739 0.00810918 1.2106 38 40 255 
0.0150156 0.375338 1.18913 254 46 46 
0.02608 -0.0625055 1.24034 60 254 64 
0.0196873 0.463214 1.18615 52 254 50 
0.0255825 0.569612 1.17853 55 56 254 
-0.18761 0.601914 1.24867 17 4 4 
-0.142382 0.0643907 1.44561 0 0 0 
-0.0836972 -0.0629303 1.254 1 1 1 
-0.0464468 -0.312249 1.36578 0 0 0 
-0.108163 0.0600982 1.48517 0 0 0 
0.00625718 -0.613841 1.44076 0 0 0 
-0.203955 0.500537 1.28429 0 0 0 
-0.185843 0.54752 1.25079 0 0 0 
-0.0982795 -0.315468 1.36701 0 0 0 
-0.0937033 -0.282096 1.34331 0 0 0 
-0.0355788 -0.514954 1.40307 0 0 0 
-0.0770555 -0.000780899 1.22029 45 44 40 
-0.210932 0.5136 1.34545 0 0 0 
-0.205502 -0.0225119 1.37027 0 0 0 
-0.161021 -0.135915 1.37909 0 0 0 
-0.162644 -0.0973382 1.33255 0 0 0 
-0.142997 -0.199796 1.35302 0 0 0 
-0.102932 -0.329664 1.40781 0 0 0 
-0.160429 0.331675 1.26105 0 0 0 
-0.1569 0.346198 1.25472 0 0 0 
-0.0894514 -0.363783 1.40613 0 0 0 
-0.140867 0.132939 1.25667 1 3 1 
-0.158192 0.598179 1.20887 43 13 13 
-0.157572 0.612476 1.20872 6 6 5 
-0.147941 0.502464 1.22015 45 254 55 
-0.131327 -0.0193513 1.24688 67 65 66 
-0.129905 0.36281 1.22967 64 67 254 
-0.118432 0.0442985 1.23529 254 90 88 
-0.0185756 -0.533247 1.39994 0 0 0 
-0.0972462 0.33954 1.2139 47 45 46 
-0.32898 0.648155 1.35159 0 0 0 
-0.283847 0.640049 1.35367 0 0 0 
-0.179335 0.0384933 1.49296 0 0 0 
-0.222489 0.0430229 1.4123 0 0 0 
-0.27232 0.634986 1.32613 168 48 46 
-0.214579 0.122756 1.41721 0 0 0 
-0.310993 0.641893 1.26653 0 0 0 
-0.214093 0.180409 1.41334 0 0 0 
-0.213293 0.14475 1.41489 0 0 0 
-0.246946 0.579019 1.35606 0 0 0 
-0.212771 0.0798763 1.41247 0 0 0 
-0.214373 0.134405 1.40467 0 0 0 
-0.22681 -0.0138873 1.38496 0 0 0 
-0.216545 0.176906 1.39428 0 0 0 
-0.239379 0.559253 1.35305 0 0 0 
-0.264878 0.636641 1.31124 71 59 246 
-0.21912 0.11189 1.38685 0 0 0 
-0.217832 -0.0318797 1.3876 0 0 0 
-0.21641 0.122473 1.38401 0 0 0 
-0.2146 0.0829851 1.38672 0 0 0 
-0.220731 0.333145 1.37056 0 0 0 
-0.230729 0.502133 1.35158 0 0 0 
-0.21946 0.258156 1.37206 0 0 0 
-0.223497 -0.0151588 1.37277 0 0 0 
-0.212425 -0.040237 1.38365 0 0 0 
-0.214568 0.101121 1.37216 0 0 0 
-0.219371 0.318537 1.35897 0 0 0 
-0.199344 -0.0711462 1.39387 0 0 0 
-0.182527 -0.140788 1.41793 0 0 0 
-0.2266 0.537791 1.3368 0 0 0 
-0.230229 0.381712 1.31951 0 0 0 
-0.223758 0.489419 1.32348 0 0 0 
-0.222128 0.561511 1.3154 25 24 21 
-0.215066 0.231306 1.33076 0 0 0 
-0.220383 0.506743 1.31447 0 0 0 
-0.220821 0.577742 1.30982 54 46 230 
-0.221045 0.478598 1.3073 0 0 0 
-0.220737 0.509463 1.30339 0 0 0 
-0.222991 0.541593 1.29785 111 3 3 
-0.206695 -0.0303767 1.32643 0 0 0 
-0.195714 -0.0549248 1.33953 0 0 0 
-0.164053 -0.258535 1.37582 0 0 0 
-0.203261 0.157191 1.31525 0 0 0 
-0.246663 0.627256 1.24829 57 56 51 
-0.217083 0.517205 1.28112 48 252 49 
-0.181743 -0.0788727 1.32193 0 0 0 
-0.230303 0.621299 1.23902 83 80 75 
-0.108653 -0.352788 1.40292 0 0 0 
-0.214727 0.567798 1.25365 40 40 40 
-0.101146 -0.382427 1.41029 0 0 0 
-0.233599 0.640399 1.22546 69 64 255 
-0.111523 -0.338382 1.39087 0 0 0 
-0.193785 -0.0168847 1.27809 254 71 71 
-0.0942438 -0.400626 1.40604 0 0 0 
-0.114576 -0.32112 1.37974 0 0 0 
-0.178861 -0.0737345 1.29698 0 0 0 
-0.0897941 -0.416056 1.41132 0 0 0 
-0.194946 0.40276 1.26668 59 54 254 
-0.0995161 -0.382923 1.39627 0 0 0 
-0.184019 0.159079 1.27682 70 66 63 
-0.090047 -0.407735 1.39924 0 0 0 
-0.0954875 -0.391414 1.39075 0 0 0 
-0.097252 -0.37961 1.38406 0 0 0 
-0.131957 -0.248994 1.3401 0 0 0 
-0.0653739 -0.489298 1.4142 0 0 0 
-0.0408491 -0.642958 1.43212 0 0 0 
-0.0425535 -0.564445 1.42702 0 0 0 
-0.0974655 -0.35285 1.35682 0 0 0 
-0.087116 -0.3812 1.36141 0 0 0 
-0.165627 0.00574359 1.24999 254 36 35 
-0.0117865 -0.737957 1.43345 0 0 0 
-0.117597 -0.194149 1.30238 1 1 1 
-0.00395405 -0.724321 1.4357 0 0 0 
-0.0918652 -0.247234 1.306 0 0 0 
0.00829013 -0.574388 1.40094 0 0 0 
-0.0657703 -0.256873 1.2939 75 70 252 
-0.161245 0.615873 1.17105 254 54 54 
-0.121077 0.0146346 1.22037 40 41 255 
-0.126549 0.527573 1.19026 39 47 58 
0.0289189 -0.394095 1.3474 1 1 0 
-0.0341836 0.0692324 1.19632 24 255 16 
-0.141289 0.105391 1.24588 0 0 0 
-0.0657636 0.524298 1.15998 254 55 53 
-0.0275672 0.470289 1.1574 45 254 43 
-0.00224319 0.469457 1.15931 48 46 254 
-0.000923261 0.36893 1.16373 254 39 37 
0.00930091 0.385715 1.16644 254 32 31 
0.0110694 0.620418 1.13561 15 15 67 
0.0127371 0.279839 1.17303 29 254 48 
0.0132123 0.321552 1.17115 254 44 40 
0.0150326 0.604649 1.14594 254 48 47 
0.0196884 0.163747 1.18258 36 36 254 
0.0232777 0.528497 1.16345 34 35 254 
0.025644 0.250109 1.17809 254 48 23 
0.0314214 0.438968 1.16871 39 254 40 
0.0340129 0.620664 1.12864 4 4 4 
0.0366621 0.30505 1.17686 43 41 254 
0.0377752 0.0975157 1.19157 76 76 254 
0.0365121 0.502325 1.16909 254 21 19 
0.0366539 0.479516 1.16892 254 41 39 
0.0371763 0.597525 1.15308 32 254 34 
0.038833 0.357538 1.17551 22 254 24 
0.0467677 0.0384184 1.1971 56 52 53 
0.0451956 0.565322 1.1618 40 38 39 
0.051183 0.0553931 1.19917 20 254 19 
0.0478488 0.619214 1.1505 254 68 66 
0.0616407 0.21848 1.19123 254 27 25 
0.0643748 0.329303 1.18781 254 34 30 
0.0631213 0.576676 1.16653 46 47 254 
0.0664312 0.148695 1.20052 28 29 254 
0.0735812 0.0699608 1.20757 254 36 36 
0.0745378 0.413395 1.19646 32 254 37 
0.0762277 0.595003 1.17109 254 37 35 
0.0790325 0.447481 1.20212 62 60 63 
0.0791218 0.473905 1.19421 26 27 254 
0.0805486 0.347584 1.20682 30 31 254 
0.0812407 0.328125 1.20886 28 254 21 
0.0832676 0.253937 1.21347 34 254 34 
0.0847093 0.110599 1.223 255 33 33 
0.0831344 0.386829 1.2066 254 37 35 
0.0873253 0.0755213 1.22836 254 54 54 
0.0842374 0.467892 1.20033 54 52 53 
0.0873143 0.27704 1.21615 254 32 30 
0.088562 0.0407191 1.21893 254 55 53 
0.0879068 0.447966 1.20842 254 46 45 
0.0884307 0.400536 1.21022 254 56 55 
0.091004 0.262759 1.2189 47 255 43 
0.0916761 0.239157 1.22051 254 28 28 
0.0920325 0.387401 1.21358 50 254 58 
0.0941421 0.18098 1.22399 38 36 37 
0.0918001 0.531408 1.199 46 47 254 
0.104106 0.219836 1.23092 16 16 254 
0.104288 0.345306 1.22618 254 6 4 
0.102594 0.552385 1.20632 54 55 254 
0.109956 0.106493 1.24315 255 30 30 
0.108108 0.413979 1.22678 56 55 53 
0.108173 0.507461 1.21181 47 45 48 
0.113617 0.490831 1.21644 254 46 45 
0.11889 0.121727 1.25068 64 62 255 
0.121168 0.362269 1.24172 48 46 254 
0.12097 0.486697 1.22798 56 54 254 
0.121591 0.507992 1.22452 254 47 46 
0.125119 0.346023 1.24964 43 42 40 
0.132786 0.0527128 1.25661 44 45 255 
0.132462 0.360054 1.2574 255 45 44 
0.134256 0.324717 1.27541 255 49 45 
0.136212 0.348675 1.26576 49 47 255 
0.138141 0.183043 1.26987 255 31 27 
0.13949 0.0410985 1.26178 58 255 63 
0.144464 0.0572497 1.26768 85 79 81 
-0.0508407 0.487971 1.1594 38 37 35 
-0.029047 -0.152012 1.24139 76 78 255 
-0.020442 -0.277586 1.2863 0 0 0 
0.000131888 -0.152907 1.24678 51 254 56 
-0.00379244 0.0555013 1.18695 22 254 23 
0.00866382 -0.225602 1.25596 28 30 254 
0.0013527 0.044791 1.18692 42 40 255 
0.0255267 -0.183573 1.25836 254 53 52 
0.0343824 -0.194254 1.26069 9 6 254 
0.0461169 -0.298818 1.30413 254 72 68 
0.0422097 -0.161348 1.25768 42 254 44 
0.0466321 -0.141796 1.25229 93 91 254 
0.0557487 -0.0859719 1.23574 45 255 49 
0.0491443 0.0858551 1.1959 255 21 19 
0.0648578 -0.213187 1.27994 59 55 52 
0.0682263 -0.0380657 1.21495 36 33 26 
0.0704758 0.00508881 1.20899 255 47 46 
0.0791809 -0.0184074 1.21156 74 72 73 
0.116347 0.0509439 1.23924 30 255 33 
0.148152 0.0249658 1.27184 49 49 47 
-0.0118595 -0.661399 1.43276 0 0 0 
-0.0125851 0.516526 1.36001 254 43 41 
0.0375573 -0.11638 1.25089 78 255 87 
0.0161997 -0.00165854 1.19937 255 7 6 
-0.043728 0.0186026 1.36554 51 49 50 
-0.00320123 -0.650058 1.42553 0 0 0 
-0.0611411 0.0481879 1.20529 28 26 255 
-0.0685299 0.0516663 1.20504 71 45 47 
0.00992967 -0.408079 1.38558 0 0 0 
0.0105549 -0.193637 1.25668 33 31 254 
0.0092436 0.385841 1.16712 254 32 31 
0.0136311 0.177126 1.18198 254 21 15 
0.0131538 0.321668 1.17149 254 44 40 
0.0191019 -0.343991 1.31943 0 0 0 
0.0197407 -0.218008 1.2574 36 36 34 
0.0206028 0.261383 1.17796 47 21 20 
0.0209452 0.272784 1.17567 41 21 23 
0.0303379 0.46884 1.16618 72 70 71 
0.046826 0.0383714 1.19776 56 52 53 
0.0557503 0.203059 1.19046 32 254 52 
0.0604576 0.0482546 1.20323 20 254 34 
0.0619611 0.481712 1.17758 29 27 28 
0.0664462 0.148371 1.19972 28 29 254 
0.0739741 0.0834669 1.20797 59 57 58 
0.085148 0.129407 1.22318 43 43 43 
0.0826922 0.477966 1.19398 51 49 254 
0.0930147 0.140176 1.22781 32 30 31 
0.0916787 0.530676 1.19693 46 47 254 
0.106798 0.00221536 1.22569 23 255 25 
0.111695 0.209435 1.2389 77 73 74 
0.113588 0.490747 1.21594 254 46 45 
0.123052 0.0421182 1.24426 75 255 42 
0.124535 0.0203142 1.24621 68 66 255 
0.120899 0.486477 1.2271 56 54 254 
0.1285 -0.0299522 1.26238 50 255 56 
0.135588 0.325578 1.27642 11 10 255 
0.13946 0.0411505 1.2613 58 255 63 
0.0316881 -0.160114 1.2559 46 44 254 
0.0598554 0.39207 1.18351 254 54 52 
0.0762506 -0.0724297 1.2351 54 55 255 
-0.162566 -0.266986 1.38269 0 0 0 
-0.0197872 0.281903 1.18088 254 65 64 
-0.0261989 0.481106 1.16762 40 38 254 
0.0553541 -0.361196 1.4053 1 1 2 
-0.049837 0.494413 1.17547 28 26 27 
-0.165988 0.0517486 1.27094 0 0 0 
-0.146655 0.333201 1.24026 0 0 0 
-0.152622 0.218072 1.25679 0 0 0 
-0.146389 0.255759 1.24551 0 0 0 
-0.145421 0.226043 1.24755 0 0 0 
-0.152176 0.0710551 1.26913 0 0 0 
-0.147959 0.0819572 1.26545 0 0 0 
-0.127476 -0.0231184 1.24036 0 0 0 
-0.132161 0.17324 1.24119 0 0 0 
-0.136757 -0.0561419 1.27035 0 0 0 
-0.151182 -0.0800025 1.29926 0 0 0 
-0.161145 -0.116399 1.32094 0 0 0 
-0.1047 0.366001 1.20467 0 0 0 
-0.101753 0.351178 1.20093 0 0 0 
-0.115652 0.0894725 1.24038 0 0 0 
-0.0959976 0.300959 1.20227 0 0 0 
-0.10203 0.192979 1.21793 0 0 0 
-0.160665 -0.142519 1.33429 0 0 0 
-0.101431 0.181981 1.21826 0 0 0 
-0.107482 0.11066 1.23439 0 0 0 
-0.0938291 -0.0252541 1.21777 0 0 0 
-0.0989401 0.218545 1.21586 0 0 0 
-0.094105 0.233713 1.20983 0 0 0 
-0.106416 -0.0514074 1.2449 0 0 0 
-0.0976115 0.201481 1.22234 0 0 0 
-0.0897377 0.203794 1.20934 0 0 0 
-0.0871866 0.235442 1.20388 0 0 0 
-0.0846719 0.316573 1.19609 0 0 0 
-0.0894677 0.0549451 1.21639 0 0 0 
-0.139555 -0.140591 1.31296 0 0 0 
-0.0883438 0.214142 1.20942 0 0 0 
-0.0857739 0.0627882 1.21203 0 0 0 
-0.0883498 0.107678 1.21857 0 0 0 
-0.0873174 0.181995 1.21358 0 0 0 
-0.0789451 -0.0226935 1.20985 0 0 0 
-0.0876824 0.0719899 1.22213 0 0 0 
-0.0840675 0.0426064 1.21801 0 0 0 
-0.080911 0.26317 1.20303 0 0 0 
-0.0814789 0.318695 1.20254 0 0 0 
-0.0856418 0.0901077 1.22112 0 0 0 
-0.0771547 0.040487 1.20952 0 0 0 
-0.151363 -0.213816 1.35533 0 0 0 
-0.0847648 0.0844075 1.22708 0 0 0 
-0.166843 -0.273465 1.38826 0 0 0 
-0.074897 0.28224 1.20138 0 0 0 
-0.121491 -0.158308 1.30427 0 0 0 
-0.0881145 -0.0615794 1.24083 0 0 0 
-0.0812658 -0.0598025 1.23203 0 0 0 
-0.076973 0.0510729 1.22017 0 0 0 
-0.154525 -0.258189 1.37491 0 0 0 
-0.0685048 0.203551 1.20437 0 0 0 
-0.132548 -0.207665 1.33846 0 0 0 
-0.0693914 0.19277 1.20743 0 0 0 
-0.0695557 0.223032 1.2114 0 0 0 
-0.0600672 0.0479446 1.20295 0 0 0 
-0.0597466 0.227608 1.19701 0 0 0 
-0.0902205 -0.114702 1.26808 0 0 0 
-0.0746652 -0.0725676 1.23819 0 0 0 
-0.0813949 -0.101563 1.25483 0 0 0 
-0.0658754 0.0575606 1.21989 0 0 0 
-0.113516 -0.191858 1.31985 0 0 0 
-0.0463596 0.32817 1.17443 0 0 0 
-0.0816171 -0.123049 1.26025 0 0 0 
-0.0594116 0.0741021 1.21395 0 0 0 
-0.0598603 -0.0677296 1.22159 0 0 0 
-0.0579082 0.095557 1.21076 0 0 0 
-0.0485365 0.1975 1.19278 0 0 0 
-0.0661226 -0.104018 1.24078 0 0 0 
-0.0441792 0.204139 1.18667 0 0 0 
-0.0383577 0.329334 1.17022 0 0 0 
-0.0444026 0.219232 1.18795 0 0 0 
-0.0729334 -0.139044 1.25992 0 0 0 
-0.0462104 0.130381 1.19921 0 0 0 
-0.0456371 0.178244 1.19662 0 0 0 
-0.0458039 0.0948073 1.20202 0 0 0 
-0.0844688 -0.193511 1.28787 0 0 0 
-0.0384938 0.196118 1.18584 0 0 0 
-0.034226 0.314387 1.17256 0 0 0 
-0.0411066 0.0909996 1.19616 0 0 0 
-0.0666581 -0.132548 1.2545 0 0 0 
-0.088658 -0.194409 1.29929 0 0 0 
-0.0439774 0.112973 1.20236 0 0 0 
-0.0552068 -0.102273 1.23338 0 0 0 
-0.0368632 0.226657 1.18551 0 0 0 
-0.032158 0.345327 1.17232 0 0 0 
-0.0370762 0.213009 1.18792 0 0 0 
-0.0393574 0.0409134 1.20171 0 0 0 
-0.0414723 -0.0639977 1.21148 0 0 0 
-0.046027 -0.0899531 1.2213 0 0 0 
-0.0308483 0.305858 1.17452 0 0 0 
-0.0359142 0.0506968 1.19729 0 0 0 
-0.0313611 0.257203 1.18188 0 0 0 
-0.0761577 -0.199787 1.28771 0 0 0 
-0.0244832 0.283445 1.16849 0 0 0 
-0.0234763 0.441439 1.16119 60 60 60 
-0.023993 0.309104 1.16887 1 0 0 
-0.0321898 0.122708 1.1948 0 0 0 
-0.0393352 -0.0654025 1.21868 0 0 0 
-0.0311452 -0.0610105 1.20592 0 0 0 
-0.0501344 -0.145259 1.24738 0 0 0 
-0.0633637 -0.200048 1.27572 0 0 0 
-0.0524697 -0.15454 1.2536 0 0 0 
-0.0252072 0.130942 1.18941 0 0 0 
-0.0237089 0.231134 1.18244 0 0 2 
-0.0179552 0.259912 1.17282 2 2 1 
-0.0615684 -0.209511 1.27874 0 0 0 
-0.0174139 0.302362 1.17033 32 23 110 
-0.0253808 0.0994938 1.19558 1 1 1 
-0.0222391 0.191581 1.18634 0 0 0 
-0.0477969 -0.169295 1.25329 0 0 0 
-0.0128096 0.436152 1.15783 54 52 53 
-0.0435637 -0.15522 1.2458 0 0 0 
-0.0268291 -0.0529253 1.20887 0 0 0 
-0.0244238 0.0229112 1.20176 48 145 22 
-0.0148423 -0.00901797 1.18767 78 80 251 
-0.0118086 0.332565 1.166 70 251 78 
-0.0661406 -0.241755 1.29849 0 0 0 
-0.0188051 0.215436 1.18546 24 52 20 
-0.0825002 -0.28387 1.33258 0 0 0 
-0.014632 0.288172 1.17526 52 54 52 
-0.0152087 0.354048 1.17362 54 56 254 
-0.0157275 0.0336973 1.19126 11 241 45 
-0.0163981 0.201114 1.18437 40 94 38 
-0.0101007 0.422502 1.16161 59 254 65 
-0.0182281 0.0779381 1.19441 19 16 9 
-0.02096 0.0436299 1.2013 60 243 58 
-0.0099262 0.413271 1.16219 65 254 68 
-0.0102341 0.399122 1.16454 67 67 67 
-0.0156321 0.0147686 1.19421 74 73 71 
-0.0190341 0.109112 1.19617 1 1 1 
-0.0755864 -0.292127 1.3254 0 0 0 
-0.0237743 -0.0622844 1.21699 0 0 0 
-0.0634686 -0.267112 1.3059 0 0 0 
-0.0360262 -0.161894 1.24853 0 0 0 
-0.0122701 -0.000471692 1.19593 88 90 254 
-0.0821352 -0.326099 1.34788 0 0 0 
-0.0433142 -0.202619 1.26655 0 0 0 
-0.00425726 0.431827 1.16029 35 254 31 
-0.00981621 0.221894 1.18288 66 64 67 
-0.0342183 -0.172269 1.25093 0 0 0 
-0.0110048 0.115389 1.19197 27 31 157 
-0.0120108 0.0554932 1.19788 14 253 2 
-0.0393603 -0.223955 1.26614 0 0 0 
-0.0220823 -0.0887806 1.22567 0 0 0 
-0.0313812 -0.146981 1.24682 0 0 0 
-0.0065474 0.12239 1.18648 59 63 240 
-0.0596495 -0.284799 1.31083 0 0 0 
-0.00868289 0.190614 1.18858 250 55 53 
-0.0107643 0.104117 1.19786 76 77 81 
-0.038078 -0.214021 1.26762 0 0 0 
-0.00826784 0.0855897 1.19776 58 60 59 
-0.00734949 0.173661 1.19262 64 66 255 
-0.000501717 -0.0197727 1.18877 102 254 101 
-0.0029621 0.0225255 1.19627 254 1 1 
-0.00375582 0.150593 1.19165 252 54 52 
-0.0264368 -0.20568 1.25497 0 0 0 
-0.0186105 -0.124278 1.23562 0 0 0 
-0.00253067 0.0425254 1.19597 59 61 254 
-0.0034889 0.121499 1.19406 53 53 253 
-0.00647252 0.0437694 1.20516 61 254 62 
0.00155742 0.150984 1.18485 254 49 47 
-0.00304282 0.203122 1.19198 28 26 27 
-0.000239804 0.100119 1.19178 44 44 46 
0.00104944 0.231884 1.18438 30 254 34 
-0.026326 -0.201015 1.26095 0 0 0 
0.00579694 0.348072 1.17046 81 81 83 
-0.000178872 0.11024 1.19458 65 65 67 
-0.0401936 -0.284056 1.29559 0 0 0 
-0.00675699 -0.0578191 1.21948 68 65 73 
0.00521701 -0.00118901 1.19333 86 86 254 
0.00783388 0.299222 1.17301 30 30 254 
0.00663367 0.23995 1.18208 23 20 254 
-0.000954828 -0.0553041 1.21389 79 255 77 
0.00845382 0.220478 1.18335 27 27 254 
-0.00546038 -0.0823024 1.22757 14 9 5 
0.00454526 0.0942232 1.1988 74 254 60 
-0.00485982 -0.0879558 1.23543 42 28 29 
0.0133513 0.0360044 1.19302 58 58 60 
-0.00822244 -0.202404 1.25031 0 0 0 
0.000672993 -0.0934002 1.22812 11 7 7 
-0.0479321 -0.358399 1.34257 0 0 0 
0.011394 0.0657462 1.19992 21 21 254 
-0.0266077 -0.288138 1.2985 0 0 0 
-0.0198547 -0.277171 1.28487 0 0 0 
-0.0189962 -0.288625 1.28512 0 0 0 
0.0195346 0.355998 1.17243 46 254 55 
-0.0281961 -0.322937 1.30624 0 0 0 
0.0178274 -0.00145956 1.19526 254 107 107 
0.016029 0.0502264 1.19637 254 40 38 
0.0202284 0.272685 1.17728 67 63 62 
-0.0332212 -0.335904 1.31979 0 0 0 
0.0134408 0.0913409 1.20117 47 47 254 
-0.0204385 -0.303703 1.29335 0 0 0 
0.00108902 -0.129064 1.23989 0 0 0 
0.00301143 -0.099317 1.23591 26 30 35 
0.0154637 0.156945 1.19805 47 48 254 
0.0197939 -0.0250372 1.19845 57 254 76 
-0.022112 -0.30458 1.30143 0 0 0 
-0.0012137 -0.183938 1.25182 0 0 0 
-0.05673 -0.445069 1.38204 0 0 0 
-0.0268036 -0.343694 1.31522 0 0 0 
0.0168404 0.0504307 1.2038 51 50 254 
0.0101717 -0.0763486 1.22861 60 58 254 
-0.0132648 -0.285375 1.29007 0 0 0 
0.00752605 -0.110388 1.23753 102 73 77 
0.0224755 0.0345099 1.20014 66 69 254 
-0.0182032 -0.319191 1.3045 0 0 0 
0.00424851 -0.209087 1.25457 0 0 0 
-0.0122957 -0.292327 1.29519 0 0 0 
0.00702246 -0.194201 1.24934 0 0 0 
-0.0121788 -0.305296 1.29798 0 0 0 
-0.0177093 -0.340515 1.31172 0 0 0 
-0.0186828 -0.320787 1.31298 0 0 0 
0.0307416 0.357466 1.17314 54 57 254 
0.0274663 0.19423 1.18959 44 45 254 
-0.0318063 -0.41494 1.34803 0 0 0 
0.011501 -0.236865 1.24708 0 0 0 
0.00744893 -0.237134 1.25565 0 0 0 
-0.0541199 -0.479734 1.40111 0 0 0 
0.0322976 0.370643 1.17282 63 61 62 
0.00889069 -0.17704 1.25176 0 0 0 
-0.0167299 -0.353768 1.31579 0 0 0 
0.0312206 0.421662 1.17299 57 58 254 
0.0300918 0.0916249 1.19413 53 254 54 
0.0277621 0.108485 1.19823 254 50 48 
0.00699796 -0.22706 1.26017 0 0 0 
0.0274055 0.148069 1.19721 254 63 61 
0.0339492 0.385049 1.17236 48 49 255 
0.0295224 0.0805021 1.20085 45 45 47 
0.0365654 -0.00135542 1.19116 70 68 254 
-0.0461338 -0.494753 1.39526 0 0 0 
0.0372764 0.394537 1.17029 254 53 51 
0.0349824 0.0628406 1.19316 254 66 66 
0.0134768 -0.144367 1.25033 1 1 1 
-0.0474413 -0.501636 1.40164 0 0 0 
0.0351648 0.305478 1.18107 33 29 30 
0.0191647 -0.106635 1.23739 61 62 254 
-0.018213 -0.381869 1.33307 0 0 0 
0.0354726 0.281713 1.18226 27 28 254 
-0.0147014 -0.363703 1.32484 0 0 0 
0.0328597 0.24744 1.19104 61 254 68 
0.0390529 0.405302 1.1696 57 254 61 
0.0396193 0.42963 1.16819 41 39 40 
-0.00661627 -0.325589 1.30857 0 0 0 
0.0258928 -0.0777583 1.22781 254 89 87 
0.0340792 0.0974467 1.20091 254 47 45 
0.0402808 0.416926 1.17238 48 49 254 
-0.00870211 -0.35081 1.32008 0 0 0 
0.0349682 0.197172 1.19627 27 254 25 
0.0189127 -0.23569 1.25444 0 0 0 
-0.000667783 -0.313638 1.3026 0 0 0 
-0.0396426 -0.522157 1.40161 0 0 0 
0.0385424 0.120816 1.19755 254 89 89 
0.0190675 -0.198914 1.2576 0 0 0 
-0.015567 -0.415326 1.34517 0 0 0 
0.0221381 -0.216779 1.25212 0 0 0 
-0.00132139 -0.334663 1.3101 0 0 0 
0.0398814 0.00824444 1.20173 48 44 45 
-0.0179922 -0.409754 1.35083 0 0 0 
0.0216647 -0.247071 1.25662 0 0 0 
0.0398905 0.258602 1.19043 57 254 66 
0.0396984 0.055587 1.20229 254 17 15 
0.0436943 0.322817 1.18021 39 37 38 
0.0288551 -0.108888 1.23607 55 55 57 
-0.00609252 -0.380868 1.33156 0 0 0 
0.0399002 0.125881 1.203 43 43 45 
0.0354292 -0.0585358 1.22272 40 40 40 
-0.00292259 -0.359174 1.3243 0 0 0 
0.0471524 0.408027 1.17285 54 55 255 
0.0397023 0.178466 1.20226 25 254 32 
0.0354077 -0.0692173 1.22574 118 254 113 
0.0417364 0.15264 1.20076 254 38 38 
0.0248391 -0.175059 1.25737 23 32 187 
0.0447888 0.0382744 1.20218 61 62 254 
-0.0319128 -0.550129 1.40715 0 0 0 
0.0027976 -0.371725 1.32146 0 0 0 
0.00873879 -0.307507 1.30467 0 0 0 
0.0311922 -0.139444 1.24744 254 46 44 
0.00466064 -0.351355 1.31878 0 0 0 
0.0468196 0.0858041 1.20199 40 43 254 
0.0465936 0.0555004 1.20716 14 12 13 
0.039052 -0.0855854 1.23292 107 110 254 
0.0494759 0.0160599 1.20445 70 70 255 
0.0121012 -0.316033 1.30652 0 0 0 
0.0346205 -0.2377 1.25321 0 0 0 
0.0328439 -0.159711 1.25314 255 60 58 
0.0178415 -0.299197 1.29811 0 0 0 
0.0508067 0.104675 1.20196 255 59 57 
0.0478131 -0.0455625 1.21724 254 55 51 
0.0538238 0.299635 1.18708 39 39 255 
-0.0216034 -0.577759 1.40857 0 0 0 
0.0141737 -0.339834 1.31826 0 0 0 
-0.0092609 -0.52581 1.3819 0 0 0 
0.0523896 0.0882231 1.20795 254 33 33 
0.0129973 -0.364509 1.32305 0 0 0 
0.0178377 -0.323092 1.31011 0 0 0 
0.0198281 -0.307159 1.30482 0 0 0 
0.00704832 -0.411575 1.34014 0 0 0 
-0.00731269 -0.515871 1.37918 0 0 0 
0.0480597 -0.216626 1.23722 26 156 84 
0.0498232 -0.0552623 1.22467 90 254 85 
0.0382745 -0.189225 1.25852 254 66 65 
0.0563153 0.0618549 1.2042 254 49 49 
0.0128858 -0.375463 1.32835 0 0 0 
0.0395737 -0.198923 1.25956 47 254 54 
0.0370526 -0.226218 1.26742 67 215 45 
0.0583464 0.286821 1.19027 59 255 62 
0.0608519 0.430692 1.177 254 57 55 
0.0135742 -0.34928 1.32994 0 0 0 
0.0448976 -0.123916 1.24557 33 32 28 
0.0578913 0.127155 1.20443 255 39 37 
0.0576148 0.243455 1.20054 30 33 255 
0.0484265 -0.100776 1.2419 54 254 62 
0.0618122 0.0163239 1.20581 255 55 54 
0.0608331 0.256359 1.1963 57 55 58 
0.023098 -0.347369 1.31751 0 0 0 
0.032966 -0.289969 1.29187 0 0 0 
0.0473951 -0.141422 1.25035 59 60 254 
-0.0101067 -0.596911 1.4092 0 0 0 
0.0601791 0.107806 1.20741 54 255 50 
0.0615481 0.31517 1.19272 31 255 27 
0.0536197 -0.0917755 1.23445 254 78 76 
0.0590259 0.162454 1.20866 255 59 59 
-0.00270282 -0.632891 1.39675 0 0 0 
0.0612136 0.140357 1.20506 55 53 56 
-0.00209698 -0.59891 1.39351 0 0 0 
0.0330695 -0.303161 1.30035 0 0 0 
0.0580751 0.123183 1.21814 34 32 33 
0.0402279 -0.289351 1.28313 0 0 0 
0.0626062 0.183314 1.20432 68 69 255 
0.0197631 -0.392325 1.33661 0 0 0 
0.0662888 0.303654 1.18964 20 21 255 
0.0289267 -0.312648 1.31157 0 0 0 
0.0587917 -0.0665915 1.2293 254 48 46 
0.0321511 -0.316642 1.30583 0 0 0 
0.0676058 0.380512 1.18394 254 66 64 
0.0664987 0.148562 1.19989 254 45 43 
0.0621557 0.14214 1.21177 40 38 41 
0.0655606 0.0555568 1.20964 11 12 254 
0.0657957 -0.0403256 1.21505 90 254 85 
0.0677354 0.035545 1.21128 255 65 63 
0.0339119 -0.322765 1.31169 0 0 0 
0.0368591 -0.296332 1.30392 0 0 0 
0.0394517 -0.277303 1.29763 0 0 0 
0.0691413 0.0932619 1.20824 97 255 59 
0.0668163 0.121002 1.2135 83 79 76 
0.0694326 0.127392 1.20701 84 83 81 
0.0324053 -0.316674 1.32009 0 0 0 
0.0729425 0.393838 1.1843 67 66 64 
0.0271701 -0.402211 1.33827 0 0 0 
0.0697475 0.312374 1.19698 83 84 255 
0.069913 0.136988 1.20926 15 15 15 
0.0696864 0.458303 1.19259 56 54 255 
0.0562951 -0.178798 1.26194 49 254 60 
0.0698519 0.303601 1.20229 30 255 35 
0.0724213 0.406407 1.19045 66 255 65 
0.0553821 -0.187548 1.26551 254 35 33 
0.071908 0.0700013 1.21222 255 86 84 
0.0588426 -0.187201 1.25869 63 61 62 
0.0330191 -0.321689 1.32782 0 0 0 
0.0664663 -0.0860049 1.23466 71 70 68 
0.0728953 0.0836067 1.21054 81 85 255 
0.071692 0.105367 1.21299 82 255 82 
0.0717198 0.149048 1.21131 31 254 32 
0.073299 0.344492 1.19614 87 255 75 
0.0373635 -0.343733 1.32238 0 0 0 
0.00187425 -0.674834 1.42674 0 0 0 
0.0602678 -0.158092 1.25866 73 74 254 
0.0665757 -0.105475 1.24073 87 86 254 
0.071408 0.269696 1.20837 36 34 255 
0.0722517 0.280448 1.20637 56 255 64 
0.0712809 0.313563 1.20727 255 82 80 
0.0709103 0.427981 1.20341 61 60 58 
0.0447369 -0.300342 1.30808 0 0 0 
0.0721787 0.357609 1.20448 52 48 47 
0.0439944 -0.321453 1.31167 0 0 0 
0.060075 -0.205747 1.26698 55 52 254 
0.0738262 0.399662 1.19896 48 46 255 
0.00953183 -0.712907 1.41924 0 0 0 
0.0731301 0.342925 1.20484 61 255 59 
0.0724218 0.215713 1.21432 255 42 40 
0.0722721 0.253904 1.21398 55 54 52 
0.079595 0.0143218 1.21112 54 55 255 
0.0481308 -0.313262 1.3066 0 0 0 
0.0712595 0.231908 1.21926 62 255 50 
0.0738965 0.154191 1.21775 47 254 46 
0.074511 0.328369 1.20658 41 255 35 
0.073531 0.167216 1.21892 254 14 13 
0.0738704 -0.125886 1.23479 254 64 60 
0.0716226 -0.0945104 1.23901 254 50 49 
0.0706065 0.204262 1.22447 255 55 53 
0.044052 -0.315026 1.31957 0 0 0 
0.0746477 0.129372 1.21996 29 27 28 
0.0744992 0.139685 1.22006 50 51 254 
0.0767037 0.377143 1.20157 48 46 255 
0.0761906 0.412038 1.20211 255 43 42 
0.0797361 0.417761 1.19351 254 63 62 
0.0770013 0.0940055 1.21911 255 74 72 
0.0753296 0.106141 1.22276 255 86 86 
0.0619352 -0.216265 1.2742 254 80 76 
0.0536987 -0.292637 1.29885 0 0 0 
0.0465628 -0.339805 1.31973 0 0 0 
0.0732855 0.141176 1.22789 53 54 254 
0.0724318 -0.115653 1.24639 254 72 68 
0.0750056 0.130197 1.22688 40 38 39 
0.0734325 0.261816 1.22412 57 58 255 
0.0753745 0.275273 1.21884 36 34 255 
0.0810684 0.445273 1.19607 65 255 61 
0.0805371 -0.0625146 1.22807 254 62 60 
0.0789999 0.0666756 1.22563 10 8 9 
0.0783034 0.0953403 1.22632 71 72 255 
0.069443 -0.182891 1.26533 41 254 52 
0.0801807 0.418642 1.20542 254 69 68 
0.0780868 -0.10656 1.24388 59 254 74 
0.0687684 -0.208916 1.27534 65 64 60 
0.0226424 -0.596226 1.41334 0 0 0 
0.0487139 -0.371122 1.33724 0 0 0 
0.0850547 0.0561805 1.22556 51 255 58 
0.0842526 0.32354 1.21417 47 46 44 
0.0824137 0.113022 1.23128 63 63 63 
0.0778627 -0.152717 1.25859 47 43 40 
0.0820569 0.136019 1.23297 73 255 65 
0.0934222 -0.00268984 1.21551 37 37 37 
0.0571694 -0.346652 1.32887 0 0 0 
0.0876573 0.38207 1.20942 255 64 63 
0.0861075 0.0756866 1.23186 255 58 54 
0.0726206 -0.218791 1.28342 254 62 59 
0.0706995 -0.235507 1.28991 62 58 55 
0.0475034 -0.423904 1.36025 0 0 0 
0.0894256 0.446477 1.20398 75 73 255 
0.0643604 -0.293342 1.31139 29 31 25 
0.091237 0.40395 1.20362 255 75 73 
0.0617364 -0.311343 1.32133 2 1 2 
0.089427 0.414004 1.20901 53 49 46 
0.0898118 0.341957 1.21607 48 47 45 
0.0877829 0.225492 1.22905 65 63 64 
0.0950045 0.0101876 1.2237 66 67 255 
0.0904824 0.401802 1.21458 255 45 45 
0.0931021 -0.0738185 1.239 66 67 254 
0.0897328 0.127823 1.23838 30 29 27 
0.0924195 0.360909 1.21755 36 35 33 
0.0977722 0.027266 1.225 5 6 255 
0.0920409 0.105615 1.23579 59 255 59 
0.0969114 0.0392726 1.22748 41 255 44 
0.0911929 -0.111326 1.25466 57 58 254 
0.0730302 -0.27545 1.31187 71 68 254 
0.0929384 0.11426 1.23798 24 255 30 
0.0913114 0.176207 1.23847 49 255 47 
0.0663207 -0.32387 1.33351 2 0 0 
0.0969838 0.40692 1.21005 59 254 69 
0.0921197 0.218313 1.23457 255 57 53 
0.0969393 0.442431 1.20963 54 51 46 
0.0962197 0.412526 1.21386 71 69 57 
0.0987133 0.386241 1.21296 53 52 50 
0.0732295 -0.285963 1.32222 63 254 82 
0.0576001 -0.427284 1.38216 0 0 0 
0.100343 0.321058 1.22422 37 255 41 
0.0982589 0.266154 1.23332 255 41 40 
0.0981055 0.247843 1.23554 255 77 73 
0.104143 0.0569559 1.23185 255 42 42 
0.0994992 0.0983141 1.24207 64 62 65 
0.079558 -0.269714 1.31826 72 69 254 
0.0981117 0.199467 1.24059 53 52 255 
0.0959871 -0.109261 1.26606 50 254 63 
0.105958 0.0472316 1.23063 46 255 39 
0.102191 0.414981 1.21986 73 72 67 
0.0449744 -0.488035 1.42709 0 0 0 
0.104528 0.0788233 1.23993 69 67 68 
0.101482 0.366217 1.23062 52 50 255 
0.106858 0.069706 1.23743 33 29 30 
0.112022 0.0608085 1.23461 79 73 73 
0.10405 0.229817 1.24604 60 58 255 
0.0811998 -0.295051 1.34232 48 254 79 
0.0904343 -0.232947 1.31663 83 75 254 
0.106655 0.199487 1.24695 57 255 50 
0.107763 0.106762 1.25015 255 66 64 
0.109979 0.417733 1.22486 254 59 38 
0.110082 0.15114 1.24917 62 63 255 
0.112188 0.436897 1.22807 57 38 34 
0.110886 0.41132 1.23306 51 48 43 
0.111039 0.115494 1.25182 57 56 54 
0.11649 -0.0365028 1.24654 71 71 71 
0.117905 0.0501805 1.23812 35 33 255 
0.112678 0.376967 1.23269 52 255 47 
0.0868124 -0.292346 1.3466 55 254 72 
0.110988 0.310425 1.24238 41 255 48 
0.114673 0.395725 1.22993 67 65 255 
0.0581767 -0.435061 1.43896 1 1 0 
0.112042 0.343442 1.24203 41 255 45 
0.115555 0.089435 1.25211 84 85 255 
0.121086 0.0584693 1.23916 64 62 255 
0.0785499 -0.378097 1.38534 108 252 109 
0.114512 -0.0643784 1.2676 255 52 52 
0.122391 0.0205277 1.24128 41 41 41 
0.109146 -0.122974 1.28916 69 255 69 
0.117088 0.366291 1.2393 45 43 255 
0.0872917 -0.32469 1.36824 47 254 71 
0.123437 0.044125 1.2444 255 54 50 
0.105317 -0.188616 1.31527 254 53 49 
0.0845628 -0.3629 1.38743 75 74 72 
0.134051 0.0070802 1.22484 52 53 255 
0.120746 0.349024 1.24445 40 38 255 
0.0877485 -0.344521 1.38344 83 83 254 
0.110663 -0.157639 1.30621 57 55 255 
0.11967 0.363345 1.247 40 38 255 
0.130072 0.0517483 1.24789 42 40 255 
0.124075 0.402769 1.24202 54 50 255 
0.129754 -0.0313751 1.25613 255 57 55 
0.124404 0.438634 1.24174 68 50 46 
0.128302 0.0596205 1.25774 40 255 42 
0.123926 0.170326 1.26458 255 47 43 
0.125924 0.0934729 1.26462 255 36 34 
0.125666 0.400888 1.24815 83 255 81 
0.125563 0.387338 1.24936 67 255 66 
0.127117 0.104296 1.26876 50 255 45 
0.125942 0.348483 1.25898 63 61 254 
0.133833 0.0134435 1.26103 255 48 48 
0.127806 0.304699 1.26255 33 30 255 
0.128703 0.361826 1.26029 71 69 255 
0.104665 -0.297321 1.37857 254 42 41 
0.130462 0.374881 1.25976 48 46 255 
0.125903 0.188419 1.28762 34 255 45 
0.135394 0.0758316 1.26721 6 255 10 
0.122665 0.189161 1.29937 42 41 39 
0.139552 0.0601814 1.25797 15 13 14 
0.131046 0.354978 1.26715 255 55 54 
0.132779 0.394897 1.26035 51 50 46 
0.141431 0.0720444 1.25712 52 51 49 
0.132684 0.368439 1.26506 51 254 53 
0.140233 0.0625182 1.26387 54 255 82 
0.133 0.33807 1.26774 255 54 53 
0.13966 -0.0373082 1.27476 39 38 36 
0.143059 -0.0314985 1.2698 57 55 255 
0.145396 0.0115047 1.26368 75 75 75 
0.147139 0.0212907 1.26536 92 255 89 
0.143999 -0.0327122 1.28115 255 87 86 
0.138973 0.377631 1.27624 52 255 59 
0.139935 0.192031 1.28766 37 255 38 
0.151116 0.00666056 1.26664 255 60 60 
0.150753 0.0319058 1.26936 37 255 41 
0.140007 0.406252 1.27889 83 82 80 
0.144178 0.378101 1.26981 54 52 255 
0.142938 0.380889 1.28214 254 51 50 
0.146402 0.463299 1.26705 42 41 37 
0.12063 -0.240081 1.39803 92 93 255 
0.136548 -0.146082 1.34117 71 69 255 
0.1506 0.0623114 1.28354 36 37 255 
0.145197 0.178882 1.29333 31 255 20 
0.146244 0.12575 1.29615 107 107 109 
0.147364 0.113399 1.29635 53 255 50 
0.137427 -0.152626 1.34859 255 46 44 
0.15469 -0.0212504 1.28575 4 3 1 
0.146675 0.369484 1.284 61 62 255 
0.138907 -0.161772 1.35248 57 55 255 
0.150088 0.0910036 1.29943 70 70 255 
0.159427 0.0348188 1.27785 16 15 11 
0.146105 0.355027 1.29872 59 57 255 
0.147079 0.275034 1.30439 68 66 67 
0.148698 0.236591 1.30459 60 57 255 
0.149437 0.197223 1.30958 37 33 32 
0.147844 0.397579 1.30007 52 48 255 
0.149601 0.408921 1.29589 53 255 51 
0.159026 0.0782499 1.29239 52 50 51 
0.160875 0.0595272 1.28879 64 62 255 
0.148383 0.285495 1.31313 50 50 255 
0.152148 0.299329 1.30732 56 255 52 
0.159609 0.0747836 1.30054 255 51 49 
0.14288 -0.199896 1.37974 38 255 55 
0.160815 0.0646638 1.30188 78 255 90 
0.153931 0.324955 1.30783 66 62 59 
0.130884 -0.268454 1.42918 54 53 254 
0.153467 0.294416 1.31647 255 46 42 
0.143745 -0.203178 1.38554 255 82 66 
0.153788 0.412726 1.30692 66 66 64 
0.155617 0.171439 1.32065 44 42 255 
0.155198 0.307203 1.31314 61 255 69 
0.167144 0.014231 1.30426 76 76 76 
0.15668 0.407612 1.3132 67 255 63 
0.155461 0.320571 1.32537 255 67 63 
0.155337 0.385167 1.32346 62 60 254 
0.156207 0.415933 1.31923 65 255 70 
0.159051 0.193423 1.33121 62 60 255 
0.171147 0.00926596 1.31076 79 79 255 
0.158314 0.378909 1.32758 67 255 76 
0.160193 0.232402 1.33322 254 67 66 
0.159857 0.306348 1.33089 71 67 66 
0.170609 0.055652 1.31496 56 54 255 
0.159895 0.288304 1.33729 254 50 44 
0.167828 0.0654145 1.32761 74 73 71 
0.1608 0.228448 1.34085 50 48 254 
0.167694 -0.0567514 1.33957 56 52 255 
0.158592 0.328407 1.3431 53 255 43 
0.157866 0.391962 1.34293 67 66 64 
0.166526 0.0861859 1.33881 45 47 255 
0.15925 0.418082 1.34048 255 62 61 
0.157781 0.42762 1.34566 255 71 70 
0.1603 0.4275 1.33758 74 73 71 
0.160154 0.292074 1.34951 36 32 31 
0.176645 -5.22446e-05 1.3157 53 54 255 
0.160082 0.375397 1.34567 71 255 72 
0.160989 0.274666 1.35252 255 54 50 
0.162024 0.344685 1.34452 63 58 55 
0.160527 0.337574 1.3572 52 48 47 
0.174253 0.062585 1.3315 61 62 255 
0.160077 0.401215 1.36108 51 48 255 
0.160841 0.328246 1.36461 81 78 255 
0.17381 0.0684631 1.34218 255 91 89 
0.15578 -0.0612379 1.41874 47 43 40 
0.159255 0.337086 1.37792 80 255 67 
0.158351 0.430479 1.37406 85 255 71 
0.158059 0.434055 1.38665 64 255 71 
0.160831 0.367383 1.38396 255 73 72 
0.163184 0.274971 1.39149 87 83 80 
0.178617 0.0668304 1.35362 16 14 255 
0.170697 0.0886054 1.3847 255 77 75 
0.159487 0.279622 1.41512 49 255 63 
0.183125 0.0659591 1.36349 64 62 255 
-0.0271837 0.0846936 1.18524 33 254 43 
-0.027254 -0.134913 1.23416 0 0 0 
-0.0242399 0.24369 1.17479 16 16 254 
-0.0143035 0.0589801 1.18637 254 32 32 
-0.00329359 0.140783 1.18078 33 31 32 
-0.00346209 0.216031 1.17658 44 42 43 
0.0110724 -0.247207 1.25467 36 253 51 
0.0136014 0.0595921 1.18869 28 254 48 
0.015145 0.131216 1.18357 43 254 45 
0.0203728 0.119844 1.18558 79 254 39 
0.0290231 0.0287536 1.19146 53 51 52 
0.0310863 -0.239243 1.25862 46 44 45 
0.031532 -0.208671 1.25805 74 254 66 
0.0296715 0.213391 1.18089 38 19 21 
0.031482 0.108357 1.18881 254 63 63 
0.0345721 0.0171418 1.1933 54 52 254 
0.0352767 0.195779 1.18408 40 34 34 
0.0427859 0.445975 1.17058 40 38 39 
0.0491196 -0.210105 1.26005 254 51 47 
0.0477427 0.125812 1.1913 254 66 64 
0.0559228 0.179759 1.19221 59 254 60 
0.055874 0.318535 1.18282 42 38 37 
0.0573987 0.0927095 1.19791 78 76 77 
0.0595919 0.0740749 1.19953 32 32 254 
0.0666 -0.19154 1.27049 30 29 27 
0.0660261 0.337853 1.18604 254 37 35 
0.071143 0.107067 1.20196 254 35 35 
0.0735554 0.205008 1.19696 26 254 24 
0.0929897 0.127189 1.22628 29 29 29 
0.0959854 0.271686 1.22071 47 47 255 
-0.00285843 0.0780026 1.18585 51 51 51 
-0.00158528 0.289543 1.17007 44 28 29 
0.00969002 0.0942138 1.18573 40 40 40 
0.00786883 0.40585 1.16822 26 254 30 
0.027706 0.132897 1.18605 255 42 42 
0.0363845 0.462457 1.16931 45 43 254 
0.0405201 0.217883 1.18345 45 44 42 
0.048873 0.0244958 1.19701 59 60 254 
0.0557376 0.162108 1.19398 42 43 254 
-0.0104714 -0.313333 1.30716 0 0 0 
0.007577 -0.216954 1.25982 50 49 44 
0.0210616 -0.210778 1.26286 61 57 54 
-0.0172521 0.143912 1.1861 21 19 20 
-0.0127482 0.30039 1.17585 24 22 255 
0.0324992 -0.200163 1.26525 52 48 254 
-0.00705162 0.211777 1.18262 41 255 43 
-0.00624151 0.239227 1.18153 47 46 42 
0.0080128 0.135803 1.18902 255 66 64 
0.0179463 0.0155076 1.19681 255 46 46 
0.0227718 0.214471 1.18729 255 50 28 
0.0232436 0.292428 1.18335 255 45 25 
0.0317768 0.048216 1.1987 35 33 255 
0.0413575 0.283521 1.18877 34 36 255 
0.00208388 -0.725506 1.43475 0 0 0 
-0.035787 0.113026 1.18935 47 46 44 
-0.0307587 0.244778 1.18044 19 20 255 
-0.0201342 0.43666 1.16757 25 24 22 
0.018115 0.106741 1.1937 255 55 55 
0.028361 0.618913 1.1559 35 254 38 
-0.0401952 0.0621709 1.19703 41 40 38 
-0.0354094 0.179266 1.18968 37 35 36 
-0.012157 0.0227134 1.19903 12 255 30 
-0.015161 0.159199 1.19249 24 25 255 
0.00796463 -0.676149 1.43303 0 0 0 
-0.153205 0.0807514 1.25899 0 0 0 
-0.040724 0.488438 1.15873 0 0 0 
-0.03665 0.139708 1.18323 0 0 0 
-0.0181987 0.504878 1.15504 0 0 0 
-0.0155638 0.477643 1.1579 0 0 0 
-0.0231611 0.0366923 1.18529 0 0 0 
-0.00462965 0.550464 1.15367 9 9 8 
-0.0121806 0.0445829 1.18431 0 0 0 
-0.00309153 0.260089 1.17184 0 0 0 
0.020637 0.568298 1.15027 254 82 78 
0.0065818 0.0163405 1.18633 0 0 0 
0.00717185 0.127157 1.18173 0 0 0 
0.014429 0.373149 1.16652 0 0 0 
0.0279855 0.579285 1.14856 67 66 254 
0.0162471 0.0786956 1.18571 0 0 0 
0.0237639 0.487867 1.16382 2 1 1 
0.0369041 0.61472 1.14764 31 31 29 
0.0237263 0.345727 1.17115 0 0 0 
