ply                 
format ascii 1.0    
element vertex 1313
property float x    
property float y    
property float z    
property uchar red  
property uchar green
property uchar blue 
end_header          
0.0222612 -0.355509 1.3308 0 0 0 
0.0229198 -0.411224 1.34905 0 0 0 
0.020546 -0.0199863 1.20258 125 116 254 
0.0212196 0.0487245 1.2004 254 40 39 
0.0201696 0.583445 1.16663 51 254 48 
0.0253026 -0.205511 1.26852 49 44 254 
0.0291113 -0.320171 1.31847 0 0 0 
0.0269093 0.357285 1.18637 254 55 53 
0.0282552 0.101782 1.20055 254 37 37 
0.0290113 0.0285846 1.20235 53 51 52 
0.0294769 0.21896 1.19353 254 47 27 
0.0299616 0.194716 1.19409 37 22 25 
0.0306108 0.111978 1.1999 31 31 254 
0.030677 0.126828 1.19869 27 28 254 
0.0313819 0.151558 1.19626 254 52 50 
0.035418 -0.32988 1.32271 0 0 0 
0.0340086 0.463107 1.18443 47 45 46 
0.0366527 -0.0194354 1.20659 70 63 254 
0.0369805 0.200373 1.19712 31 27 26 
0.0384698 0.0178808 1.2061 49 47 254 
0.037879 0.214855 1.19713 27 254 33 
0.0369525 0.411583 1.18677 51 254 50 
0.0373695 0.427794 1.18649 254 54 52 
0.0370297 0.625621 1.16584 52 53 253 
0.0413648 0.0523399 1.20554 16 16 16 
0.0467438 -0.318696 1.32136 0 0 0 
0.0443177 0.328682 1.19419 23 24 254 
0.0429041 0.5876 1.17181 48 254 47 
0.0493536 -0.213048 1.27157 254 51 47 
0.0466909 0.0986481 1.20626 21 19 20 
0.0495747 -0.124696 1.25576 24 25 254 
0.0475781 0.132129 1.2033 21 254 29 
0.0543547 0.108591 1.20833 57 57 254 
0.0563395 0.0185252 1.21252 49 48 46 
0.0623859 0.127011 1.21058 254 27 27 
0.0669608 -0.131206 1.2622 41 254 47 
0.0649788 0.312191 1.20267 254 47 45 
0.0664497 0.110213 1.21391 254 58 58 
0.0676818 0.0370056 1.21742 59 62 254 
0.0680582 0.138059 1.21232 254 21 19 
0.0751683 0.0102553 1.22112 33 31 254 
0.0796185 -0.0643179 1.24245 254 111 110 
0.0811651 0.0534732 1.22291 16 255 16 
-0.211729 0.536777 1.36832 0 0 0 
-0.1716 0.0617587 1.50795 0 0 0 
-0.209634 0.493888 1.35969 0 0 0 
-0.212046 0.46718 1.32948 0 0 0 
-0.206459 0.488181 1.34084 0 0 0 
-0.199794 0.292075 1.36236 0 0 0 
-0.205172 0.497115 1.33042 0 0 0 
-0.196686 0.0703745 1.35867 0 0 0 
-0.203814 0.508239 1.32651 0 0 0 
-0.192414 0.107579 1.35724 0 0 0 
-0.205772 0.466514 1.30798 0 0 0 
-0.168487 -0.110009 1.40921 0 0 0 
-0.152143 -0.230892 1.4293 0 0 0 
-0.18448 0.026773 1.31476 0 0 0 
-0.179436 0.102726 1.321 0 0 0 
-0.183531 0.291623 1.30533 0 0 0 
-0.18045 0.166831 1.31383 0 0 0 
-0.197031 0.623079 1.25155 6 2 2 
-0.182492 -0.00815161 1.30011 0 0 0 
-0.189162 0.544559 1.26573 0 0 0 
-0.178782 0.283774 1.30035 0 0 0 
-0.18134 0.466819 1.2801 0 0 0 
-0.176291 0.0174296 1.30128 0 0 0 
-0.172683 0.112469 1.30656 0 0 0 
-0.178495 0.397715 1.28408 0 0 0 
-0.186707 0.564953 1.25483 2 9 2 
-0.177334 -0.00611481 1.28853 0 0 0 
-0.173391 0.170842 1.29599 0 0 0 
-0.173106 0.00402159 1.29927 0 0 0 
-0.171234 0.120558 1.30163 0 0 0 
-0.142451 -0.243555 1.37737 0 0 0 
-0.170151 0.22047 1.28999 0 0 0 
-0.171213 0.272866 1.28511 0 0 0 
-0.170506 0.241698 1.28737 0 0 0 
-0.170522 0.0570873 1.2896 0 0 0 
-0.17003 0.229055 1.28524 0 0 0 
-0.169338 0.026498 1.29015 0 0 0 
-0.167338 0.0689356 1.29165 0 0 0 
-0.165937 0.000846852 1.27848 0 0 0 
-0.161805 0.22652 1.27967 0 0 0 
-0.160249 0.143671 1.28487 0 0 0 
-0.152369 -0.0911824 1.3094 0 0 0 
-0.138401 -0.16938 1.3487 0 0 0 
-0.17608 0.593571 1.22738 8 46 8 
-0.15038 -0.102274 1.30879 0 0 0 
-0.15739 0.0723023 1.28585 0 0 0 
-0.160052 0.199013 1.27551 0 0 0 
-0.159516 0.234076 1.27399 0 0 0 
-0.15773 0.170935 1.27706 0 0 0 
-0.160398 0.309341 1.26689 0 0 0 
-0.150082 -0.0769276 1.29972 0 0 0 
-0.138479 -0.157984 1.32951 0 0 0 
-0.14347 -0.115581 1.31324 0 0 0 
-0.156065 0.189323 1.2725 0 0 0 
-0.153635 -0.0489362 1.28192 0 0 0 
-0.153133 0.0978474 1.27986 0 0 0 
-0.15605 0.0323322 1.27241 0 0 0 
-0.152565 0.214166 1.26704 0 0 0 
-0.149785 0.151818 1.2699 0 0 0 
-0.151381 0.270344 1.26101 0 0 0 
-0.106427 -0.289476 1.38762 0 0 0 
-0.138473 -0.0891921 1.29791 0 0 0 
-0.123781 -0.191102 1.33156 0 0 0 
-0.12169 -0.199412 1.33435 0 0 0 
-0.147489 0.0324377 1.26332 0 0 0 
-0.143914 0.0868137 1.27099 0 0 0 
-0.146897 -0.0224195 1.26264 0 0 0 
-0.12954 -0.130228 1.30889 0 0 0 
-0.148673 0.364033 1.25023 1 2 1 
-0.137141 -0.0686909 1.28588 0 0 0 
-0.105584 -0.290441 1.3706 0 0 0 
-0.141819 -0.0424514 1.27007 0 0 0 
-0.143714 0.056531 1.26166 27 9 9 
-0.146189 0.340148 1.24996 0 0 0 
-0.124612 -0.142593 1.31174 0 0 0 
-0.140008 0.10633 1.26501 2 1 1 
-0.140657 0.0675271 1.26038 12 12 18 
-0.139746 0.121844 1.26152 0 0 0 
-0.120539 -0.151763 1.31145 0 0 0 
-0.141614 0.282519 1.24971 1 1 1 
-0.140176 0.0410085 1.25623 50 205 51 
-0.118489 -0.160358 1.31426 0 0 0 
-0.139387 0.0305429 1.25628 227 72 70 
-0.138314 0.218499 1.25385 5 3 2 
-0.0886554 -0.344421 1.38848 0 0 0 
-0.104551 -0.242885 1.34211 0 0 0 
-0.139971 0.378517 1.23749 39 38 36 
-0.148956 0.572844 1.21147 29 29 21 
-0.0952626 -0.296567 1.35758 0 0 0 
-0.133867 -0.0305325 1.25478 61 57 56 
-0.130851 0.102662 1.25732 23 113 17 
-0.110416 -0.157252 1.30822 0 0 0 
-0.1073 -0.174152 1.31117 0 0 0 
-0.0986936 -0.231954 1.33117 0 0 0 
-0.141689 0.560743 1.21089 254 8 8 
-0.142967 0.581138 1.20142 37 34 25 
-0.131038 0.468149 1.2245 254 125 126 
-0.107094 -0.124766 1.29204 0 0 0 
-0.114401 -0.0685649 1.27078 41 43 208 
-0.127075 0.346638 1.23301 45 43 254 
-0.084287 -0.272388 1.34055 0 0 0 
-0.104856 -0.109561 1.28466 2 2 2 
-0.0968518 -0.169702 1.30456 0 0 0 
-0.0611523 -0.424111 1.39081 0 0 0 
-0.06939 -0.356998 1.36776 0 0 0 
-0.116836 -0.0224564 1.24594 254 71 68 
-0.111118 -0.0507812 1.2582 70 68 69 
-0.0929687 -0.161396 1.29774 0 0 0 
-0.0750475 -0.290432 1.34175 0 0 0 
-0.120636 0.46287 1.22068 9 254 32 
-0.0761911 -0.261408 1.3297 0 0 0 
-0.0515073 -0.432949 1.3885 0 0 0 
-0.122755 0.514782 1.20267 24 26 21 
-0.0519646 -0.416497 1.3818 0 0 0 
-0.128109 0.625943 1.18533 12 99 14 
-0.102906 -0.0529728 1.25461 254 57 56 
-0.0608596 -0.345053 1.35633 0 0 0 
-0.0670648 -0.296009 1.34083 0 0 0 
-0.106861 -0.0307616 1.2426 69 64 61 
-0.0852594 -0.16321 1.29208 0 0 0 
-0.039175 -0.481794 1.4018 0 0 0 
-0.0892428 -0.114945 1.27702 251 48 46 
-0.106148 0.0243219 1.23523 254 47 46 
-0.044293 -0.441195 1.38544 0 0 0 
-0.0614568 -0.306654 1.34053 0 0 0 
-0.0680159 -0.266473 1.32209 0 0 0 
-0.0570103 -0.328593 1.34735 0 0 0 
-0.103768 -0.0205316 1.23373 58 54 254 
-0.014376 -0.661339 1.44806 0 0 0 
-0.100597 0.127405 1.23564 41 39 40 
-0.0626108 -0.277212 1.32955 0 0 0 
-0.0468558 -0.3891 1.36722 0 0 0 
-0.0540916 -0.317077 1.34145 0 0 0 
-0.0191439 -0.565557 1.42439 0 0 0 
-0.0121249 -0.603666 1.43952 0 0 0 
-0.0604421 -0.260236 1.31983 0 0 0 
-0.0480345 -0.338354 1.34703 0 0 0 
-0.0353452 -0.426731 1.37433 0 0 0 
-0.0750983 -0.143001 1.27854 54 53 49 
-0.0908652 -0.0426259 1.24029 57 52 49 
-0.0386494 -0.388493 1.36091 0 0 0 
-0.0922434 0.189333 1.22715 33 254 26 
0.00667088 -0.727872 1.45927 0 0 0 
-0.0912267 -0.0213965 1.22793 92 254 88 
-0.0742328 -0.112958 1.26537 69 68 64 
-0.0620869 -0.194512 1.29335 11 12 12 
-0.0659055 -0.158669 1.27919 51 47 44 
-0.0563542 -0.221989 1.2994 101 105 72 
-0.0392559 -0.332176 1.33696 0 0 0 
-0.102282 0.608989 1.17745 35 33 34 
-0.0639935 -0.147113 1.27228 63 58 254 
-0.0686556 -0.10173 1.25932 254 27 26 
-0.0286704 -0.379013 1.35006 0 0 0 
-0.0183738 -0.448433 1.37344 0 0 0 
-0.0983214 0.594568 1.17698 43 41 42 
0.00563013 -0.649274 1.41967 0 0 0 
0.0168449 -0.747715 1.44517 0 0 0 
0.00636376 -0.66037 1.41898 0 0 0 
-0.0654745 -0.0803687 1.24808 49 47 254 
-0.0749589 0.0675526 1.22515 35 33 255 
-0.0503044 -0.192147 1.28264 4 254 85 
-0.0176998 -0.409299 1.35642 0 0 0 
-0.0372128 -0.281627 1.31184 0 1 1 
-0.024853 -0.341417 1.33317 0 0 0 
-0.0638228 -0.0694486 1.24007 254 59 57 
-0.0429253 -0.209723 1.28529 58 55 254 
-0.0327043 -0.270163 1.30622 121 113 78 
-0.0616647 -0.0609665 1.23364 83 81 82 
-0.0734638 0.466651 1.19927 38 254 40 
-0.0423881 -0.182344 1.27164 44 45 254 
-0.0608485 -0.0535251 1.22848 76 254 90 
-0.0662095 0.241589 1.2123 254 28 27 
-0.0446145 -0.150281 1.26165 54 52 254 
-0.0640874 0.00747926 1.21776 55 51 254 
-0.0535496 -0.0841765 1.23979 46 254 48 
-0.062042 0.0250061 1.21596 54 255 65 
-0.0508556 -0.0680224 1.23272 70 71 254 
-0.0517572 0.231398 1.21116 255 4 2 
0.018867 -0.419655 1.36395 0 0 0 
-0.00161673 -0.305201 1.31902 1 1 1 
-0.0622259 0.626784 1.16515 61 57 54 
-0.0157305 -0.216704 1.27069 64 59 254 
-0.0392332 0.0929137 1.21527 41 40 38 
-0.0399269 0.107368 1.2107 44 255 43 
-0.0407224 0.196706 1.20584 41 39 40 
-0.0398427 0.177918 1.20565 69 255 76 
-0.0409476 0.206491 1.20174 55 55 55 
-0.0410025 0.247179 1.20037 32 30 31 
0.0225999 -0.32602 1.33117 37 42 148 
-0.0148202 -0.0903038 1.24377 52 51 49 
-0.0334315 0.145759 1.203 41 44 255 
-0.0320929 0.118856 1.20328 255 37 33 
-0.0298587 0.0698729 1.20787 49 48 46 
0.0062622 -0.202333 1.27577 26 254 33 
-0.000916142 -0.122239 1.25639 66 254 65 
-0.0126921 0.0239649 1.20857 255 11 10 
-0.00769765 0.10948 1.20321 48 50 49 
-0.00872136 0.219488 1.19852 36 34 254 
-0.0027182 0.185185 1.20008 255 47 43 
0.000428277 0.124236 1.20389 35 255 39 
0.00416405 -0.0206317 1.20978 116 111 255 
0.00162361 0.220571 1.19785 36 34 255 
0.009606 0.0930408 1.20792 255 31 30 
0.0147434 0.0267258 1.20993 255 32 30 
0.0052112 0.563685 1.1835 29 28 254 
0.0299984 0.415827 1.19617 255 45 44 
0.0437136 0.631557 1.17739 254 33 31 
-0.193796 0.0592247 1.42636 0 0 0 
-0.182122 0.118464 1.41176 0 0 0 
-0.118612 0.435053 1.20848 0 0 0 
-0.113639 0.129645 1.23088 0 0 0 
-0.112226 0.415126 1.20642 0 0 0 
-0.112839 -0.211472 1.32017 0 0 0 
-0.0987195 0.353554 1.2036 0 0 0 
-0.0830297 0.101992 1.21602 0 0 0 
-0.0774614 -0.0591404 1.23083 0 0 0 
-0.0760157 0.265397 1.20112 0 0 1 
-0.0648387 -0.230366 1.2948 0 0 0 
-0.0551902 0.038465 1.20126 58 61 253 
-0.0545692 -0.00891109 1.19623 95 254 64 
-0.0395943 0.28892 1.18148 30 30 30 
-0.0355661 0.620687 1.15196 16 16 84 
-0.0314943 -0.193819 1.26258 0 0 0 
-0.029535 -0.101153 1.2333 4 2 2 
-0.0253365 -0.212766 1.27117 0 0 0 
-0.0192812 -0.581975 1.40948 0 0 0 
-0.0155359 0.0865027 1.19432 76 78 254 
-0.0138465 -0.571235 1.4051 0 0 0 
-0.0124598 -0.419928 1.34854 0 0 0 
-0.00912324 -0.355554 1.32499 0 0 0 
-0.00954095 -0.311943 1.4214 0 0 0 
-0.00205459 -0.282811 1.30007 0 0 0 
0.00094084 0.0730853 1.19618 55 254 56 
0.000978655 0.314682 1.62316 28 254 16 
0.00700168 0.573697 1.16273 34 32 33 
0.0126428 0.0733941 1.19712 39 39 39 
0.0205603 0.119147 1.19657 56 254 57 
0.0210201 0.623559 1.15873 84 82 251 
0.0282115 0.0621408 1.20188 254 8 8 
0.0270209 0.506719 1.17809 40 41 254 
0.0409414 0.0667803 1.20466 254 31 31 
0.0563533 0.323293 1.19604 42 38 37 
-0.212486 0.55688 1.41003 0 0 0 
-0.198292 -0.0080529 1.44759 0 0 0 
-0.22329 0.469401 1.34344 0 0 0 
-0.20766 0.0496023 1.39509 0 0 0 
-0.207606 0.00358473 1.39517 0 0 0 
-0.216013 0.495188 1.34518 0 0 0 
-0.202112 0.204363 1.39432 0 0 0 
-0.210632 -0.00643353 1.36847 0 0 0 
-0.205711 0.287454 1.3762 0 0 0 
-0.208361 0.392379 1.3647 0 0 0 
-0.201466 0.192327 1.38712 0 0 0 
-0.206929 0.306953 1.36622 0 0 0 
-0.197563 0.0840029 1.39983 0 0 0 
-0.202289 0.199985 1.37102 0 0 0 
-0.205134 0.0277888 1.36492 0 0 0 
-0.205452 0.0517224 1.36257 0 0 0 
-0.205724 0.00816888 1.36248 0 0 0 
-0.213825 0.50253 1.32622 0 0 0 
-0.200028 0.161224 1.37119 0 0 0 
-0.201642 0.178207 1.3653 0 0 0 
-0.202176 0.213673 1.36267 0 0 0 
-0.184986 0.337235 1.41333 0 0 0 
-0.183233 -0.0763003 1.42665 0 0 0 
-0.213046 0.552573 1.31881 0 0 0 
-0.203127 0.237083 1.35473 0 0 0 
-0.212372 0.496889 1.31714 0 0 0 
-0.198005 0.143508 1.36923 0 0 0 
-0.203125 0.0609207 1.35398 0 0 0 
-0.203043 0.201472 1.34981 0 0 0 
-0.212929 0.506246 1.3109 0 0 0 
-0.20576 0.365536 1.33508 0 0 0 
-0.197486 0.103278 1.36108 0 0 0 
-0.201996 -0.017675 1.34919 0 0 0 
-0.211607 0.562309 1.30424 0 0 0 
-0.197343 0.127242 1.35554 0 0 0 
-0.199258 0.0700673 1.35065 0 0 0 
-0.191625 -0.0446219 1.37422 0 0 0 
-0.196331 0.0945059 1.35434 0 0 0 
-0.197369 0.145365 1.34923 0 0 0 
-0.210913 0.479767 1.29984 0 0 0 
-0.201038 0.292819 1.32937 0 0 0 
-0.199454 0.20365 1.33441 0 0 0 
-0.176273 -0.0858397 1.40723 0 0 0 
-0.199635 0.0201707 1.33267 0 0 0 
-0.183248 -0.0586174 1.38347 0 0 0 
-0.21406 0.508239 1.27744 0 0 0 
-0.196694 0.185972 1.33192 0 0 0 
-0.199576 0.283945 1.32102 0 0 0 
-0.19574 0.167002 1.33038 0 0 0 
-0.192141 0.07346 1.34205 0 0 0 
-0.186995 -0.0473052 1.3568 0 0 0 
-0.1971 0.296616 1.31776 0 0 0 
-0.196292 0.193596 1.32138 0 0 0 
-0.195335 0.181253 1.32164 0 0 0 
-0.216369 0.464298 1.25233 0 0 0 
-0.19946 0.333173 1.30434 0 0 0 
-0.195421 -0.0195805 1.32143 0 0 0 
-0.202225 0.395208 1.28959 0 0 0 
-0.191876 0.127986 1.32282 0 0 0 
-0.208945 0.493547 1.26248 0 0 0 
-0.192644 0.00164927 1.31894 0 0 0 
-0.206059 0.457475 1.26714 0 0 0 
-0.194942 0.300042 1.29954 0 0 0 
-0.160232 -0.146665 1.41003 0 0 0 
-0.195963 0.373203 1.29289 0 0 0 
-0.188281 -0.0349945 1.32011 0 0 0 
-0.192889 -0.00623733 1.29997 0 0 0 
-0.190858 0.250556 1.29866 0 0 0 
-0.20488 0.52606 1.25 0 0 0 
-0.18914 0.0450058 1.30543 0 0 0 
-0.181372 -0.0473223 1.33001 0 0 0 
-0.152746 -0.208266 1.41588 0 0 0 
-0.162547 -0.0377899 1.38228 0 0 0 
-0.187867 0.0266234 1.30483 0 0 0 
-0.183768 -0.0420368 1.31115 0 0 0 
-0.149929 -0.267498 1.41216 0 0 0 
-0.188857 0.266804 1.28828 0 0 0 
-0.187321 0.228205 1.29137 0 0 0 
-0.150084 -0.192855 1.40536 0 0 0 
-0.186108 -0.00790065 1.28967 0 0 0 
-0.150794 -0.160788 1.39251 0 0 0 
-0.180335 0.163228 1.30097 0 0 0 
-0.168077 -0.0846042 1.33881 0 0 0 
-0.181327 0.152882 1.29469 0 0 0 
-0.144143 -0.21786 1.39393 0 0 0 
-0.146538 -0.265544 1.38756 0 0 0 
-0.148433 -0.163417 1.37994 0 0 0 
-0.17666 0.135061 1.28701 0 0 0 
-0.15993 -0.0982267 1.33789 0 0 0 
-0.179518 0.23908 1.27579 0 0 0 
-0.153355 -0.142844 1.35462 0 0 0 
-0.197866 0.587145 1.21339 4 4 4 
-0.168844 0.141723 1.28615 0 0 0 
-0.143461 -0.206116 1.36169 0 0 0 
-0.151239 -0.134007 1.33467 0 0 0 
-0.170422 0.111547 1.27684 0 0 0 
-0.140268 -0.266594 1.36581 0 0 0 
-0.172651 0.196133 1.26636 0 0 0 
-0.168645 0.169365 1.27074 0 0 0 
-0.141867 -0.200438 1.34972 0 0 0 
-0.170769 0.262125 1.25792 0 0 0 
-0.169273 0.183351 1.26291 0 0 0 
-0.169214 0.239966 1.26153 0 0 0 
-0.170614 0.272845 1.25243 0 0 0 
-0.140181 -0.213422 1.34221 0 0 0 
-0.158518 0.066089 1.27591 0 0 0 
-0.163087 -0.0317721 1.26268 0 0 0 
-0.177563 0.546251 1.21186 231 60 60 
-0.0977931 -0.338804 1.44039 0 0 0 
-0.135819 -0.185417 1.33494 0 0 0 
-0.158911 0.105528 1.26591 0 0 0 
-0.154928 -0.0601066 1.27845 0 0 0 
-0.16823 0.384732 1.23516 0 0 0 
-0.14552 -0.123425 1.30413 0 0 0 
-0.139685 -0.16574 1.31841 0 0 0 
-0.159852 0.221172 1.25262 0 0 0 
-0.162576 0.284353 1.24191 0 0 0 
-0.135097 -0.174956 1.31972 0 0 0 
-0.163398 0.351045 1.2347 0 0 0 
-0.123614 -0.239454 1.34841 0 0 0 
-0.155926 0.0165901 1.25725 0 0 0 
-0.152467 -0.0560667 1.26568 0 0 0 
-0.0962063 -0.335344 1.41767 0 0 0 
-0.153397 0.12548 1.25898 0 0 0 
-0.126336 -0.209208 1.33243 0 0 0 
-0.106201 -0.302773 1.38303 0 0 0 
-0.144148 -0.0749158 1.27983 0 0 0 
-0.115518 -0.259565 1.35711 0 0 0 
-0.150395 0.0732061 1.25765 0 0 0 
-0.0934539 -0.347928 1.40909 0 0 0 
-0.120148 -0.235248 1.33376 0 0 0 
-0.097681 -0.326826 1.38967 0 0 0 
-0.148608 -0.0193871 1.25293 29 31 25 
-0.166407 0.529633 1.19749 44 39 254 
-0.12634 -0.174611 1.31261 0 0 0 
-0.149474 0.233549 1.24135 1 1 1 
-0.104808 -0.300507 1.36363 0 0 0 
-0.161918 0.467119 1.20414 51 254 67 
-0.117194 -0.212738 1.3294 0 0 0 
-0.146641 -0.0304395 1.24986 1 1 1 
-0.108648 -0.276553 1.34991 0 0 0 
-0.133969 -0.0875683 1.28173 0 0 0 
-0.145825 0.0252916 1.24885 49 50 137 
-0.0692782 -0.421985 1.44182 0 0 0 
-0.147102 0.258569 1.23009 6 29 5 
-0.0864286 -0.368606 1.39334 0 0 0 
-0.125043 -0.121326 1.29125 0 0 0 
-0.0964369 -0.316531 1.3665 0 0 0 
-0.111336 -0.22449 1.32627 0 0 0 
-0.0833812 -0.378773 1.39858 0 0 0 
-0.134521 -0.0553541 1.26335 0 0 0 
-0.15722 0.492922 1.19505 24 254 103 
-0.0933253 -0.331701 1.36751 0 0 0 
-0.0881955 -0.356302 1.37802 0 0 0 
-0.147508 0.34922 1.21711 58 244 63 
-0.126751 -0.0764652 1.27407 0 0 0 
-0.0944866 -0.32464 1.35845 0 0 0 
-0.0715788 -0.419302 1.41674 0 0 0 
-0.110955 -0.19822 1.31397 0 0 0 
-0.122467 -0.109762 1.2819 0 0 0 
-0.0782051 -0.385317 1.39257 0 0 0 
-0.135342 0.0247842 1.2419 37 253 94 
-0.115855 -0.139551 1.28918 0 0 0 
-0.135856 0.1902 1.23253 75 253 67 
-0.0921043 -0.311267 1.34877 0 0 0 
-0.0851066 -0.352149 1.36536 0 0 0 
-0.0809239 -0.37283 1.37488 0 0 0 
-0.0920398 -0.282863 1.34206 0 0 0 
-0.0952011 -0.225758 1.31333 0 0 0 
-0.122103 0.0773911 1.23931 38 39 254 
-0.127053 0.163965 1.22408 55 254 57 
-0.0535739 -0.472184 1.40718 0 0 0 
-0.0761441 -0.347271 1.34547 0 0 0 
-0.0694378 -0.366796 1.36141 0 0 0 
-0.110398 -0.0742898 1.25826 49 254 53 
-0.129266 0.346384 1.20429 71 69 70 
-0.134281 0.467381 1.18589 19 19 29 
-0.0926749 -0.168066 1.28815 0 0 0 
-0.108787 -0.0603861 1.24699 63 254 62 
-0.041918 -0.514069 1.41125 0 0 0 
-0.0607569 -0.377782 1.35874 0 0 0 
-0.0239036 -0.578038 1.4412 0 0 0 
-0.128296 0.493622 1.17618 254 50 49 
-0.0789121 -0.201731 1.29875 0 0 0 
-0.0432945 -0.475604 1.3824 0 0 0 
-0.0191188 -0.597194 1.43865 0 0 0 
-0.0667653 -0.312171 1.32337 0 0 0 
-0.0346172 -0.516059 1.40069 0 0 0 
-0.0198387 -0.655697 1.43541 0 0 0 
-0.11742 0.355586 1.19389 254 21 21 
-0.0918864 -0.100954 1.25907 41 37 34 
-0.0992236 -0.0571047 1.24061 51 52 254 
-0.0444118 -0.433822 1.3711 0 0 0 
-0.0937581 -0.0835296 1.25166 64 254 53 
-0.105056 0.104065 1.21996 74 74 254 
-0.017637 -0.636923 1.42577 0 0 0 
-0.103367 0.0337998 1.21745 254 23 22 
-0.0979064 -0.053534 1.22994 70 66 67 
-0.00246165 -0.732194 1.44834 0 0 0 
-0.0651365 -0.266906 1.29626 0 0 0 
-0.022652 -0.50992 1.39236 0 0 0 
-0.0269363 -0.480703 1.38032 0 0 0 
-0.0077612 -0.376884 1.41944 0 0 0 
-0.0837309 -0.0756189 1.24346 78 77 75 
-0.0589484 -0.601178 1.30652 0 0 0 
-0.0912605 -0.0336457 1.22519 65 62 57 
-0.108916 0.455053 1.17663 62 254 69 
-0.0938829 0.150264 1.21056 52 48 254 
-0.0646913 -0.180218 1.27797 138 17 16 
-0.00544142 -0.638142 1.41558 0 0 0 
-0.0285882 -0.436761 1.36027 0 0 0 
-0.0850302 0.0517276 1.22215 13 13 255 
0.0104743 -0.734325 1.44384 0 0 0 
-0.0792589 -0.0711602 1.23443 254 72 71 
0.01102 -0.699614 1.44245 0 0 0 
-0.0421327 -0.323896 1.31794 0 0 0 
-0.00949099 -0.513398 1.38913 0 0 0 
0.0094076 -0.664045 1.43199 0 0 0 
-0.0973235 0.389753 1.1799 43 254 41 
-0.0674232 -0.121683 1.25199 254 57 55 
0.015587 -0.74629 1.44239 0 0 0 
-0.100401 0.480837 1.16887 27 25 254 
-0.0259023 -0.382956 1.33501 0 0 0 
-0.00197491 -0.521716 1.38902 0 0 0 
-0.0908787 0.362715 1.18262 36 34 254 
-0.0465157 -0.254054 1.28581 47 189 44 
0.00594136 -0.659319 1.40348 0 0 0 
0.00113126 -0.537798 1.38989 0 0 0 
0.0107036 -0.578508 1.41126 0 0 0 
-0.00716032 -0.457667 1.3606 0 0 0 
-0.0587603 -0.125751 1.24175 254 60 59 
0.0138967 -0.650789 1.40478 0 0 0 
-0.0313281 -0.293705 1.3005 2 3 2 
0.0127653 -0.525287 1.39248 0 0 0 
-0.0125953 -0.38041 1.33403 0 0 0 
-0.00846918 -0.398541 1.34309 0 0 0 
-0.072586 0.245622 1.18853 35 33 34 
0.0432791 -0.655361 1.43969 0 0 0 
-0.0215807 -0.279808 1.29735 51 49 228 
-0.0470188 -0.130166 1.24107 69 65 254 
-0.0699401 0.220355 1.1843 82 83 254 
-0.0305789 -0.223255 1.27256 49 45 254 
-0.0120509 -0.261444 1.2948 254 80 79 
-0.0176883 -0.248334 1.2778 88 88 78 
-0.0418448 -0.0833236 1.21903 71 254 63 
-0.00751036 -0.270717 1.28961 59 58 56 
-0.055585 0.325485 1.17449 43 42 40 
-0.0514988 0.219217 1.18376 64 64 62 
-0.0550318 0.310384 1.17056 49 52 255 
0.0216705 -0.349275 1.33295 0 0 0 
-0.0321506 -0.0637213 1.2141 4 5 0 
-0.0549487 0.418031 1.16004 31 254 47 
-0.0503214 0.294584 1.16927 255 36 34 
0.0309641 -0.368818 1.33983 1 1 1 
-0.00542528 -0.18959 1.26088 254 25 24 
0.0361842 -0.379415 1.3455 0 0 0 
-0.0460583 0.225729 1.17201 37 38 255 
-0.0467905 0.329576 1.16511 28 26 254 
-0.0137805 -0.103851 1.23584 20 254 18 
-0.0213759 -0.0619742 1.21683 61 54 254 
0.0386213 -0.348048 1.33615 252 71 67 
0.00568249 -0.233219 1.26482 254 19 19 
-0.00305533 -0.132075 1.23899 67 254 71 
-0.0376118 0.345234 1.16497 255 50 49 
-0.0279019 0.130659 1.18153 255 42 41 
0.0610036 -0.322777 1.35162 71 254 85 
0.0213202 -0.25098 1.27117 72 70 254 
0.0268003 -0.192536 1.27285 30 29 27 
0.0266263 -0.17761 1.27126 51 49 254 
0.0222403 -0.237871 1.26283 69 254 65 
-0.0135811 0.139692 1.18329 44 42 45 
-0.0162118 0.181271 1.17451 255 47 43 
-0.0123778 0.0967105 1.18267 255 36 38 
0.0256078 -0.137679 1.25742 254 67 66 
-0.0105701 0.192522 1.17993 10 5 9 
-0.0168691 0.353928 1.16529 55 55 255 
0.0391752 -0.193236 1.27344 55 53 254 
0.00696894 -0.0423399 1.20969 52 255 72 
-0.00170525 0.0832412 1.18929 33 31 32 
0.0340691 -0.111505 1.2535 61 59 255 
0.0270248 -0.0798076 1.23972 94 89 255 
-0.0060068 0.226914 1.17195 44 43 41 
0.0931839 0.0258053 1.3591 10 8 9 
-0.00369022 0.256876 1.17426 44 42 254 
0.0487715 -0.15079 1.2703 255 53 49 
-0.00110878 0.348267 1.16818 255 30 28 
0.0221721 -0.0345725 1.21474 53 50 45 
0.011056 0.0502219 1.19066 10 255 11 
0.00482203 0.29819 1.17478 24 20 17 
0.0439698 -0.107097 1.25027 64 62 255 
0.00117882 0.38978 1.1658 35 36 255 
0.00849155 0.256072 1.17751 31 22 23 
0.0192083 -0.0147836 1.1945 59 255 67 
0.0221357 0.0154173 1.19871 255 46 46 
0.0644491 -0.171516 1.27734 254 44 43 
0.068531 -0.192537 1.28419 35 34 32 
0.0208271 0.0843681 1.19414 74 72 73 
0.0218178 0.0347578 1.1948 39 255 59 
0.0566883 -0.0876687 1.24809 21 20 18 
0.024795 0.234735 1.1863 17 19 255 
0.0658733 -0.118427 1.25874 58 255 62 
0.0642732 -0.103602 1.25564 39 255 43 
0.0499795 -0.0478875 1.22662 67 63 255 
0.0468891 -0.0396657 1.22022 54 255 51 
0.030107 0.244168 1.18673 25 255 46 
0.0295998 0.285173 1.18209 26 27 255 
0.0335136 0.209452 1.1892 31 255 49 
0.0417661 0.00838145 1.20551 255 24 20 
0.0269726 0.380719 1.17494 255 44 42 
0.0358089 0.165824 1.1919 41 40 38 
0.0677457 -0.0855727 1.24945 70 255 60 
0.0436666 0.12048 1.19974 36 255 41 
0.0446094 0.0252402 1.20243 46 255 31 
0.0367634 0.259267 1.18476 43 24 26 
0.0528705 0.0570698 1.20779 255 46 45 
0.0561576 0.0862986 1.20727 22 23 255 
0.0672251 -0.0355116 1.22525 65 63 50 
0.0483368 0.301617 1.18813 45 26 28 
0.0533938 0.23247 1.19741 28 30 255 
0.0566185 0.184112 1.20214 24 255 19 
0.0522545 0.254144 1.1936 24 255 39 
0.0636371 0.0628857 1.21373 24 24 24 
0.072899 -0.0482727 1.22967 76 70 255 
0.0597499 0.16138 1.20406 28 255 34 
0.0684845 0.0934456 1.21197 51 255 7 
0.0606852 0.3102 1.19532 10 254 30 
0.0802053 0.0533796 1.22128 13 11 255 
0.116764 0.20941 1.27042 52 50 53 
0.0990845 0.0574859 1.24062 21 21 255 
0.0966813 0.011251 1.23561 255 41 40 
0.105731 0.239387 1.24642 34 33 255 
0.100889 0.0281741 1.23814 255 45 44 
0.112909 0.0557982 1.25168 17 15 255 
0.108345 0.0414371 1.24323 38 255 36 
0.139393 0.637181 1.21615 254 46 44 
-0.227598 0.605766 1.37354 0 0 0 
-0.209882 -0.00214799 1.40811 0 0 0 
-0.208728 0.495456 1.3789 0 0 0 
-0.202704 0.0505904 1.40335 0 0 0 
-0.205141 0.596502 1.36936 0 0 0 
-0.20108 0.33915 1.38227 0 0 0 
-0.211529 0.470801 1.35022 0 0 0 
-0.205005 0.538222 1.36414 0 0 0 
-0.183347 -0.0727109 1.43099 0 0 0 
-0.185889 -0.0604425 1.4187 0 0 0 
-0.205053 0.506437 1.3571 0 0 0 
-0.200496 0.0199368 1.37759 0 0 0 
-0.204872 -0.00423578 1.36678 0 0 0 
-0.19707 0.183935 1.37897 0 0 0 
-0.195019 0.31847 1.37503 0 0 0 
-0.202026 0.534248 1.34848 0 0 0 
-0.202277 0.547074 1.34345 0 0 0 
-0.200639 0.595036 1.34346 0 0 0 
-0.200466 0.564222 1.33906 0 0 0 
-0.19178 0.12054 1.36627 0 0 0 
-0.170544 -0.102125 1.42136 0 0 0 
-0.190666 0.0910456 1.36596 0 0 0 
-0.19064 0.145892 1.35981 0 0 0 
-0.193792 0.0203754 1.34663 0 0 0 
-0.166014 -0.102882 1.3974 0 0 0 
-0.190829 -0.0198567 1.33224 0 0 0 
-0.185426 0.129419 1.33788 0 0 0 
-0.149487 -0.249318 1.43018 0 0 0 
-0.182715 -0.0353218 1.33301 0 0 0 
-0.148502 -0.207224 1.41445 0 0 0 
-0.147267 -0.212354 1.40534 0 0 0 
-0.189056 0.489917 1.28609 0 0 0 
-0.186013 0.469642 1.28778 0 0 0 
-0.143017 -0.218368 1.3965 0 0 0 
-0.176894 0.0269738 1.30909 0 0 0 
-0.176663 0.0397883 1.3059 0 0 0 
-0.176141 0.265522 1.30107 0 0 0 
-0.144462 -0.163028 1.38029 0 0 0 
-0.146938 -0.145325 1.35992 0 0 0 
-0.170782 0.0101353 1.29619 0 0 0 
-0.169644 0.046687 1.29541 0 0 0 
-0.169056 0.323333 1.29098 0 0 0 
-0.16392 0.142966 1.29684 0 0 0 
-0.104686 -0.311334 1.42668 0 0 0 
-0.103065 -0.322823 1.42865 0 0 0 
-0.107839 -0.303704 1.41721 0 0 0 
-0.163743 -0.0160304 1.28301 0 0 0 
-0.159728 0.293002 1.27984 0 0 0 
-0.171278 0.623043 1.23587 8 7 7 
-0.141936 -0.0721058 1.29504 0 0 0 
-0.149121 0.0166657 1.27131 0 0 0 
-0.149294 0.041559 1.26982 0 0 0 
-0.146036 0.24421 1.26721 0 0 0 
-0.057653 -0.452746 1.41867 0 0 0 
-0.133898 0.00181536 1.25834 59 255 66 
-0.119414 -0.0767535 1.28387 0 0 0 
-0.126479 0.113383 1.25898 43 45 130 
-0.0340002 -0.524524 1.45201 0 0 0 
-0.124112 0.087863 1.25859 56 202 30 
-0.122566 0.00816444 1.24997 254 51 51 
-0.058469 -0.316643 1.36492 0 0 0 
-0.11629 -0.00816112 1.24043 75 74 72 
-0.0313585 -0.494827 1.40483 0 0 0 
-0.122008 0.546227 1.21454 22 254 20 
-0.0116097 -0.649783 1.4368 0 0 0 
-0.0109735 -0.65985 1.42972 0 0 0 
-0.100443 0.0941928 1.24351 18 20 254 
-0.0398499 -0.378128 1.36123 0 0 0 
-0.0597541 -0.243032 1.31437 0 0 0 
0.0137733 -0.738641 1.4511 0 0 0 
-0.0749433 -0.1254 1.27637 252 69 70 
0.0163654 -0.723764 1.45396 0 0 0 
0.0234731 -0.742692 1.45048 0 0 0 
-0.0125596 -0.45794 1.37846 0 0 0 
-0.00728204 -0.481101 1.38646 0 0 0 
-0.014075 -0.433574 1.37066 0 0 0 
-0.016556 -0.419483 1.36499 0 0 0 
0.0173112 -0.605458 1.4231 0 0 0 
-0.0191098 -0.373392 1.34746 0 0 0 
-0.0782461 0.0939923 1.23342 37 35 36 
-0.0368479 -0.224426 1.29226 70 70 68 
0.000989636 -0.41348 1.36069 0 0 0 
-0.0693623 0.122511 1.22882 49 50 254 
-0.0130075 -0.312483 1.32231 0 0 0 
0.03649 -0.498878 1.39936 0 0 0 
-0.0443415 0.0740557 1.22431 21 20 18 
-0.0439805 0.194366 1.21612 254 9 7 
-0.00950046 -0.187359 1.27488 68 52 53 
-0.0318136 0.0583297 1.21529 55 54 52 
-0.0399261 0.475306 1.19331 254 40 38 
-0.0362344 0.317905 1.20012 51 49 254 
-0.027214 0.186689 1.20566 46 47 254 
-0.0208746 0.138477 1.20955 34 32 255 
-0.00519774 -0.0357408 1.21895 28 24 254 
-0.00421682 0.247456 1.20169 26 27 255 
-0.00535607 0.492724 1.18931 34 32 254 
0.0239223 0.0994326 1.2141 255 44 42 
0.0263828 0.110968 1.21329 52 50 51 
0.0653996 -0.109615 1.27044 55 56 255 
0.0354532 -0.0206873 1.22394 26 22 255 
0.0258786 0.317256 1.20336 254 39 38 
0.0344091 0.0742376 1.2165 2 255 12 
0.0346307 0.281996 1.20755 36 254 36 
-0.189741 0.0316934 1.34895 0 0 0 
-0.177664 0.199707 1.28315 0 0 0 
-0.172937 0.154483 1.27898 0 0 0 
-0.17074 0.191092 1.27301 0 0 0 
-0.160819 0.581423 1.20022 0 0 0 
-0.147835 0.496432 1.20306 0 0 0 
-0.14032 0.357046 1.2226 0 0 0 
-0.132055 0.599197 1.1752 1 1 1 
-0.130095 0.0655226 1.23735 0 0 0 
-0.126697 0.478151 1.19521 0 0 0 
-0.118142 0.177704 1.21891 0 0 0 
-0.119976 -0.215198 1.31668 0 0 0 
-0.107974 0.549208 1.1757 148 31 31 
-0.107279 0.184289 1.21436 0 0 0 
-0.11772 -0.266989 1.34998 0 0 0 
-0.0983055 0.519324 1.17163 27 24 18 
-0.0995645 0.460544 1.19098 0 0 0 
-0.0981971 -0.0752992 1.24355 0 0 0 
-0.094378 0.013942 1.20897 0 0 0 
-0.0899587 0.463799 1.18227 4 5 3 
-0.0929709 -0.210483 1.29367 0 0 0 
-0.085558 -0.0494557 1.21871 0 0 0 
-0.0764365 0.617729 1.15111 2 0 0 
-0.0719295 0.623385 1.13054 0 0 0 
-0.0763833 -0.196824 1.28003 0 0 0 
-0.0666282 -0.209571 1.27482 0 0 0 
-0.0636055 -0.393347 1.35459 0 0 0 
-0.050358 0.622874 1.12681 0 0 0 
-0.051534 0.476849 1.16751 35 36 254 
-0.0554936 -0.364493 1.33751 0 0 0 
-0.0542729 -0.405625 1.352 0 0 0 
-0.0451778 0.411235 1.16397 254 33 32 
-0.0422849 0.535578 1.16114 55 254 48 
-0.0417784 -0.314453 1.30286 0 0 0 
-0.0427222 -0.402304 1.34439 0 0 0 
-0.0329353 0.151002 1.17751 83 254 82 
-0.0303505 0.623454 1.1264 0 0 0 
-0.0299647 -0.14597 1.23551 0 0 0 
-0.0309524 -0.398782 1.33036 0 0 0 
-0.0293377 -0.277071 1.2813 0 0 0 
-0.0260715 -0.053005 1.19837 74 74 254 
-0.024019 -0.644298 1.42402 0 0 0 
-0.0210986 -0.493296 1.36813 0 0 0 
-0.0168348 -0.12305 1.2309 69 43 44 
-0.0166051 -0.198466 1.24777 0 0 0 
-0.0151918 -0.384791 1.32442 0 0 0 
-0.013319 0.594555 1.15132 41 40 254 
-0.00916328 0.354781 1.16729 29 29 254 
-0.0071736 -0.0938513 1.2241 20 18 19 
-0.00330695 -0.636619 1.39318 0 0 0 
-0.00301672 -0.337683 1.31299 0 0 0 
-0.00251442 0.472821 1.16355 48 46 254 
0.00260676 -0.670307 1.41921 0 0 0 
0.00101806 0.394366 1.17016 24 25 254 
0.00347663 -0.546777 1.38059 0 0 0 
0.00233468 0.411669 1.17039 47 47 47 
0.00470635 -0.334657 1.30616 0 0 0 
0.00539063 0.200533 1.17917 23 24 254 
0.00781565 -0.690388 1.42434 0 0 0 
0.00715703 -0.2248 1.24647 59 253 61 
0.00859357 -0.561522 1.38703 0 0 0 
0.00861724 -0.531964 1.38074 0 0 0 
0.00785854 -0.17739 1.25131 44 43 41 
0.0096472 -0.517923 1.37328 0 0 0 
0.00992861 -0.279723 1.25709 0 0 0 
0.00780896 0.457825 1.16834 23 24 254 
0.0113913 -0.390515 1.32909 0 0 0 
0.00894117 0.561815 1.16154 30 28 29 
0.011363 -0.0758042 1.22078 66 65 63 
0.010976 0.624844 1.14135 15 15 67 
0.02061 -0.597953 1.39226 0 0 0 
0.0197591 -0.267328 1.25701 0 0 1 
0.0216589 -0.331896 1.31148 0 0 0 
0.0197943 -0.00137129 1.18427 25 24 22 
0.0237153 -0.559019 1.39116 0 0 0 
0.0241129 -0.193563 1.25631 95 254 92 
0.0228399 0.51811 1.16997 52 50 51 
0.0234857 0.368443 1.17596 22 20 21 
0.0222667 0.623158 1.13881 27 26 25 
0.0285467 -0.302324 1.30092 0 0 0 
0.0318557 -0.402096 1.338 0 0 0 
0.0332891 -0.377376 1.32798 0 0 0 
0.0278506 0.483782 1.17201 254 66 65 
0.0368373 -0.577224 1.41492 0 0 0 
0.0312782 0.0911577 1.18874 40 254 87 
0.032831 -0.0523521 1.21191 67 63 60 
0.0308489 0.401006 1.17441 25 26 254 
0.0367493 -0.341172 1.31874 0 0 0 
0.0351818 -0.194088 1.25593 37 254 41 
0.039739 -0.527291 1.40038 0 0 0 
0.0389499 -0.438397 1.35325 0 0 0 
0.0326925 0.390705 1.17768 41 42 254 
0.0354731 0.315175 1.18046 32 254 48 
0.0373553 0.602424 1.15998 32 254 34 
0.0454511 -0.29923 1.3005 2 2 1 
0.0435259 -0.0889446 1.23319 30 254 24 
0.0417452 0.449127 1.17844 28 254 31 
0.0473045 -0.200303 1.2586 42 40 41 
0.0445865 0.273975 1.18608 29 254 35 
0.0443222 0.466862 1.17867 36 34 35 
0.0454713 0.570846 1.17025 40 38 39 
0.0484608 0.0617421 1.18774 30 30 254 
0.0475084 0.413633 1.17844 42 254 42 
0.0494671 0.150042 1.19258 53 51 52 
0.0558757 -0.187277 1.26421 45 254 43 
0.0519574 0.440994 1.18187 28 27 25 
0.0525043 0.54554 1.17844 254 29 27 
0.0586917 -0.207502 1.266 254 60 56 
0.0589909 -0.158549 1.25837 45 43 254 
0.0630077 -0.215652 1.27722 254 51 47 
0.061275 -0.101717 1.23835 54 53 51 
0.0585462 0.627745 1.14462 62 60 210 
0.0640616 -0.0322528 1.20931 70 67 254 
0.0627989 0.332918 1.19149 254 37 33 
0.0664374 -0.0844255 1.23609 254 32 30 
0.0629533 0.434766 1.18406 43 41 254 
0.068859 -0.151584 1.25803 42 254 26 
0.0688009 -0.117527 1.24582 254 105 103 
0.066637 0.0707985 1.20376 14 14 14 
0.0637958 0.589701 1.16975 44 254 50 
0.0661622 0.289894 1.18862 254 38 36 
0.0655589 0.451845 1.18668 254 65 64 
0.067293 0.259823 1.19426 31 31 31 
0.0783123 -0.0981864 1.24326 30 29 27 
0.0761242 0.125566 1.20783 61 61 254 
0.0771923 0.0396488 1.21167 49 254 50 
0.0841527 -0.185565 1.28627 254 44 43 
0.079559 0.451798 1.20926 62 60 63 
0.0940801 -0.349624 1.38838 46 254 72 
0.0815928 0.344755 1.21241 254 28 26 
0.0872725 -0.150799 1.27406 254 39 35 
0.0864708 -0.10704 1.25245 92 91 89 
0.0836237 0.255741 1.21805 34 254 34 
0.0814094 0.514514 1.19679 41 254 39 
0.0840564 0.194611 1.21939 40 254 46 
0.081175 0.566602 1.19134 35 254 26 
0.0835353 0.390168 1.21206 254 37 35 
0.0851919 0.166626 1.22283 33 31 32 
0.0874002 0.0750387 1.22631 254 54 54 
0.0881967 0.0253694 1.21781 55 254 49 
0.0888515 0.181373 1.22328 38 38 38 
0.0891041 0.405239 1.21904 254 56 55 
0.0903064 0.238688 1.22241 30 30 30 
0.0894678 0.419076 1.2142 41 39 254 
0.0895554 0.490421 1.20222 254 53 51 
0.0905558 0.445797 1.21306 254 54 52 
0.0926331 0.223326 1.22759 30 30 32 
0.0935882 0.127837 1.23307 29 29 29 
0.0981308 -0.141235 1.28498 79 74 255 
0.093132 0.00140276 1.21684 34 35 254 
0.0947302 0.157968 1.22904 44 42 43 
0.0926121 0.468888 1.21481 22 20 21 
0.0953792 0.0185674 1.22189 62 60 254 
0.098926 0.101643 1.23573 255 28 28 
0.0974099 0.391202 1.22283 30 30 254 
0.0991618 0.0389615 1.22353 15 16 254 
0.0989725 0.268674 1.22973 55 255 59 
0.104009 0.077372 1.23567 55 255 58 
0.103681 0.208345 1.23486 254 24 24 
0.102884 0.421898 1.22638 36 34 35 
0.10553 0.0911282 1.23825 59 59 255 
0.103969 0.454423 1.22322 254 51 50 
0.106043 0.0470439 1.22532 61 57 56 
0.107042 0.218454 1.23893 29 30 255 
0.10769 0.136773 1.24128 32 254 35 
0.108478 0.120971 1.24208 255 27 27 
0.105778 0.476678 1.22147 28 26 27 
0.108207 0.464332 1.22901 11 10 8 
0.108921 0.511257 1.21715 47 45 48 
0.11279 0.151555 1.24726 31 29 30 
0.112294 0.0583289 1.23404 43 43 43 
0.111104 0.424391 1.23612 70 68 69 
0.111709 0.437948 1.2361 35 254 34 
0.112176 0.387366 1.23702 42 254 62 
0.116511 0.0888352 1.25003 255 54 52 
0.113791 0.477336 1.23183 65 64 62 
0.113389 0.501819 1.22088 23 24 254 
0.135086 -0.26723 1.42434 35 31 28 
0.116364 0.572423 1.22291 60 58 59 
0.12213 0.0296044 1.24469 254 44 42 
0.121665 0.00874163 1.23509 40 39 37 
0.120656 0.510527 1.22911 254 37 36 
0.12907 0.111308 1.26692 255 63 63 
0.143683 -0.223619 1.39655 28 27 255 
0.130308 0.0601368 1.26098 52 255 57 
0.12967 0.350319 1.25983 254 41 40 
0.129872 0.390542 1.25893 54 50 49 
0.129588 0.476718 1.25627 47 45 254 
0.149515 0.0905542 1.4498 53 255 60 
0.130997 0.37202 1.26225 57 254 61 
0.137872 0.269068 1.28548 255 47 46 
0.13828 0.0823638 1.2757 69 65 64 
0.147056 -0.128265 1.35651 55 51 48 
0.137095 0.00521078 1.25842 50 48 255 
0.137615 0.429114 1.26906 254 50 49 
0.149375 -0.138433 1.36424 255 59 58 
0.133184 0.631591 1.22311 36 37 254 
0.149153 -0.116652 1.353 51 52 255 
0.134714 0.599612 1.22839 254 20 18 
0.143271 0.383685 1.28184 32 31 29 
0.144738 0.0231502 1.27193 81 255 69 
0.148237 0.354841 1.31456 255 48 46 
0.147081 0.00446198 1.26884 255 64 63 
0.165682 -0.0789356 1.35721 55 53 255 
0.152858 0.634791 1.21456 80 254 66 
-0.179266 0.125679 1.31316 0 0 0 
-0.171335 0.549227 1.23859 0 0 0 
-0.136522 -0.212292 1.34456 0 0 0 
-0.13689 0.146664 1.25294 0 0 0 
-0.133514 -0.156259 1.31745 0 0 0 
-0.130702 -0.261751 1.3686 0 0 0 
-0.124699 0.611826 1.18409 20 18 139 
-0.118403 0.503203 1.1993 24 137 27 
-0.0936566 0.628716 1.14654 0 0 0 
-0.0634154 -0.407443 1.37783 0 0 0 
-0.0735808 0.583363 1.16852 254 36 32 
-0.0611472 0.312868 1.20183 49 49 254 
-0.051833 -0.232617 1.29191 0 0 0 
-0.0536378 -0.156527 1.26266 0 0 0 
-0.0304641 -0.486308 1.38683 0 0 0 
-0.0223479 -0.510052 1.39308 0 0 0 
-0.0320557 0.369509 1.18298 33 34 254 
-0.0323267 0.452545 1.17797 57 55 254 
-0.00507209 -0.627084 1.41544 0 0 0 
-0.00347352 -0.328458 1.32073 0 0 0 
-0.0152278 0.424049 1.17907 254 46 45 
-0.0135185 0.461011 1.17791 254 54 53 
0.0177362 -0.657796 1.40754 0 0 0 
-0.000494432 0.274777 1.18861 25 26 254 
0.00070079 0.29468 1.18708 44 28 29 
0.0329567 0.584637 1.1713 33 31 32 
0.0382351 0.380923 1.19133 42 40 41 
0.0658272 -0.183763 1.28221 78 254 86 
0.0541342 0.568567 1.18721 41 39 40 
-0.18268 0.0600748 1.43048 0 0 0 
-0.172526 0.0614038 1.48048 0 0 0 
-0.141587 0.173588 1.25322 0 0 0 
-0.126142 0.387072 1.21846 0 0 0 
-0.054151 -0.449213 1.38653 0 0 0 
-0.050267 -0.470081 1.39186 0 0 0 
-0.0641326 0.34747 1.19444 254 58 56 
-0.0385265 -0.464558 1.38184 0 0 0 
-0.0120775 -0.643557 1.39268 0 0 0 
0.00763819 -0.35919 1.33178 0 0 0 
0.0123808 0.00784822 1.20298 38 40 255 
0.0139643 0.374052 1.1816 254 46 46 
0.0248772 -0.0625678 1.23285 60 254 64 
0.0186658 0.461712 1.17866 52 254 50 
0.0245919 0.567836 1.17108 55 56 254 
-0.18806 0.600216 1.24083 17 4 4 
-0.143157 0.0642623 1.4391 0 0 0 
-0.0846283 -0.062952 1.24647 1 1 1 
-0.0474532 -0.312008 1.35901 0 0 0 
-0.10881 0.0603389 1.4894 0 0 0 
0.00658763 -0.617717 1.44568 0 0 0 
-0.199925 0.504093 1.28936 0 0 0 
-0.181539 0.551366 1.25566 0 0 0 
-0.0934683 -0.318556 1.37411 0 0 0 
-0.0887916 -0.284849 1.35015 0 0 0 
-0.0300794 -0.520187 1.41132 0 0 0 
-0.0716891 -0.00109808 1.22582 45 44 40 
-0.205355 0.518491 1.35264 0 0 0 
-0.200014 -0.0230283 1.37784 0 0 0 
-0.154973 -0.13763 1.38729 0 0 0 
-0.156524 -0.0986163 1.34002 0 0 0 
-0.136663 -0.202169 1.36101 0 0 0 
-0.0961237 -0.333641 1.41711 0 0 0 
-0.154064 0.334577 1.26756 0 0 0 
-0.150473 0.349232 1.26118 0 0 0 
-0.0824427 -0.368176 1.41556 0 0 0 
-0.134278 0.133925 1.26331 1 3 1 
-0.151634 0.603447 1.21472 43 13 13 
-0.151003 0.617884 1.21458 6 6 5 
-0.141298 0.506918 1.22625 45 254 55 
-0.124621 -0.0198481 1.25349 67 65 66 
-0.123077 0.366011 1.23607 64 67 254 
-0.111524 0.0444181 1.24187 254 90 88 
-0.0104708 -0.539829 1.41006 0 0 0 
-0.0899607 0.342564 1.22041 47 45 46 
-0.313898 0.662008 1.36787 0 0 0 
-0.267725 0.653954 1.37044 0 0 0 
-0.160971 0.0388806 1.51492 0 0 0 
-0.204768 0.0434599 1.43162 0 0 0 
-0.255753 0.648717 1.34233 168 48 46 
-0.196751 0.125103 1.43668 0 0 0 
-0.294945 0.655334 1.28094 0 0 0 
-0.196275 0.184124 1.43267 0 0 0 
-0.195436 0.147621 1.4343 0 0 0 
-0.229913 0.591734 1.3733 0 0 0 
-0.194835 0.0811995 1.43186 0 0 0 
-0.196475 0.137018 1.42381 0 0 0 
-0.208991 -0.0148115 1.40356 0 0 0 
-0.198673 0.18051 1.41309 0 0 0 
-0.222131 0.571541 1.3703 0 0 0 
-0.248047 0.650382 1.32715 71 59 246 
-0.201217 0.113947 1.40549 0 0 0 
-0.199789 -0.0332298 1.40637 0 0 0 
-0.198431 0.124781 1.40259 0 0 0 
-0.19656 0.084363 1.40542 0 0 0 
-0.202948 0.340357 1.3886 0 0 0 
-0.213216 0.51315 1.36891 0 0 0 
-0.201595 0.263627 1.3902 0 0 0 
-0.205521 -0.0161134 1.39109 0 0 0 
-0.194216 -0.0417857 1.40238 0 0 0 
-0.196456 0.102917 1.39047 0 0 0 
-0.201475 0.325387 1.37674 0 0 0 
-0.180839 -0.0734374 1.41302 0 0 0 
-0.163673 -0.144784 1.43794 0 0 0 
-0.208929 0.549584 1.35378 0 0 0 
-0.212418 0.389888 1.33613 0 0 0 
-0.205901 0.500078 1.34017 0 0 0 
-0.204246 0.57378 1.33186 25 24 21 
-0.196829 0.236091 1.34791 0 0 0 
-0.202406 0.517778 1.33096 0 0 0 
-0.202889 0.590361 1.32614 54 46 230 
-0.203021 0.488968 1.32363 0 0 0 
-0.202709 0.520519 1.3196 0 0 0 
-0.205012 0.553344 1.31388 111 3 3 
-0.188018 -0.0316887 1.34373 0 0 0 
-0.176819 -0.056817 1.35729 0 0 0 
-0.144389 -0.265375 1.39498 0 0 0 
-0.184586 0.160255 1.33217 0 0 0 
-0.229028 0.640603 1.26283 57 56 51 
-0.198849 0.52837 1.2968 48 252 49 
-0.162379 -0.0813299 1.33938 0 0 0 
-0.212231 0.63455 1.25349 83 80 75 
-0.0875923 -0.362111 1.42344 0 0 0 
-0.196325 0.579999 1.26864 40 40 40 
-0.0798953 -0.392528 1.4311 0 0 0 
-0.215543 0.653993 1.23956 69 64 255 
-0.0904899 -0.347314 1.41102 0 0 0 
-0.174526 -0.0178802 1.29427 254 71 71 
-0.0727692 -0.411193 1.42682 0 0 0 
-0.0935831 -0.329594 1.39953 0 0 0 
-0.159291 -0.0760627 1.31382 0 0 0 
-0.0682115 -0.427038 1.4323 0 0 0 
-0.176002 0.411377 1.28228 59 54 254 
-0.0781501 -0.393008 1.41671 0 0 0 
-0.164659 0.162168 1.29294 70 66 63 
-0.068419 -0.418475 1.41988 0 0 0 
-0.0739778 -0.40171 1.41108 0 0 0 
-0.075767 -0.389589 1.40419 0 0 0 
-0.111277 -0.255597 1.35861 0 0 0 
-0.0430716 -0.502225 1.43556 0 0 0 
-0.0178111 -0.660008 1.45435 0 0 0 
-0.0196102 -0.579428 1.44902 0 0 0 
-0.075874 -0.362101 1.37618 0 0 0 
-0.0652458 -0.391191 1.38102 0 0 0 
-0.145543 0.00527811 1.26571 254 36 35 
0.0121563 -0.757639 1.45609 0 0 0 
-0.0963996 -0.199391 1.32 1 1 1 
0.0201909 -0.743691 1.45847 0 0 0 
-0.06997 -0.253802 1.32399 0 0 0 
0.0327954 -0.589725 1.42273 0 0 0 
-0.0431234 -0.263695 1.31181 75 70 252 
-0.141195 0.629012 1.18447 254 54 54 
-0.0997473 0.0143862 1.23572 40 41 255 
-0.105681 0.538978 1.20447 39 47 58 
0.0540529 -0.404655 1.36774 1 1 0 
-0.0105994 0.0703071 1.21174 24 255 16 
-0.142249 0.105852 1.248 0 0 0 
-0.0663738 0.52732 1.16285 254 55 53 
-0.027963 0.472887 1.16011 45 254 43 
-0.00248624 0.472025 1.162 48 46 254 
-0.00118628 0.370844 1.16623 254 39 37 
0.00910727 0.38773 1.16896 254 32 31 
0.0109235 0.623969 1.13851 15 15 67 
0.0125334 0.281198 1.17535 29 254 48 
0.0130243 0.323164 1.17356 254 44 40 
0.0149213 0.608106 1.14884 254 48 47 
0.0194929 0.164427 1.1847 36 36 254 
0.0232158 0.531445 1.16625 34 35 254 
0.0255086 0.251283 1.18036 254 48 23 
0.0313818 0.441308 1.17134 39 254 40 
0.0339971 0.624157 1.13148 4 4 4 
0.0366097 0.306545 1.17923 43 41 254 
0.0376657 0.0978201 1.19355 76 76 254 
0.0365296 0.505085 1.17184 254 21 19 
0.0366629 0.48212 1.17162 254 41 39 
0.0372102 0.600913 1.15596 32 254 34 
0.0388139 0.359354 1.17798 22 254 24 
0.0466907 0.0384034 1.19896 56 52 53 
0.0452805 0.568488 1.16463 40 38 39 
0.0511397 0.0554643 1.20108 20 254 19 
0.0479537 0.622728 1.15339 254 68 66 
0.0617139 0.219448 1.19344 254 27 25 
0.0645118 0.33093 1.19022 254 34 30 
0.0633301 0.579898 1.16936 46 47 254 
0.0665141 0.149265 1.20261 28 29 254 
0.0736778 0.0700958 1.20951 254 36 36 
0.0747931 0.415552 1.19904 32 254 37 
0.076534 0.598338 1.17394 254 37 35 
0.0793422 0.449865 1.20479 62 60 63 
0.0794306 0.476449 1.1969 26 27 254 
0.0808251 0.349328 1.2093 30 31 254 
0.0815155 0.329748 1.21131 28 254 21 
0.0835237 0.25511 1.21578 34 254 34 
0.0849168 0.110949 1.22506 255 33 33 
0.0834466 0.388817 1.20915 254 37 35 
0.0875401 0.0756776 1.23036 254 54 54 
0.0845854 0.4704 1.20302 54 52 53 
0.087611 0.27835 1.21852 254 32 30 
0.0887462 0.0406897 1.22082 254 55 53 
0.0882824 0.45035 1.21108 254 46 45 
0.0887887 0.40261 1.2128 254 56 55 
0.09132 0.263981 1.22124 47 255 43 
0.0919861 0.240239 1.22281 254 28 28 
0.0924113 0.38939 1.21613 50 254 58 
0.094441 0.18172 1.22618 38 36 37 
0.0922243 0.53433 1.20179 46 47 254 
0.104497 0.220798 1.23319 16 16 254 
0.104742 0.347026 1.22867 254 6 4 
0.10311 0.555446 1.20914 54 55 254 
0.110341 0.106806 1.24522 255 30 30 
0.108624 0.416133 1.22939 56 55 53 
0.10871 0.510213 1.21455 47 45 48 
0.114187 0.493468 1.21915 254 46 45 
0.119349 0.122119 1.25278 64 62 255 
0.121763 0.364092 1.24425 48 46 254 
0.121606 0.489312 1.2307 56 54 254 
0.122236 0.510744 1.22727 254 47 46 
0.125745 0.347745 1.25216 43 42 40 
0.133292 0.0527168 1.25855 44 45 255 
0.133156 0.361866 1.25995 255 45 44 
0.134979 0.326322 1.27796 255 49 45 
0.13694 0.350417 1.2683 49 47 255 
0.138787 0.183776 1.2721 255 31 27 
0.140037 0.0410358 1.2637 58 255 63 
0.145061 0.05727 1.26964 85 79 81 
-0.0508204 0.490269 1.16106 38 37 35 
-0.0292519 -0.152834 1.24237 76 78 255 
-0.0206336 -0.279004 1.28723 0 0 0 
5.67521e-05 -0.153757 1.2478 51 254 56 
-0.00381358 0.0556105 1.18808 22 254 23 
0.00859382 -0.226773 1.25688 28 30 254 
0.00134711 0.0448491 1.18803 42 40 255 
0.0255567 -0.184583 1.25938 254 53 52 
0.0344472 -0.195318 1.2617 9 6 254 
0.0462234 -0.300404 1.30514 254 72 68 
0.0423261 -0.162271 1.25874 42 254 44 
0.0467742 -0.14263 1.25336 93 91 254 
0.0559483 -0.0865484 1.23683 45 255 49 
0.0493891 0.0860766 1.1971 255 21 19 
0.0650702 -0.214376 1.281 59 55 52 
0.0684882 -0.0384208 1.21603 36 33 26 
0.0707722 0.00492814 1.2101 255 47 46 
0.0795016 -0.0186781 1.21264 74 72 73 
0.11693 0.0509641 1.2405 30 255 33 
0.148915 0.0248383 1.27316 49 49 47 
-0.0109219 -0.663161 1.43052 0 0 0 
-0.0106997 0.518062 1.35879 254 43 41 
0.0391831 -0.116418 1.24791 78 255 87 
0.0179522 -0.00150318 1.19625 255 7 6 
-0.0417177 0.0186944 1.36229 51 49 50 
-0.00379268 -0.654091 1.42892 0 0 0 
-0.0617911 0.0482173 1.20724 28 26 255 
-0.069168 0.051758 1.20714 71 45 47 
0.0099198 -0.410627 1.38748 0 0 0 
0.0103503 -0.194906 1.25852 33 31 254 
0.0090638 0.387813 1.16959 254 32 31 
0.0134217 0.177872 1.1842 254 21 15 
0.0129787 0.323252 1.17388 254 44 40 
0.0190252 -0.346097 1.3212 0 0 0 
0.0195791 -0.219401 1.2592 36 36 34 
0.0204566 0.26261 1.18028 47 21 20 
0.0208016 0.274075 1.178 41 21 23 
0.0303071 0.471312 1.16875 72 70 71 
0.0467681 0.0383309 1.1998 56 52 53 
0.0557951 0.203932 1.19271 32 254 52 
0.0604856 0.0482599 1.2053 20 254 34 
0.0621384 0.484256 1.18017 29 27 28 
0.0665426 0.148929 1.20192 28 29 254 
0.0740984 0.0836586 1.2101 59 57 58 
0.0853843 0.129855 1.22543 43 43 43 
0.0830195 0.480498 1.19661 51 49 254 
0.0933093 0.140683 1.23009 32 30 31 
0.0920879 0.533546 1.19964 46 47 254 
0.107097 0.00194278 1.22774 23 255 25 
0.112152 0.210341 1.2413 77 73 74 
0.114148 0.49337 1.21863 254 46 45 
0.1235 0.0420521 1.24642 75 255 42 
0.124985 0.020126 1.24834 68 66 255 
0.121523 0.489088 1.22982 56 54 254 
0.128984 -0.0304246 1.26449 50 255 56 
0.136327 0.327221 1.27912 11 10 255 
0.140037 0.0410679 1.26351 58 255 63 
0.0318222 -0.161121 1.25731 46 44 254 
0.060389 0.393774 1.1851 254 54 52 
0.0766177 -0.0730195 1.2365 54 55 255 
-0.161347 -0.267807 1.38109 0 0 0 
-0.0177288 0.282331 1.17868 254 65 64 
-0.0237675 0.481683 1.16508 40 38 254 
0.0573752 -0.362174 1.40278 1 1 2 
-0.0467978 0.494718 1.17181 28 26 27 
-0.168484 0.0518107 1.27557 0 0 0 
-0.148416 0.335452 1.24426 0 0 0 
-0.154645 0.219473 1.26103 0 0 0 
-0.148282 0.257436 1.24961 0 0 0 
-0.147355 0.227492 1.25168 0 0 0 
-0.154484 0.0712721 1.27366 0 0 0 
-0.150202 0.0822643 1.26991 0 0 0 
-0.129732 -0.0236617 1.24469 0 0 0 
-0.134059 0.174268 1.24526 0 0 0 
-0.139179 -0.0570164 1.27502 0 0 0 
-0.153813 -0.0811448 1.3043 0 0 0 
-0.163969 -0.117926 1.3263 0 0 0 
-0.106014 0.368357 1.20821 0 0 0 
-0.103067 0.353422 1.20444 0 0 0 
-0.117557 0.0898352 1.24449 0 0 0 
-0.0973349 0.302847 1.20579 0 0 0 
-0.103606 0.194118 1.22168 0 0 0 
-0.163561 -0.144333 1.33985 0 0 0 
-0.103015 0.183039 1.22202 0 0 0 
-0.109273 0.111184 1.2384 0 0 0 
-0.0957725 -0.0257887 1.2218 0 0 0 
-0.100444 0.219865 1.21957 0 0 0 
-0.0955374 0.235133 1.21345 0 0 0 
-0.108529 -0.0522003 1.24924 0 0 0 
-0.0991273 0.202675 1.2261 0 0 0 
-0.0911914 0.204996 1.21298 0 0 0 
-0.0885582 0.236862 1.20744 0 0 0 
-0.0858862 0.318541 1.19951 0 0 0 
-0.0912054 0.0550422 1.22028 0 0 0 
-0.142199 -0.142323 1.3182 0 0 0 
-0.0897603 0.215415 1.21303 0 0 0 
-0.0874606 0.0629476 1.21586 0 0 0 
-0.0899701 0.108173 1.22239 0 0 0 
-0.0887829 0.183037 1.21726 0 0 0 
-0.0807465 -0.0231987 1.21376 0 0 0 
-0.0893676 0.0722112 1.22602 0 0 0 
-0.0857764 0.0426039 1.2219 0 0 0 
-0.0821743 0.264771 1.20652 0 0 0 
-0.0826497 0.320672 1.20598 0 0 0 
-0.0872664 0.0904665 1.22496 0 0 0 
-0.0788123 0.0404732 1.21334 0 0 0 
-0.154344 -0.2164 1.36125 0 0 0 
-0.0863955 0.0847173 1.23098 0 0 0 
-0.170169 -0.276799 1.39477 0 0 0 
-0.0760757 0.28396 1.20482 0 0 0 
-0.124002 -0.160188 1.30942 0 0 0 
-0.0900718 -0.0624513 1.24508 0 0 0 
-0.08316 -0.060645 1.23619 0 0 0 
-0.0786004 0.0511289 1.22404 0 0 0 
-0.157665 -0.261304 1.38117 0 0 0 
-0.0697659 0.204721 1.20788 0 0 0 
-0.135306 -0.210128 1.34412 0 0 0 
-0.0706774 0.193865 1.21098 0 0 0 
-0.0707812 0.224338 1.21494 0 0 0 
-0.0615585 0.0479847 1.20664 0 0 0 
-0.0608964 0.228931 1.20043 0 0 0 
-0.0923212 -0.116091 1.2727 0 0 0 
-0.0765297 -0.0735301 1.24241 0 0 0 
-0.083382 -0.102806 1.25927 0 0 0 
-0.0673896 0.0576595 1.22371 0 0 0 
-0.116041 -0.194106 1.32523 0 0 0 
-0.0472265 0.330113 1.17753 0 0 0 
-0.0836552 -0.124492 1.26479 0 0 0 
-0.0608394 0.0743265 1.21767 0 0 0 
-0.061583 -0.0686212 1.22561 0 0 0 
-0.0592779 0.0959416 1.21442 0 0 0 
-0.049637 0.1986 1.19613 0 0 0 
-0.0679742 -0.10525 1.24505 0 0 0 
-0.0452397 0.205279 1.18997 0 0 0 
-0.0391688 0.331268 1.17328 0 0 0 
-0.0454328 0.220473 1.19124 0 0 0 
-0.0749242 -0.140626 1.26445 0 0 0 
-0.047423 0.131013 1.20271 0 0 0 
-0.0467482 0.179209 1.20002 0 0 0 
-0.0470763 0.095183 1.20558 0 0 0 
-0.0866951 -0.195669 1.29283 0 0 0 
-0.0395261 0.197197 1.18913 0 0 0 
-0.0350243 0.316221 1.17562 0 0 0 
-0.0423518 0.0913484 1.19967 0 0 0 
-0.0685822 -0.134061 1.25896 0 0 0 
-0.0909363 -0.196615 1.30439 0 0 0 
-0.0451974 0.113477 1.20589 0 0 0 
-0.0569628 -0.103476 1.23756 0 0 0 
-0.0378203 0.227936 1.18874 0 0 0 
-0.0328862 0.347347 1.17534 0 0 0 
-0.0380565 0.214198 1.19118 0 0 0 
-0.0406821 0.0408906 1.20533 0 0 0 
-0.0430314 -0.064843 1.21537 0 0 0 
-0.047678 -0.0910281 1.22533 0 0 0 
-0.0316285 0.307631 1.17758 0 0 0 
-0.0371968 0.0507484 1.20085 0 0 0 
-0.0322246 0.258672 1.18505 0 0 0 
-0.0783285 -0.202007 1.29268 0 0 0 
-0.0252643 0.285066 1.17153 0 0 0 
-0.0240083 0.444011 1.16408 60 60 60 
-0.0247196 0.310881 1.17188 1 0 0 
