ply                 
format ascii 1.0    
element vertex 1313
property float x    
property float y    
property float z    
property uchar red  
property uchar green
property uchar blue 
end_header          
-4.73334 -1.82939 7.70409 196 184 168 
-5.36286 -2.45083 8.75114 65 81 36 
-3.56439 0.989196 5.84734 208 179 161 
-4.68833 -1.8291 7.68042 34 34 0 
-5.36438 -2.84702 8.83097 33 31 18 
-3.80335 -1.15264 6.27157 69 76 25 
-3.51018 1.01413 5.81957 169 145 119 
-3.66114 0.847656 6.07928 75 77 76 
-5.19041 0.682334 8.62472 143 137 101 
-3.48196 0.974484 5.7951 96 62 37 
-3.48192 1.01285 5.79998 146 128 90 
-3.47924 1.04392 5.80023 189 172 118 
-5.15979 0.687869 8.59663 18 9 0 
-5.23082 -2.82347 8.70936 63 79 34 
-3.46706 0.999326 5.78979 208 187 166 
-5.21954 -2.77322 8.69773 91 108 56 
-3.46179 1.03907 5.78862 216 201 144 
-3.45791 1.01102 5.78413 232 213 181 
-5.13844 0.662067 8.59799 11 14 0 
-3.44859 1.00199 5.7792 73 46 25 
-3.43563 1.04371 5.76997 208 192 166 
-3.43563 1.04371 5.76997 208 192 166 
-3.42857 0.969192 5.76385 115 77 56 
-3.42543 0.995226 5.76511 67 32 10 
-5.11031 0.663851 8.60236 180 177 142 
-5.11031 0.663851 8.60236 180 177 142 
-3.41424 1.0778 5.7622 212 202 143 
-3.41388 1.01548 5.76241 222 203 186 
-3.41576 1.06992 5.76698 108 96 38 
-3.41305 1.09371 5.76667 201 190 136 
-3.40641 1.08326 5.76025 130 117 64 
-3.39434 1.0395 5.7489 206 188 166 
-3.38389 0.988455 5.73756 209 192 172 
-3.38431 1.06296 5.74472 211 193 147 
-3.38275 1.04319 5.74206 108 89 57 
-3.38765 1.12814 5.75638 209 192 164 
-3.3788 1.07246 5.74171 205 190 135 
-4.75443 0.195838 8.07344 183 171 89 
-3.37492 1.04971 5.73939 219 198 167 
-3.37503 1.06432 5.7399 66 47 5 
-3.3709 1.02766 5.73351 137 120 92 
-3.36294 0.965257 5.729 124 91 74 
-3.36534 1.07094 5.73475 78 78 16 
-3.3681 1.11238 5.74281 66 38 24 
-4.72684 0.213691 8.05156 138 125 106 
-3.3565 0.984691 5.72648 111 84 65 
-3.3565 0.984691 5.72648 111 84 65 
-3.35667 1.00489 5.72859 115 91 67 
-3.35945 1.07496 5.73488 205 195 124 
-3.35096 1.04558 5.72715 206 186 127 
-3.35688 1.15482 5.74011 199 173 146 
-3.35688 1.15482 5.74011 199 173 146 
-4.70815 0.222812 8.04302 23 7 0 
-3.50106 0.835436 5.99267 205 198 190 
-3.34145 1.09152 5.72397 111 83 59 
-3.33573 1.07223 5.72378 106 93 25 
-3.33878 1.10804 5.72969 230 205 164 
-5.09785 -0.712072 8.73087 232 242 207 
-3.33384 1.13869 5.72681 104 84 31 
-3.50041 0.820453 6.01145 76 68 65 
-3.32896 1.12231 5.72048 63 45 9 
-3.66511 -1.06282 6.28064 36 25 7 
-3.32034 1.10355 5.71537 226 205 160 
-3.32366 1.12593 5.72158 254 245 204 
-3.31496 1.11694 5.71338 43 19 0 
-3.53161 0.794433 6.08793 140 135 132 
-3.31233 1.14785 5.71441 184 159 129 
-3.31223 1.12052 5.71726 255 237 210 
-4.35557 0.00793639 7.50985 165 170 138 
-3.44025 0.876876 5.93908 74 69 65 
-3.30734 1.20185 5.71437 144 127 97 
-3.29494 1.08003 5.69474 68 37 17 
-3.30357 1.14933 5.71098 113 91 54 
-3.29508 1.09384 5.6964 170 140 114 
-3.29288 1.04066 5.69667 201 197 134 
-3.39823 0.931495 5.87834 17 7 0 
-3.29138 1.06967 5.6948 165 144 123 
-3.29746 1.13805 5.70593 99 76 42 
-3.28447 0.959204 5.68484 88 56 33 
-3.40052 0.912658 5.8856 16 16 14 
-3.29567 1.17851 5.7075 207 197 170 
-4.3302 -0.00887087 7.4929 194 203 156 
-3.50628 0.780554 6.07353 115 114 110 
-4.57108 0.146063 7.91295 41 38 21 
-3.28356 1.02662 5.69066 163 152 88 
-3.2833 1.07232 5.69502 191 166 146 
-3.40592 0.836598 5.9216 27 23 22 
-3.26713 1.04229 5.68466 189 172 129 
-4.30104 -0.0399582 7.47519 28 27 0 
-3.27637 1.20111 5.70385 138 126 84 
-3.26758 1.13414 5.69019 52 31 0 
-3.26108 1.02824 5.67834 202 182 131 
-3.25487 0.964143 5.67406 175 147 123 
-3.25745 1.1228 5.68334 92 73 31 
-3.25119 0.975386 5.67166 194 170 108 
-3.28902 1.32199 5.74663 94 71 55 
-3.25722 1.19832 5.69161 121 109 67 
-3.24334 0.979318 5.66711 87 61 28 
-3.24223 1.0022 5.66908 181 161 108 
-3.28448 1.33057 5.74638 204 181 163 
-3.24002 0.991008 5.66725 96 75 28 
-3.24464 1.0991 5.67782 102 82 49 
-3.37551 0.846932 5.90678 36 35 31 
-3.24104 1.06646 5.67271 136 123 104 
-3.24181 1.12349 5.6764 91 75 41 
-3.23411 0.981933 5.66262 200 184 135 
-3.2449 1.15638 5.68352 73 55 19 
-3.23348 1.02037 5.66612 213 197 146 
-3.24937 1.17881 5.69569 93 75 35 
-3.26862 1.29044 5.73525 48 48 46 
-3.23434 1.14064 5.67422 61 49 1 
-3.22559 1.04626 5.66462 177 162 123 
-3.22297 1.08975 5.66593 88 67 40 
-3.25851 1.31301 5.72994 223 206 190 
-3.22671 1.10753 5.67336 183 168 127 
-3.21734 1.06782 5.66189 160 146 111 
-3.44013 0.780589 6.05555 38 37 33 
-3.20946 0.975916 5.65343 191 172 130 
-3.24965 1.33842 5.72658 235 221 208 
-3.25577 1.29883 5.74023 51 47 44 
-3.20574 1.04804 5.65206 173 157 106 
-3.22651 1.22953 5.68981 63 66 59 
-3.20408 0.954024 5.65258 71 42 26 
-3.20151 1.01852 5.64835 57 38 8 
-3.23774 1.34272 5.71802 83 71 59 
-3.19554 0.968938 5.64319 138 116 95 
-3.2025 1.10385 5.65704 46 32 0 
-3.23826 1.36927 5.72239 221 205 169 
-3.20026 1.07567 5.65474 21 18 3 
-3.20026 1.07567 5.65474 21 18 3 
-3.20026 1.07567 5.65474 21 18 3 
-5.12457 -2.37927 9.01525 126 138 62 
-5.12457 -2.37927 9.01525 126 138 62 
-3.23296 1.34865 5.71795 228 212 199 
-5.09612 -2.52435 8.96728 69 83 0 
-3.18959 0.972177 5.64067 47 26 7 
-3.18959 0.972177 5.64067 47 26 7 
-3.22853 1.30558 5.71115 230 216 203 
-3.2274 1.31479 5.7143 135 117 103 
-3.2274 1.31479 5.7143 135 117 103 
-3.19425 1.13228 5.65534 73 58 17 
-3.18851 1.01362 5.64612 54 34 7 
-5.13659 -2.41161 9.05381 132 149 53 
-4.90256 -3.11071 8.6514 118 130 22 
-3.22295 1.34927 5.71377 206 193 177 
-3.30418 0.90086 5.85599 14 6 3 
-3.22231 1.37224 5.71424 81 60 41 
-3.18355 0.96291 5.64423 84 61 43 
-3.18217 1.1081 5.64337 33 21 0 
-3.26844 0.937147 5.79653 238 221 205 
-3.21775 1.31896 5.70926 224 210 197 
-3.3268 0.81521 5.90383 138 137 142 
-3.1838 1.12705 5.65124 151 147 83 
-5.09533 -2.37079 8.99876 32 43 0 
-3.21531 1.30658 5.7106 180 173 163 
-3.18345 1.16339 5.65504 156 142 105 
-3.21363 1.36508 5.71099 189 173 157 
-3.17313 1.02118 5.63745 56 35 6 
-3.17099 0.976017 5.63371 163 143 116 
-3.18 1.09948 5.65016 34 23 1 
-3.21252 1.38964 5.71174 238 223 200 
-3.30995 0.853842 5.88301 76 66 64 
-3.16749 1.03689 5.63099 163 151 113 
-3.17396 1.06771 5.64273 38 36 0 
-4.90319 -3.14969 8.68328 168 182 71 
-3.20818 1.37559 5.70877 230 218 206 
-4.89536 -3.15627 8.67925 87 96 0 
-4.89536 -3.15627 8.67925 87 96 0 
-3.16937 1.08562 5.64289 174 183 120 
-3.20565 1.40273 5.71042 92 73 59 
-5.08144 -2.36533 9.00361 86 101 0 
-3.16941 1.10806 5.64449 196 180 144 
-3.16537 1.12269 5.64065 30 15 0 
-3.35291 0.798708 5.97445 35 30 27 
-3.16728 1.1659 5.64462 47 29 5 
-3.16675 1.15098 5.64522 35 30 0 
-3.19643 1.32806 5.69992 158 150 139 
-3.1565 0.982201 5.62867 52 35 17 
-3.19867 1.37572 5.70603 69 60 51 
-3.15423 0.993197 5.6267 40 28 4 
-3.15423 0.993197 5.6267 40 28 4 
-3.16102 1.0726 5.63966 31 31 5 
-3.16102 1.0726 5.63966 31 31 5 
-3.16406 1.17161 5.64649 145 145 109 
-4.91404 -0.498112 8.75618 32 47 0 
-3.16173 1.12893 5.64358 165 157 111 
-3.15358 0.970131 5.62978 54 34 10 
-3.15358 0.970131 5.62978 54 34 10 
-3.15285 1.05961 5.63123 140 139 83 
-3.15895 1.16033 5.64254 33 16 0 
-4.91173 -0.48298 8.76101 11 19 0 
-3.18967 1.31298 5.69968 163 153 141 
-3.19159 1.40396 5.7042 71 65 49 
-3.14758 1.03078 5.62541 148 126 103 
-3.18996 1.4406 5.70494 31 25 13 
-3.15125 1.1743 5.63582 21 16 0 
-3.18004 1.30249 5.69092 59 51 48 
-3.15078 1.13503 5.63795 46 32 0 
-3.14881 1.12037 5.63507 32 18 5 
-3.14657 1.08673 5.63142 26 16 7 
-3.14542 1.0742 5.62969 178 191 137 
-3.15073 1.16211 5.64044 177 183 121 
-3.14403 1.05141 5.62909 156 150 102 
-3.18205 1.38015 5.69871 171 169 146 
-3.14434 1.10128 5.63206 31 17 0 
-4.05076 -0.10269 7.24969 230 221 188 
-3.1388 1.07773 5.62772 55 45 0 
-3.13904 1.10878 5.62882 115 98 70 
-3.17248 1.31415 5.6905 102 86 70 
-3.13195 0.971979 5.61828 150 136 91 
-3.17159 1.34843 5.69159 81 71 44 
-3.17233 1.33806 5.69316 216 211 182 
-3.12935 0.965638 5.61678 67 50 20 
-3.16986 1.30617 5.69089 64 51 42 
-3.13644 1.13561 5.63043 199 188 124 
-3.13259 1.08243 5.62508 150 150 100 
-3.12826 1.03616 5.6197 50 35 2 
-3.13685 1.16091 5.63539 75 52 20 
-3.12134 0.967354 5.61252 172 159 106 
-3.12468 1.0301 5.62066 150 141 100 
-3.15958 1.30982 5.68416 243 242 212 
-3.12685 1.14011 5.62689 59 35 9 
-3.12685 1.14011 5.62689 59 35 9 
-3.12851 1.1564 5.63049 58 30 6 
-3.12428 1.09547 5.62375 119 112 44 
-3.12361 1.08476 5.62259 22 14 0 
-3.12038 1.04889 5.61687 150 143 91 
-3.16145 1.37382 5.69281 64 62 50 
-3.11503 0.945818 5.60971 57 30 11 
-3.12111 1.1128 5.62078 42 24 2 
-3.29762 0.79141 5.94013 21 20 16 
-3.15134 1.30141 5.67776 49 49 49 
-3.15573 1.36125 5.68735 172 162 135 
-3.28751 0.804957 5.92429 153 152 150 
-3.25221 0.868839 5.86234 90 80 79 
-3.12033 1.14443 5.62587 147 128 98 
-3.12177 1.19452 5.62975 192 170 157 
-3.15038 1.3283 5.68229 167 146 127 
-3.11428 1.06952 5.61686 30 29 0 
-3.11378 1.09383 5.61929 153 154 97 
-3.10652 0.999655 5.6071 170 157 104 
-3.14396 1.33084 5.67553 204 182 161 
-4.76728 -0.557166 8.59339 186 196 161 
-3.10958 1.13284 5.61466 39 20 5 
-3.1064 1.09785 5.61205 25 17 0 
-3.10846 1.11757 5.6165 129 112 84 
-3.11071 1.18582 5.62089 17 8 0 
-3.10837 1.08565 5.61661 35 24 0 
-3.10563 1.06395 5.61459 161 155 103 
-3.10464 1.04798 5.61278 58 50 1 
-3.1379 1.34209 5.67441 86 65 46 
-5.01548 -2.5125 9.02113 164 183 119 
-3.99186 -0.105478 7.21742 163 153 117 
-3.99186 -0.105478 7.21742 163 153 117 
-3.13696 1.36361 5.67937 52 51 33 
-3.10298 1.15666 5.62123 42 34 13 
-3.13026 1.31131 5.67206 230 212 190 
-3.10144 1.14182 5.61975 119 101 77 
-3.09115 0.943121 5.6021 53 31 10 
-3.14934 1.51626 5.70932 39 28 10 
-3.0936 1.06444 5.60809 46 40 0 
-3.23079 0.81996 5.85929 101 100 105 
-3.09338 1.10677 5.60999 126 114 76 
-3.14331 1.50303 5.70233 168 165 148 
-3.14331 1.50303 5.70233 168 165 148 
-3.08824 1.02758 5.60198 54 47 1 
-3.09457 1.1158 5.61398 30 21 6 
-3.08632 1.01024 5.59951 23 11 0 
-3.12091 1.34962 5.66678 48 44 33 
-3.09288 1.18125 5.61833 18 14 5 
-3.11857 1.30651 5.66513 181 174 166 
-3.08315 0.963249 5.6015 71 56 27 
-3.11958 1.31381 5.66849 74 56 52 
-5.05149 -1.48691 9.14877 62 59 52 
-3.08165 1.00871 5.60412 144 129 110 
-3.08509 1.14565 5.61202 38 21 5 
-3.07675 1.06944 5.59881 54 58 7 
-3.12913 1.49034 5.69628 68 69 64 
-3.07771 1.10732 5.60286 45 32 0 
-3.07698 1.05688 5.60168 42 38 0 
-4.25339 0.0641961 7.74373 198 184 155 
-3.07817 1.12908 5.60738 138 117 98 
-3.07171 1.01512 5.59698 25 10 0 
-3.07171 1.01512 5.59698 25 10 0 
-3.10509 1.32296 5.66458 63 59 56 
-3.06434 1.10272 5.59733 48 37 5 
-3.05928 0.942079 5.58883 42 22 11 
-3.06157 1.04211 5.59294 35 22 0 
-3.11158 1.52816 5.68681 70 67 52 
-3.06708 1.1369 5.6047 38 25 17 
-4.99038 -1.54835 9.08971 209 191 177 
-3.0578 0.972627 5.59037 212 228 163 
-3.05229 0.95137 5.58135 38 28 3 
-3.06489 1.16388 5.60582 81 75 61 
-3.11332 1.52191 5.69541 213 210 201 
-3.10822 1.48638 5.68612 210 209 188 
-3.05688 1.02665 5.59311 46 26 0 
-3.05736 1.07937 5.59799 19 15 6 
-3.05393 1.00229 5.59187 53 49 4 
-3.05393 1.00229 5.59187 53 49 4 
-3.19686 0.820288 5.8554 123 119 118 
-3.05235 1.08957 5.59094 185 178 149 
-3.1048 1.51413 5.68897 45 42 35 
-3.04786 0.973701 5.58591 60 48 8 
-3.0483 1.0136 5.58851 46 38 17 
-3.04619 0.951625 5.58482 136 142 82 
-3.08357 1.26884 5.6534 80 90 89 
-3.09212 1.41914 5.67126 64 64 62 
-3.27084 0.767596 6.00161 20 14 14 
-3.08845 1.42786 5.6705 65 64 62 
-3.0415 1.00335 5.58559 176 174 123 
-3.04223 1.08878 5.58909 174 168 134 
-3.03832 0.990577 5.58291 76 66 30 
-3.08184 1.45457 5.6639 66 62 53 
-3.03902 0.940898 5.58591 47 25 12 
-3.04135 1.10455 5.59321 50 44 18 
-3.08807 1.50543 5.68114 54 55 49 
-3.03878 1.07622 5.59094 167 162 140 
-3.03284 0.982624 5.58101 125 112 95 
-3.03284 0.982624 5.58101 125 112 95 
-3.07028 1.32872 5.65137 165 158 140 
-3.07028 1.32872 5.65137 165 158 140 
-3.03536 1.04357 5.58759 33 23 11 
-3.03536 1.04357 5.58759 33 23 11 
-3.03324 1.00752 5.58431 56 46 21 
-3.03944 1.13976 5.59545 36 30 18 
-3.08021 1.47465 5.67113 146 135 117 
-4.9152 -2.81473 8.99666 14 12 0 
-4.18285 0.0486852 7.70407 20 14 0 
-3.0677 1.33902 5.65134 193 201 164 
-3.0677 1.33902 5.65134 193 201 164 
-4.90399 -2.78488 8.98024 147 140 121 
-4.95615 -1.50357 9.10005 198 185 179 
-3.16566 0.817104 5.83507 131 131 129 
-3.0734 1.42817 5.66424 140 132 113 
-3.07408 1.43977 5.66623 207 196 176 
-3.02563 0.969214 5.57756 141 129 115 
-3.19615 0.792385 5.89276 26 27 22 
-3.06472 1.3489 5.65006 72 66 54 
-4.67785 -0.950315 8.61094 56 67 0 
-3.07195 1.48774 5.66751 53 53 41 
-3.05701 1.32116 5.6413 60 59 57 
-3.06228 1.37416 5.65159 65 55 43 
-3.01932 0.985468 5.57304 36 34 11 
-3.02557 1.07727 5.58467 44 42 21 
-3.02487 1.0771 5.58371 44 42 21 
-3.02139 0.996301 5.57823 52 48 23 
-3.02217 1.01635 5.57987 143 133 123 
-3.06536 1.43605 5.66277 221 212 197 
-3.05776 1.34032 5.64889 65 62 55 
-3.05776 1.34032 5.64889 65 62 55 
-3.05637 1.35948 5.64663 228 216 200 
-3.2419 0.770758 5.99119 50 37 21 
-3.01572 1.0029 5.57505 46 39 21 
-3.06646 1.47124 5.66939 64 60 61 
-3.06646 1.47124 5.66939 64 60 61 
-3.05854 1.40084 5.65553 196 183 167 
-3.05854 1.40084 5.65553 196 183 167 
-3.26564 0.760136 6.04406 76 72 69 
-3.01682 1.17724 5.58251 198 184 158 
-3.06863 1.52878 5.67932 217 216 211 
-3.06863 1.52878 5.67932 217 216 211 
-3.06741 1.53574 5.67798 68 64 61 
-3.01056 1.01812 5.57536 18 14 3 
-4.14923 0.0466702 7.68362 144 134 109 
-3.05446 1.42292 5.65847 76 68 65 
-3.01001 1.04029 5.57896 10 10 0 
-3.0117 1.09437 5.58205 44 43 22 
-3.04405 1.36343 5.64186 62 48 35 
-3.00871 1.08315 5.5779 50 45 23 
-3.04725 1.40999 5.65161 243 233 223 
-3.00288 1.00813 5.57193 118 118 90 
-3.00405 0.955798 5.57632 27 23 12 
-3.00451 1.05642 5.57738 10 9 0 
-3.00051 0.983592 5.57153 109 107 84 
-3.04276 1.41461 5.65129 54 47 41 
-2.9991 0.993043 5.57136 138 133 111 
-2.9991 0.993043 5.57136 138 133 111 
-4.13011 0.0364496 7.67332 215 200 171 
-3.03359 1.3626 5.63739 184 172 160 
-2.993 0.985554 5.57035 43 38 16 
-3.03213 1.38265 5.64204 240 232 219 
-2.99459 1.10326 5.57459 40 43 24 
-2.99459 1.10326 5.57459 40 43 24 
-2.99816 1.12225 5.5833 111 112 98 
-3.02315 1.2511 5.62966 57 62 58 
-3.03175 1.39489 5.64574 66 61 55 
-3.02647 1.36848 5.63611 82 69 60 
-3.02688 1.35291 5.64066 74 63 57 
-3.02275 1.34098 5.63318 70 66 55 
-2.98484 1.07549 5.57065 34 36 12 
-2.98484 1.07549 5.57065 34 36 12 
-3.02208 1.3874 5.64045 60 57 52 
-2.98251 1.01647 5.56902 99 103 80 
-3.20396 0.771809 5.98446 89 72 64 
-4.10319 0.00564729 7.6624 247 242 212 
-2.97634 0.967572 5.56353 61 61 37 
-4.09232 0.0274288 7.64982 224 211 176 
-4.55422 -0.796641 8.50003 29 43 0 
-2.98253 1.08886 5.57594 34 38 11 
-3.01187 0.932471 5.63304 214 196 182 
-2.97486 1.07361 5.56829 127 131 98 
-3.02273 1.49434 5.66279 50 53 46 
-3.03476 1.62094 5.68574 19 25 23 
-4.77554 -2.90001 8.89131 117 137 76 
-2.96813 1.13241 5.56292 29 27 12 
-3.0334 1.64391 5.68842 6 10 9 
-3.02178 1.50874 5.66785 15 17 12 
-3.15861 0.786854 5.92964 24 16 13 
-4.76641 -3.06173 8.8933 128 133 30 
-4.74923 -3.03764 8.87683 253 255 230 
-2.95185 0.949851 5.55559 84 82 59 
-4.50486 -0.757239 8.46833 232 247 152 
-2.94714 0.96111 5.55318 96 87 70 
-4.49069 -0.787243 8.44987 84 103 24 
-2.98504 1.35743 5.62552 162 161 157 
-2.98124 1.36329 5.62526 59 58 53 
-2.93902 1.01784 5.54768 73 75 53 
-2.98009 1.35401 5.62415 112 108 105 
-2.99951 1.54633 5.66132 251 250 232 
-2.99951 1.54633 5.66132 251 250 232 
-4.7172 -2.99667 8.84939 38 29 0 
-2.97454 1.4257 5.62436 64 63 61 
-2.93939 1.02769 5.56011 16 16 8 
-2.94081 1.03495 5.56303 11 11 1 
-2.99153 1.54925 5.65684 59 53 41 
-2.99345 1.56299 5.6605 63 55 34 
-4.7331 -2.91393 8.89315 26 35 0 
-4.7331 -2.91393 8.89315 26 35 0 
-2.98867 1.53459 5.65317 69 69 69 
-2.97709 1.44648 5.63527 37 36 31 
-2.96898 1.3494 5.62641 60 61 56 
-4.70297 -3.0526 8.85677 241 251 199 
-2.98234 1.55567 5.65371 80 74 62 
-2.93463 1.18318 5.5662 118 116 101 
-2.96005 1.35773 5.62246 104 105 99 
-4.69034 -2.94222 8.85128 182 191 138 
-2.97519 1.56783 5.65356 83 80 75 
-2.97519 1.56783 5.65356 83 80 75 
-2.97641 0.912515 5.65949 224 199 177 
-2.9734 1.55873 5.65177 157 157 133 
-2.9734 1.55873 5.65177 157 157 133 
-2.98313 1.70146 5.67386 21 23 22 
-2.96963 1.54808 5.64876 176 169 151 
-2.94791 1.2747 5.61437 17 17 15 
-2.95079 1.4211 5.61981 206 203 186 
-2.9656 1.54489 5.6489 197 190 172 
-3.05056 0.815387 5.81734 148 148 146 
-3.05056 0.815387 5.81734 148 148 146 
-4.6926 -2.9092 8.88771 135 156 91 
-2.96573 0.907195 5.65829 205 188 181 
-2.96258 0.920076 5.65484 63 35 32 
-2.95981 1.55403 5.64652 85 78 59 
-2.90783 1.06249 5.55084 13 15 4 
-4.66208 -3.14177 8.83631 139 154 49 
-2.95932 1.56693 5.64871 222 214 211 
-4.8278 -2.49228 9.1632 51 47 0 
-4.63915 -3.02643 8.80665 42 52 0 
-4.61932 -3.06851 8.77403 226 242 171 
-2.94828 1.56708 5.64341 50 44 44 
-2.95001 1.58511 5.64942 127 129 115 
-4.62127 -3.06528 8.79078 39 51 0 
-5.04569 0.241959 9.68404 121 121 93 
-2.94127 1.54772 5.64173 55 51 48 
-4.62577 -3.00032 8.82229 125 138 92 
-2.93754 1.56583 5.64081 46 45 40 
-5.36966 -2.70163 10.2549 221 208 191 
-2.94091 1.59543 5.65092 28 29 24 
-5.02725 0.220732 9.67114 193 190 181 
-5.02725 0.220732 9.67114 193 190 181 
-3.92944 -0.013071 7.56183 177 164 155 
-5.36559 -2.70953 10.2619 204 195 178 
-4.61173 -3.11132 8.81124 133 146 77 
-2.9375 0.919427 5.65691 35 16 10 
-5.0222 0.212899 9.68391 23 22 0 
-2.93019 1.60082 5.64439 147 147 135 
-2.93019 1.60082 5.64439 147 147 135 
-2.934 1.66403 5.65675 27 32 28 
-2.92458 1.60695 5.64314 36 38 27 
-2.91894 1.55835 5.63323 141 142 126 
-4.34805 -0.787068 8.38627 24 41 0 
-2.92174 1.593 5.64006 31 32 24 
-2.91492 1.5484 5.6339 161 155 119 
-4.34876 -0.803162 8.40026 220 238 190 
-2.91733 1.59833 5.63943 167 168 152 
-4.33941 -0.828462 8.40404 33 44 2 
-3.00715 0.815395 5.83525 51 51 51 
-4.9786 0.243265 9.66821 15 20 0 
-4.21384 -0.609006 8.17826 233 247 185 
-4.98678 0.200508 9.69295 144 153 100 
-4.22339 -0.631328 8.19821 39 55 0 
-2.90402 1.58256 5.63848 84 89 85 
-2.90402 1.58256 5.63848 84 89 85 
-4.97507 0.223117 9.67712 128 138 78 
-2.89483 1.60054 5.63588 88 88 86 
-2.89579 1.53311 5.63819 67 69 68 
-2.88478 1.44996 5.61867 97 99 94 
-4.9557 0.189504 9.67769 160 157 90 
-4.34049 -1.01027 8.45818 60 73 0 
-2.88794 1.59443 5.63534 26 28 25 
-2.87446 1.4351 5.61068 30 31 26 
-4.5589 -3.55753 8.84222 27 41 0 
-4.92537 0.202711 9.63675 51 35 0 
-4.92868 0.219285 9.64384 114 113 57 
-4.58896 -3.70401 8.91076 25 42 0 
-2.86289 1.39715 5.61259 25 30 24 
-2.86964 1.55335 5.62618 79 81 78 
-2.87078 1.49841 5.62994 28 33 26 
-4.21904 -1.03651 8.27298 223 242 176 
-2.87611 1.67159 5.6478 22 24 19 
-4.92585 0.185762 9.68857 153 133 62 
-2.86899 1.64355 5.63755 23 26 19 
-4.57618 -3.9327 8.94177 47 46 26 
-4.50664 -3.33103 8.7932 84 99 66 
-2.85634 1.42069 5.61705 32 35 24 
-2.85904 1.54445 5.62273 32 34 31 
-2.87118 1.65429 5.6482 72 75 68 
-2.81475 1.15156 5.54308 78 81 74 
-2.85325 1.53689 5.62414 81 86 80 
-2.86671 1.67614 5.65023 76 79 72 
-2.86671 1.67614 5.65023 76 79 72 
-2.80376 0.931517 5.53557 38 19 13 
-2.87398 1.79116 5.66792 20 22 17 
-2.87398 1.79116 5.66792 20 22 17 
-4.26213 -0.907692 8.40263 194 211 140 
-2.84795 1.54982 5.61926 96 101 97 
-4.20542 -0.701268 8.30437 242 253 223 
-4.89844 0.165573 9.69309 53 49 4 
-4.4872 -3.59189 8.80566 38 57 1 
-4.89665 0.181623 9.6932 159 158 104 
-4.50265 -3.62808 8.84364 34 49 0 
-2.79807 0.919562 5.54319 247 233 222 
-2.8399 1.60918 5.62925 79 84 77 
-4.48602 -3.62535 8.83264 161 177 114 
-2.84868 1.69873 5.64923 21 23 18 
-4.8699 0.177741 9.67813 160 168 111 
-4.87035 0.155302 9.68242 41 40 12 
-2.84629 1.76633 5.65724 80 83 76 
-4.48163 -3.61666 8.84696 17 33 0 
-4.22472 -0.914777 8.40403 11 24 0 
-4.85003 0.188461 9.67169 71 85 26 
-4.85003 0.188461 9.67169 71 85 26 
-4.8444 0.172944 9.66858 25 34 5 
-4.47259 -3.63462 8.85254 214 240 167 
-2.84573 1.87125 5.67376 75 80 74 
-2.84573 1.87125 5.67376 75 80 74 
-2.82609 1.78 5.65018 63 68 62 
-2.82422 1.80929 5.65397 82 84 79 
-2.81758 1.68469 5.64438 23 25 20 
-5.21653 -2.96587 10.4014 173 156 138 
-4.44744 -3.6923 8.8664 120 131 101 
-2.90092 0.827235 5.83985 51 53 52 
-4.13022 -0.673849 8.31638 188 201 129 
-2.72072 0.892777 5.49221 58 40 40 
-4.46403 -3.86919 8.93258 37 49 13 
-2.74139 1.08127 5.54159 72 73 67 
-2.78372 1.56424 5.62468 29 34 12 
-4.41301 -3.71609 8.84882 135 155 83 
-2.77834 1.53051 5.61902 27 35 14 
-4.40735 -3.77444 8.85897 21 31 4 
-4.40735 -3.77444 8.85897 21 31 4 
-4.38785 -3.7039 8.82595 38 53 0 
-4.40834 -3.81623 8.88503 6 16 0 
-4.38712 -3.731 8.84808 25 37 0 
-2.75695 1.4102 5.61511 14 20 10 
-2.75695 1.4102 5.61511 14 20 10 
-4.38693 -3.814 8.8657 95 110 79 
-4.37779 -3.76235 8.84926 89 110 45 
-4.37779 -3.76235 8.84926 89 110 45 
-4.37779 -3.76235 8.84926 89 110 45 
-4.36804 -3.72099 8.83035 48 64 0 
-4.37475 -3.73992 8.84747 103 126 56 
-4.73193 -4.48547 9.60382 120 96 0 
-4.73193 -4.48547 9.60382 120 96 0 
-2.71594 1.13761 5.55372 6 8 3 
-2.71594 1.13761 5.55372 6 8 3 
-4.36516 -3.74454 8.84882 33 53 0 
-4.47639 -3.41952 9.11288 143 132 52 
-4.33617 -3.78538 8.83789 121 140 84 
-4.05248 -0.650609 8.33444 53 66 0 
-2.69142 1.00729 5.54715 64 65 60 
-2.74054 1.55496 5.63999 30 34 19 
-2.74054 1.55496 5.63999 30 34 19 
-4.04058 -0.640371 8.32385 233 244 168 
-4.04058 -0.640371 8.32385 233 244 168 
-2.74026 1.61208 5.64363 35 39 24 
-2.73599 1.70981 5.64738 31 33 28 
-2.68609 0.923247 5.55663 166 147 140 
-2.73642 1.7802 5.65243 81 86 79 
-2.73642 1.7802 5.65243 81 86 79 
-2.7369 1.77026 5.65595 23 28 21 
-2.75369 1.8872 5.69166 13 16 9 
-2.71603 1.61702 5.63829 35 39 25 
-4.00498 -0.655298 8.32711 159 183 99 
-2.75518 2.12213 5.72063 85 91 87 
-4.32741 -4.06874 8.92627 35 41 5 
-5.53744 0.489973 11.5434 53 50 35 
-5.53744 0.489973 11.5434 53 50 35 
-4.08703 0.551951 8.53118 150 151 145 
-2.73153 1.94483 5.68701 79 85 83 
-2.72701 1.89219 5.68831 17 19 16 
-4.07388 0.545864 8.54345 164 164 156 
-5.32486 -1.08003 11.1516 37 49 11 
-4.34361 -3.37266 9.03441 75 50 20 
-2.64513 1.07137 5.55895 77 79 74 
-3.7608 -1.04512 7.89036 35 50 9 
-2.727 2.15009 5.72218 23 33 34 
-2.72508 2.13652 5.7187 82 92 91 
-3.75303 -1.04843 7.88377 64 82 24 
-3.75257 -1.06889 7.88381 43 59 0 
-2.67628 1.49575 5.63486 88 95 79 
-2.69912 1.89411 5.67709 79 90 86 
-2.71723 2.12882 5.71608 35 45 44 
-3.74404 -1.08642 7.88802 45 58 0 
-5.34814 -1.17458 11.2807 245 255 178 
-3.73913 -1.05372 7.88129 250 255 233 
-2.6633 1.47979 5.62543 32 35 18 
-2.69331 1.8803 5.68275 9 11 6 
-2.68756 1.8711 5.6754 68 70 65 
-2.65333 1.29955 5.61525 28 33 29 
-2.68545 1.88661 5.67772 87 94 87 
-2.683 1.87852 5.67781 3 8 2 
-3.70688 -1.07613 7.85462 201 213 149 
-2.66296 1.53002 5.64757 108 115 108 
-3.71235 -1.06036 7.8733 33 40 6 
-2.65748 1.67409 5.65582 41 46 40 
-2.6593 1.71319 5.6664 38 43 39 
-2.65661 1.7026 5.66698 106 112 108 
-5.24739 -1.09946 11.2261 24 6 0 
-5.24739 -1.09946 11.2261 24 6 0 
-2.67818 2.04864 5.72131 21 24 17 
-2.63743 0.92946 5.65996 103 96 88 
-2.64477 1.70339 5.6632 106 112 108 
-4.27112 -3.51416 9.08055 191 172 130 
-4.26989 -3.49625 9.0794 47 33 4 
-2.6108 1.19341 5.62025 18 21 14 
-2.63974 1.77983 5.68381 32 36 35 
-4.23585 -3.56279 9.04572 246 244 195 
-4.26288 -3.46192 9.11729 90 91 11 
-4.22074 -3.56359 9.03543 94 80 0 
-4.24268 -3.47808 9.09032 54 44 0 
-5.18247 -1.0998 11.2414 143 158 77 
-4.23143 -3.4965 9.09831 121 114 34 
-2.62047 1.8563 5.68838 27 32 25 
-4.19054 -3.5571 9.04515 130 118 58 
-2.57506 1.46245 5.65139 39 41 30 
-2.56336 1.3213 5.64006 83 85 80 
-2.58087 1.49569 5.67579 23 26 15 
-4.16349 -3.58803 9.06792 83 52 21 
-4.13614 -3.58525 9.03669 204 178 93 
-4.40009 0.092693 9.75738 60 70 18 
-4.12218 -3.58586 9.03316 119 96 0 
-2.54162 0.933769 5.64113 161 161 153 
-2.57316 1.7754 5.69912 31 36 29 
-2.56521 1.59271 5.69363 39 40 34 
-3.3686 -1.11983 7.5198 121 139 81 
-4.11798 -3.64489 9.10437 70 56 19 
-4.91466 -5.08525 10.9432 232 223 182 
-4.55287 -3.22934 10.2035 196 229 255 
-4.893 -5.08769 10.9319 36 38 27 
-2.51268 1.33088 5.68884 24 27 16 
-4.0745 -3.73663 9.12337 239 248 123 
-4.89402 -5.07054 10.9588 53 60 86 
-2.51865 1.57143 5.70418 32 36 22 
-2.51513 1.55655 5.70725 79 82 73 
-5.4124 -5.51103 12.1496 126 155 187 
-4.64636 -3.52743 10.4686 43 42 21 
-2.51374 1.61873 5.71729 25 29 14 
-4.04897 -3.7204 9.11044 238 235 96 
-2.49581 1.3487 5.68925 39 45 33 
-2.50574 1.50176 5.7101 18 22 5 
-4.51088 -3.23379 10.2061 85 89 88 
-4.51088 -3.23379 10.2061 85 89 88 
-4.04236 -3.72283 9.11989 64 57 0 
-2.50102 1.49632 5.71329 74 77 58 
-2.53088 2.02716 5.77065 19 21 0 
-2.49984 1.50962 5.71473 88 92 78 
-2.48827 1.34794 5.69485 86 89 78 
-2.48746 1.40753 5.70343 76 79 70 
-2.48461 1.44202 5.70903 87 91 76 
-4.09748 -2.60468 9.36905 219 222 229 
-2.53569 2.31647 5.82403 16 19 12 
-2.53569 2.31647 5.82403 16 19 12 
-5.58357 -3.0547 12.8113 220 242 255 
-4.58304 -3.47265 10.4727 49 58 57 
-2.45463 1.10818 5.69452 76 76 68 
-2.52305 2.31676 5.82964 70 75 69 
-2.49923 1.90085 5.78241 28 32 15 
-4.56396 -3.49865 10.4874 42 42 52 
-5.51347 -3.0512 12.741 217 227 239 
-2.44893 0.997249 5.70506 29 30 24 
-2.47107 1.57236 5.74333 25 29 14 
-3.66516 -0.695512 8.55362 48 55 21 
-2.44332 1.19644 5.7049 15 16 8 
-4.50642 -3.47846 10.415 57 57 67 
-4.50642 -3.47846 10.415 57 57 67 
-4.5914 -3.44205 10.6219 93 96 115 
-2.512 2.32115 5.84378 24 27 18 
-2.46605 1.5175 5.75667 90 93 84 
-4.54241 -3.60739 10.5169 176 206 240 
-2.46512 1.51454 5.77029 6 9 0 
-4.78221 -5.37431 11.06 75 77 28 
-4.76669 -5.37634 11.0421 190 176 129 
-4.52449 -3.56983 10.5225 173 208 240 
-2.44577 1.39472 5.75168 93 95 81 
-4.53671 -3.62408 10.5634 180 206 243 
-2.4662 1.73961 5.7909 76 80 66 
-4.54742 -3.65086 10.589 63 81 103 
-4.54742 -3.65086 10.589 63 81 103 
-2.47138 1.82875 5.801 98 103 96 
-2.45068 1.47764 5.7716 22 27 7 
-4.53582 -3.66157 10.581 77 99 113 
-2.46876 1.81316 5.8107 13 18 12 
-2.46879 1.89977 5.80893 21 24 17 
-2.45494 1.59346 5.78536 86 89 80 
-2.46723 1.83672 5.81071 40 45 39 
-2.46679 1.91778 5.81734 93 99 89 
-4.52023 -3.62405 10.5935 190 213 255 
-4.51469 -3.65609 10.5817 174 205 234 
-4.98055 -1.25788 11.8102 253 236 218 
-4.57306 -3.49643 10.7431 17 31 58 
-4.57306 -3.49643 10.7431 17 31 58 
-2.4494 1.6572 5.80516 74 77 70 
-2.48036 2.35358 5.8638 101 105 91 
-3.73923 -4.58514 8.78157 62 51 31 
-4.56049 -3.50091 10.7398 223 238 245 
-2.46194 1.91369 5.84296 32 35 24 
-4.55488 -3.48926 10.7386 64 76 98 
-3.57121 -0.691381 8.51054 44 44 10 
-2.44216 1.53263 5.80978 70 72 61 
-4.45581 -3.80614 10.5001 34 23 17 
-4.45581 -3.80614 10.5001 34 23 17 
-2.43956 1.69437 5.80685 24 27 20 
-4.54159 -3.47797 10.7303 206 226 253 
-2.44478 1.99345 5.81256 76 78 64 
-4.44827 -3.68967 10.5094 187 210 241 
-2.45487 1.91398 5.85098 39 42 31 
-4.56455 -3.56163 10.8089 86 99 116 
-2.47706 2.50626 5.89751 68 68 56 
-2.4317 1.52314 5.81347 19 21 8 
-5.06041 -1.36066 12.1252 81 66 25 
-2.44993 1.92494 5.85407 93 101 88 
-4.55168 -3.56483 10.8129 65 67 82 
-2.44311 2.02097 5.84171 25 27 13 
-2.44089 1.99124 5.84065 114 118 103 
-2.44226 2.00563 5.8444 32 33 19 
-2.42641 1.53667 5.82416 84 87 76 
-4.42704 -3.82703 10.5184 26 23 32 
-2.40419 0.999047 5.79572 66 66 56 
-4.39369 -3.71233 10.4675 209 238 255 
-4.38929 -3.72011 10.4571 44 59 82 
-4.38256 -3.73158 10.4569 200 223 254 
-2.44768 1.92383 5.8916 36 36 24 
-5.13935 -4.95696 12.269 219 230 252 
-4.86277 -4.79534 11.6376 207 232 252 
-2.43768 1.92377 5.90138 35 35 23 
-4.41141 -3.69773 10.6336 124 144 179 
-3.61599 -4.01985 8.68463 176 210 245 
-3.61599 -4.01985 8.68463 176 210 245 
-3.61497 -4.03056 8.68385 40 59 101 
-3.61497 -4.03056 8.68385 40 59 101 
-4.36276 -3.90175 10.525 60 57 52 
-4.39358 -3.42757 10.6543 223 234 254 
-4.64238 -4.41199 11.2227 211 227 253 
-4.37795 -3.43191 10.6288 195 217 231 
-4.35165 -3.91825 10.5449 75 71 60 
-4.35165 -3.91825 10.5449 75 71 60 
-4.30118 -3.98326 10.4388 223 233 232 
-2.43163 1.75125 5.96567 28 30 17 
-4.96734 -5.15083 12.0371 79 92 49 
-4.31197 -3.71789 10.4811 77 85 121 
-4.31197 -3.71789 10.4811 77 85 121 
-4.33204 -3.91952 10.5208 26 22 11 
-4.37819 -3.42285 10.6667 59 63 74 
-4.37819 -3.42285 10.6667 59 63 74 
-2.41788 1.69193 5.93742 40 42 28 
-4.31278 -3.91765 10.496 160 159 141 
-3.7002 -2.80202 9.04481 83 90 118 
-4.36196 -3.42027 10.6798 43 48 67 
-3.38086 -1.94776 8.33759 237 241 252 
-4.34833 -3.41051 10.6737 48 55 71 
-4.34833 -3.41051 10.6737 48 55 71 
-4.28582 -3.93132 10.4924 161 162 105 
-2.37993 1.09744 5.91832 84 80 69 
-4.32023 -3.39021 10.6582 48 53 75 
-4.32023 -3.39021 10.6582 48 53 75 
-3.368 -1.9552 8.35843 91 91 103 
-4.16815 -3.52092 10.3099 60 73 105 
-4.30319 -3.40502 10.6602 75 81 107 
-4.30319 -3.40502 10.6602 75 81 107 
-4.26386 -3.97729 10.5343 220 230 195 
-4.21842 -3.9409 10.5115 63 51 9 
-4.22345 -3.48806 10.6474 86 93 111 
-4.20731 -4.17022 10.5773 148 152 151 
-4.21425 -4.07023 10.603 218 225 235 
-4.1895 -3.97983 10.5622 218 234 250 
-4.17444 -4.01953 10.5268 84 73 51 
-4.18997 -3.97651 10.5791 193 217 229 
-4.29294 -4.00471 10.8931 87 90 95 
-4.27055 -4.03986 10.8415 66 65 47 
-4.29058 -4.03301 10.9004 213 222 239 
-4.29058 -4.03301 10.9004 213 222 239 
-4.27521 -4.02389 10.8953 78 90 106 
-4.27521 -4.02389 10.8953 78 90 106 
-4.27271 -4.01014 10.9018 207 224 254 
-4.13084 -4.0285 10.5832 202 218 231 
-3.59637 -0.61969 9.37492 114 89 67 
-4.26428 -4.05265 10.9628 149 145 146 
-4.25735 -4.07717 10.975 228 231 214 
-4.25423 -4.10279 10.9722 63 61 64 
-4.25423 -4.10279 10.9722 63 61 64 
-4.24246 -4.12107 10.9405 213 218 240 
-4.22965 -4.13241 10.94 56 49 56 
-3.64751 2.13855 9.56626 252 249 242 
-4.22767 -4.09387 10.9492 69 61 58 
-3.56168 -0.647627 9.37252 63 40 22 
-3.55124 -0.63352 9.34628 241 216 196 
-4.38424 -5.9055 11.3468 156 194 230 
-2.76702 2.15417 7.26529 34 33 29 
-4.22042 -4.03024 10.9716 156 155 153 
-2.77276 2.46506 7.27157 96 71 51 
-3.30582 -3.80544 8.57014 157 151 129 
-2.77012 2.51412 7.27715 229 205 181 
-2.76676 2.5435 7.27262 217 197 173 
-3.77438 -2.39586 9.91473 255 253 255 
-3.7694 -2.41291 9.90425 110 109 114 
-4.01986 -4.12096 10.4878 74 72 73 
-4.0071 -4.10142 10.49 69 73 59 
-2.75344 2.58484 7.28307 38 29 22 
-4.45985 -1.30121 11.8675 252 236 220 
-2.75208 2.1788 7.30214 31 30 26 
-2.74355 2.50537 7.26975 160 133 112 
-4.03565 -4.00552 10.6075 48 48 60 
-2.7408 2.54487 7.26861 220 195 173 
-3.98508 -4.1225 10.4973 55 55 55 
-2.72982 2.4967 7.26244 232 205 184 
-3.32091 -2.93378 8.78212 119 130 126 
-2.72668 2.56527 7.26216 211 188 170 
-4.25112 -5.77115 11.1829 188 205 225 
-2.71971 2.47454 7.25234 129 98 78 
-2.72396 2.43287 7.26722 148 119 101 
-2.71964 2.46415 7.25971 203 176 157 
-3.53278 -2.54177 9.40492 234 234 242 
-2.71343 2.19593 7.25871 123 102 83 
-2.71785 2.39427 7.26411 157 136 119 
-2.71443 2.23918 7.26501 28 29 23 
-3.99585 -4.13512 10.579 76 71 68 
-2.71405 2.34647 7.26249 170 155 136 
-4.36486 -6.04646 11.5201 174 208 253 
-2.71402 2.54428 7.25869 165 144 123 
-3.98314 -4.16212 10.5575 220 229 228 
-3.7177 -2.47146 9.94574 138 139 144 
-3.32533 -3.70484 8.81094 63 59 58 
-2.70328 2.50393 7.24845 161 134 115 
-2.70586 2.48574 7.26346 142 114 93 
-2.70586 2.48574 7.26346 142 114 93 
-2.70071 2.52596 7.25289 207 184 166 
-2.69577 2.42935 7.25429 183 156 137 
-2.69253 2.46413 7.25098 191 166 144 
-2.69302 2.45302 7.25706 156 131 109 
-3.7059 -2.54406 9.96775 241 241 249 
-4.11109 -4.11871 10.9836 230 231 223 
-3.66402 -4.95265 9.74589 125 126 156 
-2.69461 2.54923 7.26477 32 28 25 
-3.70568 -2.52964 9.97768 186 186 194 
-2.6871 2.47169 7.25156 199 173 150 
-2.68498 2.52199 7.24686 34 23 17 
-2.68768 2.19316 7.26872 56 37 23 
-2.68186 2.52 7.24071 37 28 23 
-3.96667 -4.161 10.6056 82 67 60 
-3.66368 -4.97405 9.76352 189 212 246 
-2.68141 2.4331 7.2514 115 87 66 
-3.96755 -4.18766 10.6316 242 238 226 
-3.24699 -2.60197 8.7647 245 246 241 
-3.65218 -4.97052 9.76696 52 71 113 
-2.66967 2.4769 7.24694 215 190 168 
-4.10536 -4.13114 11.0482 97 90 82 
-3.41651 -2.8971 9.23553 240 238 239 
-2.6632 2.38934 7.24733 141 124 106 
-3.66724 -2.48457 9.96713 177 177 187 
-2.66608 2.3753 7.26721 139 108 90 
-2.66608 2.3753 7.26721 139 108 90 
-2.65974 2.50205 7.24691 27 24 19 
-2.65281 2.46514 7.24377 226 209 189 
-3.42837 -2.5208 9.36584 231 233 245 
-2.64122 2.47189 7.23708 188 182 148 
-2.63911 2.43777 7.24261 36 23 15 
-2.63183 2.33518 7.23894 31 20 14 
-3.39438 -2.49258 9.32584 62 49 30 
-2.6259 2.30839 7.24015 148 129 112 
-3.39458 -2.47727 9.33574 52 51 49 
-4.04691 -4.14237 11.0766 253 253 251 
-3.38979 -2.50873 9.34283 235 239 242 
-3.87984 -4.19501 10.6552 94 80 77 
-3.67536 -2.30282 10.2002 226 240 253 
-2.60941 2.43641 7.24449 25 10 5 
-4.03156 -4.14955 11.0951 247 247 249 
-2.60039 2.16807 7.23769 86 88 87 
-3.87781 -4.21647 10.6684 242 240 228 
-2.58835 2.40509 7.21482 164 146 122 
-2.60138 2.16675 7.26882 45 45 45 
-2.59236 2.28078 7.24034 38 24 21 
-4.01131 -4.14468 11.0983 255 254 255 
-3.35581 -2.52757 9.34802 236 251 254 
-4.36181 -4.96186 12.0481 243 247 255 
-2.58568 2.46003 7.2327 21 21 21 
-2.57966 2.38132 7.21977 179 157 136 
-4.3524 -4.98887 12.0547 242 243 248 
-3.19457 -3.03134 8.89927 229 236 244 
-2.61277 2.16394 7.34577 111 113 112 
-3.19572 -4.84147 8.85169 64 59 55 
-2.5629 2.25958 7.22606 159 132 111 
-2.54472 2.36383 7.21246 208 192 176 
-2.54428 2.37879 7.21374 28 20 18 
-2.5355 2.31746 7.19209 188 159 141 
-2.53451 2.27211 7.21968 56 38 24 
-2.52939 2.34911 7.21313 216 200 187 
-3.30262 -2.52451 9.43964 210 212 224 
-3.02678 -2.67482 8.67842 255 254 255 
-3.03998 -2.65167 8.72187 252 255 255 
-2.49765 2.34183 7.20757 28 26 14 
-2.48706 2.30436 7.19339 134 125 116 
-3.45182 -2.3197 9.98933 101 119 139 
-3.45182 -2.3197 9.98933 101 119 139 
-3.38944 -0.596235 9.8941 188 167 138 
-3.03703 -2.75273 8.76585 252 255 255 
-3.3831 -0.611898 9.89322 59 33 6 
-2.51793 2.22024 7.44165 22 22 22 
-3.19389 2.10694 9.4763 255 255 223 
-3.19389 2.10694 9.4763 255 255 223 
-3.9705 -4.77961 11.5989 89 89 91 
-3.9559 -4.81391 11.6136 143 142 147 
-2.98281 -3.6844 8.7713 121 120 126 
-3.37428 -0.0862511 10.1224 65 76 36 
-3.16491 2.09357 9.47831 187 187 137 
-3.66175 -4.27072 10.8095 154 152 155 
-3.02246 -2.63515 9.02571 92 91 96 
-3.65564 -4.33179 10.8496 254 255 255 
-2.54901 2.17518 7.66892 121 120 125 
-3.52482 -2.27528 10.5918 102 115 134 
-3.52482 -2.27528 10.5918 102 115 134 
-3.52495 -2.24066 10.5996 217 238 255 
-2.95631 -2.40913 8.86488 79 76 35 
-3.51355 -2.24877 10.5925 41 52 58 
-3.1046 -4.76389 9.32199 52 60 97 
-2.47529 2.23722 7.60974 50 50 52 
-2.40028 2.32643 7.37724 103 108 104 
-13.7932 10.9922 42.9667 73 81 84 
-2.38419 2.32275 7.48287 98 99 101 
-2.94035 -4.77352 9.08224 173 195 232 
-3.6809 -5.838 11.5195 109 112 121 
-2.88304 -4.84763 9.1313 127 152 192 
-14.8787 -16.1955 47.7475 99 107 109 
-2.35954 2.44474 7.66335 27 29 15 
-2.35621 2.51622 7.65475 89 92 81 
-2.48905 2.29353 8.111 178 155 141 
-2.33364 2.34925 7.62641 105 106 108 
-2.46839 2.41724 8.07756 163 144 130 
-2.46655 2.26904 8.13043 129 106 90 
-14.7594 -21.4027 47.888 97 105 108 
-2.43928 2.35134 8.09712 190 169 152 
-2.64348 -4.94316 8.61643 102 132 170 
-14.5042 -21.2804 47.5185 23 24 26 
-14.5042 -21.2804 47.5185 23 24 26 
-2.42633 2.74942 8.0756 132 117 94 
-3.28702 -2.14217 11.0521 21 26 20 
-2.39172 2.38058 8.09055 159 147 135 
-13.9794 -17.0779 46.823 102 111 116 
-2.37712 2.35952 8.09248 210 191 177 
-2.36915 2.29971 8.09622 111 102 105 
-2.32756 2.50887 8.06381 138 113 93 
-2.26929 2.49733 8.04801 153 134 117 
-2.25204 2.407 8.05423 92 83 78 
-2.23372 2.43097 8.04602 218 196 182 
-2.22707 2.44321 8.03415 210 188 167 
-2.22707 2.44321 8.03415 210 188 167 
-1.10359 -0.349288 4.00618 57 61 60 
-2.31699 2.33468 8.38973 63 61 62 
-2.30792 2.33049 8.41767 105 99 99 
-2.26632 2.35741 8.33927 35 37 36 
-2.174 2.47892 8.03241 156 142 133 
-2.16714 2.50534 8.05711 34 30 21 
-2.203 2.4433 8.20891 109 110 114 
-12.3557 -18.7143 45.4003 30 44 44 
-2.20855 2.43312 8.25097 43 43 45 
-2.16685 2.47263 8.1227 116 116 118 
-12.2117 -18.3708 45.381 84 94 96 
-11.9994 -18.7188 45.354 24 32 43 
-12.7003 -23.2744 47.7809 183 218 237 
-11.6964 -17.9553 44.2685 96 109 126 
-11.8846 -18.354 44.9891 87 102 123 
-10.1898 8.45987 39.4293 64 69 72 
-2.16116 -0.88546 8.57659 44 44 8 
-8.60606 7.98289 34.143 88 98 99 
-8.65727 7.66659 34.3862 100 114 115 
-8.63764 7.62524 34.4487 25 30 33 
-8.66113 8.03642 34.5302 29 49 50 
-8.66113 8.03642 34.5302 29 49 50 
-8.53977 7.9873 34.1659 83 98 101 
-2.18959 2.53211 9.05696 215 194 177 
-2.19314 2.52713 9.08362 117 94 76 
-10.8226 -18.2825 44.2125 89 106 116 
-2.4338 -0.373981 10.1565 42 34 0 
-2.1729 2.56608 9.04573 163 137 120 
-2.1729 2.56608 9.04573 163 137 120 
-10.6936 -18.1457 44.1049 85 99 108 
-10.6936 -18.1457 44.1049 85 99 108 
-10.6057 -17.743 43.8425 26 28 25 
-2.27165 -2.77686 9.47807 47 34 15 
-10.6142 -17.8907 43.9903 80 94 107 
-2.26407 -2.78487 9.47736 229 223 173 
-2.13606 2.62805 9.02426 133 110 94 
-2.13028 2.63666 9.03495 233 210 194 
-2.13089 2.48242 9.0483 202 175 158 
-2.12579 2.51238 9.0475 211 184 165 
-2.11584 2.47426 9.04583 147 121 104 
-2.10747 2.6285 9.01182 181 158 142 
-2.10922 2.49101 9.0379 84 57 40 
-2.10294 2.50269 9.0356 205 178 161 
-2.2024 -2.7917 9.44179 65 68 49 
-2.09107 2.45515 9.02831 212 186 169 
-8.78249 8.42549 38.1478 38 51 59 
-2.08547 2.49405 9.04145 229 203 186 
-2.06854 2.96041 8.96192 243 224 207 
-2.07 2.81507 8.98304 136 110 93 
-2.07023 2.82993 8.98639 219 196 178 
-2.07014 2.78721 8.99695 107 85 72 
-10.4284 -18.5238 44.7084 89 99 100 
-2.07965 2.43767 9.07361 205 193 181 
-2.06907 2.44574 9.05446 234 216 202 
-2.05689 2.84704 8.98696 63 37 20 
-2.04705 2.97635 8.94717 47 31 16 
-2.17234 -2.83096 9.48433 163 166 149 
-2.17234 -2.83096 9.48433 163 166 149 
-2.03925 2.97544 8.95697 230 214 198 
-2.02955 2.98467 8.94125 27 17 7 
-2.04407 2.50705 9.02934 165 138 121 
-2.04407 2.50705 9.02934 165 138 121 
-2.18362 -2.9718 9.57287 170 178 137 
-2.15895 -2.83062 9.48125 59 59 57 
-2.03428 2.87767 8.97843 216 195 176 
-2.03573 2.85061 8.99962 214 191 173 
-2.03292 2.71932 8.99728 178 155 139 
-2.17322 -2.98163 9.5831 83 86 77 
-2.02529 2.49534 9.03538 214 191 175 
-2.01164 2.91661 8.955 225 203 182 
-2.01164 2.91661 8.955 225 203 182 
-2.03265 2.46908 9.07708 74 68 68 
-2.00316 2.99292 8.9479 191 178 146 
-2.00316 2.99292 8.9479 191 178 146 
-1.99729 2.95595 8.94579 223 198 176 
-9.03193 -0.0995588 40.7561 100 111 115 
-1.99729 2.85834 8.96342 208 183 163 
-1.99632 2.87437 8.97047 122 95 74 
-1.999 2.50645 9.00088 222 200 189 
-8.61314 8.49209 38.8815 34 39 35 
-9.03319 -0.0553438 40.9261 44 55 57 
-9.03319 -0.0553438 40.9261 44 55 57 
-1.98166 2.96553 8.94246 229 216 181 
-1.98975 2.73618 8.99536 206 180 163 
-1.98541 2.54197 8.99147 212 189 173 
-1.96839 2.91182 8.91261 216 189 168 
-1.91667 3.41879 8.64658 84 87 78 
-1.91667 3.41879 8.64658 84 87 78 
-1.97682 2.89682 8.96304 208 184 156 
-1.98355 2.70846 9.00409 164 138 121 
-1.97169 2.78542 8.97042 71 45 28 
-1.96452 2.9169 8.95243 80 53 32 
-1.96802 2.8313 8.97554 222 199 181 
-1.96802 2.8313 8.97554 222 199 181 
-10.032 -21.7946 44.8891 57 66 49 
-1.97095 2.53795 9.00577 219 197 184 
-1.95222 2.8663 8.9542 234 212 191 
-1.95202 2.88517 8.95349 54 29 7 
-1.95224 2.95991 8.95192 34 25 18 
-9.98058 -20.4625 45.0319 109 121 117 
-2.00918 2.47906 9.24595 98 85 77 
-9.32984 -9.61549 42.845 25 27 24 
-1.94706 2.89952 8.94909 211 190 169 
-9.91678 -20.3589 44.9888 109 121 117 
-1.93782 2.91255 8.9451 202 181 160 
-9.63562 -15.4046 44.1932 35 44 41 
-9.63562 -15.4046 44.1932 35 44 41 
-1.9932 2.47789 9.24827 74 69 66 
-1.93417 2.57433 8.99634 216 195 178 
-9.7339 -18.2732 44.7074 103 108 101 
-1.92283 2.90835 8.94728 209 190 173 
-1.92473 2.78892 8.96764 89 70 53 
-9.29182 -10.7716 43.1925 51 62 68 
-1.92202 2.87118 8.95174 96 74 53 
-1.82721 -1.06541 8.55668 230 223 155 
-1.9129 2.59018 8.98552 229 207 194 
-9.02826 -8.52112 42.397 95 113 117 
-8.60256 -0.415463 40.698 53 49 46 
-9.97484 -22.7113 46.0098 72 77 73 
-9.87326 -22.2373 45.5881 96 108 96 
-1.81169 -1.05808 8.55981 191 175 149 
-1.90214 2.79475 8.97249 191 173 149 
-7.18326 7.95355 33.9951 36 38 37 
-8.22095 7.36186 38.9974 22 31 36 
-9.14656 -10.8241 43.1006 103 116 125 
-9.14656 -10.8241 43.1006 103 116 125 
-1.8886 2.75311 8.93617 58 39 22 
-1.89233 2.87332 8.94867 185 169 153 
-8.91821 -9.48916 42.2996 38 44 44 
-1.88293 2.89494 8.93575 35 27 24 
-1.87211 2.81722 8.93239 146 127 112 
-9.7867 -22.575 45.8079 59 69 58 
-9.01023 -8.32418 43.0521 49 57 59 
-9.62384 -21.9969 45.1259 101 113 101 
-1.86731 2.74618 8.9469 54 40 27 
-9.55454 -20.5023 45.0969 110 120 119 
-8.98569 -9.93611 43.0961 51 60 59 
-1.86102 2.8001 8.95368 60 56 44 
-9.57376 -21.9222 45.198 40 50 42 
-1.86156 2.64079 8.96816 209 190 173 
-8.86455 -8.09389 42.713 106 109 118 
-1.94893 2.51477 9.40652 70 68 69 
-9.14088 -14.8638 43.7564 107 116 115 
-8.81965 -8.48117 42.6104 112 117 120 
-9.67886 -22.382 45.8813 94 111 101 
-8.99748 -11.5246 43.3835 103 116 122 
-8.78505 -8.22543 42.5529 116 122 122 
-9.03062 -12.7571 43.5807 47 53 51 
-9.099 -13.7458 43.8921 43 55 55 
-1.84109 2.65416 8.94586 231 209 196 
-9.45251 -21.7467 45.0226 99 117 117 
-9.5813 -22.5335 45.6854 83 92 99 
-8.32597 0.0506584 40.7549 32 36 35 
-8.96133 -11.6224 43.5702 50 61 67 
-1.83632 2.6551 8.97643 77 67 66 
-9.51429 -22.1762 45.5751 30 47 31 
-9.46518 -20.4502 45.4662 109 119 110 
-9.39016 -21.8697 45.1136 38 51 34 
-9.48723 -22.2509 45.6155 98 116 104 
-6.86594 8.03647 33.8481 30 50 51 
-9.39172 -22.0837 45.4472 80 99 95 
-9.21868 -19.7979 44.779 54 61 54 
-1.80941 2.70403 8.93938 31 31 21 
-6.82991 8.0182 33.89 92 107 112 
-9.29794 -21.9942 45.1482 93 115 113 
-8.05025 1.65357 40.1096 106 116 118 
-8.11669 1.49915 40.4631 106 115 114 
-9.09134 -16.708 44.5614 29 37 39 
-9.47442 -22.727 46.0269 166 192 205 
-7.93464 5.63713 39.558 118 130 142 
-9.19018 -19.1326 44.9621 101 107 95 
-9.24833 -20.0209 45.2195 105 112 105 
-8.66117 -8.61811 43.0923 104 113 118 
-8.05426 1.69989 40.3381 43 53 54 
-7.74864 5.86685 38.8158 47 56 61 
-8.99556 -16.564 44.3956 85 99 99 
-1.79726 2.67495 8.9736 91 90 88 
-9.29976 -22.1845 45.5029 90 107 99 
-8.03885 1.70294 40.4578 100 108 110 
-9.10507 -19.979 44.9277 57 64 56 
-7.89934 3.08048 39.8735 116 120 123 
-8.79159 -12.9069 43.9144 103 113 112 
-7.84319 5.0027 39.7464 106 119 135 
-7.84319 5.0027 39.7464 106 119 135 
-7.8294 5.20729 39.6904 102 119 135 
-7.8294 5.20729 39.6904 102 119 135 
-9.09593 -20.1931 45.1222 113 123 115 
-9.16491 -21.4507 45.497 56 66 55 
-8.84731 -18.4101 44.1857 63 70 62 
-9.17263 -20.8633 45.6773 98 108 97 
-7.97562 0.0503323 40.6771 86 92 92 
-9.21201 -22.5264 45.8223 76 88 84 
-8.5294 -10.4646 43.2251 48 57 56 
-8.65637 -16.2978 43.7844 28 43 38 
-8.46953 -11.4275 43.2664 50 59 74 
-8.83999 -18.5523 44.8727 84 93 90 
-8.60375 -13.7582 44.02 52 67 70 
-8.86659 -18.8193 45.0145 106 119 112 
-1.647 -1.0811 8.51663 20 22 0 
-1.64613 -1.09918 8.52492 210 208 159 
-7.57344 5.947 39.3132 27 32 35 
-9.00664 -22.4466 45.8596 53 66 49 
-8.82188 -20.6108 45.0775 100 114 115 
-1.63336 -1.08689 8.52647 26 24 3 
-1.62793 -1.11001 8.51911 223 215 166 
-8.59594 -16.4649 44.3826 91 106 111 
-6.50759 7.70966 34.0948 96 102 100 
-8.47076 -13.6967 44.018 99 109 110 
-9.00466 -22.7273 46.1607 197 208 226 
-7.38121 4.66607 38.8626 104 115 119 
-8.58404 -16.53 44.4986 112 125 131 
-8.67535 -17.9115 44.9032 39 49 40 
-8.81115 -20.7768 45.4571 108 119 115 
-8.12847 -8.43894 42.7557 118 132 133 
-8.12787 -8.2134 42.8438 66 72 70 
-1.61241 -1.10158 8.52217 179 165 120 
-6.40043 7.66163 33.8844 125 134 139 
-8.46233 -14.205 44.4093 40 49 48 
-8.1976 -10.3114 43.3853 121 129 131 
-8.1976 -10.3114 43.3853 121 129 131 
-8.57764 -20.5011 44.8812 127 139 135 
-7.48907 2.40126 40.1894 111 125 125 
-8.61566 -20.5685 45.2244 125 135 136 
-8.44403 -15.4935 44.7664 40 52 50 
-8.71163 -20.8129 45.8325 126 136 137 
-8.06483 -8.2715 43.2048 60 66 64 
-7.899 -7.49361 42.3678 122 126 129 
-8.26854 -14.0778 44.0575 34 36 35 
-7.29984 8.38785 39.3491 79 92 108 
-8.35819 -15.3627 44.5135 117 134 144 
-7.81545 -5.00172 42.275 117 128 130 
-8.23306 -14.0428 44.2248 102 109 115 
-7.98525 -7.64555 43.274 137 137 145 
-1.56511 -1.09576 8.50192 13 7 0 
-8.00424 -8.15926 43.4155 123 134 140 
-7.44677 2.48191 40.6895 52 56 65 
-8.64209 -22.2804 46.0923 88 97 76 
-8.03793 -11.1319 43.5974 97 107 117 
-8.31282 -15.4646 44.8539 108 128 135 
-7.88017 -8.02285 43.0339 67 81 84 
-1.84289 2.69495 10.0806 224 205 188 
-1.5517 -1.10938 8.49953 29 23 0 
-7.98437 -11.3269 43.4907 51 61 62 
-8.52224 -20.7887 45.8228 54 64 63 
-8.73016 -22.8857 46.8545 61 69 56 
-8.47126 -19.9148 45.6889 102 113 107 
-7.29415 2.47395 40.2179 54 58 67 
-8.27853 -15.5447 44.9895 59 77 81 
-1.8343 2.68346 10.0794 159 140 125 
-8.34643 -19.7167 45.1068 57 70 63 
-7.71933 -5.20982 42.5799 67 73 71 
-7.71933 -5.20982 42.5799 67 73 71 
-1.82299 2.71726 10.0482 157 136 119 
-7.90943 -10.5411 43.5304 115 124 123 
-8.37427 -18.74 45.5987 57 68 64 
-8.05938 -12.9955 44.2867 100 109 114 
-7.13934 7.44983 39.6469 33 48 55 
-8.13182 -14.254 44.7081 32 38 38 
-1.8195 2.6816 10.094 233 214 199 
-8.3683 -21.215 45.6191 51 58 50 
-1.81027 2.6418 10.0816 240 224 211 
-1.80714 2.79689 10.0578 234 213 196 
-8.16818 -14.4841 45.2501 108 122 131 
-8.05003 -14.3811 44.7057 57 69 81 
-7.86735 -9.80353 44.0458 30 35 31 
-8.28627 -20.9415 45.6949 95 103 92 
-8.28627 -20.9415 45.6949 95 103 92 
-8.0997 -15.6402 45.1718 112 128 127 
-7.86187 -11.0237 44.1385 96 105 104 
-7.76217 -9.66882 43.675 76 81 77 
-8.4089 -22.6562 46.5205 114 125 109 
-8.4089 -22.6562 46.5205 114 125 109 
-8.31868 -22.2057 46.1285 47 54 36 
-7.17964 2.51836 40.8565 40 47 53 
-7.48023 -5.3819 42.4881 33 42 39 
-8.43027 -22.9356 46.9547 54 64 53 
-7.97505 -14.3702 45.002 122 133 137 
-7.85332 -14.1221 44.3901 37 46 51 
-7.85332 -14.1221 44.3901 37 46 51 
-7.04196 6.04224 40.4413 94 105 109 
-7.97928 -16.6478 45.1362 37 41 42 
-7.97928 -16.6478 45.1362 37 41 42 
-1.65897 2.85385 9.4907 225 213 199 
-7.83008 -10.7948 44.7028 119 125 125 
-8.06172 -16.7737 45.7704 97 114 122 
-7.7634 -12.9761 44.3284 33 45 45 
-1.63817 2.78289 9.41345 59 51 48 
-1.74393 2.65646 10.0637 237 220 212 
-1.7468 2.64886 10.0845 85 70 63 
-1.7468 2.64886 10.0845 85 70 63 
-8.01484 -17.9925 45.6085 133 143 152 
-8.10571 -21.7778 45.8744 81 87 75 
-7.82084 -14.1638 44.8168 106 119 135 
-7.85041 -14.2362 45.0208 106 119 135 
-6.98789 3.6198 40.6044 55 65 67 
-7.58034 -9.56926 43.8596 25 30 23 
-7.58034 -9.56926 43.8596 25 30 23 
-6.88989 5.94286 40.1122 34 43 42 
-1.72117 3.05509 9.98074 153 136 118 
-8.08899 -18.5459 46.5529 95 104 103 
-1.7153 2.68184 10.0497 215 197 183 
-7.54742 -9.80182 44.1371 27 29 24 
-1.70848 3.07628 10.0067 158 139 124 
-1.70848 3.07628 10.0067 158 139 124 
-7.71747 -14.3063 44.9117 116 123 129 
-7.74841 -14.4547 45.134 111 121 131 
-7.50631 -9.89166 44.1494 92 94 89 
-6.77664 5.95567 40.1154 39 54 59 
-6.72154 8.15612 39.7884 77 90 98 
-7.66849 -14.2754 44.9441 15 25 24 
-7.66849 -14.2754 44.9441 15 25 24 
-7.66849 -14.2754 44.9441 15 25 24 
-7.67243 -14.4307 44.9683 23 31 42 
-7.67243 -14.4307 44.9683 23 31 42 
-7.67059 -14.351 44.992 16 24 35 
-1.75938 -0.691207 10.4448 147 150 123 
-6.72417 5.97047 40.0748 94 109 116 
-6.82745 3.91691 40.7165 34 40 38 
-7.66615 -14.5193 45.1783 130 140 149 
-7.67317 -14.4088 45.2993 84 96 96 
-7.8421 -16.9494 46.3034 108 118 117 
-1.67227 2.80833 10.0381 178 155 139 
-7.38284 -9.75576 44.264 31 33 28 
-7.5929 -14.3104 45.288 28 37 36 
-1.66609 2.94385 10.0192 235 213 200 
-1.67688 2.69852 10.1008 90 89 87 
-1.66624 2.79828 10.0374 233 210 194 
-7.54631 -14.3469 45.1739 92 104 120 
-1.66137 2.74397 10.0491 215 195 188 
-1.66123 2.73136 10.0589 79 66 60 
-1.67798 2.71546 10.1633 58 56 57 
-7.8497 -21.2076 46.7462 65 71 67 
-7.49538 -13.1516 45.2484 46 61 68 
-7.49538 -13.1516 45.2484 46 61 68 
-7.56095 -14.3478 45.5756 87 101 101 
-7.56095 -14.3478 45.5756 87 101 101 
-7.65631 -18.1654 46.0412 44 47 52 
