ply                 
format ascii 1.0    
element vertex 294
property float x    
property float y    
property float z    
property uchar red  
property uchar green
property uchar blue 
end_header          
-1.65997 -3.57817 17.3504 194 229 249 
3.45557 1.40783 14.8287 254 255 237 
3.07569 1.55376 15.2786 74 66 55 
-1.87053 -3.54076 17.0965 194 228 255 
-4.23105 0.565178 16.8059 211 210 208 
6.04044 -0.215233 28.1731 255 253 250 
-1.3831 -3.53622 17.404 183 210 229 
-0.874733 -3.57518 17.655 176 205 219 
3.59702 1.40369 14.6852 255 255 235 
3.09355 1.55963 15.1774 85 67 53 
3.44647 1.41112 14.8352 249 255 229 
3.15372 1.5484 15.1246 120 116 107 
3.10667 1.52549 15.1614 104 89 70 
-12.774 -2.60998 43.3493 245 241 206 
-1.33975 -3.53711 17.4106 151 175 187 
3.13715 1.56999 15.2291 111 101 100 
3.37668 0.852849 13.116 141 138 133 
7.14357 2.13701 34.6245 106 87 80 
3.66367 1.39113 14.6128 109 104 82 
2.64046 0.717459 11.3837 89 76 67 
0.101018 -2.57949 11.6932 255 255 248 
3.64724 1.39822 14.6315 255 255 231 
-0.596122 -2.92724 13.1104 255 255 251 
3.96592 0.097882 34.8105 225 220 216 
0.801017 -2.24269 10.3153 50 46 37 
-0.742145 -3.85789 13.2661 255 255 255 
7.10946 -0.0595863 27.1107 255 251 248 
2.93776 0.89548 15.3098 198 193 189 
4.6813 -0.0360344 32.7424 244 239 235 
1.59871 -1.88256 8.78733 240 232 209 
2.40549 -1.51928 7.20283 255 252 238 
2.30691 -1.54637 7.42533 248 247 245 
3.99441 0.101161 35.1473 255 252 248 
3.50282 1.36 14.7886 63 62 57 
6.78639 -0.00125514 28.0395 239 235 232 
4.7095 -0.0386379 32.8553 255 249 246 
6.01853 -0.223291 28.0715 239 234 231 
6.44333 -0.269192 27.8655 255 254 251 
6.28548 -0.269405 28.0197 248 240 237 
3.06467 0.941254 15.1244 90 81 74 
3.11645 0.944676 15.1847 94 70 58 
2.99226 0.954919 15.2884 59 46 38 
3.0412 0.850124 13.5411 88 76 54 
2.61277 0.724666 11.5115 89 85 74 
3.36818 1.58917 14.9574 56 35 0 
3.77353 0.922439 14.5256 88 81 71 
5.21915 1.49719 23.407 98 90 77 
3.38599 0.857648 13.1482 111 103 100 
3.56996 -1.21825 4.89643 247 246 242 
6.56063 1.88 25.3843 86 82 73 
3.28618 1.20219 14.9691 118 117 113 
3.60012 1.05848 14.639 111 111 103 
3.47404 1.28878 14.8025 70 66 57 
3.24131 1.31982 15.0312 72 65 55 
3.00305 0.944799 15.1768 80 62 60 
3.20051 1.4278 15.0836 54 50 41 
3.45755 1.40951 14.8414 235 238 207 
-1.87353 -3.53857 17.0917 107 135 156 
3.66741 1.39719 14.6277 86 82 57 
-1.663 -3.58158 17.3699 194 229 249 
3.10885 1.52814 15.1773 104 89 70 
3.2032 1.5257 15.0956 103 101 86 
3.06432 1.54547 15.2171 74 66 55 
3.15943 1.54306 15.1363 103 96 88 
3.09897 1.55911 15.1935 88 71 53 
6.70771 -0.0102167 28.2161 236 228 225 
4.38196 0.833023 13.7112 213 208 202 
7.09885 -0.0613154 27.0632 255 251 248 
-4.17965 1.6551 43.8691 69 66 49 
6.98457 -0.0591551 26.5406 248 240 237 
3.94231 0.104486 34.6659 255 252 248 
2.93734 0.890431 15.2861 218 213 209 
6.62913 -0.00291684 28.3701 243 235 232 
2.98669 0.950913 15.2539 74 57 49 
3.0281 0.952116 15.342 93 73 64 
3.27515 0.933631 14.8734 110 100 98 
4.708 -0.035635 32.7678 248 240 237 
2.87257 0.738096 11.6314 102 94 91 
4.51761 1.38323 21.706 133 123 111 
6.46296 -0.0456295 28.2228 88 77 75 
6.073 -0.0448388 28.1099 91 86 82 
3.00107 0.98164 15.2462 83 79 68 
3.37648 0.969829 14.9112 74 61 52 
3.44699 0.964471 14.7165 80 71 64 
3.37571 0.857385 13.1084 111 103 100 
3.70119 0.96119 14.5727 91 88 83 
3.3595 1.58401 14.9019 80 55 0 
6.28443 -0.265854 28.0144 255 250 246 
3.20563 1.55833 15.1624 118 102 87 
3.13228 1.56549 15.227 92 70 72 
3.08971 1.54872 15.1354 96 73 59 
3.01556 1.5556 15.1975 84 69 62 
3.19545 1.52288 15.0411 95 93 81 
3.11801 1.53512 15.2347 117 101 76 
3.43071 1.08918 14.8768 95 92 87 
5.01895 0.579778 13.2847 101 86 79 
3.6565 1.39029 14.5741 86 82 57 
3.60911 1.40747 14.7515 249 248 230 
3.38006 1.41919 14.8571 105 96 91 
3.46646 1.40699 14.8962 254 255 241 
3.42369 1.39943 14.8121 117 113 102 
3.02031 1.4326 15.3017 65 60 54 
3.00725 1.20691 15.2767 80 76 67 
-0.878205 -3.59132 17.6897 189 220 240 
4.48527 1.47056 21.766 88 74 65 
6.05569 -0.308573 28.0306 102 98 95 
3.21534 1.52877 15.0245 252 255 232 
3.08601 1.36714 15.2336 81 71 61 
6.03233 -0.22379 28.1239 239 234 231 
-1.37671 -3.51962 17.3485 181 211 235 
-1.34472 -3.52028 17.3535 199 237 250 
3.00546 0.960877 15.341 59 46 38 
4.42357 1.35686 21.7743 85 82 75 
3.35035 0.939577 14.8776 91 76 57 
3.44082 0.933506 14.788 98 86 74 
3.49208 0.939459 14.8881 92 71 66 
2.9882 0.971317 15.2053 73 66 58 
6.82975 1.60913 25.4276 75 65 64 
3.11814 1.55867 15.1894 97 64 55 
3.15626 1.58667 15.4673 96 73 59 
3.01991 1.56253 15.2665 81 63 49 
3.15705 1.54015 15.1485 64 57 49 
3.0198 1.20805 15.3636 92 85 77 
3.23475 1.19459 15.029 92 78 69 
3.66256 1.37261 14.6408 246 248 234 
3.43136 1.3039 14.8658 72 65 59 
3.47641 1.29967 14.8208 75 66 59 
3.43479 1.41488 14.88 122 118 106 
3.38925 1.41943 14.9246 82 67 60 
3.34232 1.41882 14.9639 80 71 64 
6.55499 2.25565 25.3425 73 73 63 
3.29662 1.41906 15.0113 65 56 47 
3.90737 0.112796 34.4537 255 254 249 
3.0056 1.31621 15.2438 95 86 79 
3.56425 -1.2171 4.88786 242 241 237 
6.40287 -0.046349 27.9105 96 85 83 
6.0668 -0.0463078 28.1214 104 99 95 
3.219 1.47756 15.0851 133 127 115 
3.76994 1.03096 14.4585 255 255 232 
6.4076 -0.258039 27.7809 252 248 245 
6.03866 -0.294808 28.0723 86 81 78 
3.22123 1.52975 15.0959 254 255 241 
3.38388 1.0161 14.862 148 135 126 
3.35602 1.36154 14.9422 114 111 102 
6.81381 0.00402676 28.1737 210 206 203 
3.31755 1.36512 14.9788 71 61 62 
10.0401 3.86775 46.8708 68 67 63 
6.18722 -0.254044 27.5694 250 242 239 
3.03148 1.37115 15.2303 59 54 51 
2.95832 0.853491 13.596 133 123 121 
4.66734 -0.033473 32.4628 248 240 237 
3.17942 1.4813 15.1205 77 65 67 
6.40213 2.37051 28.359 75 71 68 
3.02578 1.14413 15.2032 86 78 76 
3.13099 1.42231 15.0336 72 43 27 
3.22649 1.41989 14.9557 65 56 47 
3.90389 1.39288 14.4392 75 62 53 
3.74444 0.96426 14.5347 91 77 74 
3.01657 1.41494 15.308 91 83 80 
3.09542 1.09501 15.1906 82 69 61 
3.04409 0.98494 15.2187 97 75 61 
3.06954 1.5313 15.2867 75 62 54 
3.16565 1.52734 15.1985 62 53 46 
3.47285 0.934928 14.8141 97 79 75 
3.45493 0.936162 14.8323 96 77 70 
3.61101 1.07328 14.6995 129 122 116 
2.9989 1.5473 15.161 104 82 69 
3.00108 1.18735 15.2889 60 51 44 
3.029 1.19398 15.0872 77 60 52 
6.40466 -0.258147 27.7986 152 148 145 
3.48675 1.31141 14.8725 68 57 51 
3.0143 1.32352 15.2971 99 86 78 
3.80338 1.17063 14.51 91 86 82 
3.46247 1.40295 14.9112 254 255 246 
3.6578 1.39351 14.7095 187 189 186 
3.67814 1.01308 14.6168 74 65 60 
3.41069 1.41327 14.7841 108 92 76 
3.39485 1.01285 14.9099 174 162 150 
-1.6686 -3.59913 17.4009 166 200 228 
2.99883 1.09625 15.2781 119 106 87 
3.13634 1.47944 15.2228 185 176 161 
-0.891161 -3.59594 17.7146 161 198 227 
3.23235 1.48184 15.1392 137 133 122 
3.78066 1.03692 14.5063 255 255 241 
3.74243 1.35124 14.6103 62 57 54 
3.23361 1.52712 15.1448 255 255 241 
-1.87384 -3.5591 17.1329 186 220 248 
3.18254 1.53635 15.0115 110 95 72 
6.65156 -0.0145979 28.0506 217 209 207 
3.0322 1.25358 15.2725 158 145 136 
3.32227 1.36541 15.0336 74 64 63 
6.40469 -0.0549 27.8875 97 87 86 
6.04529 -0.0443365 28.055 109 101 98 
3.84518 1.17723 14.4629 144 129 108 
6.1877 -0.255719 27.5718 255 250 246 
1.94638 -2.74379 8.11058 111 79 64 
6.84911 -0.0151742 28.3478 218 210 208 
4.66975 -0.0397304 32.59 255 249 246 
3.21902 0.994017 14.9946 109 104 98 
3.31923 0.987309 14.9007 70 63 55 
3.88504 1.30485 14.3697 110 97 81 
9.80126 3.77805 47.0373 76 61 54 
3.15256 1.43863 15.1258 84 57 50 
3.28778 1.39915 14.9996 72 59 50 
3.57953 -1.22348 4.90204 240 239 235 
3.69833 1.16156 14.5494 100 95 92 
3.04245 1.21635 15.1876 75 49 34 
3.0373 1.47617 15.2284 61 47 36 
3.17656 1.4772 15.1106 59 51 49 
3.22211 1.47291 15.0699 75 65 53 
3.03744 1.05978 15.1627 92 87 81 
3.46772 1.16917 14.7919 81 73 70 
3.45146 1.06682 15.0097 97 89 86 
3.16743 1.13942 15.0693 93 86 80 
6.36932 -0.0563232 27.6441 93 85 83 
6.07431 -0.281905 28.3454 87 79 77 
3.06172 1.51505 15.2137 66 48 44 
3.49017 0.949572 14.9446 85 62 56 
3.64306 1.04909 14.5903 84 74 72 
3.45197 1.35666 14.8373 74 70 59 
3.15474 1.52006 15.1358 74 65 60 
3.40852 1.36087 14.8802 66 67 61 
2.99833 1.32887 15.2397 74 64 55 
2.99173 1.10352 15.2067 82 64 50 
4.44978 1.58514 21.7806 82 69 61 
3.00374 1.54773 15.2658 91 60 39 
3.14857 1.28965 15.1076 75 64 60 
3.28586 1.33199 14.9912 66 40 25 
3.60299 1.09171 14.6403 90 82 79 
3.47229 1.31476 14.8106 77 66 60 
6.20436 -0.0804558 28.9496 87 79 77 
-1.3649 -3.52752 17.3701 182 214 235 
-0.880805 -3.59013 17.6668 177 213 237 
3.01616 1.14272 15.192 76 61 58 
3.08231 1.29989 15.3848 65 58 52 
2.99464 1.17889 15.2219 68 59 52 
3.21912 1.36489 15.0565 71 66 63 
3.26422 1.36087 15.0153 89 72 54 
3.44496 1.13131 14.8085 85 71 68 
10.3276 -0.432246 17.0781 86 61 41 
7.01734 -0.0547361 26.6298 253 248 244 
3.4883 1.14094 14.7667 88 76 76 
-2.48626 -5.48541 16.8274 148 186 225 
3.61849 1.0971 14.714 87 79 76 
3.56646 -1.22033 4.88026 240 239 235 
-1.40156 -3.599 17.7303 191 225 252 
-1.0805 -3.5771 17.4534 159 194 226 
3.05701 1.04967 15.2329 78 71 65 
-1.67195 -3.6018 17.3608 155 188 221 
3.06159 1.22957 15.2545 57 40 32 
3.01447 1.55595 15.3481 87 62 40 
-1.89132 -3.60399 17.3149 184 214 242 
6.64886 -0.00850088 28.0918 227 220 214 
3.06982 1.50133 15.2948 74 61 53 
-0.833143 -0.978592 17.8599 206 210 211 
3.06856 1.45195 15.2889 88 71 53 
4.16826 1.29511 14.1047 108 90 78 
10.0576 -0.241811 16.9229 65 55 46 
3.38693 1.02527 14.6729 72 64 62 
3.44871 1.31261 14.6659 77 67 65 
3.00197 1.1024 15.2864 77 61 45 
3.10055 1.11216 15.2046 78 65 57 
3.44446 1.27187 14.9207 65 56 51 
3.06284 1.27873 15.2604 70 59 53 
6.06965 -0.306839 28.3474 88 80 78 
3.4433 1.13965 14.6439 81 73 71 
2.35943 -1.51174 7.25694 91 77 66 
6.2557 -0.0667529 27.9539 88 79 74 
-2.53608 -5.46756 16.7544 140 177 219 
-0.775935 -3.29468 13.7975 116 121 125 
4.81515 0.421012 13.4072 218 215 210 
6.14156 0.787948 12.2101 65 53 53 
3.02497 1.16385 15.4362 61 54 44 
-1.85246 -3.54213 17.0172 158 191 222 
-0.888799 -3.58031 17.5252 161 194 229 
-1.38225 -3.53103 17.4778 176 213 232 
8.47393 -0.311346 22.7093 247 244 239 
-2.50561 -5.48085 16.8196 132 174 214 
8.48577 -0.309567 22.5847 229 222 216 
-1.9833 -4.16937 16.6255 189 199 209 
3.577 1.09786 14.5962 108 103 100 
6.38369 -0.0659293 27.5994 70 66 63 
6.25197 -0.0667765 27.9641 85 76 69 
6.03148 -0.284003 28.4542 81 71 70 
3.07914 1.27933 15.4071 64 55 50 
6.30586 -0.276631 27.7275 72 55 48 
8.53906 -0.300802 21.9712 213 212 210 
0.355658 -3.04509 11.1751 254 255 250 
6.0673 -0.0678887 28.4487 102 97 94 
7.28792 -0.0677431 27.7904 255 251 248 
-3.49734 -5.45483 16.6846 123 172 202 
-0.785682 -3.30951 13.8721 73 78 82 
3.39073 1.51792 16.2719 110 86 60 
3.25729 1.39523 16.281 103 103 93 
