# .PCD v0.7 - Point Cloud Data file format
VERSION 0.7
FIELDS x y z rgb
SIZE 4 4 4 4
TYPE F F F U
COUNT 1 1 1 1
WIDTH 601
HEIGHT 1
VIEWPOINT 0 0 0 1 0 0 0
POINTS 601
DATA ascii
-2.3675499 0.32820499 4.2535801 3945534
-2.36344 0.33188301 4.2342 3089710
-2.35921 0.338801 4.2512202 2103329
-2.3450699 0.34105 4.2484899 2103072
-2.38941 0.37372401 4.4786 2432806
-2.36868 0.33998501 4.2262301 2038050
-2.3612199 0.34059301 4.2298198 2104098
-2.3586299 0.34143701 4.2397599 2300965
-2.3471601 0.34895 4.24401 3025723
-2.3276 0.35206401 4.2639699 2301997
-2.36321 0.372935 4.41436 2499636
-2.3768699 0.377707 4.4558101 2762295
-2.3801 0.38277501 4.4728498 2764099
-2.36748 0.385699 4.4720402 2699339
-2.40289 0.38502401 4.5212598 2630964
-2.36078 0.34937701 4.2352099 1974064
-2.3566699 0.349877 4.2418499 2631739
-2.35659 0.34894899 4.2428098 2697273
-2.3508899 0.357894 4.2521 3094358
-2.35798 0.35985199 4.27074 3291477
-2.3261099 0.35772899 4.2718501 2567493
-2.32335 0.36484501 4.2785001 4280178
-2.3199799 0.365309 4.2865601 3950696
-2.3462501 0.37646401 4.38978 2962512
-2.33761 0.38522899 4.3919501 4477301
-2.3622301 0.38187999 4.4266901 3358044
-2.37238 0.39227799 4.4686599 4345715
-2.3658299 0.39152399 4.4753399 3885162
-2.36184 0.392845 4.4713302 4214129
-2.3638501 0.35749099 4.2322798 3226456
-2.3535199 0.35856199 4.2435098 3490145
-2.3517001 0.35707501 4.2420402 3160665
-2.32689 0.36435699 4.2662001 4477815
-2.31706 0.371764 4.2762399 5134976
-2.3140299 0.37619799 4.2880802 3357534
-2.36233 0.36542401 4.2137098 4016493
-2.36111 0.367149 4.22434 4345716
-2.3569 0.368727 4.2563801 5333384
-2.34514 0.36961499 4.2551599 4806013
-2.33657 0.36995199 4.2574701 3621480
-2.3132701 0.38194701 4.2796102 3423070
-2.29882 0.38633001 4.2867999 3489633
-2.2849 0.38798201 4.2911401 4608375
-2.27965 0.388331 4.2971201 3686500
-2.2733099 0.38430601 4.29812 2963289
-2.3557301 0.373604 4.2119799 4148336
-2.3574901 0.37744701 4.2140198 4214386
-2.3556001 0.37470701 4.2231302 4543354
-2.3528199 0.380389 4.2319198 3951218
-2.3454299 0.378299 4.2447 4279666
-2.3276801 0.37924999 4.2470598 3292256
-2.3201399 0.37947699 4.2503099 3884910
-2.3115699 0.38547301 4.2722702 4015980
-2.3061099 0.39295599 4.2750401 4082287
-2.3011 0.39356399 4.28333 3884908
-2.29405 0.393704 4.28724 4476789
-2.2811501 0.395262 4.2917399 4608889
-2.2794099 0.39605701 4.30164 3753065
-2.3629301 0.383688 4.2132502 3753323
-2.3455801 0.38741601 4.22405 4477561
-2.32412 0.387427 4.24722 3819113
-2.32426 0.39533401 4.2505102 3752549
-2.3211701 0.39206699 4.2519898 4082029
-2.31791 0.397531 4.2616501 4411251
-2.3090501 0.39955401 4.27144 4411767
-2.30006 0.400374 4.2762198 4872320
-2.2983 0.40118101 4.2859502 4806526
-2.3605599 0.39001399 4.2042098 4938627
-2.3541701 0.38957599 4.2109299 4477563
-2.3483901 0.390843 4.2165098 5003390
-2.3406799 0.39466199 4.2313299 4608630
-2.33513 0.402226 4.2437601 4147823
-2.3285699 0.40237099 4.2485299 3949929
-2.3116801 0.40191901 4.26125 4016236
-2.3081801 0.40755701 4.2652798 3753064
-2.30639 0.405305 4.2764201 4543351
-2.35901 0.39566401 4.19487 5663122
-2.3549099 0.401968 4.2073598 5728146
-2.35513 0.39730901 4.2161498 4608634
-2.3454499 0.39809999 4.2175798 3094362
-2.33672 0.40833399 4.2304201 4411251
-2.32774 0.408811 4.24054 4016496
-2.3192 0.408342 4.25631 3094106
-2.3123701 0.409109 4.2599001 3160669
-2.2966101 0.41494301 4.2719002 3884652
-2.2681 0.424164 4.2973499 3358048
-2.25949 0.43008399 4.3175201 3423840
-2.35463 0.406479 4.1868401 6058139
-2.3493299 0.40903199 4.2053399 5596043
-2.3447001 0.40901801 4.2148499 3489121
-2.3408101 0.41191 4.2215199 3621221
-2.33148 0.41615501 4.2381301 4872835
-2.3267601 0.416004 4.2350402 4806786
-2.3231299 0.416758 4.2438202 4609920
-2.3118 0.419554 4.2525301 4675456
-2.30408 0.419144 4.2589798 4872576
-2.2992799 0.41968 4.2653599 4609148
-2.2876401 0.424867 4.2732201 4872319
-2.27439 0.43305001 4.2866702 5004420
-2.2584801 0.430877 4.3021498 4213873
-2.26087 0.42945001 4.2969799 4016751
-2.35991 0.41258401 4.1901498 5926295
-2.35076 0.411605 4.1968899 6056594
-2.3439701 0.41681001 4.2160702 3160153
-2.3378501 0.41738799 4.2273598 4675452
-2.3296499 0.42320099 4.23033 6057622
-2.32341 0.42323399 4.2363601 5991833
-2.31283 0.430462 4.2484899 5991575
-2.2974 0.43395299 4.2553902 5398922
-2.2931099 0.43458301 4.2644401 5267593
-2.28585 0.43683499 4.2678299 5332613
-2.28565 0.43198499 4.2758002 4674683
-2.2646101 0.43538499 4.2927699 4741506
-2.26917 0.437574 4.29106 5202315
-2.26509 0.44155401 4.3021102 5728659
-2.25769 0.437962 4.2986999 5399436
-2.25249 0.44193301 4.3032398 5004421
-2.24634 0.442054 4.3080502 4477818
-2.24862 0.44325399 4.3228202 4083060
-2.35025 0.417346 4.1886601 3949674
-2.3459301 0.422241 4.1981401 3159122
-2.34166 0.42714101 4.2076702 2370118
-2.3339801 0.42460501 4.2217102 4477041
-2.3341899 0.42888999 4.2156701 2961482
-2.32952 0.42950299 4.22294 3554650
-2.3249099 0.42986599 4.2304602 5858698
-2.3191199 0.43005699 4.23667 6452382
-2.3111401 0.437709 4.2437601 5859730
-2.30549 0.43549499 4.24933 4214393
-2.29285 0.44300199 4.2568002 5596043
-2.2910099 0.44390699 4.2665601 5069441
-2.2828901 0.44377699 4.2698398 4279151
-2.2762401 0.44392201 4.27493 2765913
-2.2723999 0.442233 4.2836399 4938884
-2.2716899 0.44602999 4.2933602 5794966
-2.25106 0.45384899 4.2961798 5727631
-2.2505901 0.44920599 4.30689 4807042
-2.24913 0.44996101 4.3179698 4675455
-2.35623 0.42741999 4.18753 3423327
-2.35063 0.42867801 4.1954298 1909053
-2.3429101 0.43312699 4.2013102 3950950
-2.3311701 0.43609199 4.21664 1513255
-2.32898 0.436746 4.2177401 1381411
-2.31882 0.43633199 4.2292099 4344167
-2.3144901 0.43960801 4.2356901 5661316
-2.31041 0.44584 4.24192 4476788
-2.30497 0.44200701 4.2469902 5793936
-2.2978001 0.44225401 4.2506099 5727886
-2.29474 0.451148 4.2632499 4146534
-2.27565 0.45130301 4.2691698 2633550
-2.2748101 0.450046 4.28122 4214645
-2.2587099 0.458534 4.2940302 5398666
-2.25207 0.45942301 4.3069501 5201286
-2.3547101 0.434733 4.191 1514038
-2.35653 0.44080701 4.18578 1711161
-2.35671 0.44090101 4.1860399 1711160
-2.3508101 0.44176099 4.1918101 2041408
-2.34583 0.444931 4.1970301 4149103
-2.33109 0.44399199 4.2146101 1382180
-2.33375 0.44572601 4.2080798 2171962
-2.3239701 0.444157 4.2186599 1052443
-2.3257599 0.44433099 4.2206602 1052443
-2.319 0.44523999 4.2244101 1580075
-2.3132701 0.446132 4.2294202 3225680
-2.3055 0.45318601 4.23735 3159894
-2.29774 0.454393 4.2433 3422551
-2.2960899 0.451689 4.2551098 3554396
-2.28319 0.45717701 4.2579598 2501700
-2.2738299 0.461319 4.2619901 2633032
-2.2697799 0.46276 4.27596 5069179
-2.26559 0.46474701 4.2804599 5135489
-2.2532899 0.46605799 4.2952399 4147826
-2.25225 0.46949399 4.3049598 4214131
-2.3485701 0.44945201 4.1907902 3029075
-2.33618 0.45432901 4.2028599 2501961
-2.3271401 0.45576 4.2044101 1184548
-2.3224101 0.45504501 4.2069101 1447717
-2.3217499 0.456384 4.2176099 1710890
-2.31409 0.45446599 4.22262 2303543
-2.3048 0.46048799 4.2306399 2437197
-2.29969 0.461072 4.2365198 4082796
-2.2948101 0.46634999 4.24506 2831703
-2.27615 0.470512 4.2590699 2830926
-2.27 0.46707499 4.26719 3158862
-2.2673399 0.47062901 4.2748499 4081766
-2.26227 0.472 4.2806201 5069697
-2.3519101 0.456568 4.1891198 1975100
-2.3447299 0.45639801 4.1944199 3950695
-2.34091 0.45894599 4.1985698 4147816
-2.33463 0.462199 4.20227 1909307
-2.3208101 0.464331 4.2112098 2370625
-2.31512 0.46500301 4.2165098 1975869
-2.31089 0.46624801 4.2228298 2107459
-2.3060601 0.467419 4.2259598 2371920
-2.30195 0.46797299 4.2329998 4676222
-2.2964699 0.47085401 4.2378001 5070213
-2.2885799 0.47118899 4.2474399 2174031
-2.2816 0.47497699 4.2516198 4345714
-2.2750499 0.47616401 4.26722 1447985
-2.2660401 0.4781 4.2769399 3753319
-2.2495501 0.48219201 4.2899799 4280182
-2.35287 0.46360701 4.1806898 2699082
-2.3487201 0.46248701 4.1794 2501959
-2.3457 0.46290401 4.1890998 2764616
-2.3387001 0.46742499 4.1978898 3159629
-2.3282101 0.47209701 4.2025099 2765903
-2.32604 0.473295 4.2115598 3292762
-2.31547 0.473263 4.2115798 3095387
-2.3164001 0.47502801 4.2242098 2964059
-2.31234 0.47629899 4.2270999 3227490
-2.30288 0.477256 4.2277198 4543867
-2.2943799 0.47845799 4.2372398 5465229
-2.2882299 0.47944 4.2416701 4609664
-2.2797699 0.48092499 4.2543001 4280181
-2.27123 0.48304799 4.2678299 2042183
-2.26667 0.48478401 4.27212 3688297
-2.2624199 0.48511401 4.2786698 5202054
-2.2627599 0.49179 4.2735701 5333383
-2.2525201 0.48899701 4.28653 4609405
-2.34828 0.46903899 4.1845698 2764869
-2.3426399 0.47307199 4.1937599 1776943
-2.33726 0.47604799 4.1998401 3094095
-2.32658 0.47824201 4.2002501 3556193
-2.3157499 0.48269501 4.2132101 4873088
-2.3140199 0.48409599 4.22297 4938883
-2.3073299 0.48451099 4.2271199 4609406
-2.29931 0.48446 4.2305598 5004165
-2.29719 0.48729801 4.2428498 5794194
-2.2871101 0.48560199 4.2478499 5333644
-2.2771001 0.49197999 4.25209 5465229
-2.27391 0.493404 4.2597899 4609404
-2.27109 0.49638399 4.2660198 3687530
-2.2646899 0.49868801 4.27002 3424101
-2.2591901 0.49890399 4.2753701 5595786
-2.2532101 0.50155097 4.2796402 5399178
-2.2500401 0.49668899 4.2850199 4938371
-2.33935 0.479413 4.1837602 1250339
-2.33693 0.48259699 4.1930199 1909818
-2.33044 0.48278201 4.1975002 3621729
-2.3258801 0.48347899 4.2038598 4214384
-2.31668 0.49023601 4.20329 5333386
-2.3122699 0.491359 4.2151399 5662866
-2.3118501 0.491521 4.21032 5728403
-2.3090799 0.492309 4.2230601 5794195
-2.2979 0.493168 4.2350602 4741249
-2.2878499 0.49542299 4.2416601 5662095
-2.29408 0.49840999 4.2437801 4608891
-2.2890301 0.49693301 4.2523398 6057110
-2.2757499 0.50283802 4.25139 5991059
-2.26215 0.50628 4.26964 3226978
-2.25648 0.50654101 4.2744699 4542839
-2.2514601 0.506881 4.2808399 5135748
-2.2431099 0.51124501 4.2856002 5201541
-2.3373201 0.487753 4.1852398 1843768
-2.3441801 0.486231 4.1821499 1975095
-2.3269401 0.49092999 4.1981101 4412280
-2.31619 0.499782 4.2042899 5991574
-2.31214 0.50124902 4.2122502 5925523
-2.3122799 0.50099498 4.2206502 5925009
-2.30564 0.50157601 4.2247701 4937856
-2.29478 0.50428802 4.23598 3884393
-2.2860601 0.50656998 4.2452698 4213358
-2.2897401 0.50516599 4.2442598 4015979
-2.2818799 0.50698799 4.2519898 5595784
-2.2745199 0.50690502 4.2561498 5464715
-2.2654099 0.51320702 4.26577 4412281
-2.2553799 0.51270598 4.2665601 4214389
-2.25002 0.51299399 4.2725201 3687531
-2.24983 0.51292598 4.2723198 3687531
-2.24545 0.51758498 4.28052 4608633
-2.2388599 0.51763898 4.2891502 5266821
-2.34127 0.49746001 4.1806402 2501696
-2.3359399 0.498081 4.1863799 2238270
-2.3296299 0.49872601 4.1912298 3753060
-2.31581 0.505988 4.2157102 5135236
-2.3110001 0.50871903 4.2214298 4410739
-2.30161 0.50883901 4.2252202 3752809
-2.29146 0.50978798 4.23528 2831186
-2.2853301 0.51835698 4.2416301 2305354
-2.2822499 0.51384902 4.2473402 3950441
-2.27861 0.51375902 4.2536702 4477304
-2.2746999 0.52083701 4.25353 4148596
-2.3380401 0.50449997 4.17206 1579308
-2.33199 0.50705802 4.1827502 1711148
-2.32722 0.50813699 4.1891098 2765129
-2.3206401 0.50904 4.1931901 4739698
-2.3187499 0.51327598 4.1946802 3818081
-2.3171799 0.514754 4.2048001 4213100
-2.30936 0.51339602 4.2193799 3818601
-2.30268 0.51426101 4.2199998 4147823
-2.29322 0.51511103 4.2236199 3621479
-2.2802701 0.52154398 4.2465801 4345712
-2.34021 0.51947999 4.1792898 2173248
-2.3404601 0.519656 4.1795702 2238784
-2.3303001 0.51657897 4.1813898 1514283
-2.3232701 0.52133799 4.1890202 2435904
-2.3122799 0.52331698 4.2055202 4806009
-2.3090601 0.522201 4.2164402 3885422
-2.2995 0.528256 4.2301402 4543096
-2.2967801 0.533575 4.23315 4148081
-2.28897 0.52949202 4.23735 2765909
-2.27423 0.530366 4.2417202 3160411
-1.89729 0.64741302 4.6553001 6518180
-1.86052 0.64169502 4.6297402 6518436
-2.3434 0.51861602 4.1704001 3292250
-2.3373401 0.52526897 4.1700401 3555164
-2.3355 0.52644497 4.1802201 1975097
-2.3234301 0.52871299 4.1791 1645612
-2.31744 0.52948302 4.18432 2764868
-2.3141899 0.531259 4.1944799 3358043
-2.3094599 0.531932 4.2007198 5267333
-2.3097301 0.53298801 4.2111602 5135492
-2.3057699 0.53336102 4.2181301 4280184
-2.3015201 0.53834301 4.2231798 4872579
-2.29036 0.53865999 4.2334199 4148854
-2.2774899 0.54193997 4.2287598 5333385
-2.27402 0.53619897 4.2348599 4082802
-1.9155 0.65231597 4.6419101 6452385
-1.8788199 0.649122 4.6394801 6518179
-1.86982 0.65241897 4.6346698 6583714
-1.8541501 0.64932799 4.6263299 6518179
-2.3319299 0.53197002 4.16926 2238529
-2.32932 0.53429502 4.17873 1382438
-2.3120501 0.54099202 4.1911602 2371146
-2.30739 0.54177999 4.1975498 5333383
-2.29984 0.54381698 4.22715 5267593
-1.91087 0.658485 4.62675 5333128
-1.91097 0.65956098 4.6504302 5793938
-1.8972 0.65660602 4.64923 6386334
-1.8787 0.65829098 4.6334 5793939
-1.8568799 0.656982 4.6245298 6254747
-1.85884 0.65888298 4.6358099 6320540
-2.3366499 0.53657901 4.1640401 3555163
-2.33413 0.54244 4.1686602 2567238
-2.3343599 0.54055101 4.17658 1382186
-2.3264301 0.544819 4.1876798 1316387
-2.3041699 0.54830199 4.1884398 4610175
-2.3025601 0.549514 4.1981702 5662866
-2.2962401 0.55658698 4.2263598 5333128
-1.92329 0.66656101 4.6277699 5660026
-1.90652 0.66252398 4.63271 5200767
-1.88599 0.663899 4.63026 5200509
-1.86707 0.66238397 4.6167302 5200766
-1.8530999 0.66716498 4.6234198 5331581
-2.34006 0.54250199 4.1612201 3687779
-2.33867 0.549734 4.1647201 3621987
-2.3322501 0.550134 4.16961 1777721
-2.32568 0.550524 4.17416 1514544
-2.3171799 0.55062801 4.1767602 1712441
-2.3138499 0.55104798 4.18507 2306383
-2.29566 0.56456399 4.2135 4476274
-2.2874501 0.56365502 4.2228198 4147824
-2.2831399 0.56391501 4.2311201 4674683
-2.27617 0.56640297 4.2286401 4740474
-2.2711 0.56585598 4.2361498 4872318
-1.90771 0.66506702 4.61305 5856634
-1.90607 0.66655397 4.6196098 5922425
-1.89867 0.67031598 4.6170402 6315893
-1.88809 0.67024302 4.6133499 6315892
-1.88291 0.670555 4.6171298 6250356
-1.86326 0.6706 4.61095 6118772
-1.85366 0.671435 4.6123199 6053237
-1.8528301 0.67606997 4.6169801 6315635
-2.3331101 0.55688798 4.1619501 3226976
-2.32443 0.55605298 4.1657701 2700627
-2.2967701 0.55668598 4.1537099 4280949
-2.2926099 0.56082302 4.1654301 4872571
-2.3022799 0.55853897 4.1845002 5268362
-2.2932 0.56505197 4.1760802 4146790
-2.2955401 0.56419998 4.1956501 5200252
-2.2832601 0.57143998 4.2240601 3686235
-2.2749701 0.571666 4.2262301 3818081
-2.2674999 0.57375097 4.2343702 3488089
-2.2651601 0.57737601 4.24299 3619673
-1.92022 0.67325401 4.6145301 6381427
-1.89785 0.67223102 4.6001301 6446963
-1.9191099 0.67486298 4.6217399 6381427
-1.88299 0.67111599 4.59377 6381427
-1.86576 0.68046498 4.6085501 6381425
-1.85365 0.68462598 4.6104002 6381168
-1.84814 0.68681997 4.6226301 6381425
-2.3263099 0.56410301 4.1575999 4280176
-2.2678199 0.56273198 4.1331201 2961481
-2.28231 0.57075101 4.1696701 2631225
-2.2916999 0.58244902 4.2204199 3681595
-2.2806301 0.58004701 4.2249198 3025211
-2.2801499 0.57774001 4.22366 2894398
-2.2731299 0.57925302 4.2273302 2893885
-2.2702 0.586604 4.2273998 3878459
-2.2690699 0.582573 4.2381301 3156800
-2.26298 0.58764201 4.2406201 4076612
-2.26106 0.58544999 4.24154 3551299
-2.2562001 0.58867699 4.2449298 3747904
-2.25493 0.58635098 4.2462401 3288384
-1.91945 0.68084502 4.6044998 6447219
-1.88486 0.68395501 4.60783 6446962
-1.88289 0.68513399 4.6150599 6446962
-1.8635 0.68483698 4.6124301 6446961
-1.85983 0.69226402 4.61097 6381168
-1.8599401 0.69387197 4.6206398 6381168
-1.85359 0.694368 4.62008 6381168
-2.3185799 0.57878298 4.16394 3813441
-2.29656 0.57858402 4.1947198 2827312
-2.2682099 0.590002 4.2344599 4272959
-2.2570701 0.59593499 4.2441902 4010042
-1.92316 0.68407798 4.5727 6710393
-1.91238 0.68932098 4.5679598 6315376
-1.9246 0.69113398 4.61057 6512754
-1.88394 0.69028902 4.60045 6446961
-1.88042 0.69768798 4.5995402 5854563
-1.88933 0.69775099 4.6003098 5854306
-1.87081 0.69748199 4.5978799 5920100
-1.88431 0.69190001 4.6103501 6381168
-1.86452 0.69950098 4.6091399 5986150
-1.8642401 0.70104802 4.61832 6052200
-1.85558 0.70106298 4.6178298 6249323
-1.85569 0.70109397 4.6179399 6249323
-1.85917 0.69963199 4.6182098 6249580
-1.83601 0.70463699 4.6175199 6183788
-2.33445 0.57800299 4.1561599 3749451
-2.32757 0.57829797 4.1621799 4077644
-2.3169501 0.59061903 4.1831002 3483698
-1.91563 0.69602299 4.55969 5657441
-1.91319 0.69553602 4.5764999 5788771
-1.90429 0.69660199 4.5864801 5788513
-1.89781 0.69773299 4.6005702 5854050
-1.87839 0.70682698 4.60848 4011325
-1.8699501 0.70689303 4.6082702 4340290
-1.86923 0.70837498 4.61693 4866892
-1.86017 0.70831299 4.6159601 4932686
-1.85142 0.70830703 4.6153302 5130580
-1.84253 0.70411402 4.61273 5986150
-1.83521 0.71201098 4.6298399 6249322
-1.82617 0.71192801 4.6332302 6315118
-2.33197 0.58848101 4.1638799 4732223
-2.3271401 0.58909899 4.1699901 4140343
-2.3231399 0.59038502 4.17804 3746099
-2.31235 0.59851599 4.1792598 4141115
-2.3112299 0.594374 4.1870999 3812405
-1.94043 0.70055002 4.5476098 5722978
-1.92774 0.69823599 4.5538301 5722721
-1.9145499 0.70158702 4.56003 4078147
-1.9135799 0.70199299 4.5704899 4866894
-1.90668 0.70334601 4.5803499 3748410
-1.90048 0.70390999 4.5827298 3353394
-1.8947999 0.70688802 4.5643902 1972253
-1.89398 0.70921201 4.58322 1906716
-1.88624 0.71213198 4.59129 1709849
-1.88589 0.71311402 4.5989299 1709850
-1.88185 0.71380401 4.6048002 1775386
-1.8725801 0.71370399 4.6037102 1840923
-1.84505 0.71734899 4.6118498 2235425
-1.83044 0.71898401 4.6327701 5196372
-1.81295 0.71728599 4.6261902 5789285
-1.81233 0.72504801 4.6338201 5130838
-1.80194 0.72217399 4.63027 5986151
-1.80018 0.72886002 4.6392999 5789027
-1.96358 0.70221001 4.5289998 6578031
-1.9522901 0.699184 4.5359902 6446444
-1.92264 0.70869601 4.5412002 2300962
-1.9072599 0.70402598 4.5378098 2432549
-1.9075201 0.70668 4.5443602 2038046
-1.89798 0.70501101 4.5483499 2169375
-1.90834 0.71014398 4.5542798 1775386
-1.89056 0.71009701 4.5469899 1644056
-1.89606 0.71465999 4.57342 1578263
-1.891 0.71096998 4.5784702 1709849
-1.87911 0.71728897 4.5770302 1446935
-1.87194 0.71592802 4.5889702 1447192
-1.84444 0.72187799 4.6037502 1380887
-1.85531 0.73867399 4.6680799 1512473
-1.8177201 0.73231298 4.63482 2630184
-1.97628 0.70433003 4.50528 6644340
-1.97542 0.70504701 4.5223198 6644082
-1.97761 0.71162897 4.53227 5985635
-1.96497 0.70867401 4.5381398 5853790
-1.96623 0.708781 4.5394902 5853791
-1.93362 0.71256602 4.5396199 2103839
-1.91063 0.715608 4.5334001 1446934
-1.86426 0.72777897 4.60221 1249815
-1.8369 0.72877002 4.5925002 1249814
-1.83034 0.72794199 4.59869 1381144
-1.83631 0.73358399 4.59728 1315607
-2.00967 0.712524 4.5116501 6644596
-1.98191 0.70671099 4.4974399 6644340
-1.94463 0.71512902 4.5327902 2169632
-2.0085499 0.72074902 4.5044298 6512496
-1.9992599 0.72385103 4.5173202 5525340
-1.99029 0.72883302 4.5349202 2498343
-1.98833 0.72897702 4.5325298 2366757
-2.0113001 0.72977602 4.5019102 5919844
-2.00404 0.72619402 4.5070801 5788257
-2.00279 0.73256499 4.5142398 4142657
-1.99956 0.73382801 4.5158901 3090224
-1.99624 0.72988099 4.5243502 3353652
-1.9949501 0.72998202 4.52319 3221810
-1.98861 0.73080802 4.5234599 2300963
-1.97744 0.73488402 4.5188098 1775644
-2.00966 0.73479003 4.5019598 5129812
-2.0067599 0.73638099 4.5061798 4142657
-2.0016301 0.73866498 4.5213399 2235170
-2.00144 0.73899901 4.5221 2169377
-2.0230601 0.72995597 4.4539299 6644342
-2.01405 0.73281902 4.4564199 6447217
-2.0120201 0.73187798 4.4545898 6447217
-2.0147099 0.73643798 4.4903798 5788257
-2.00508 0.74508202 4.4937901 2498342
-2.0118501 0.74238902 4.4953899 4077121
-2.01193 0.742383 4.4956002 4077121
-2.00178 0.73959702 4.5012498 2761259
-2.0043499 0.74023598 4.5046501 2761259
-2.0038099 0.74239099 4.5114698 2169634
-2.00384 0.74700898 4.5130501 1972511
-2.03125 0.74081898 4.4389 6710135
-2.0190699 0.73850399 4.45368 6512754
-2.0167799 0.74117798 4.4635901 6183274
-2.0160201 0.75020802 4.4885302 3287604
-2.0072601 0.74811399 4.49861 2169634
-2.00753 0.74819797 4.4988499 2169634
-2.0283899 0.751885 4.4491501 6314861
-2.0256701 0.74329299 4.44452 6578547
-2.01823 0.75479198 4.4612598 4800847
-2.0197599 0.747145 4.4588499 6051430
-2.0081 0.754655 4.48739 2038304
-2.00863 0.75477701 4.4879999 2038304
-2.0362301 0.75446099 4.4298801 6578548
-2.0274301 0.749677 4.43647 6512754
-2.03299 0.76112503 4.4581199 5787744
-2.02071 0.76052099 4.4559698 4472136
-2.0410199 0.762878 4.4302502 6381169
-2.0358701 0.768673 4.4552398 5327191
-2.0193501 0.76848698 4.473 2038048
-2.03001 0.77772301 4.45158 2761515
-2.0193999 0.77167898 4.45544 2300962
-2.04649 0.77778202 4.44557 5853794
-2.0403299 0.78271502 4.4463902 4274244
-2.02614 0.78285301 4.4541302 2103839
-2.0497501 0.78154498 4.3941898 6512755
-2.0554099 0.784338 4.4120898 6512754
-2.0470901 0.78671402 4.43613 5393241
-2.04056 0.792054 4.4379401 2958638
-2.03005 0.79042298 4.4468498 2103840
-2.05848 0.78087699 4.3903499 6578805
-2.0566001 0.79209501 4.4304299 5985637
-2.04948 0.79771399 4.4321299 4011071
-2.02759 0.79525 4.4299598 2103839
-2.0699201 0.79799902 4.4285002 6314859
-2.0634 0.802163 4.4278898 5590363
-2.0434 0.802737 4.4326701 2300707
-2.0624299 0.80656201 4.4158401 5063763
-2.05951 0.80748302 4.42451 4340036
-2.0517299 0.80829102 4.4263601 2761259
-2.0533199 0.816221 4.4168901 2432807
-2.0448699 0.81690103 4.4180398 2038305
-2.08272 0.88558 4.4092898 5392732
-2.0783501 0.887573 4.4166899 4077385
-2.0783999 0.88819802 4.4166198 4077385
-2.09231 0.89541101 4.4124699 5721443
-2.0776 0.89379901 4.4061499 5064024
-2.0746701 0.89631599 4.4154701 3551553
-2.0771999 0.90218699 4.4073601 4735315
-2.0711999 0.90523601 4.4117699 3419453
-2.08218 0.90625203 4.40027 5721186
-2.0777299 0.91091299 4.4098201 4406094
-2.0783501 0.91391498 4.41961 3485247
-2.07902 0.91637999 4.4067602 4997975
-2.08237 0.92488998 4.4186902 4077385
-2.0922101 0.92323899 4.4105301 5786978
-2.0882299 0.93025601 4.4112902 5589856
-2.0769401 0.93102503 4.4152098 3485246
-2.0866001 0.93821597 4.4133101 5195353
-2.08341 0.93501699 4.41113 5063767
-2.08216 0.93954498 4.42243 3353916
-2.0729401 0.938568 4.3782201 5721187
-2.0885201 0.94468302 4.4086199 5589599
-2.0850699 0.94562399 4.4171901 4274250
-2.08148 0.94738102 4.4134798 4011334
-2.08462 0.94821602 4.4169698 4142664
-2.0838301 0.95283502 4.4292402 2959672
-2.08448 0.948901 4.3955498 5655650
-2.08095 0.95222503 4.40418 4997718
-2.0825701 0.95756203 4.41891 3354175
-2.08444 0.960693 4.43365 2828342
-2.08131 0.95582598 4.39429 5589856
-2.0756099 0.96249199 4.4030499 3748676
-2.0809901 0.96447903 4.4208398 2959929
-2.07775 0.96775198 4.3948598 4998231
-2.0822101 0.96246499 4.3896198 5655394
-2.0825901 0.97372103 4.4269099 2762806
-2.0940101 0.972525 4.3985 5655651
-2.0839801 0.97133702 4.3909602 5655393
-2.08113 0.97611701 4.4071898 3682884
-2.0824101 0.97861803 4.42098 2763064
-2.0904601 0.98041999 4.3962102 5655394
-2.0854101 0.98141301 4.4022799 4997975
-2.0805199 0.98483402 4.40835 3091261
-2.0839601 0.98872602 4.38236 5590114
-2.0748 0.99104601 4.38203 5064283
-2.07232 0.99613702 4.3937802 2895162
-2.07444 0.99150598 4.4043398 2697270
-1.90521 0.70947701 4.5722499 1906715
