# .PCD v0.7 - Point Cloud Data file format
VERSION 0.7
FIELDS x y z rgb
SIZE 4 4 4 4
TYPE F F F U
COUNT 1 1 1 1
WIDTH 843
HEIGHT 1
VIEWPOINT 0 0 0 1 0 0 0
POINTS 843
DATA ascii
-5.6024299 -2.3619299 18.7348 4936530
-5.59904 -2.38083 18.7943 4607308
-5.6220999 -2.35344 18.7253 5331288
-5.4718299 -2.3589201 18.746201 3159603
-5.4940801 -2.38083 18.789301 3488568
-5.5960999 -2.336 18.7589 4739151
-5.5762 -2.32727 18.6709 4804944
-5.4786201 -2.3108599 18.6523 3883327
-5.5094399 -2.3232901 18.699499 4212292
-5.59061 -2.2716 18.689899 5199703
-5.6128001 -2.2546799 18.6723 5660510
-5.6054802 -2.29212 18.680599 5528924
-5.59587 -2.2237999 18.6334 5265753
-5.6033802 -2.2179301 18.613899 5726304
-5.6030998 -2.2400701 18.697901 5002580
-5.6030998 -2.2400701 18.697901 5002580
-5.5627198 -2.15675 18.5235 5397341
-5.55652 -2.1414199 18.519699 5726307
-5.5268798 -2.09253 18.511101 5331548
-5.4497499 -2.0569899 18.3983 4410186
-5.4566302 -2.0644901 18.3755 4673103
-4.9668298 -2.1656899 19.316601 3554613
-4.9691401 -2.19086 19.3074 3488821
-5.4780102 -2.0067101 18.315201 5133912
-5.46913 -2.0336101 18.424101 4409930
-4.9907999 -2.0787699 19.102699 3225898
-4.98739 -2.1138999 19.1311 3686197
-4.9664402 -2.10376 19.1999 4212800
-4.95222 -2.11604 19.2526 3752249
-4.9559102 -2.1070099 19.3001 3554612
-5.4785399 -1.95339 18.3144 4344394
-5.43048 -1.97955 18.2367 4607566
-4.9870801 -2.0606301 19.1511 3225642
-0.343211 -1.24822 7.8537598 1975073
-5.45612 -1.9222 18.289101 4278603
-5.4776602 -1.93197 18.240801 5068375
-5.46241 -1.8907501 18.276501 4541774
-5.0629401 -1.98965 19.0135 3225389
-5.01017 -1.9915299 19.131599 3094310
-5.0130801 -2.02035 19.171301 3094310
-5.0342798 -2.01373 19.110001 2831137
-4.91747 -2.0191901 19.2969 3159593
-0.35306999 -1.2287 7.90448 3093813
-0.3547 -1.23399 7.8516002 2369830
-0.348851 -1.2309901 7.88205 3028276
-0.35620999 -1.2395 7.85923 2304038
-0.31479299 -1.2092 7.7803202 2765102
-0.31785899 -1.22059 7.7824798 2370345
-0.329393 -1.23831 7.7677202 2435882
-0.32451501 -1.23151 7.7909198 2435881
-0.33673501 -1.228 7.8102298 2765103
-5.4597802 -1.8810101 18.2117 4607566
-5.4731102 -1.86545 18.183701 5397340
-5.4415398 -1.84858 18.1632 4805202
-5.45474 -1.83328 18.137501 5396825
-5.0099602 -1.9367599 19.060499 3423275
-5.0099301 -1.96409 19.0945 3883826
-0.36198199 -1.21395 7.9015799 3291192
-0.34938201 -1.19647 7.8557401 3620672
-0.34851301 -1.21515 7.8888998 2830897
-0.357696 -1.19091 7.8095002 3357757
-0.33612099 -1.19844 7.84162 3225913
-0.32781601 -1.2068501 7.7909002 2962225
-0.331312 -1.18564 7.8291402 3094069
-0.323001 -1.1941 7.7786398 2699054
-0.31823701 -1.18196 7.7708802 2370088
-0.31827101 -1.18205 7.7705102 2370088
-5.4910598 -1.81093 18.3512 4870996
-5.4725399 -1.81213 18.3242 4673359
-5.4707999 -1.84435 18.364599 3752256
-5.0507598 -1.8670501 18.8957 3685685
-5.0517702 -1.91018 18.9655 3488560
-5.0109701 -1.90899 19.049601 3159848
-5.0123 -1.8805799 19.053101 3094055
-4.9939899 -1.9215 19.0807 3554863
-5.0022898 -1.89589 19.0966 3291434
-0.31823501 -1.168 7.7604198 2501930
-0.32673299 -1.16868 7.7813601 2699053
-5.4700799 -1.78645 18.3361 4410445
-5.4889498 -1.7739201 18.440599 4278858
-5.0588899 -1.84776 18.8822 3883064
-5.05126 -1.82874 18.932199 3488560
-5.0490098 -1.8682899 18.9363 3291180
-5.05092 -1.83744 18.872499 3751735
-5.0402999 -1.84834 18.9797 2830884
-5.0105801 -1.85048 19.0457 3225642
-5.0082798 -1.84874 19.0497 3225386
-4.9924698 -1.8590699 19.104799 3422765
-5.50282 -1.73677 18.4685 4607824
-5.4509602 -1.70118 18.2104 5002838
-5.4745898 -1.74428 18.332701 5002839
-5.0630999 -1.76903 18.870899 4146237
-5.0475602 -1.80338 18.837799 3948858
-5.0524702 -1.78882 18.923599 3554098
-5.0473299 -1.81106 18.997999 2962213
-5.0270901 -1.81045 18.9786 2830627
-5.0116601 -1.80004 19.023701 2633504
-4.9843898 -1.8090301 19.045401 3423021
-5.0181198 -1.82368 19.0338 3159592
-4.85922 -1.81883 19.3417 3620401
-4.8618698 -1.82897 19.336201 3489071
-5.44415 -1.6599 18.2085 4542028
-5.42518 -1.65576 18.224001 4081220
-5.0549998 -1.74946 18.9167 3883064
-5.0436702 -1.76899 18.9666 2830628
-5.0409098 -1.73817 18.9639 3093800
-5.0315599 -1.75631 19.0058 2699041
-4.9791899 -1.73871 19.0296 3356972
-4.90909 -1.75837 19.0986 3751990
-4.8514099 -1.79477 19.356701 4212539
-5.4422798 -1.62971 18.2411 4213062
-5.4373202 -1.62251 18.215799 4278599
-5.04813 -1.711 18.8902 3685942
-4.9734802 -1.69712 19.0368 3159851
-4.9552798 -1.69943 19.0728 2896680
-4.9672298 -1.7218601 19.068001 3225644
-4.9455299 -1.7363 19.072901 3094316
-4.9003601 -1.69857 19.0954 4278334
-4.92348 -1.7364399 19.1054 3883577
-5.7090302 -1.58956 18.3526 5857633
-5.7083902 -1.58839 18.474501 4870737
-5.67799 -1.60466 18.371099 5199702
-5.6267099 -1.59108 18.3326 5265493
-5.0458899 -1.67243 18.8815 3948858
-5.0374198 -1.63205 18.851 3817528
-4.9343801 -1.6744601 19.058399 3357232
-4.9611502 -1.67467 19.046499 2764838
-4.94243 -1.65047 19.0415 2830888
-4.9120898 -1.66881 19.091 4344128
-4.8744898 -1.6935199 19.1689 3818037
-4.8463101 -1.6975501 19.249399 3620913
-4.9273701 -1.6131999 19.056801 2567974
-4.9222102 -1.64565 19.077 4015164
-4.9087 -1.6243 19.0886 4212542
-4.8955998 -1.6385 19.090799 4344127
-4.89358 -1.64604 19.079 4344127
-4.8733501 -1.6424 19.1894 3751986
-4.7285299 -1.64342 19.5119 3685943
-4.6894102 -1.6475101 19.492001 4014652
-4.7042799 -1.66231 19.4951 3554357
-4.7225399 -1.66813 19.4589 3620149
-4.9349799 -1.58885 19.0254 3291696
-4.9243002 -1.55124 19.0387 4015421
-4.9176602 -1.57592 19.0744 3949371
-4.7114 -1.61048 19.487301 4146237
-4.6949501 -1.62325 19.6147 4738632
-5.0187302 -1.50881 18.8948 2962215
-4.9660902 -1.50223 18.930799 3028266
-4.96064 -1.5158401 18.968399 3225645
-4.9795599 -1.52617 18.931999 3225901
-4.9934201 -1.4972399 18.9104 3159851
-4.9445801 -1.5201 19.028799 3423282
-4.9081402 -1.53936 19.085899 4607558
-4.89885 -1.51036 19.106199 5002319
-4.9018302 -1.54339 19.0595 4541766
-4.9099302 -1.51958 19.037399 4673353
-4.8745899 -1.52194 19.107599 4936268
-4.8331099 -1.5208499 19.199301 4475714
-4.8182602 -1.5362099 19.245701 3949368
-4.8091998 -1.53787 19.2796 3751732
-4.7975798 -1.52782 19.273199 3817781
-4.7288299 -1.56261 19.448799 3751735
-4.74191 -1.57665 19.408199 3751734
-4.70715 -1.56382 19.4729 4738633
-4.7220602 -1.58702 19.474899 3817272
-4.68222 -1.55454 19.4846 6251620
-5.0419998 -1.46284 18.828899 2896423
-5.01369 -1.45055 18.841801 2896679
-4.9468298 -1.46383 18.966999 3028524
-4.9424601 -1.49094 18.9835 3291696
-4.9298701 -1.4569401 19.025801 3817786
-4.9063301 -1.45744 19.039301 4278339
-4.8326702 -1.49409 19.244301 4015419
-4.81288 -1.51236 19.230301 3949368
-5.0025301 -1.42259 18.7864 3028009
-4.9252801 -1.4155101 18.9991 4212803
-4.6637602 -1.47517 19.4904 5659740
-4.8140898 -1.36686 19.078501 4147007
-4.8206902 -1.40425 19.1105 4080958
-4.7557402 -1.40185 19.246401 3094055
-4.6561799 -1.4201 19.4863 5988447
-4.6503601 -1.4134099 19.499201 5922912
-4.66254 -1.44699 19.5261 5791326
-4.6611199 -1.4408799 19.5079 5988704
-4.8967099 -1.34268 18.8967 4409669
-4.8952198 -1.33969 18.876801 4212547
-4.8808398 -1.3167599 18.869301 4343875
-4.7170901 -1.35181 19.2987 3686197
-4.7274199 -1.3446 19.2523 3554609
-4.6768198 -1.37228 19.438601 5001807
-4.6919599 -1.35181 19.422001 4409667
-4.6988502 -1.3884701 19.437599 4212033
-4.7023501 -1.36514 19.372101 4080957
-4.6617398 -1.35726 19.4884 5791324
-4.6638498 -1.3899 19.500401 5791068
-4.6665001 -1.39077 19.5014 5725532
-4.6445098 -1.37348 19.5138 5988704
-4.64608 -1.37062 19.506001 5923168
-4.99402 -1.25258 18.8162 2633506
-4.99297 -1.28637 18.8409 3357230
-4.9619002 -1.24661 18.8046 2962727
-4.9593101 -1.28012 18.8228 3554867
-4.89045 -1.26264 18.858801 4673096
-4.8566599 -1.26864 18.905001 4739147
-4.8372402 -1.28527 19.0578 4936526
-4.82339 -1.30732 19.055901 4805196
-4.6746802 -1.3361 19.4592 5133393
-4.6898799 -1.30805 19.4049 4541253
-4.7024598 -1.33539 19.401501 4146494
-4.6822 -1.33132 19.434999 4672840
-4.6521101 -1.31857 19.461599 5791325
-4.90306 -1.24537 18.776199 4015164
-4.88832 -1.23702 18.841 4409924
-4.89575 -1.23944 18.874201 4344131
-4.7440901 -1.21842 18.841101 4475973
-4.7919402 -1.24391 19.1031 4081214
-4.6733198 -1.27598 19.397699 5001805
-4.6791801 -1.2503 19.3972 4936012
-4.698 -1.28431 19.376699 4409923
-4.6571002 -1.25634 19.438101 5725530
-4.66576 -1.20121 19.3778 5133392
-4.6554699 -1.23707 19.339399 5199185
-4.6918101 -1.20096 19.3598 4541510
-4.6495299 -1.22184 19.399099 5725273
-4.9256001 -1.09013 18.4578 2173211
-4.9047198 -1.08533 18.4704 2436639
-4.6510301 -1.16462 19.3514 5133391
-4.6767902 -1.1568 19.3543 4475461
-4.6635098 -1.1822 19.3167 4672840
-4.6789999 -1.16802 19.275101 4475460
-4.6515899 -1.19543 19.418501 5659737
-4.9018202 -1.05014 18.434999 2436382
-4.6865702 -1.1337399 19.3403 4146240
-4.6791101 -1.1024899 19.3095 4409668
-4.8788099 -0.93503499 18.309 2304796
-4.88309 -0.89764202 18.340401 2173210
-4.8743401 -0.87558699 18.299601 2107418
-4.8604398 -0.85790902 18.365499 2370589
-4.8647799 -0.88373202 18.410999 2633762
-4.8836198 -0.86966699 18.363899 2173210
-4.8522801 -0.87669802 18.4151 3094313
-4.85991 -0.82966799 18.391701 2567968
-4.8560801 -0.80349803 18.387199 2501919
-4.8438201 -0.84719503 18.4006 2831141
-4.8620701 -0.691562 18.4778 2436127
-4.8464699 -0.68247801 18.314699 2239004
-4.8375201 -0.66936803 18.3461 2304541
-4.8349299 -0.60932302 18.259501 2501920
-4.8446598 -0.63256502 18.3048 2501920
-4.8475499 -0.57816398 18.2101 1975577
-4.8422899 -0.58755398 18.2363 2173212
-4.8285999 -0.56309199 18.274401 2304542
-4.8246598 -0.58790201 18.280899 2633506
-4.8011498 -0.54573601 18.264099 3028009
-4.7948198 -0.47007501 18.257299 2830887
-4.7901902 -0.45012301 18.238701 2765094
-4.7772698 -0.45304701 18.252399 3357234
-4.6243701 -0.33065799 19.013599 3554360
-4.58921 -0.34145299 19.0117 4278601
-4.6111498 -0.36647999 19.0753 4410186
-4.6287899 -0.28833401 19.040199 3357238
-4.5728698 -0.299043 18.9718 5002326
-4.60115 -0.31623799 18.991301 4015169
-4.58076 -0.25660101 18.9571 4804947
-4.5889502 -0.224718 18.942301 4344135
-4.59799 -0.246714 18.9245 3883327
-4.54948 -0.17987099 18.889299 5002067
-4.6577101 -0.082796499 18.7931 4080964
-4.5823202 -0.109885 18.941 4541515
-4.58287 -0.108068 18.877001 4344135
-4.5633898 -0.118373 19.0839 5528924
-4.5780501 -0.114246 19.2024 5594459
-4.6715202 -0.030185301 18.756001 5068118
-4.6464801 -0.024738699 18.7652 4081221
-4.6700602 -0.059504502 18.7826 4475980
-4.4965301 -0.048858501 18.6665 4870992
-4.5196099 -0.046822101 19.2714 5989219
-4.6715102 0.0045914701 18.7271 4936789
-4.6494098 0.0098794196 18.7481 3949892
-4.5004702 -0.0092701297 18.7285 4739407
-4.48592 -0.026117001 18.815599 5397080
-4.4706202 0.0132481 18.8071 5792095
-4.6610799 0.066584699 18.5935 5134169
-4.6539898 0.0395093 18.6283 4739410
-4.6255999 0.039508499 18.618 4278858
-4.4866099 0.067854598 18.73 5068114
-4.5391002 0.030952699 18.8979 4870735
-4.487 0.062846899 18.7167 5133907
-4.4837198 0.053996999 18.630699 4804942
-4.4735098 0.062300101 18.575399 4804941
-4.5121698 0.051348999 18.8393 5068114
-4.5226598 0.035190899 18.8962 4936785
-4.4981699 0.0347948 18.8351 5462872
-4.4794302 0.055529501 18.842501 5791838
-4.4714398 0.0904558 18.6141 5002321
-4.4726901 0.108677 18.707001 5463130
-4.5072098 0.077212498 18.871799 5331287
-4.4742799 0.091036797 18.716101 5397080
-4.4850602 0.076402798 18.695499 5068114
-4.5044398 0.077144399 18.861799 5331287
-4.4890499 0.090255998 18.5889 4607306
-4.66363 0.13479 18.591999 5265755
-4.65273 0.15722001 18.5935 4739411
-4.6398101 0.13484199 18.601101 4739667
-4.5144701 0.148397 18.754499 4673357
-4.4865499 0.13123 18.705999 5133908
-4.5300002 0.20002399 18.8034 5002065
-4.4840899 0.170385 18.7139 5397082
-4.4938102 0.17549101 18.7295 5265496
-4.5232401 0.193657 18.7836 5002066
-4.4403501 0.202107 18.5543 5659998
-4.4293299 0.172143 18.5289 5726048
-4.4541001 0.24763399 18.381701 4936531
-4.5257602 0.30645901 18.638201 4475978
-4.4702001 0.27551699 18.4119 4475977
-4.4590201 0.27699399 18.48 5002323
-4.4741101 0.25916299 18.811701 5792099
-4.5184398 0.33049101 18.6085 4410442
-4.5109301 0.341748 18.644199 4739407
-4.4593902 0.33359101 18.562 4937045
-4.5054998 0.36789101 18.673201 4607822
-4.5160298 0.41600901 18.714001 4410443
-4.5710602 0.43629199 19.272699 5463134
-4.4961901 0.494277 18.740999 5002582
-4.4281998 0.46889099 18.560301 5266011
-4.4068499 0.52563298 18.4846 5529183
-4.4703002 0.57494301 18.544901 5002839
-4.43326 0.58597797 18.4993 5594977
-4.43718 0.54610503 18.5397 5529183
-4.3889799 0.56305897 18.4734 5857894
-4.4219198 0.55426902 18.5009 5463391
-4.4053402 0.59250998 18.497101 5923688
-4.3676801 0.64148498 18.496599 6252397
-4.9555101 1.21345 7.54392 5658455
-4.9465399 1.2258 7.5397801 7171432
-4.9222798 1.28715 7.5243602 7237744
-4.9355402 1.32233 7.52386 8619395
-5.4863501 -2.4261501 18.8148 3619895
-5.50213 -2.28881 18.680401 4344135
-5.50913 -2.32442 18.8221 3751741
-5.4991398 -2.19203 18.542999 4738638
-5.49684 -2.1540401 18.447901 5659997
-5.47329 -2.1535399 18.4559 4936017
-0.331808 -1.179 7.8403802 3686724
-4.69664 -1.54003 19.5098 5528153
-4.86482 -1.31915 18.9182 4936526
-4.8008699 -1.18843 19.0734 4607301
-4.7865901 -1.1540999 19.0518 4409921
-4.6487298 -1.14914 19.430201 5462357
-4.8659801 -0.91715401 18.431499 2567968
-4.8403902 -0.65075499 18.4119 2699298
-4.8098001 -0.66090798 18.441401 3686197
-4.8227701 -0.65153998 18.5471 4212801
-4.82937 -0.63466001 18.4573 3225644
-4.8357301 -0.62385499 18.5611 3883577
-4.8360901 -0.62389499 18.5623 3883577
-4.7873201 -0.52922201 18.2987 3488561
-4.7926698 -0.47492799 18.248301 2830886
-4.55721 -0.31342399 18.8274 4147013
-4.5543799 -0.27112901 18.8302 4739152
-4.5627599 -0.245583 18.8104 4278343
-4.5658498 -0.109695 18.9795 5068116
-4.5843501 -0.091602698 19.1716 5594717
-4.59726 -0.059877601 19.1905 5265494
-4.5665998 -0.054937299 19.2101 5791839
-4.51232 -0.050696801 19.2334 6121061
-4.4842501 -0.0312126 18.7533 5331287
-4.4663501 0.00536172 18.671301 5462873
-4.5303798 0.0310778 19.5 6713200
-4.5409799 0.056439798 19.498199 6384490
-4.5197301 0.056675401 19.515301 6581614
-4.6040602 0.067519903 18.569599 4607824
-4.5222101 0.083797403 19.487101 6581614
-4.5412102 0.0726308 19.511999 6450284
-4.6182199 0.101237 18.608101 4607823
-4.4421 0.122228 18.6831 5923682
-4.45994 0.147773 18.691 5660511
-4.4668798 0.188646 18.7265 5792098
-4.4964299 0.213718 18.7672 5594462
-4.4527202 0.208975 18.624701 5791585
-4.51827 0.234707 18.7791 5265240
-4.4958901 0.252249 18.768999 5660255
-4.5008602 0.252233 18.7915 5660255
-4.4835601 0.27253401 18.7946 5792099
-4.4566398 0.35749799 18.5303 5199960
-4.4565401 0.41633901 18.5196 5134167
-4.40734 0.48451799 18.4095 5002839
-4.3870201 0.49624401 18.445999 5660769
-4.4523101 0.544792 18.5172 5068631
-4.3715801 0.60166299 18.4664 6187117
-4.9784098 1.16514 7.5946798 10724257
-4.9907699 1.17484 7.5894098 6250334
-5.00349 1.18397 7.5845299 4801599
-4.9917598 1.19113 7.5867 5000266
-4.9885898 1.20008 7.6002898 9671569
-4.99404 1.2105 7.5927801 5263438
-4.9921398 1.2199301 7.6112099 9803410
-4.92203 1.20652 7.53299 8947591
-4.9980001 1.2296799 7.6003199 6184025
-4.9184599 1.22307 7.5184598 9408398
-4.9089999 1.21863 7.5247202 6381664
-4.9934802 1.24658 7.5928001 6512734
-4.9243999 1.2364399 7.5187101 9211013
-4.9949098 1.26094 7.5932598 5591632
-4.91117 1.23695 7.5188498 8289918
-4.9934301 1.27395 7.5906301 6184025
-4.9180198 1.25392 7.5218902 8947590
-4.9233198 1.26675 7.5163202 9013639
-4.91078 1.26746 7.5201602 6579042
-4.93929 1.27237 7.5068002 4210495
-4.9319701 1.28032 7.5155902 8948104
-4.91817 1.28075 7.5176101 8750468
-4.93396 1.28924 7.4993901 4671046
-4.9332299 1.30423 7.4988599 4802632
-4.9312401 1.31274 7.51473 9539983
-4.9795299 1.34393 7.5589399 4802631
-4.9169898 1.34323 7.5164499 8421503
-4.9728498 1.35717 7.56178 7434352
-4.9728098 1.36726 7.5508499 4407874
-4.9513898 1.36722 7.5418401 9408398
-5.47471 -2.40238 18.8272 3356723
-5.54704 -2.3296299 18.7033 4278856
-5.5906601 -2.30001 18.6537 5660254
-5.4899702 -2.28827 18.539301 4278599
-5.5461998 -2.2574601 18.6642 4739407
-5.5107098 -2.2012601 18.506001 5199703
-5.5011101 -2.20506 18.5182 4673359
-5.5040302 -2.2314701 18.570299 4541516
-5.51474 -2.1916101 18.525499 5199960
-5.4970798 -2.1824 18.464899 5199704
-5.49687 -2.1140201 18.444799 5528926
-5.5021901 -2.11744 18.4846 5199705
-4.93467 -2.20504 19.385 3225644
-4.9510598 -2.18874 19.353001 3357233
-0.36696899 -1.22814 7.9057102 3159604
-5.0651102 -1.93127 18.951 3751478
-5.02844 -1.88456 18.947001 3159849
-5.04108 -1.85166 18.934999 3356972
-5.47118 -1.69853 18.3897 4410699
-4.7012801 -1.59659 19.6052 5264721
-4.84272 -1.5394599 19.157801 4475971
-4.9096999 -1.50289 19.0536 4936269
-4.84588 -1.4965301 19.1583 4804682
-4.7901802 -1.51299 19.247801 3817780
-4.8337698 -1.4704 19.158199 4475972
-4.8193598 -1.46296 19.224501 3817781
-4.7987199 -1.45337 19.2549 3489069
-4.8189402 -1.4189399 19.184601 4015418
-4.7987199 -1.4159 19.184 3489070
-4.6866598 -1.43695 19.455 5067343
-4.6806402 -1.44655 19.4599 5396309
-4.7281899 -1.40977 19.387899 4146492
-4.71417 -1.41255 19.436701 4212288
-4.7448101 -1.38019 19.2731 3554863
-4.7293 -1.38221 19.3158 4014904
-4.7066002 -1.38244 19.3326 4146492
-4.68185 -1.40488 19.462299 5198930
-4.6475301 -1.4089 19.4965 6186083
-4.6450901 -1.40997 19.495199 6186084
-4.7041798 -1.3120199 19.1234 3686195
-4.6437201 -1.34126 19.509199 6185826
-4.6936598 -1.30084 19.1471 3817781
-4.71313 -1.31286 19.382601 4212286
-4.82516 -1.2632 19.064899 4805196
-4.7931399 -1.27195 19.1304 4147262
-4.6694498 -1.29969 19.450899 5659736
-4.6545 -1.28364 19.493401 6120290
-4.6465402 -1.29083 19.5746 6186085
-4.8712602 -1.2234499 18.893801 4936270
-4.8143001 -1.223 18.988899 4804939
-4.6906199 -1.25289 19.219101 4607300
-4.6682701 -1.26403 19.459101 5725273
-4.64888 -1.2663701 19.539101 6383463
-4.79953 -1.21708 19.1031 4672838
-4.6462498 -1.24547 19.5755 6514793
-4.8113699 -1.17468 19.063999 4738888
-4.64291 -1.2193201 19.570101 6449000
-4.6424298 -1.17398 19.461201 6054496
-4.6539898 -1.18838 19.561899 6449254
-4.6754899 -1.14281 19.214399 4343874
-4.6462402 -1.1180201 19.377001 5725530
-4.66535 -1.09663 19.175301 4475460
-4.6412301 -1.08727 19.3335 5528409
-4.88693 -1.0366 18.754601 4015422
-4.65874 -1.0700901 19.3039 5002064
-4.6403098 -1.06503 19.3985 5726303
-4.8854499 -0.99836701 18.7299 3752248
-4.64256 -1.04088 19.330601 5857633
-4.9246602 -0.981157 18.669001 2699554
-4.8528299 -0.96599501 18.5466 3554611
-4.87887 -0.943928 18.489901 2436382
-4.87431 -0.889983 18.305799 2173210
-4.8383899 -0.86671901 18.463699 2896934
-4.8306899 -0.83664101 18.454399 3620658
-4.8391299 -0.81873298 18.4021 2896676
-4.8537598 -0.78299701 18.338499 2699554
-4.8568301 -0.740291 18.3538 2502175
-4.81496 -0.60956502 18.291201 2699555
-4.8007302 -0.58789903 18.290701 3028264
-4.8193898 -0.52834499 18.2605 2304540
-4.8229299 -0.51090997 18.2024 1910039
-4.7990398 -0.511576 18.258499 2699299
-4.81739 -0.46905699 18.1672 1844247
-4.7978902 -0.49434599 18.1985 2370590
-4.79461 -0.47766101 18.2544 2896680
-4.62116 -0.39615601 19.3214 5594979
-4.5949502 -0.36679101 19.1038 5463391
-4.6045599 -0.31603199 19.187799 5266014
-4.58915 -0.212972 19.098101 5462877
-4.5714402 -0.113217 19.0651 5660253
-4.5286999 0.00161367 19.515499 6450029
-4.4793301 0.097876303 18.8451 6055010
-4.6148 0.187795 18.5058 4805459
-4.5650301 0.182111 18.8589 4541514
-4.5690498 0.21503299 18.9002 4738892
-4.5329599 0.357454 18.6752 4476234
-4.4880199 0.38650101 18.581699 4805458
-4.48171 0.416145 18.521099 4739408
-4.5922799 0.45895901 19.194901 5266011
-5.5208101 -2.36164 18.7721 4080706
-5.5005398 -2.34867 18.8631 3620410
-5.5461998 -2.2574601 18.6642 4870737
-5.5384498 -2.2618201 18.642599 4607565
-5.5410399 -2.1905999 18.5303 5660768
-5.5095501 -2.1003599 18.449699 5923685
-5.4756699 -2.0697 18.405199 4870996
-5.47402 -1.9991 18.448999 4541773
-5.0406299 -2.01754 19.066999 3291432
-4.8512201 -1.72665 19.303499 3818036
-4.8380499 -1.68818 19.2994 3554861
-5.7356901 -1.5592099 18.728001 5134162
-4.7231202 -1.64292 19.4011 3751735
-5.0280199 -1.5154099 18.812201 3028008
-4.69696 -1.56743 19.553699 6514792
-4.6805801 -1.54195 19.59 6383209
-4.9198198 -1.47991 19.039801 4344131
-4.6916599 -1.50846 19.482201 5593690
-4.8026199 -1.48228 19.2258 3620400
-4.7692499 -1.47707 19.373699 3291435
-4.7628398 -1.45725 19.4202 3883574
-4.6704702 -1.48008 19.5735 5988449
-4.9376502 -1.27703 18.8564 4212543
-4.8751998 -1.29633 18.904699 4936270
-4.7217202 -1.31599 19.309401 3883575
-4.7167301 -1.3009501 19.2078 3686451
-4.7143798 -1.30616 19.290899 3949368
-4.8235202 -1.19985 18.9744 5002062
-4.6750698 -1.22341 19.3554 5001548
-4.6464801 -1.23851 19.423599 6120032
-4.78161 -1.1772 19.1082 3949371
-4.6894898 -1.1661299 19.216 4541509
-4.9113898 -1.05319 18.387199 2304796
-4.6940699 -1.10261 19.132401 4146751
-4.6737299 -1.09666 19.309799 4541511
-4.62359 -1.10067 19.364201 5791582
-4.9479399 -1.02209 18.695101 2502174
-4.9154601 -1.01592 18.697901 2765092
-4.6660299 -1.04326 19.2017 4541511
-4.9068999 -0.95003402 18.3438 2239002
-4.6582398 -1.01721 19.194401 5002320
-4.6437702 -1.01495 19.2803 5791583
-4.8931999 -0.92904001 18.4354 2370588
-4.8397298 -0.89755303 18.433599 3357229
-4.8829899 -0.78336 18.346701 2436382
-4.8494201 -0.674927 18.5026 2896679
-4.6251202 -0.368256 19.2869 5594979
-4.6152401 -0.34228101 19.2798 5529186
-4.6127901 -0.31872001 19.3141 5791846
-4.59199 -0.190686 19.164801 5857634
-4.5819001 -0.153937 19.1278 5528667
-4.57057 0.219164 18.882799 4607307
-4.4840002 0.39280999 18.6427 5265754
-4.4221802 0.48777801 18.4839 5002839
-4.93262 1.31906 7.4971399 4670271
-5.5099101 -2.3364999 18.7257 4080963
-5.4977002 -2.2867801 18.5819 4278600
-5.5074201 -2.27264 18.6311 4344137
-5.4962301 -2.28685 18.663401 4080964
-5.5644302 -2.1804399 18.534599 5726305
-5.5108099 -2.19771 18.6124 4673359
-5.5605502 -2.1018 18.5284 6187115
-4.9801202 -2.14588 19.1327 3949372
-4.9719701 -2.1404099 19.269199 4278594
-4.9453502 -2.1331501 19.331699 3554611
-5.47402 -1.9991 18.448999 4541772
-4.9798498 -2.0915101 19.1562 4146748
-4.96139 -2.08935 19.2693 4015420
-5.0482202 -2.04055 19.0382 3620144
-4.96452 -2.07582 19.2342 3949627
-4.9499898 -2.0690601 19.290899 3423280
-4.9355302 -2.0889599 19.3165 3423024
-4.9359899 -2.08866 19.316799 3423024
-4.9749599 -2.04529 19.208799 3818038
-4.9320102 -2.0520899 19.317801 3094057
-4.9979801 -2.00598 19.213499 3423276
-4.9377999 -2.0285399 19.2612 3620658
-5.0382099 -1.98771 19.071301 2962467
-4.9391799 -1.99974 19.246799 3751987
-4.91395 -1.9885401 19.2614 3554607
-4.90483 -2.01617 19.380301 3423019
-4.9116902 -1.9989901 19.3748 3423277
-5.0194998 -1.89096 18.9881 3028260
-4.9748702 -1.90519 19.0809 3686449
-5.5326099 -1.81034 18.430799 5265756
-5.0233898 -1.86309 19.0047 2962212
-4.9833398 -1.89369 19.1432 3949364
-5.5289202 -1.76639 18.4291 5989736
-4.97651 -1.84181 19.122299 3423021
-4.9007702 -1.84996 19.2789 3817779
-4.8833399 -1.85326 19.344999 3883828
-5.0636401 -1.78659 18.807501 4343617
-4.9173002 -1.8193901 19.1756 3949366
-4.8980899 -1.82125 19.207899 3883829
-4.89289 -1.8325599 19.2833 3883828
-4.84552 -1.829 19.4084 3883573
-4.9798598 -1.78021 19.005199 3357228
-4.91397 -1.79977 19.2192 4015416
-4.8757601 -1.81002 19.2939 3949365
-5.0603399 -1.7302999 18.8484 4146238
-5.01438 -1.75286 18.9893 2896674
-4.9390001 -1.76061 19.1129 4080955
-4.8931699 -1.76214 19.212601 4015161
-4.8961802 -1.78347 19.320499 3949367
-4.8717899 -1.78949 19.3347 4541503
-4.8547602 -1.7728699 19.382099 4147002
-5.02039 -1.7259901 18.985201 3356971
-4.9071202 -1.73919 19.1506 4475969
-4.8875699 -1.7321399 19.183599 4212796
-4.8853202 -1.75187 19.2766 4212796
-4.8535399 -1.74357 19.3585 3949366
-4.8285799 -1.74384 19.3666 3686451
-5.0345602 -1.69247 18.9237 3751988
-4.9065399 -1.71179 19.091499 4278334
-4.8884802 -1.7036 19.164101 4146746
-4.8873701 -1.7251 19.290001 4278331
-5.6223202 -1.61291 18.398001 5265494
-5.0583401 -1.6525199 18.8461 4014652
-4.9019399 -1.68095 19.164801 4146746
-4.8721399 -1.68655 19.260599 3949620
-5.7340298 -1.57451 18.3326 5660511
-5.7007799 -1.58652 18.467899 5133908
-5.7152901 -1.61195 18.725599 5002321
-4.8889198 -1.65718 19.164801 3949623
-4.8681798 -1.66889 19.178801 3818035
-4.8515301 -1.67126 19.267401 3883570
-5.7527499 -1.58249 18.738701 4541770
-5.0478501 -1.61133 18.8083 4014908
-4.7617202 -1.6590199 19.4356 3620405
-5.6732101 -1.55336 18.7178 5134167
-4.9609499 -1.60466 19.014 2567971
-5.6921401 -1.53039 18.689501 5594717
-5.0239801 -1.5424 18.8001 3093803
-4.8945699 -1.55521 19.0776 4739145
-4.83183 -1.55621 19.224001 3949368
-4.80971 -1.55801 19.292 3489072
-5.0620399 -1.50147 18.8193 3225389
-4.7823801 -1.54579 19.316999 3554609
-4.7554698 -1.55562 19.392599 3949112
-4.7733202 -1.55032 19.373199 3685939
-5.0408602 -1.49095 18.843 3159594
-4.76793 -1.5274 19.3979 3883575
-5.0354199 -1.43625 18.7978 2962215
-4.9921999 -1.4328901 18.871599 3357231
-4.7856302 -1.47525 19.335699 3160104
-4.9436302 -1.41596 18.9561 4212544
-4.8257198 -1.44165 19.139099 4344385
-4.7818398 -1.43382 19.317699 2962724
-4.89956 -1.39735 18.9946 5002063
-4.7868299 -1.42116 19.271999 3291689
-4.9019299 -1.36376 18.870899 4081217
-4.9154 -1.37751 18.982599 5199442
-4.9052501 -1.32156 18.802 4278081
-4.88481 -1.34515 18.9452 5396822
-4.9517202 -1.31804 18.8183 4278080
-4.90868 -1.3024 18.8528 4015167
-4.8987098 -1.27364 18.802299 4409924
-4.8738699 -1.26683 18.872601 4739146
-4.8362899 -1.25599 18.920099 5199442
-4.8475399 -1.28087 18.975 5068113
-4.8412499 -1.26047 19.010599 5067856
-4.8129301 -1.28573 19.071199 4541766
-4.8583398 -1.24076 18.930401 5199698
-4.8488898 -1.2103 18.8981 5265235
-4.8396502 -1.22857 18.952999 5067856
-4.8702002 -1.1977201 18.8501 5002062
-4.8463702 -1.1986001 18.937799 5265235
-4.78651 -1.11562 19.069099 4015164
-4.7735801 -1.13704 19.094801 3949627
-4.6673398 -1.13828 19.3955 5002062
-4.9299102 -1.03317 18.6719 2567711
-4.9389601 -0.98532599 18.616301 2568224
-4.6637702 -1.04466 19.2801 4738891
-4.9411998 -0.97492403 18.5434 2370845
-4.8780499 -0.97751099 18.7323 3686455
-4.9082599 -0.95037299 18.4855 2436381
-4.8497701 -0.596205 18.5798 4278336
-4.56182 -0.094964802 19.4438 6581357
-4.6524901 -0.059714399 18.818199 4410185
-4.6727901 0.0123502 18.663601 5594721
-4.67133 0.101838 18.606199 5660515
-4.6098399 0.153035 18.961399 4343877
-4.6012802 0.215128 18.927999 4804429
-4.5602598 0.45846301 19.1682 5792099
-5.6255698 -2.3964601 18.724899 4870479
-0.30507699 -1.1859 7.7726698 1580314
-0.29387701 -1.17823 7.7357602 2172195
-0.28732601 -1.1635 7.7165599 3093040
-0.33192399 -1.15707 7.7655902 2699054
-0.318277 -1.15224 7.7346902 2370087
-0.30150101 -1.14407 7.74652 2040865
-0.285707 -1.14662 7.7040801 3225140
-0.289536 -1.13529 7.6926498 2764588
-0.28209901 -1.11893 7.68787 4277574
-0.27956301 -1.1189801 7.67977 4475208
-0.28222001 -1.10344 7.6785102 3883071
-0.27414 -1.1095099 7.67766 4936018
-5.5062099 -2.1558001 18.614401 4673359
-5.5062099 -2.1558001 18.614401 4673359
-4.9537802 -2.2253001 19.378099 3488819
-5.4478898 -2.02035 18.418301 4541772
-5.0623398 -2.0706899 19.135599 3423020
-5.0432301 -1.9947 18.9895 3488815
-4.99014 -1.99863 19.1984 3423277
-5.6768098 -1.5852799 18.745399 4607564
-5.03548 -1.59381 18.849899 3949113
-4.8611498 -1.64661 19.2785 3817777
-5.6672301 -1.53062 18.6961 5397596
-5.5187502 -1.4929399 18.298599 5397597
-4.6975002 -1.62324 19.499399 4475202
-4.8203201 -1.44633 19.1991 3883575
-4.8466201 -0.75614202 18.393101 3028263
-4.8454599 -0.59196001 18.469101 3094056
-4.77247 -0.490711 18.2577 3949369
-4.75352 -0.44406399 18.269199 4541510
-4.6482401 -0.41944799 19.3717 5594724
-4.5917602 -0.26961699 18.984699 4936531
-4.61093 -0.085244901 19.1703 5134166
-4.61868 -0.0596953 19.165701 4936528
-4.5037899 -0.023999499 19.2726 6449770
-4.6637702 0.162756 18.6255 4936791
-4.6282301 0.190594 18.626101 4805202
-4.4751101 0.488231 18.8174 5463390
-4.43612 0.51625001 18.4949 4673616
-5.6237702 -2.36098 18.727301 5528667
-5.60464 -2.18731 18.5805 6449774
-4.9678302 -2.2143199 19.282301 3883580
-5.57302 -2.08163 18.530199 6187372
-5.0018702 -2.13464 19.1175 3093802
-4.95081 -2.17717 19.443199 2436127
-5.5759802 -2.0559101 18.501301 6844790
-5.52771 -2.0480199 18.4641 6121322
-5.4875302 -2.0636799 18.5741 4475722
-4.9674401 -2.1259401 19.1541 4541510
-4.9498801 -2.0961599 19.2474 4015420
-5.0240102 -2.0756199 19.131001 3488812
-5.00598 -2.0613 19.1675 3094312
-5.02354 -2.0327499 19.1094 2962722
-5.0166702 -2.0558701 19.1639 2962724
-5.0409002 -1.94129 18.956499 3357228
-5.0397501 -1.96035 19.0471 2765087
-4.8969302 -1.97947 19.4014 3357226
-5.0183101 -1.92054 18.9883 3028260
-4.98423 -1.93646 19.1448 3949365
-4.8948302 -1.9674799 19.3888 3357226
-5.0566602 -1.88392 18.885799 3949114
-4.9011598 -1.94243 19.2913 3686192
-5.0722899 -1.8669699 18.855 4212030
-4.8887501 -1.8958499 19.393 3357483
-5.0655098 -1.8229001 18.8326 4409410
-5.01685 -1.83363 18.989401 3356971
-4.9725599 -1.83201 19.052 3620143
-4.9612298 -1.80916 19.058901 3620402
-4.8905702 -1.83455 19.2948 3817779
-4.8643098 -1.85411 19.4564 4015158
-4.89503 -1.80207 19.257 3949366
-4.8548398 -1.79838 19.382099 4278332
-4.8277602 -1.81155 19.419399 3752246
-5.08991 -1.72851 18.851999 4212031
-4.9921398 -1.72577 18.9904 3620399
-5.06566 -1.69257 18.8717 4014651
-4.9955101 -1.69989 18.9438 3422764
-5.67665 -1.62442 18.441299 5988961
-5.6375799 -1.61677 18.3633 5923169
-5.61273 -1.63051 18.476601 5726301
-5.6073899 -1.63015 18.437201 6121060
-4.7761998 -1.69523 19.6591 3948858
-5.0217199 -1.61344 18.878599 3356975
-4.95122 -1.62831 19.0362 2896681
-4.8898702 -1.62754 19.132999 4146746
-4.6836901 -1.67088 19.534 4409409
-5.7340298 -1.5515701 18.3682 4936532
-4.8706698 -1.6182801 19.204 4146744
-5.0072498 -1.56429 18.9244 3225644
-4.9474502 -1.56609 19.0151 4410177
-4.9879298 -1.4581701 18.878 3488816
-4.9674501 -1.47431 18.903 3423280
-4.97681 -1.44876 18.907801 3620404
-4.8334799 -0.65143198 18.5804 4344644
-4.5725999 -0.138513 18.981701 5397082
-4.5727601 -0.142332 19.188299 5923681
-4.6833901 -0.082105599 18.7946 5462876
-4.6941099 -0.060086802 18.787001 5659999
-4.55269 -0.0451505 19.5762 6383979
-4.4685502 0.45487601 18.622999 5134424
-5.4400001 -1.82285 18.163401 5265754
-5.4278302 -1.8384 18.192101 4805202
-5.70085 -1.53146 18.4583 5265233
-5.6835299 -1.5437599 18.4774 5067857
-5.0240898 -1.53597 18.868799 2896422
-4.7466998 -1.54624 19.428801 3949112
-4.7257299 -1.52993 19.4403 4146238
-4.80794 -1.38608 19.1434 4146745
-4.8295002 -1.34998 19.047001 4870732
-4.7994199 -1.34823 19.104401 4081210
-4.7325802 -1.3575701 19.176399 3489070
-4.8158498 -1.3316 19.0765 4607302
-4.75597 -1.3277299 19.2803 3620401
-4.7043099 -1.2241 19.3564 4475716
-4.71422 -1.2006 19.342501 4541252
-4.68994 -1.12034 19.2171 4212032
-4.8532 -0.94002402 18.521099 3357230
-4.8200598 -0.95022899 18.5336 4080958
-4.8612299 -0.89777398 18.354601 2370588
-4.8953099 -0.76483399 18.320101 2107417
-4.8687401 -0.72465801 18.320101 2041624
-4.83634 -0.64502102 18.260099 2304796
-4.8501902 -0.62670898 18.233299 2238747
-4.8259602 -0.44847399 18.2327 2107418
-4.6731701 -0.44557101 19.398199 5726564
-4.60918 -0.36860001 19.316099 5660517
-4.59901 -0.126111 18.8493 4014912
-4.6026001 -0.088473797 18.8668 4146755
-4.5893002 -0.070386 18.9037 4409927
-4.5808501 -0.0693703 19.2103 5857631
-4.5547099 -0.077893697 19.2185 5923424
-4.51894 -0.069411397 19.3134 6317928
-4.69837 -0.060346499 18.717699 5133653
-4.54562 -0.0549936 19.2335 6186340
-4.5798101 -0.032012999 19.207199 5857117
-4.5565 -0.032018099 19.2208 5988703
-4.6851802 0.134767 18.5753 5594978
-4.4772701 0.434174 18.646299 5134424
-4.92345 1.2955 7.5087099 8947848
