ply                 
format ascii 1.0    
element vertex 652
property float x    
property float y    
property float z    
property uchar red  
property uchar green
property uchar blue 
end_header          
-0.0164845 -0.0641634 0.45746 54 40 37 
-0.0124932 -0.0434113 0.448938 92 93 87 
-0.0122281 -0.0339905 0.448227 24 25 20 
-0.0121307 -0.0328322 0.447991 85 84 79 
-0.0121111 -0.0410573 0.448251 28 30 27 
-0.0120016 -0.0377892 0.448171 89 89 87 
-0.0120016 -0.0377892 0.448171 89 89 87 
-0.0119116 -0.0335817 0.447441 79 80 75 
-0.0122144 -0.0479551 0.448475 36 35 31 
-0.0119042 -0.0371472 0.447903 98 99 94 
-0.0119042 -0.0371472 0.447903 98 99 94 
-0.0119686 -0.0408764 0.447981 88 88 86 
-0.0119686 -0.0408764 0.447981 88 88 86 
-0.0119645 -0.0434035 0.447767 90 89 85 
-0.0119645 -0.0434035 0.447767 90 89 85 
-0.0117516 -0.0368453 0.447739 32 33 28 
-0.0117933 -0.0410572 0.447529 89 89 87 
-0.0114919 -0.0316762 0.446653 85 84 80 
-0.0115113 -0.033311 0.44666 35 36 31 
-0.0117545 -0.0450614 0.447337 34 33 29 
-0.0114339 -0.0315544 0.446553 64 63 59 
-0.011465 -0.0339396 0.446657 34 33 29 
-0.0118168 -0.0510332 0.447993 28 28 26 
-0.0115968 -0.0439327 0.447001 34 35 29 
-0.0115968 -0.0439327 0.447001 34 35 29 
-0.0116251 -0.0534509 0.447364 94 95 90 
-0.0112498 -0.0382567 0.446677 23 22 18 
-0.0112747 -0.0394116 0.446568 82 83 77 
-0.0114542 -0.049262 0.447353 104 103 99 
-0.0110977 -0.0375101 0.446419 33 34 29 
-0.0109496 -0.0312128 0.445673 86 85 83 
-0.010929 -0.0324619 0.445411 28 29 24 
-0.010929 -0.0324619 0.445411 28 29 24 
-0.0111067 -0.0413681 0.446192 29 30 25 
-0.011104 -0.0459537 0.446014 33 32 28 
-0.0111311 -0.0493292 0.446517 83 82 78 
-0.0111388 -0.0506219 0.446499 107 109 106 
-0.0104308 -0.0198028 0.44399 76 77 71 
-0.0105742 -0.0345061 0.444998 87 86 84 
-0.0106558 -0.0418287 0.445024 29 28 24 
-0.0104341 -0.0348317 0.444829 40 39 34 
-0.0109642 -0.0641257 0.446252 37 32 26 
-0.010277 -0.037279 0.44454 88 89 84 
-0.00988291 -0.0216311 0.442707 79 80 75 
-0.00983767 -0.0205152 0.44272 62 63 58 
-0.0100999 -0.0322867 0.443507 77 78 73 
-0.0100547 -0.0309943 0.443747 37 38 33 
-0.0106547 -0.0595453 0.445475 181 165 152 
-0.00991879 -0.0313934 0.443217 91 92 87 
-0.00976661 -0.0286056 0.443097 27 26 21 
-0.00984909 -0.0326239 0.443001 84 85 80 
-0.009307 -0.0111562 0.441724 62 63 58 
-0.00966908 -0.0299151 0.442688 78 79 74 
-0.00973448 -0.0336354 0.442873 84 83 79 
-0.0102096 -0.0565255 0.44475 50 35 30 
-0.00976172 -0.0366375 0.443358 35 34 29 
-0.00966042 -0.0322927 0.442659 34 34 32 
-0.00943694 -0.0225123 0.441919 29 30 24 
-0.00933517 -0.0197019 0.441692 69 68 63 
-0.00953094 -0.0314253 0.442432 93 93 91 
-0.00940435 -0.0282683 0.442197 87 88 83 
-0.00922661 -0.021112 0.441493 28 29 24 
-0.00963541 -0.0397232 0.44283 91 92 87 
-0.00948725 -0.0340032 0.442354 37 36 32 
-0.00918737 -0.0218875 0.441503 69 69 61 
-0.0098383 -0.0564223 0.444108 51 41 32 
-0.00927581 -0.0310265 0.441917 41 43 40 
-0.00894282 -0.0213896 0.440857 28 29 23 
-0.00919714 -0.0330408 0.441888 33 33 31 
-0.00919714 -0.0330408 0.441888 33 33 31 
-0.00939075 -0.0434555 0.442697 36 37 32 
-0.00965477 -0.0584219 0.443553 206 189 173 
-0.00872017 -0.0198851 0.440572 74 73 68 
-0.00913285 -0.0407507 0.44203 93 95 90 
-0.0088596 -0.0320477 0.440876 33 34 29 
-0.00875034 -0.0298415 0.440708 87 88 82 
-0.00894628 -0.039629 0.441575 83 84 79 
-0.00871896 -0.0307881 0.44078 89 90 84 
-0.00862514 -0.0266434 0.440197 90 87 78 
-0.00844579 -0.0204336 0.43992 78 77 72 
-0.00870193 -0.0326365 0.440786 87 88 83 
-0.00846812 -0.023971 0.439767 70 67 60 
-0.00854358 -0.0282268 0.440375 89 90 85 
-0.00852314 -0.0289826 0.440257 93 95 90 
-0.0088795 -0.0508331 0.441995 89 88 84 
-0.00861068 -0.0401393 0.440919 35 35 33 
-0.00841354 -0.0338654 0.43998 33 34 29 
-0.00857956 -0.0435676 0.441115 88 87 83 
-0.00857956 -0.0435676 0.441115 88 87 83 
-0.00801915 -0.0204395 0.438918 81 80 75 
-0.00829994 -0.039027 0.440238 36 35 31 
-0.00816336 -0.035741 0.440058 95 96 91 
-0.00854142 -0.0543902 0.441034 213 186 179 
-0.00794551 -0.0287956 0.439074 87 88 82 
-0.00805291 -0.0359707 0.439758 94 95 90 
-0.00774811 -0.0297326 0.438502 83 82 78 
-0.00803686 -0.0468433 0.439925 49 50 45 
-0.00741618 -0.0204148 0.437842 79 80 74 
-0.00729194 -0.0198385 0.437627 78 79 74 
-0.0071909 -0.020134 0.43744 29 28 24 
-0.00704891 -0.0187034 0.437327 64 65 59 
-0.00646221 -0.00675473 0.435596 16 17 12 
-0.00637661 -0.0110959 0.435706 60 61 56 
-0.00636019 -0.010695 0.435641 66 67 61 
-0.00595471 -0.00957479 0.43472 16 16 14 
-0.00592661 -0.0117546 0.434702 63 64 58 
-0.00582861 -0.0074352 0.434336 22 22 20 
-0.00578699 -0.0136781 0.434691 30 31 25 
-0.00575062 -0.0130666 0.434587 67 66 61 
-0.00571691 -0.012201 0.43433 62 63 57 
-0.00543658 -0.0126279 0.433879 24 23 19 
-0.00475927 -0.00982277 0.43237 67 68 62 
-0.00474978 -0.00950187 0.432229 22 23 17 
-0.00474978 -0.00950187 0.432229 22 23 17 
-0.00444219 -0.00909534 0.431662 72 73 68 
-0.00418102 -0.00840921 0.431088 64 63 59 
-0.00418102 -0.00840921 0.431088 64 63 59 
-0.00411584 -0.0111452 0.430934 65 64 60 
-0.00398714 -0.0104238 0.430809 68 69 64 
-0.00389164 -0.0115728 0.430619 29 30 25 
-0.00389164 -0.0115728 0.430619 29 30 25 
-0.00337427 -0.00707464 0.429362 63 63 61 
-0.00337427 -0.00707464 0.429362 63 63 61 
-0.00338459 -0.0087781 0.429328 23 24 19 
-0.00306594 -0.0113857 0.4289 34 35 30 
-0.0029226 -0.00516394 0.428567 65 66 61 
-0.00275503 -0.00770424 0.42805 33 33 31 
-0.00259131 -0.0116744 0.428131 64 63 58 
-0.00259131 -0.0116744 0.428131 64 63 58 
-0.00244144 -0.00633369 0.427304 73 75 70 
-0.00232283 -0.00751688 0.427214 60 61 56 
-0.00216263 -0.0093827 0.427039 26 27 22 
-0.00202444 -0.00883005 0.426694 80 81 75 
-0.00207522 -0.0118074 0.426967 31 30 25 
-0.00203771 -0.0125074 0.426864 75 75 67 
-0.00117735 -0.0114989 0.42499 65 66 61 
-0.000127683 -0.0080242 0.422926 65 66 61 
-0.00014882 -0.0115004 0.423061 67 68 63 
0.00020578 -0.0087441 0.422117 73 74 68 
0.000534933 -0.0136652 0.421761 70 71 65 
0.000982152 -0.0058151 0.420485 70 71 66 
0.000982152 -0.0058151 0.420485 70 71 66 
0.00107833 -0.00944768 0.420358 62 63 57 
0.00140239 -0.00402256 0.419634 60 61 56 
0.00136257 -0.00642004 0.419605 71 67 64 
0.00154783 -0.00686887 0.419301 66 67 62 
0.00157029 -0.00901589 0.419384 29 31 26 
0.00160497 -0.00785871 0.419259 68 69 64 
0.0017561 -0.0101807 0.419021 80 81 75 
0.00182121 -0.00991358 0.418814 31 32 26 
0.00202362 -0.00681802 0.418283 65 66 61 
0.00225683 -0.0010887 0.417834 67 68 63 
0.00227193 -0.00979002 0.417895 76 75 71 
0.00315408 -0.00852578 0.416075 76 77 72 
0.00315408 -0.00852578 0.416075 76 77 72 
0.00368267 -0.00300649 0.414905 63 63 53 
0.00352854 -0.0123428 0.415609 78 79 74 
0.00373071 -0.00981138 0.414739 73 72 67 
0.00392425 -0.00266665 0.414434 17 18 12 
0.00408283 -0.00232531 0.414054 67 68 62 
0.00478512 -0.0126953 0.412919 33 34 28 
0.00511972 -0.00748814 0.412414 26 27 21 
0.00523857 -0.012376 0.411921 77 78 70 
0.00655876 -0.00951588 0.4264 80 81 75 
0.00544373 -0.00840506 0.411485 73 74 66 
0.00555245 -0.00704399 0.411384 70 71 65 
0.0056553 -0.012869 0.411204 32 31 26 
0.00598225 -0.00936525 0.410161 73 74 68 
0.0060298 -0.01233 0.410238 80 80 70 
0.00610142 -0.00971466 0.409911 27 28 22 
0.0061349 -0.018365 0.411519 87 88 82 
0.00635472 -0.00578143 0.409534 76 76 68 
0.00635472 -0.00578143 0.409534 76 76 68 
0.00620372 -0.0139516 0.410058 65 68 61 
0.00664901 -0.00525928 0.408832 32 31 26 
0.00671851 -0.00884875 0.408739 33 32 27 
0.00672024 -0.0120424 0.408878 79 82 73 
0.0070141 -0.00670151 0.408135 38 35 30 
0.00696529 -0.00962695 0.408312 29 26 21 
0.00709119 -0.00569594 0.407739 79 78 74 
0.00716867 -0.0182767 0.40937 77 81 67 
0.0074624 -0.00868607 0.407239 79 80 72 
0.00798691 -0.007095 0.406325 85 84 79 
0.0083057 -0.0070488 0.405679 78 77 72 
0.0083057 -0.0070488 0.405679 78 77 72 
0.0085996 -0.0067721 0.405014 35 35 27 
0.00867017 -0.00513387 0.405056 37 37 29 
0.00894973 -0.00737251 0.404372 33 32 27 
0.00926397 -0.00806081 0.403799 83 83 75 
0.00935738 -0.00445575 0.403592 28 27 22 
0.00938195 -0.00513782 0.403391 37 38 30 
0.00938585 -0.00511795 0.403387 37 38 30 
0.00943687 -0.00357829 0.403296 23 23 15 
0.00957145 -0.00686913 0.402971 76 77 71 
0.00957145 -0.00686913 0.402971 76 77 71 
0.00977078 -0.00511327 0.402612 78 79 73 
0.00973256 -0.00747228 0.402653 34 35 29 
0.00978527 -0.00593283 0.402595 64 66 55 
0.00996123 -0.00201227 0.402284 68 67 62 
0.00997113 -0.00682463 0.40204 80 81 75 
0.0100636 -0.0118691 0.402036 90 91 83 
0.0102974 -0.00320097 0.40154 67 68 62 
0.0107712 -0.0109299 0.400825 76 76 66 
0.0108175 -0.0103794 0.400682 86 88 77 
0.0110965 -0.00253435 0.400215 26 25 20 
0.011032 -0.0109741 0.400147 81 82 74 
0.0114256 -0.00335327 0.399462 29 30 24 
0.0112345 -0.0122878 0.399935 39 40 32 
0.0114501 -0.00334247 0.399442 31 32 26 
0.0114932 -0.00396607 0.399437 80 82 71 
0.0117865 -0.00341342 0.39871 73 75 64 
0.0118426 -0.00518456 0.398526 79 76 67 
0.0117682 -0.0121782 0.398775 29 29 19 
0.0117982 -0.0131342 0.398821 87 89 78 
0.0130225 -0.00138698 0.396354 24 25 17 
0.0131713 -0.00276892 0.396103 81 81 71 
0.013326 -0.0019421 0.395724 33 36 27 
0.0134099 -0.00704429 0.395607 32 33 27 
0.0142935 -0.0115054 0.394016 33 33 25 
0.0146975 -0.00244277 0.393245 31 32 27 
0.0148966 -0.00475521 0.392886 76 78 67 
0.0151465 -0.0108501 0.392602 36 36 28 
0.0152356 -0.00875837 0.392365 31 30 25 
0.0152356 -0.00875837 0.392365 31 30 25 
0.0154039 -0.00280645 0.391702 76 75 70 
0.0154042 -0.0102653 0.39196 72 73 59 
0.0154472 -0.0133083 0.391687 28 29 21 
0.0154472 -0.0133083 0.391687 28 29 21 
0.0156102 -0.010874 0.391594 85 87 74 
0.0159133 -0.0049621 0.390877 69 69 61 
0.0157973 -0.0135883 0.391037 75 76 68 
0.0161863 -0.0103633 0.390378 30 29 24 
0.0165594 -0.0191048 0.391285 93 93 81 
0.0169379 -0.0175264 0.39048 37 37 29 
0.0171238 -0.018412 0.390028 28 28 18 
0.0177951 0.00109409 0.386944 37 35 23 
0.017619 -0.00923186 0.38776 26 27 21 
0.0178384 -0.00910622 0.387236 88 89 81 
0.0180621 0.00186058 0.386562 22 23 17 
0.0191858 -0.00491862 0.384662 71 73 62 
0.0195801 -0.0178135 0.385389 79 80 72 
0.0196137 -0.0183431 0.385275 88 92 78 
0.0198559 -0.0190237 0.384856 96 98 85 
0.0204802 0.00152685 0.382059 67 64 57 
0.0211965 -0.00586817 0.380738 83 81 69 
0.0211965 -0.00586817 0.380738 83 81 69 
0.0214402 -0.00267639 0.380304 77 74 65 
0.0225622 -0.00498084 0.378233 75 76 62 
0.0225622 -0.00498084 0.378233 75 76 62 
0.0228204 -0.0043596 0.377679 82 84 71 
0.0234142 -0.00272345 0.376449 23 23 15 
0.0253153 -0.00845984 0.373441 94 89 83 
0.0321107 -0.0422105 0.362139 210 178 157 
0.158471 -0.126133 0.52742 187 173 146 
0.158597 -0.125164 0.527419 198 192 168 
0.158744 -0.127452 0.526281 185 172 155 
0.158863 -0.127053 0.526089 119 107 93 
0.159206 -0.124121 0.526549 108 95 79 
0.159169 -0.124356 0.526295 183 171 157 
0.159276 -0.12383 0.526386 171 158 142 
0.159609 -0.124053 0.525267 117 103 90 
0.159834 -0.12444 0.524583 194 182 170 
0.160355 -0.126993 0.522165 82 74 61 
0.161923 -0.12408 0.519269 109 98 80 
0.16247 -0.122803 0.518411 90 91 85 
0.162263 -0.124782 0.518088 184 164 129 
0.164834 -0.123036 0.51195 169 165 140 
0.165273 -0.121103 0.511802 52 45 37 
0.165662 -0.122888 0.50973 202 198 173 
0.166258 -0.12347 0.507748 168 160 149 
0.166524 -0.121145 0.508091 134 121 113 
0.166372 -0.123132 0.507792 89 76 70 
0.0631068 -0.0502268 0.257695 66 66 64 
0.0631101 -0.0502278 0.257691 66 66 64 
0.168482 -0.120876 0.503264 170 169 167 
0.169144 -0.120517 0.501565 92 87 81 
0.169176 -0.120183 0.501577 164 160 151 
0.169234 -0.120743 0.501211 193 189 180 
-0.0980531 -0.00721886 0.59247 54 74 21 
-0.0948714 -0.00535911 0.580241 169 184 91 
-0.0913113 -0.00376238 0.571918 181 193 95 
-0.0921621 -0.00610235 0.580304 39 59 0 
-0.0905711 -0.00489016 0.573282 84 102 0 
-0.089897 -0.00452309 0.571113 151 166 71 
-0.08869 -0.00214611 0.56701 167 170 79 
-0.088538 -0.00331397 0.568159 168 180 78 
-0.0886932 -0.00371543 0.571932 165 178 72 
-0.0870516 -0.0030891 0.565964 81 95 0 
-0.086453 -0.0019542 0.565769 57 58 1 
-0.0827491 -0.00197944 0.562286 47 60 4 
-0.0802303 -0.00235344 0.558209 106 120 45 
-0.0755154 0.000844756 0.545167 184 193 102 
-0.0374319 -0.0705759 0.502941 68 66 41 
-0.0351217 -0.0849427 0.503877 237 244 254 
-0.0344327 -0.107081 0.499206 225 237 251 
-0.0337895 -0.0882555 0.499965 229 238 255 
-0.0324828 -0.0714101 0.497597 126 116 107 
-0.0300495 -0.0685774 0.483657 110 97 80 
-0.0295059 -0.112059 0.494764 57 57 59 
-0.0289146 -0.0896675 0.494616 60 43 36 
-0.027629 -0.087189 0.488101 65 51 42 
-0.0262257 -0.101911 0.489742 68 58 49 
-0.0260771 -0.0688293 0.479112 75 51 25 
-0.0240437 -0.117694 0.490173 84 85 87 
-0.0239443 -0.0053587 0.463194 13 14 9 
-0.0238424 -0.0829017 0.482568 80 62 52 
-0.0233685 -0.0331252 0.470554 71 70 68 
-0.0225523 -0.0971641 0.484076 90 70 61 
-0.0214625 -0.0459595 0.471691 65 66 60 
-0.0203568 -0.0796557 0.477186 76 67 52 
-0.0186245 -0.103845 0.480188 87 67 56 
-0.0178443 -0.0442248 0.46667 23 24 19 
-0.0170046 -0.125204 0.485451 81 81 83 
-0.0172539 -0.0263546 0.464619 16 16 14 
-0.0160524 -0.0840065 0.47258 156 137 123 
-0.0137042 -0.0978222 0.474553 173 159 150 
-0.0139825 -0.0228654 0.459827 61 61 59 
-0.0132261 -0.117465 0.47964 144 140 131 
-0.0120731 -0.0100848 0.453987 50 50 48 
-0.0110879 -0.0833908 0.467011 96 79 69 
-0.0105012 -0.131796 0.480234 125 124 122 
-0.0105934 -0.112475 0.474159 91 81 79 
-0.00927529 -0.0982731 0.469113 60 47 39 
-0.00866055 -0.0771547 0.461496 133 107 90 
-0.00764378 -0.125787 0.475158 52 51 47 
-0.006461 -0.0916008 0.461761 133 120 114 
-0.00659049 -0.0657962 0.456012 208 182 167 
-0.00497217 -0.112626 0.46827 86 72 63 
-0.00281411 -0.10519 0.463052 65 53 41 
-0.00201407 -0.14069 0.473906 117 122 118 
-0.00111291 -0.126183 0.468707 82 69 63 
-0.00125114 -0.0914853 0.45357 46 45 40 
0.000202237 -0.102304 0.457398 192 179 171 
0.000670265 -0.119889 0.46333 154 137 129 
0.000888133 -0.0750125 0.452803 76 77 71 
0.0032632 -0.138487 0.468279 55 46 39 
0.00486181 -0.1154 0.457515 174 164 155 
0.00484989 -0.100305 0.449017 48 48 38 
0.00560837 -0.132896 0.463311 179 165 156 
0.00755971 -0.0752395 0.445174 19 19 11 
0.00890216 -0.128601 0.457893 179 174 155 
0.00933668 -0.113292 0.451472 187 177 168 
0.010153 -0.101747 0.442639 103 107 106 
0.0125987 -0.126022 0.45222 126 117 102 
0.0132585 -0.0756993 0.437915 98 97 92 
0.0144178 -0.113525 0.445651 173 157 141 
0.0157298 -0.101192 0.436701 121 108 100 
0.0190575 -0.125959 0.445134 64 49 46 
0.0180156 -0.0738158 0.430871 225 212 204 
0.019118 -0.113085 0.439655 60 46 37 
0.0212098 -0.0977104 0.428708 68 35 18 
0.0241985 -0.126491 0.438627 71 51 40 
0.0239337 -0.110752 0.43356 93 77 62 
0.0235222 -0.071153 0.424734 209 193 167 
0.0254321 -0.0907136 0.422803 67 47 38 
0.028408 -0.109201 0.426898 165 158 152 
0.0262267 -0.0230241 0.401739 108 97 67 
0.0292012 -0.124056 0.431665 51 38 30 
0.0292273 -0.0738725 0.418777 43 33 23 
0.0293221 -0.0823103 0.414486 191 164 147 
0.0304073 -0.0524938 0.406599 64 40 28 
0.0310572 -0.0670583 0.409494 48 33 28 
0.0305942 -0.0384792 0.403084 146 113 98 
0.0324168 -0.102528 0.420709 42 42 40 
0.035079 -0.120901 0.425254 213 200 192 
0.0355985 -0.0967516 0.413652 151 132 118 
0.0338956 -0.0308548 0.395813 41 34 26 
0.0370996 -0.115277 0.420379 50 46 45 
0.0345276 -0.0168412 0.391379 169 154 135 
0.0343414 -0.00123012 0.388915 111 102 87 
0.0361375 -0.0504366 0.399851 103 94 87 
0.037168 -0.0833505 0.408369 46 48 47 
0.0371916 -0.0665554 0.40296 103 98 94 
0.0413896 -0.110334 0.414197 199 177 164 
0.0379247 0.00380759 0.381841 41 29 7 
0.0429723 -0.098455 0.407746 204 186 172 
0.0420105 -0.0602643 0.395822 49 35 24 
0.0426578 -0.0782394 0.400419 171 158 149 
0.0458615 -0.0926575 0.401926 58 48 46 
0.0477726 -0.111061 0.406988 177 159 139 
0.0479659 -0.0725246 0.393344 44 31 23 
0.0497063 -0.0869065 0.395415 51 44 38 
0.0514872 -0.10535 0.400808 186 177 172 
0.0501489 -0.0671782 0.387076 197 178 136 
0.0542887 -0.0813721 0.388898 193 175 165 
0.0556847 -0.100388 0.394729 40 37 30 
0.0590482 -0.0951833 0.388902 61 50 44 
0.058808 -0.0735423 0.382767 67 49 35 
0.062137 -0.0877157 0.382477 54 53 51 
0.0610158 -0.0605454 0.373554 74 78 64 
0.0596899 -0.00879258 0.357595 28 29 23 
0.0618394 -0.0362262 0.367346 76 75 71 
0.0641005 -0.0750276 0.37699 108 101 93 
0.0622895 -0.0226016 0.362519 74 76 71 
0.0652619 -0.0502143 0.366509 73 73 71 
0.0682297 -0.0681861 0.369662 48 41 35 
0.0689075 -0.0834203 0.371437 147 150 123 
0.0672212 -0.0338114 0.359755 95 96 91 
0.0680364 -0.0188974 0.35446 27 31 30 
0.0711934 -0.0602924 0.363468 185 180 176 
0.0719817 -0.0464388 0.35851 29 31 30 
0.0742714 -0.0791774 0.364594 124 100 74 
0.0722851 -0.0340487 0.353083 84 86 83 
0.0726879 -0.0172995 0.34735 29 29 27 
0.0764677 -0.058093 0.356575 169 161 150 
0.0760673 -0.0444643 0.350111 38 38 36 
0.0788522 -0.0718161 0.35882 56 40 25 
0.0783059 -0.0283574 0.344994 89 90 84 
0.0819178 -0.0578225 0.35015 152 125 106 
0.0820968 -0.0437417 0.34401 41 41 39 
0.0846192 -0.0703232 0.350301 83 79 41 
0.0866478 -0.0370403 0.337379 97 97 89 
0.0880805 -0.0564073 0.342283 61 47 18 
0.0882619 -0.0213967 0.330539 56 57 51 
0.0925011 -0.0507494 0.334848 169 166 147 
0.0920577 -0.0380117 0.330564 57 58 53 
0.0923904 -0.0128542 0.323388 34 31 24 
0.0967253 -0.030054 0.323569 112 118 114 
0.0985765 -0.058814 0.330775 97 96 91 
0.100937 -0.0449756 0.323261 184 174 165 
0.0991871 -0.0180241 0.31644 102 104 103 
0.104239 -0.0491772 0.320658 218 206 192 
0.102023 -0.00853304 0.308745 93 95 94 
0.106083 -0.0344711 0.313768 61 44 28 
0.106386 -0.0248199 0.310367 56 55 51 
0.109318 -0.0374369 0.311003 96 95 90 
0.11075 -0.0426712 0.310752 57 58 52 
-0.0419554 -0.013917 0.475222 53 50 41 
-0.038098 -0.0187065 0.468375 89 90 74 
-0.0378071 -0.0343179 0.471775 38 34 9 
0.0339249 -0.0130043 0.359449 46 27 10 
0.190179 -0.13724 0.491934 168 165 146 
0.194877 -0.133547 0.482071 38 31 23 
-0.13931 -0.00536166 0.591965 35 52 0 
-0.347765 0.0446668 1.50394 83 102 36 
-0.145918 0.00118407 0.635453 34 51 0 
-0.220726 0.0232921 0.972129 81 104 36 
-0.169723 0.0111204 0.748166 71 89 7 
-0.179525 0.0137083 0.794846 67 85 3 
-0.139209 -0.000795439 0.615807 78 95 25 
-0.130681 -0.00509388 0.579469 43 59 10 
-0.156936 0.00810652 0.696771 78 93 0 
-0.158253 0.00861856 0.70525 147 162 71 
-0.151209 0.00767551 0.682842 147 164 60 
-0.162243 0.0101704 0.734221 110 124 37 
-0.125047 -0.00541451 0.568303 140 151 72 
-0.13091 -0.00195482 0.600582 63 77 0 
-0.1216 -0.00646159 0.559774 43 61 11 
-0.129812 0.00218822 0.601671 100 113 44 
-0.1376 0.00641823 0.642979 47 61 0 
-0.124196 -0.00145311 0.582753 82 96 17 
-0.131686 0.00512047 0.620522 119 139 42 
-0.121303 -0.00171664 0.579654 68 81 11 
-0.114947 -0.0062408 0.555748 140 155 64 
-0.115167 -0.00127025 0.568512 129 143 56 
-0.110001 -0.0061526 0.546708 81 91 5 
-0.107539 -0.00902265 0.549258 93 92 62 
-0.103082 -0.00508854 0.534842 135 150 91 
-0.100139 -0.00602526 0.534369 64 81 10 
-0.10357 -0.0512578 0.573168 33 32 27 
-0.100011 -0.0340702 0.557699 67 69 66 
-0.0953556 -0.00508078 0.530868 154 168 83 
-0.100386 -0.0443437 0.566556 124 123 119 
-0.0935881 -0.00672193 0.526515 46 63 11 
-0.0958845 -0.0457061 0.562168 34 31 24 
-0.0897627 -0.00636117 0.525187 52 71 15 
-0.0959006 -0.0563159 0.577551 135 128 122 
-0.0941883 -0.0669431 0.590104 116 107 102 
-0.0858389 -0.0391313 0.558306 60 60 58 
-0.0878891 -0.0600898 0.583638 52 38 37 
-0.0861368 -0.0549411 0.57371 42 33 26 
-0.0881243 -0.0684283 0.590244 67 55 55 
-0.0898759 -0.0745113 0.605968 78 63 60 
-0.0879497 -0.0845025 0.629028 81 65 66 
-0.0912038 -0.0900193 0.659726 57 45 47 
-0.0919769 -0.097976 0.668882 46 46 44 
-0.0917305 -0.103564 0.688064 231 216 209 
-0.0857636 -0.112935 0.700759 175 155 144 
-0.0812393 -0.0974804 0.673365 85 71 70 
-0.0799117 -0.106548 0.687497 180 156 146 
-0.0793748 -0.120453 0.706935 238 248 255 
-0.076786 -0.135272 0.717224 226 217 218 
-0.0474356 -0.00174188 0.480366 128 145 43 
-0.0422034 -0.0201344 0.464433 102 93 88 
-0.0392827 -0.0549477 0.472336 34 25 20 
-0.0390735 -0.0380611 0.467533 41 36 32 
-0.0345005 -0.049651 0.46596 27 24 19 
-0.0365258 -0.0782331 0.498529 234 243 250 
-0.0344807 -0.107103 0.499142 239 249 255 
-0.0317503 -0.0619777 0.473444 229 230 214 
-0.032737 -0.0712307 0.49099 198 176 163 
-0.0327414 -0.0890514 0.497683 239 248 255 
-0.0296024 -0.100312 0.492424 185 182 167 
-0.0280235 -0.0290261 0.459327 52 55 46 
-0.0284674 -0.0705089 0.482065 51 37 24 
-0.0278475 -0.0852645 0.487561 168 155 146 
-0.0255765 -0.0126907 0.456386 57 58 53 
-0.025394 -0.0408482 0.463151 61 60 55 
-0.0247018 -0.0776167 0.477768 127 122 116 
-0.0240298 -0.0975424 0.486222 184 165 158 
-0.021569 -0.0681041 0.466991 34 30 27 
-0.0202861 -0.0901466 0.479645 40 30 21 
-0.0181427 -0.0795246 0.473075 199 189 180 
-0.0169938 -0.025596 0.457315 66 66 64 
-0.0146957 -0.0373861 0.455405 31 33 30 
-0.01325 -0.0727579 0.4651 106 97 90 
-0.013219 -0.00919353 0.448239 17 17 15 
-0.0119942 -0.086519 0.469098 114 110 107 
-0.0118244 -0.0615851 0.459988 193 185 166 
-0.0114275 -0.0271122 0.451132 29 29 27 
-0.0105752 -0.0474388 0.454112 76 75 73 
-0.00856522 -0.0703453 0.456613 24 17 7 
-0.00823641 -0.0203406 0.445721 70 72 67 
-0.0075746 -0.0397581 0.449452 93 93 91 
-0.00684306 -0.0105986 0.441304 51 50 48 
-0.00669493 -0.0822867 0.461876 90 83 67 
-0.00634 -0.0577366 0.453651 123 103 92 
-0.00181723 -0.00676117 0.432634 58 60 57 
0.000950335 -0.0753884 0.455616 80 80 78 
0.0041462 -0.0504514 0.444571 92 88 79 
0.00442973 -0.0384293 0.441167 58 51 41 
0.00587798 -0.0753886 0.448789 31 30 28 
0.0071463 -0.012481 0.420093 32 32 32 
0.0101903 0.00148184 0.418373 57 59 56 
0.0118449 -0.0466972 0.436682 20 20 20 
0.0136409 -0.0793478 0.444966 22 23 25 
0.0165659 -0.099902 0.445536 83 84 78 
0.0163571 -0.0758032 0.433964 187 184 169 
0.0213732 0.00232177 0.405594 31 32 26 
0.0220193 -0.0206112 0.413118 86 82 79 
0.0232192 -0.0962406 0.433872 105 76 62 
0.025594 -0.0764543 0.429 49 39 29 
0.0272953 -0.0903914 0.42711 75 47 35 
0.0267605 -0.0121416 0.403882 79 80 75 
0.0296576 -0.0270729 0.409093 54 43 37 
0.0298291 0.00216623 0.397793 19 20 14 
0.0309552 -0.0685088 0.416125 98 66 55 
0.0308313 -0.0398972 0.411997 147 118 104 
0.0315479 -0.0514178 0.411268 59 44 37 
0.0320456 -0.0823565 0.419929 87 89 86 
0.0341321 -0.0256643 0.401175 57 42 35 
0.0356647 -0.0621849 0.409966 44 44 42 
0.036104 -0.00751826 0.394314 121 107 96 
0.037339 0.00266106 0.389796 42 32 20 
0.03924 -0.0924708 0.417939 66 53 45 
0.0393064 -0.079688 0.412283 74 76 71 
0.0404448 -0.0554756 0.403565 46 33 25 
0.0428557 -0.0724441 0.406472 40 39 37 
0.0414525 -0.0340995 0.376179 183 179 176 
0.047335 -0.0654876 0.400986 34 26 15 
0.0484024 -0.0881082 0.407391 41 30 24 
0.0483777 -0.06379 0.389255 140 101 34 
0.0513969 -0.081988 0.401285 217 204 196 
0.0558716 -0.0744802 0.396237 53 48 45 
0.0551551 -0.0527938 0.369072 30 33 24 
0.0589479 -0.0685242 0.387764 67 47 0 
0.0588227 -0.0630888 0.378714 25 21 0 
0.0596711 -0.0266942 0.370868 59 60 55 
0.0596336 -0.0122004 0.36522 24 24 24 
0.0632306 -0.0370052 0.375833 74 77 68 
0.0639202 -0.0479272 0.378421 34 36 31 
0.0671492 -0.0725047 0.383456 49 46 41 
0.0687785 -0.0560897 0.376794 95 97 94 
0.0679686 -0.0206286 0.366612 82 84 81 
0.0692863 -0.0640854 0.378205 33 34 29 
0.0676658 -0.00379896 0.361857 66 70 71 
0.0699596 -0.0320812 0.367731 24 24 22 
0.0725101 -0.0427331 0.368184 91 95 94 
0.0726355 -0.0142083 0.360404 81 90 89 
0.0734408 -0.00240398 0.354956 70 75 78 
0.0768582 -0.049921 0.365202 92 94 91 
0.076349 -0.0252717 0.358669 88 93 89 
0.0785117 -0.0579838 0.365629 60 53 47 
0.079671 -0.0368699 0.357599 103 103 101 
0.0855903 -0.0276614 0.349328 102 101 99 
0.0853564 -0.0127082 0.346196 71 72 64 
0.0859087 -0.00387946 0.343244 84 84 82 
0.0874101 -0.0370413 0.350111 15 23 25 
0.0916755 -0.0157372 0.339648 91 90 86 
0.0933178 -0.00550837 0.334766 93 95 94 
0.09761 -0.00543103 0.330905 38 38 36 
-0.106866 -0.0510918 0.598268 68 67 62 
-0.0993363 -0.0896437 0.624945 47 42 39 
-0.0199154 -0.0676396 0.472526 43 43 41 
-0.0194426 -0.0540245 0.469377 64 66 65 
-0.00516691 -0.0833724 0.455836 48 40 37 
0.00710149 -0.091848 0.45176 31 31 29 
0.0311708 -0.0593709 0.410249 166 132 122 
0.0313735 -0.0481143 0.407226 59 37 26 
0.0318493 -0.029154 0.401884 109 106 97 
0.033379 -0.0156768 0.396779 36 32 23 
0.034038 -0.039805 0.40228 51 44 36 
0.0354001 0.000827973 0.388729 48 44 32 
0.0370812 -0.0888176 0.414101 89 89 89 
0.0375379 -0.0555646 0.403359 38 29 24 
0.0380365 -0.0255629 0.39405 48 38 29 
0.0400901 -0.0477554 0.398093 46 33 24 
0.0528768 -0.0747421 0.393252 55 56 50 
0.0619906 -0.0148904 0.364272 28 29 24 
0.0636503 -0.0589073 0.377212 69 72 63 
0.0631456 -0.0289068 0.367588 32 34 29 
0.0669877 -0.0506566 0.370264 103 105 102 
0.0659914 -0.00604112 0.357955 27 29 26 
0.0718966 -0.0140498 0.354265 81 90 89 
0.072837 -0.0412956 0.36068 115 117 114 
0.0781944 -0.0248958 0.349161 98 100 97 
-0.0227084 -0.00925922 0.45516 17 17 17 
-0.0226435 -0.0324936 0.455068 69 68 66 
-0.0218424 -0.0192864 0.454364 65 68 59 
0.039278 -0.0121993 0.403902 158 147 129 
-0.0232581 -0.00899661 0.453593 17 18 13 
0.0442563 -0.00421257 0.403802 145 118 99 
-0.01039 -0.073509 0.448212 68 51 41 
0.0256556 -0.0208878 0.387202 138 120 96 
0.030061 -0.0550975 0.378942 153 145 142 
0.0299423 -0.0178786 0.379587 56 40 25 
0.029842 0.00254356 0.379646 72 68 56 
0.030185 -0.0310153 0.379077 49 42 32 
0.0340355 -0.0250556 0.372681 78 69 52 
0.0355804 0.00111097 0.369209 157 142 123 
0.0360917 -0.0526182 0.369162 198 184 175 
0.037557 -0.0366243 0.366683 53 34 20 
0.0432864 -0.0687287 0.356807 44 35 28 
0.0691426 -0.0457042 0.310962 120 121 116 
0.0739946 -0.036455 0.301065 98 99 94 
0.0794189 -0.0277103 0.291361 32 32 30 
0.0695008 -0.000422116 0.305642 61 71 70 
-0.001605 -0.0917528 0.431672 75 57 45 
-0.052464 -0.00753511 0.522663 110 84 67 
-0.0489743 -0.0196511 0.520993 202 183 166 
-0.0457782 -0.0298057 0.518309 65 49 36 
-0.0489264 -0.0131437 0.515315 205 174 154 
-0.0457915 -0.02341 0.513041 205 192 176 
-0.0487731 -0.00690267 0.509208 128 109 92 
-0.0423502 -0.030604 0.505618 60 39 22 
-0.0454556 -0.0177563 0.50635 59 32 13 
-0.0451916 -0.0111596 0.500542 97 70 49 
-0.0413529 -0.0253816 0.498721 81 50 29 
-0.0162125 -0.0686296 0.437777 91 84 74 
-0.0123274 -0.0751316 0.433212 16 17 12 
-0.0109437 -0.0653703 0.423156 86 84 71 
-0.00835695 -0.0669645 0.416638 141 114 95 
-0.0153512 -0.0276091 0.42036 27 27 27 
-0.00899721 -0.0514514 0.414054 57 39 27 
-0.0081696 -0.0337873 0.406689 202 156 133 
-0.00605945 -0.0466051 0.403678 255 220 198 
9.44092e-05 -0.0450771 0.385542 249 222 205 
-0.00124603 -0.0274589 0.384329 168 135 116 
0.000692429 -0.0359751 0.38173 89 54 34 
0.003338 -0.0454564 0.378879 138 103 84 
-0.000786229 -0.0195043 0.381389 124 86 63 
0.00160726 -0.028476 0.378719 255 252 239 
