ply                 
format ascii 1.0    
element vertex 278
property float x    
property float y    
property float z    
property uchar red  
property uchar green
property uchar blue 
end_header          
-0.0149639 -0.0558791 0.59294 54 40 37 
-0.0120404 -0.0407475 0.58047 92 93 87 
-0.0120801 -0.0340398 0.579244 24 25 20 
-0.0120269 -0.033211 0.578891 85 84 79 
-0.0117826 -0.0390444 0.579425 28 30 27 
-0.0117967 -0.0367175 0.579194 89 89 87 
-0.0117967 -0.0367175 0.579194 89 89 87 
-0.0118036 -0.0337223 0.578165 79 80 75 
-0.0116654 -0.0439571 0.579933 36 35 31 
-0.0117253 -0.0362535 0.578816 98 99 94 
-0.0117253 -0.0362535 0.578816 98 99 94 
-0.0116644 -0.0389043 0.57904 88 88 86 
-0.0116644 -0.0389043 0.57904 88 88 86 
-0.0115682 -0.0406975 0.578852 90 89 85 
-0.0115682 -0.0406975 0.578852 90 89 85 
-0.0116117 -0.0360282 0.57855 32 33 28 
-0.0114975 -0.0390173 0.578432 89 89 87 
-0.011498 -0.0323388 0.577001 85 84 80 
-0.0114627 -0.0334975 0.577061 35 36 31 
-0.0113329 -0.0418588 0.578299 34 33 29 
-0.011452 -0.032248 0.576854 64 63 59 
-0.0114099 -0.0339399 0.577057 34 33 29 
-0.0112473 -0.0461185 0.579284 28 28 26 
-0.0112272 -0.0410431 0.577799 34 35 29 
-0.0112272 -0.0410431 0.577799 34 35 29 
-0.0109868 -0.0478254 0.578521 94 95 90 
-0.0111245 -0.0369869 0.577116 23 22 18 
-0.0110989 -0.0378069 0.577027 82 83 77 
-0.0109894 -0.0448275 0.578319 104 103 99 
-0.0110176 -0.0364453 0.576726 33 34 29 
-0.0110451 -0.0319671 0.575598 86 85 83 
-0.010972 -0.0328468 0.575308 28 29 24 
-0.010972 -0.0328468 0.575308 28 29 24 
-0.0108888 -0.0391817 0.576562 29 30 25 
-0.0107333 -0.0424398 0.576474 33 32 28 
-0.0106891 -0.0448476 0.577187 83 82 78 
-0.010654 -0.045769 0.577205 107 109 106 
-0.010889 -0.0238549 0.573066 76 77 71 
-0.0106217 -0.0342687 0.574729 87 86 84 
-0.0104588 -0.0394694 0.574992 29 28 24 
-0.0104975 -0.034489 0.57448 40 39 34 
-0.0101002 -0.0554016 0.577234 37 32 26 
-0.010287 -0.036211 0.574137 88 89 84 
-0.0103395 -0.0250953 0.57136 79 80 75 
-0.010342 -0.024306 0.571329 62 63 58 
-0.010232 -0.032651 0.572689 77 78 73 
-0.0102575 -0.0317363 0.572926 37 38 33 
-0.00995391 -0.0520985 0.576037 181 165 152 
-0.0101063 -0.0320043 0.572247 91 92 87 
-0.0100727 -0.0300215 0.571969 27 26 21 
-0.0100016 -0.0328688 0.571992 84 85 80 
-0.0101674 -0.0176724 0.56968 62 63 58 
-0.00993053 -0.0309368 0.571474 78 79 74 
-0.00987799 -0.033577 0.571821 84 83 79 
-0.00966716 -0.0499046 0.574899 50 35 30 
-0.00984323 -0.0357119 0.572495 35 34 29 
-0.00984916 -0.032619 0.571498 34 34 32 
-0.00993038 -0.0256815 0.570263 29 30 24 
-0.00992529 -0.0236899 0.569877 69 68 63 
-0.00976476 -0.0319945 0.571151 93 93 91 
-0.00975217 -0.0297504 0.570737 87 88 83 
-0.00978866 -0.0246757 0.569633 28 29 24 
-0.00961635 -0.0378883 0.571892 91 92 87 
-0.00964805 -0.0338168 0.571108 37 36 32 
-0.00973747 -0.025221 0.569651 69 69 61 
-0.00935195 -0.0498008 0.573976 51 41 32 
-0.00955311 -0.0316909 0.570422 41 43 40 
-0.0095265 -0.0248466 0.568766 28 29 23 
-0.00943233 -0.0331122 0.57041 33 33 31 
-0.00943233 -0.0331122 0.57041 33 33 31 
-0.00931506 -0.0405227 0.571738 36 37 32 
-0.00911518 -0.0512138 0.573291 206 189 173 
-0.0093901 -0.0237693 0.568298 74 73 68 
-0.00916004 -0.0385782 0.57076 93 95 90 
-0.00914071 -0.0323767 0.569032 33 34 29 
-0.00911682 -0.0308063 0.56873 87 88 82 
-0.00902452 -0.0377655 0.570109 83 84 79 
-0.00907073 -0.0314755 0.568831 89 90 84 
-0.00908519 -0.0285303 0.567984 90 87 78 
-0.00912522 -0.0241314 0.567422 78 77 72 
-0.00900207 -0.0327833 0.568879 87 88 83 
-0.00902083 -0.0266271 0.567336 70 67 60 
-0.00899172 -0.0296479 0.568209 89 90 85 
-0.00894447 -0.0301798 0.568077 93 95 90 
-0.00866511 -0.045734 0.570893 89 88 84 
-0.00871559 -0.0381002 0.5692 35 35 33 
-0.00869344 -0.0336274 0.567827 33 34 29 
-0.00860304 -0.0405358 0.569517 88 87 83 
-0.00860304 -0.0405358 0.569517 88 87 83 
-0.00874011 -0.0240973 0.566052 81 80 75 
-0.00847267 -0.0372842 0.56823 36 35 31 
-0.00846159 -0.0349426 0.567874 95 96 91 
-0.0082367 -0.048242 0.569696 213 186 179 
-0.00844195 -0.0299989 0.566424 87 88 82 
-0.00835143 -0.0350955 0.567475 94 95 90 
-0.00822618 -0.0306432 0.565681 83 82 78 
-0.00801755 -0.0428206 0.567956 49 50 45 
-0.00822322 -0.0240314 0.564524 79 80 74 
-0.00813483 -0.023615 0.564202 78 79 74 
-0.00803843 -0.0238152 0.563946 29 28 24 
-0.00797157 -0.0227972 0.56372 64 65 59 
-0.007781 -0.0143291 0.561112 16 17 12 
-0.00759542 -0.0173787 0.561321 60 61 56 
-0.00759081 -0.0170948 0.561226 66 67 61 
-0.00726197 -0.0162705 0.559934 16 16 14 
-0.00717357 -0.0178019 0.559956 63 64 58 
-0.00720699 -0.0147534 0.559371 22 22 20 
-0.00701344 -0.0191489 0.559938 30 31 25 
-0.00699794 -0.0187149 0.559783 67 66 61 
-0.00698015 -0.0180992 0.559439 62 63 57 
-0.00673045 -0.018378 0.5588 24 23 19 
-0.00621231 -0.0163444 0.556656 67 68 62 
-0.00620419 -0.0161154 0.556474 22 23 17 
-0.00620419 -0.0161154 0.556474 22 23 17 
-0.00595158 -0.0158045 0.555665 72 73 68 
-0.0057402 -0.015299 0.554857 64 63 59 
-0.0057402 -0.015299 0.554857 64 63 59 
-0.00559678 -0.017217 0.554713 65 64 60 
-0.0055171 -0.0167013 0.554497 68 69 64 
-0.00539804 -0.0175016 0.554258 29 30 25 
-0.00539804 -0.0175016 0.554258 29 30 25 
-0.00506695 -0.0142901 0.55244 63 63 61 
-0.00506695 -0.0142901 0.55244 63 63 61 
-0.00501895 -0.0154872 0.552443 23 24 19 
-0.00467594 -0.0172986 0.551867 34 35 30 
-0.00473958 -0.0129118 0.551267 65 66 61 
-0.00449995 -0.0146784 0.550638 33 33 31 
-0.00426603 -0.0174652 0.550768 64 63 58 
-0.00426603 -0.0174652 0.550768 64 63 58 
-0.00425863 -0.013686 0.549588 73 75 70 
-0.00412987 -0.0145106 0.549462 60 61 56 
-0.00394343 -0.0158119 0.549235 26 27 22 
-0.00383421 -0.0154101 0.548752 80 81 75 
-0.00379957 -0.0175125 0.54917 31 30 25 
-0.00374272 -0.0180016 0.549048 75 75 67 
-0.00300875 -0.0172158 0.546436 65 66 61 
-0.00220158 -0.014683 0.543471 65 66 61 
-0.00211851 -0.0171324 0.543719 67 68 63 
-0.00187563 -0.015158 0.542384 73 74 68 
-0.00145702 -0.0186004 0.541938 70 71 65 
-0.0012815 -0.0130309 0.540056 70 71 66 
-0.0012815 -0.0130309 0.540056 70 71 66 
-0.00108837 -0.0155786 0.539944 62 63 57 
-0.000969175 -0.0117353 0.538832 60 61 56 
-0.000919781 -0.0134211 0.538862 71 67 64 
-0.0007489 -0.0137224 0.538435 66 67 62 
-0.000671999 -0.0152333 0.538573 29 31 26 
-0.00067365 -0.0144152 0.538385 68 69 64 
-0.000473188 -0.0160374 0.538089 80 81 75 
-0.000418352 -0.0158423 0.537809 31 32 26 
-0.000328589 -0.0136447 0.537025 65 66 61 
-0.00030615 -0.00960024 0.536275 67 68 63 
-2.5986e-05 -0.0157168 0.536525 76 75 71 
0.000711165 -0.0147511 0.533966 76 77 72 
0.000711165 -0.0147511 0.533966 76 77 72 
0.00100847 -0.0108232 0.532241 63 63 53 
0.00113738 -0.0174125 0.533341 78 79 74 
0.00127234 -0.0156032 0.532157 73 72 67 
0.00120819 -0.0105642 0.531574 17 18 12 
0.00134144 -0.0103094 0.531047 67 68 62 
0.00226467 -0.0175512 0.529618 33 34 28 
0.00237761 -0.0138599 0.528783 26 27 21 
0.00265962 -0.017286 0.528232 77 78 70 
0.00229987 -0.0155152 0.545292 80 81 75 
0.00271422 -0.0144716 0.527551 73 74 66 
0.00275629 -0.0135071 0.527363 70 71 65 
0.00303108 -0.0176005 0.527219 32 31 26 
0.00323764 -0.0150966 0.525761 73 74 68 
0.00336025 -0.0171847 0.525894 80 80 70 
0.0033543 -0.0153323 0.52542 27 28 22 
0.00352183 -0.0214597 0.527542 87 88 82 
0.00343929 -0.0125454 0.524797 76 76 68 
0.00343929 -0.0125454 0.524797 76 76 68 
0.00355094 -0.0183164 0.525643 65 68 61 
0.00369004 -0.0121506 0.523825 32 31 26 
0.00386227 -0.0146716 0.523753 33 32 27 
0.00395472 -0.016924 0.523982 79 82 73 
0.00405338 -0.0131348 0.522872 38 35 30 
0.00409812 -0.0152 0.523159 29 26 21 
0.00410893 -0.0124155 0.522342 79 78 74 
0.00443252 -0.0213089 0.524547 77 81 67 
0.0045102 -0.0144936 0.521654 79 80 72 
0.00490735 -0.013332 0.520326 85 84 79 
0.00518605 -0.0132722 0.519423 78 77 72 
0.00518605 -0.0132722 0.519423 78 77 72 
0.00544132 -0.0130508 0.518501 35 35 27 
0.00543481 -0.0118962 0.5185 37 37 29 
0.00576274 -0.0134449 0.517604 33 32 27 
0.00605593 -0.0139039 0.516805 83 83 75 
0.00602275 -0.0113588 0.516457 28 27 22 
0.0060793 -0.011833 0.516212 37 38 30 
0.00608168 -0.0118188 0.516206 37 38 30 
0.00607568 -0.0107319 0.516051 23 23 15 
0.00630501 -0.0130343 0.515662 76 77 71 
0.00630501 -0.0130343 0.515662 76 77 71 
0.00641941 -0.0117827 0.515123 78 79 73 
0.0064656 -0.0134453 0.515226 34 35 29 
0.00645765 -0.0123583 0.515111 64 66 55 
0.0064815 -0.00958717 0.514603 68 67 62 
0.00666533 -0.0129661 0.51438 80 81 75 
0.0068953 -0.0165158 0.514429 90 91 83 
0.00682071 -0.0103924 0.513595 67 68 62 
0.00746796 -0.015798 0.512684 76 76 66 
0.00749506 -0.0154051 0.512483 86 88 77 
0.00747616 -0.00986201 0.511685 26 25 20 
0.00771174 -0.0158039 0.511762 81 82 74 
0.00779953 -0.0104074 0.510661 29 30 24 
0.00791593 -0.0167167 0.511454 39 40 32 
0.00781816 -0.0103984 0.510629 31 32 26 
0.00786926 -0.0108351 0.510618 80 82 71 
0.0081205 -0.0104182 0.509616 73 75 64 
0.00823372 -0.0116577 0.509399 79 76 67 
0.00838876 -0.0165925 0.509843 29 29 19 
0.00843742 -0.0172663 0.509904 87 89 78 
0.00912812 -0.00889078 0.50627 24 25 17 
0.00929969 -0.00985068 0.505933 81 81 71 
0.00941438 -0.00925452 0.505401 33 36 27 
0.0096509 -0.0128382 0.505309 32 33 27 
0.0105583 -0.0159102 0.503118 33 33 25 
0.0106107 -0.00949565 0.501898 31 32 27 
0.0108579 -0.0111062 0.501425 76 78 67 
0.0112599 -0.015382 0.501081 36 36 28 
0.011274 -0.0138992 0.500728 31 30 25 
0.011274 -0.0138992 0.500728 31 30 25 
0.0112535 -0.00968811 0.499766 76 75 70 
0.0114778 -0.0149454 0.500193 72 73 59 
0.0116332 -0.0170839 0.499884 28 29 21 
0.0116332 -0.0170839 0.499884 28 29 21 
0.011675 -0.0153579 0.499682 85 87 74 
0.0117549 -0.0111656 0.498611 69 69 61 
0.0119456 -0.0172528 0.498968 75 76 68 
0.0121695 -0.0149478 0.497981 30 29 24 
0.0126426 -0.021116 0.499111 93 93 81 
0.0129267 -0.0199688 0.497968 37 37 29 
0.0131267 -0.020577 0.497359 28 28 18 
0.0132202 -0.00674231 0.493048 37 35 23 
0.0133681 -0.014034 0.494258 26 27 21 
0.013564 -0.0139251 0.493536 88 89 81 
0.0134156 -0.00618468 0.49248 22 23 17 
0.0145965 -0.010864 0.489856 71 73 62 
0.0152403 -0.0199525 0.490803 79 80 72 
0.0152919 -0.0203229 0.490658 88 92 78 
0.0155218 -0.0207844 0.490068 96 98 85 
0.0155183 -0.00622039 0.486133 67 64 57 
0.0163851 -0.0113636 0.484356 83 81 69 
0.0163851 -0.0113636 0.484356 83 81 69 
0.0164869 -0.00909754 0.483701 77 74 65 
0.0175342 -0.0106277 0.480801 75 76 62 
0.0175342 -0.0106277 0.480801 75 76 62 
0.0177434 -0.0101675 0.480023 82 84 71 
0.0182136 -0.00896439 0.478288 23 23 15 
0.0200062 -0.0128601 0.474013 94 89 83 
0.0269454 -0.0362247 0.458089 210 178 157 
0.0897919 -0.0807929 0.602279 187 173 146 
0.0898225 -0.0801977 0.602199 198 192 168 
0.090112 -0.0815787 0.6011 185 172 155 
0.0901816 -0.0813297 0.600853 119 107 93 
0.0902036 -0.0795262 0.601079 108 95 79 
0.0902207 -0.0796742 0.60085 183 171 157 
0.0902478 -0.0793469 0.600882 171 158 142 
0.0905562 -0.0794651 0.599663 117 103 90 
0.0907663 -0.0796867 0.598917 194 182 170 
0.0914063 -0.0812104 0.59642 82 74 61 
0.0924508 -0.0793495 0.592881 109 98 80 
0.0927885 -0.0785416 0.591789 90 91 85 
0.0927889 -0.0797577 0.591609 184 164 129 
0.0947716 -0.0785507 0.584523 169 165 140 
0.0949475 -0.077348 0.584157 52 45 37 
0.0954537 -0.0784148 0.58201 202 198 173 
0.0960146 -0.0787378 0.579838 168 160 149 
0.0960277 -0.0773066 0.580014 134 121 113 
0.0960571 -0.0785226 0.579831 89 76 70 
0.0593059 -0.038964 0.313051 66 66 64 
0.0593086 -0.0389644 0.313045 66 66 64 
0.0975981 -0.0770276 0.574489 170 169 167 
0.0981268 -0.0767721 0.572545 92 87 81 
0.0981295 -0.0765677 0.572535 164 160 151 
0.098223 -0.0769053 0.572166 193 189 180 
