ply                 
format ascii 1.0    
element vertex 1307
property float x    
property float y    
property float z    
property uchar red  
property uchar green
property uchar blue 
end_header          
1.64291 -0.203626 3.75061 31 30 38 
1.63883 -0.244219 3.75051 20 19 27 
-1.44411 0.424337 6.77263 26 34 55 
1.52141 0.468091 3.98031 45 50 79 
0.660784 0.241735 5.67612 97 100 131 
0.734795 0.960162 5.48791 90 100 127 
1.01832 -0.575877 5.63049 39 26 36 
-2.24496 0.40138 6.44905 30 37 66 
0.0355673 1.37534 5.43599 80 84 111 
1.3372 -1.03596 4.72049 48 56 103 
0.846022 -0.733129 5.84388 26 33 59 
1.28743 0.670766 4.55137 51 57 91 
0.629355 0.988946 5.51326 91 106 147 
-1.21082 0.233146 6.72695 96 113 156 
1.33308 0.27119 4.5811 100 114 149 
0.621128 0.526758 5.62038 32 43 75 
-1.78699 -0.224826 6.79874 65 87 134 
-1.13499 -0.332309 6.91079 61 68 97 
1.57996 -0.801036 4.15239 49 71 112 
-2.2475 0.375202 6.46064 28 35 63 
1.32657 -0.242981 4.66647 55 72 102 
0.150704 -1.05057 6.25406 17 21 33 
0.647727 0.15634 5.70715 35 48 80 
1.45102 0.0127502 3.2386 28 28 40 
0.689777 -0.151916 5.76345 91 105 140 
-2.39342 0.362579 6.39514 24 43 76 
-2.29563 -0.208253 6.56979 62 82 132 
-0.228938 1.34578 5.3389 31 31 39 
-0.550825 0.43194 2.39163 83 103 138 
1.59332 -0.186763 3.99363 99 124 164 
1.64248 -0.245188 3.76028 30 28 33 
1.39984 0.853084 4.2213 43 47 76 
-2.36355 0.188425 5.29663 106 118 156 
1.20905 1.11035 4.70955 76 93 123 
1.33322 0.0286381 4.65036 86 101 142 
1.55624 -0.645885 4.16676 96 110 145 
-1.51036 -0.502793 6.86143 56 49 67 
-2.17098 1.10054 6.16542 84 104 141 
-1.97419 -0.407636 6.7277 105 119 164 
0.15871 -0.860938 6.2758 34 48 85 
-1.7886 0.0211551 6.74653 67 89 136 
1.00333 -0.171425 5.55742 59 55 72 
1.0145 -1.32752 6.0514 97 138 182 
-1.401 0.443041 6.79443 28 40 66 
0.308142 -1.20742 7.06971 183 207 255 
1.4298 -0.76647 4.49641 45 34 42 
-2.44945 -0.0891617 6.19623 111 126 169 
1.35004 -0.46468 4.73576 76 96 133 
-2.57934 -0.383479 4.86219 48 65 108 
-1.84847 0.673752 6.54216 105 122 165 
1.07293 -0.539687 5.54294 89 104 145 
-2.02002 0.321686 6.52568 100 91 108 
-2.34788 -0.272117 6.56815 59 81 130 
1.0129 -1.32413 6.03751 109 152 194 
-2.39446 0.521478 6.36137 31 49 87 
-1.32626 0.600056 6.76691 84 100 136 
0.0851801 0.6762 5.58367 18 24 40 
-1.87496 -0.107556 6.72796 68 90 139 
-1.91493 -0.173986 6.71379 65 86 133 
-1.90277 0.565693 6.5566 47 57 93 
-2.30336 0.3653 6.45447 27 38 66 
1.05176 -0.3864 5.56611 70 85 116 
1.0099 0.0220821 5.5104 45 50 92 
1.06436 0.201665 5.32453 84 98 135 
0.704809 1.00198 5.47412 100 115 154 
-2.29374 -0.268798 6.5776 65 85 135 
1.06174 1.07091 5.21698 67 78 106 
1.29088 0.610285 4.58454 48 54 88 
-2.39882 0.687832 6.31404 112 122 157 
0.612027 0.555416 5.62553 81 94 126 
-1.78426 -0.16159 6.77622 66 88 137 
-1.40228 0.054065 6.87748 64 84 134 
-2.27183 0.692172 6.36437 87 107 142 
1.58192 -0.833912 4.15534 44 61 104 
1.38618 0.110133 3.47111 74 88 115 
1.04681 1.05268 5.26274 92 105 139 
1.57716 -0.545211 4.11624 83 105 146 
1.3883 0.0834738 3.43465 72 91 123 
0.713283 -0.379903 5.80112 89 104 143 
1.39889 0.914688 4.20569 42 46 75 
-1.32739 0.713957 6.74555 75 95 132 
1.42951 0.423197 4.24222 45 58 100 
0.691167 -0.458501 5.83121 96 112 146 
0.635938 0.184831 5.70817 83 94 124 
1.40623 0.921093 4.23328 42 43 71 
-2.27815 0.413595 6.45107 78 92 129 
-1.31021 0.699626 6.78328 35 48 80 
-1.76301 0.431085 6.63525 95 105 140 
-1.78351 0.728743 6.4902 92 109 152 
1.61569 -0.157034 3.90917 49 64 107 
1.55297 -0.372816 4.04381 43 38 58 
1.19428 0.971668 4.77757 13 17 29 
-1.52082 -0.506562 6.89875 54 50 67 
1.29384 0.98154 4.48736 43 48 78 
-2.32133 -0.242112 6.56851 117 131 176 
-2.36873 0.651911 6.36191 58 80 117 
1.30535 1.02036 4.44952 41 27 40 
-2.24014 0.646925 6.38145 33 47 82 
1.64371 -0.169113 3.74501 41 35 45 
0.0938529 -0.651649 5.91751 37 28 33 
1.01117 0.49149 5.41996 52 45 61 
-1.10923 0.536133 6.6695 15 21 43 
1.58899 -0.794988 4.11383 103 120 164 
0.0559843 1.3851 5.42874 83 80 99 
1.08282 0.0510129 5.32125 38 34 48 
-2.39285 0.595075 6.35749 40 58 94 
1.60406 0.667825 3.77267 72 80 126 
1.05033 0.00959263 5.40291 91 109 145 
0.157983 -0.906148 6.29419 34 49 80 
1.61243 -0.331689 3.7528 48 41 59 
-1.14074 -0.324659 6.91506 62 71 102 
1.16825 0.444855 4.93377 85 99 134 
-1.87236 -0.108544 6.7142 68 90 139 
1.58985 -0.185155 4.0318 73 92 132 
-2.0203 -0.471456 6.71455 34 29 35 
1.34789 -0.675538 4.80888 55 77 116 
-1.86764 0.376027 6.60431 25 30 50 
-2.27176 0.658921 6.38287 54 74 111 
1.04714 0.210679 5.45819 86 100 137 
1.38819 -0.00116821 4.53624 89 107 145 
1.35671 0.632086 4.49611 35 48 64 
0.711544 0.193068 5.67765 72 86 112 
1.59735 -0.568725 4.03943 59 73 120 
-2.40377 0.439929 6.37339 98 111 143 
-1.41879 0.70625 6.70451 78 94 128 
1.38772 0.610544 4.42248 20 20 32 
1.21002 0.628087 4.79448 66 79 111 
0.778884 -1.70399 6.35554 192 216 254 
-1.09977 -0.328662 6.88052 23 25 40 
1.37386 0.619249 4.43315 75 90 123 
-2.24255 0.534024 6.4149 34 49 80 
1.0536 -0.552824 5.60992 69 81 107 
1.35816 0.268298 3.49011 37 28 29 
0.724034 0.155287 5.67835 35 50 83 
1.22042 0.932793 4.74652 69 84 117 
-1.88771 0.724614 6.49397 88 103 146 
1.16844 -0.678587 5.20219 75 88 123 
1.37997 0.456042 4.40348 70 83 125 
1.21227 0.742029 4.7683 69 83 112 
-1.91375 0.43328 6.58932 33 42 71 
1.5723 -0.542408 4.10156 89 111 150 
-0.680835 0.699442 5.97841 18 12 14 
-2.24727 0.689354 6.35865 86 108 145 
-0.750886 0.772036 5.92753 26 11 14 
0.441991 -1.12966 6.2403 79 87 124 
1.20891 0.557436 4.83738 37 48 80 
1.12395 -0.565614 5.33074 45 51 75 
-0.199714 1.33026 5.31323 81 97 133 
-1.30006 0.589423 6.78499 40 47 75 
-1.58337 -0.648732 6.98952 43 47 74 
1.05884 -0.0617859 5.40441 61 58 85 
1.55501 -0.385907 4.04618 64 79 112 
1.18504 0.870737 4.79063 19 22 41 
-1.92314 0.678172 6.51797 32 46 83 
-2.54498 0.1373 4.73674 96 107 139 
1.1872 0.780616 4.78652 16 22 34 
-2.45377 0.616373 6.0638 95 109 148 
1.16525 -0.675701 5.18292 74 87 122 
1.3831 0.576797 4.35705 39 33 47 
0.798442 -1.70776 6.34688 199 217 255 
-0.240373 -0.623456 5.76258 20 19 24 
1.36361 0.619729 4.46065 23 31 44 
1.22346 0.809557 4.78251 71 84 119 
0.68971 0.17065 5.68523 83 100 130 
-2.43575 0.204288 6.05444 71 62 83 
-0.245875 -0.629107 5.81208 20 19 24 
1.17107 -0.643893 5.18016 85 95 122 
-1.403 -0.190743 6.94024 64 82 132 
1.58468 -0.126106 4.01757 108 126 164 
1.37463 0.451593 4.37884 89 103 142 
1.11599 -0.601986 5.34518 46 50 77 
0.22699 1.01104 5.47061 51 55 80 
0.175365 1.32602 5.36519 74 90 123 
1.61923 -0.199423 3.94076 85 105 142 
-2.28694 0.371769 6.44101 29 38 67 
-1.91913 0.00950001 6.68482 72 94 141 
-1.32455 0.773885 6.72506 88 106 144 
0.538399 1.35826 5.39818 50 54 79 
-1.31065 0.0707822 6.91883 59 80 125 
1.33004 -0.232636 4.65982 48 46 70 
1.15777 0.698178 4.83984 71 82 114 
1.296 0.303244 4.60764 45 37 52 
0.117196 -0.579995 5.85995 70 79 108 
0.661688 -0.393936 5.83357 106 116 143 
0.710227 0.585676 5.58211 70 85 108 
1.48993 0.611009 4.02979 41 45 72 
-1.29429 0.785387 6.74756 106 116 151 
0.675467 -0.444052 5.84206 96 88 109 
-1.4444 -0.286915 6.91986 58 60 85 
1.5989 -0.220075 3.99203 68 72 117 
1.1668 0.650191 4.88451 56 70 99 
1.54217 -0.31966 4.06422 63 64 92 
-1.26073 0.394011 6.84517 84 68 81 
1.1092 0.7876 5.07149 51 56 86 
0.623884 0.145502 5.71798 30 45 76 
1.17163 0.503516 4.90355 86 106 141 
-0.74948 0.769017 5.91236 28 12 15 
1.35149 0.629695 4.50868 20 24 36 
1.15799 1.21873 4.71558 88 74 87 
-1.24869 0.382969 6.82503 75 68 86 
1.42975 0.330665 4.27462 91 85 85 
1.0736 -0.597952 5.49255 55 56 76 
1.46449 0.688461 4.08329 44 48 75 
-2.35571 0.499184 6.38642 26 41 72 
1.16812 0.477595 4.90794 87 96 113 
1.04734 0.867311 5.30894 79 93 122 
1.2042 0.573408 4.84835 60 75 108 
1.58763 -0.24357 4.01178 7 13 25 
1.6066 -0.195778 3.97471 75 91 124 
0.714298 0.777014 5.5048 73 82 111 
-2.39996 0.330213 6.41897 17 29 55 
1.06831 0.808566 5.25443 23 26 41 
1.0688 0.0168084 5.36689 84 102 140 
1.36982 0.961655 4.3641 90 113 154 
1.10661 0.9145 5.04891 46 52 84 
1.31313 0.294529 4.60091 57 44 54 
0.683011 0.856312 5.51417 81 90 119 
1.41418 0.719548 4.21753 45 51 77 
0.795567 -1.69332 6.29266 199 217 255 
0.117057 -0.869675 6.23523 37 52 83 
-1.32737 0.740455 6.73983 77 92 125 
0.233925 -1.00436 6.31706 20 19 33 
-2.40221 -0.00267011 6.46936 105 110 142 
-2.589 -0.427488 4.86221 95 109 146 
0.191494 -0.954677 6.26291 16 18 31 
1.06493 0.0881401 5.42135 22 27 46 
1.58237 -0.672608 4.12745 55 72 116 
1.33795 0.524854 4.4754 50 58 94 
1.55696 -0.39657 4.03443 56 67 99 
0.659044 -1.35697 6.02301 61 103 143 
1.02423 0.479521 5.41512 57 49 60 
1.15195 -0.704458 5.27716 68 74 106 
1.05492 0.818425 5.29909 19 23 35 
0.644087 0.528363 5.60206 38 46 82 
1.15401 1.06207 4.73241 70 76 108 
1.10778 1.0971 4.98864 50 54 79 
1.21415 0.678818 4.82156 74 89 122 
1.36304 -0.63262 4.72366 106 125 167 
1.64387 -0.302051 3.77252 53 45 43 
-2.40543 0.564174 6.34716 93 112 145 
1.41532 -0.703952 4.52683 56 48 59 
-1.84947 0.000692193 6.70925 123 140 186 
-0.240166 0.501883 5.52029 21 20 34 
0.996636 1.10429 5.3036 47 52 81 
1.46553 0.564472 4.11421 46 52 78 
-1.83219 -0.276388 6.78093 57 80 130 
0.779265 -1.37373 6.00774 59 102 144 
1.48691 0.0195057 3.14101 35 42 60 
0.737383 -0.0749271 5.72317 99 104 133 
1.61106 -0.252476 4.0187 16 14 25 
1.59035 -0.109311 3.94788 104 117 161 
1.31839 0.296205 4.62485 59 46 56 
0.973863 -0.569399 5.68387 74 88 123 
1.19002 0.784149 4.80516 15 21 33 
-2.32155 0.155034 6.35495 107 122 165 
0.500154 -0.468874 5.87669 77 71 71 
1.59339 -0.838672 4.09729 45 64 104 
1.06288 -0.232205 5.47635 48 63 102 
1.56693 -0.562395 4.13962 38 48 83 
1.46674 0.939447 4.02852 36 43 69 
-1.92448 0.651523 6.52832 35 53 91 
0.128901 -0.566575 5.8559 76 89 121 
1.43855 0.766753 4.13491 41 45 74 
1.09471 -0.644309 5.44081 76 92 125 
1.08572 1.13861 5.06283 96 111 142 
0.884645 -1.36464 6.03322 49 90 134 
1.51354 0.781916 3.91675 39 41 66 
1.38154 0.0465429 3.4635 34 27 34 
-2.27435 -0.0364007 6.52138 75 92 136 
-1.81685 -0.316176 6.78069 59 65 99 
1.10656 0.976369 5.03274 48 53 83 
-2.26593 0.533671 6.42403 34 52 90 
-0.786151 0.815057 5.88317 20 11 14 
1.0797 0.810513 5.22631 75 90 123 
-2.25621 -0.265459 6.60272 59 81 128 
0.787768 1.24955 5.37624 40 41 62 
0.723752 1.00593 5.47931 95 111 147 
1.30875 0.599017 4.55374 60 51 70 
1.08113 1.09636 5.15143 74 86 128 
-0.254257 0.559076 5.50787 66 71 90 
0.676733 0.163729 5.71639 78 75 94 
-2.3201 0.474276 6.40283 107 125 165 
1.12017 0.610399 5.07573 47 57 93 
1.17211 0.848291 4.81065 72 78 110 
-1.89213 0.0370447 6.65617 104 117 161 
1.173 0.725462 4.84608 66 80 109 
-2.23458 0.638286 6.3386 40 52 90 
1.54458 -0.388029 4.05836 43 54 86 
-1.44466 0.439721 6.774 29 39 64 
1.59426 -0.541318 3.94358 36 28 43 
0.440104 -0.869547 6.18723 101 116 157 
-2.39187 -0.223437 6.54828 62 85 129 
1.18603 -0.293748 5.05823 13 20 38 
-0.234632 -0.273097 5.75369 45 41 55 
0.589196 -0.314198 5.86452 100 115 148 
1.17109 0.607525 4.86163 60 67 93 
0.120912 -0.862745 6.25892 33 52 84 
-1.45056 0.386097 6.73636 44 36 49 
1.35421 -0.185081 4.56462 97 117 154 
0.995865 1.04121 5.31673 45 51 77 
-1.16613 0.727172 4.19898 72 87 110 
1.43229 0.346588 4.22615 87 105 141 
1.43128 -0.720138 4.46781 58 46 48 
0.672717 -0.150443 5.76824 85 80 103 
1.35514 -0.184665 4.57051 97 115 151 
1.49117 0.485967 4.0616 44 51 77 
-0.0280795 -1.44357 7.3523 189 212 254 
-2.36077 -0.480646 5.38491 59 74 117 
1.15064 0.756902 4.80321 78 88 123 
-1.50849 -0.470028 6.84848 72 60 70 
-2.25556 -0.20348 6.58832 61 82 127 
1.09093 -0.6384 5.42515 76 91 124 
-1.91955 0.627166 6.53136 40 52 90 
1.23061 0.900504 4.70732 44 49 78 
0.61316 -0.467052 5.86013 103 111 147 
-2.39078 -0.267828 6.55009 60 82 132 
1.58515 -0.217944 4.05951 11 12 17 
1.58122 -0.353381 3.96956 79 98 131 
1.31263 0.502723 4.52301 45 51 83 
0.132578 -0.916913 6.27256 71 82 114 
-0.016538 -0.953701 6.39589 8 12 23 
0.41845 -0.843661 6.22863 36 38 61 
1.44717 0.5688 4.11555 44 51 79 
1.21593 1.05186 4.69124 67 82 113 
1.38633 0.626202 4.27177 81 96 129 
1.35939 0.796263 3.32632 73 70 61 
-1.35107 -0.187228 6.95538 64 85 132 
-1.81964 -0.0451754 6.70498 73 96 146 
0.67074 0.521645 5.60535 75 68 86 
0.481558 -0.482424 6.04458 57 51 53 
-1.33205 0.497551 6.81729 66 85 118 
1.41144 -0.727285 4.52136 47 48 66 
1.31883 0.351488 4.55636 67 80 112 
-2.46699 -0.338473 6.15725 102 113 143 
-2.14994 -0.536599 6.60538 17 19 31 
1.41305 0.594505 4.24497 45 49 78 
-1.78791 0.574557 6.58562 32 46 81 
1.38896 0.595367 4.3588 24 26 41 
-2.61979 -0.567167 4.88976 48 69 114 
0.930709 1.26066 5.41916 34 37 56 
1.32993 -0.733703 4.84526 86 99 131 
1.36016 0.732506 4.46514 85 103 141 
1.42033 -0.834786 4.52307 77 92 131 
1.36444 -0.720122 4.74193 99 114 157 
1.26776 0.579688 4.64111 77 92 125 
1.36649 -0.534785 4.69832 102 119 163 
1.18529 -0.747074 5.13581 55 65 90 
1.40509 0.549312 4.27774 85 103 139 
1.36646 -0.593186 4.71419 103 120 163 
1.51482 0.656762 3.94616 42 46 73 
1.60806 -0.620678 4.03472 90 109 152 
1.49041 0.859341 3.97168 39 43 68 
-2.56634 -0.455854 4.87308 47 64 108 
-1.90814 0.724788 6.50703 88 106 146 
1.43161 0.723263 4.17334 79 94 133 
0.0837909 1.12463 5.48154 12 20 41 
1.38431 0.14234 3.47011 94 101 130 
1.25562 0.821399 4.65043 50 56 82 
0.663683 0.512451 5.61305 82 82 106 
0.670145 0.520522 5.5949 75 68 86 
1.54985 -0.863549 4.21211 70 83 118 
-2.46385 -0.445236 6.38809 9 25 50 
-0.217937 0.772346 5.45545 19 18 34 
1.55291 -0.866264 4.22149 68 81 116 
1.4392 0.0869516 3.22124 85 94 125 
1.58459 -0.76631 4.10142 104 125 168 
-2.4019 -0.37578 6.54641 42 32 43 
1.51813 0.729799 3.91761 79 99 132 
1.41313 0.844267 4.19147 41 47 71 
-2.39119 0.608315 6.33287 44 63 103 
-1.92673 -0.126167 6.71526 62 84 133 
0.80231 0.948068 5.43337 73 87 114 
0.482306 1.24155 5.60324 44 49 78 
0.428949 -0.847858 6.23143 35 41 67 
-1.38985 0.0399451 6.80683 65 83 133 
1.01114 1.20456 5.23967 45 33 47 
1.43019 -0.875378 4.52805 44 45 73 
1.05444 0.0308952 5.41148 49 54 83 
-2.55715 -0.438303 4.87359 48 65 109 
1.05072 0.0307853 5.38385 51 57 83 
0.700163 0.153969 5.68513 35 50 83 
1.18762 1.00449 4.76039 14 18 29 
1.21587 0.441323 4.83488 55 56 84 
-1.92235 -0.256107 6.73222 59 81 130 
1.17617 0.660658 4.79873 20 22 35 
1.37799 0.233573 3.4612 63 57 45 
1.33687 -0.218166 4.63335 74 92 130 
1.06216 0.199016 5.42333 84 102 142 
1.42388 0.356473 4.26815 88 104 138 
0.604879 -1.35632 6.03394 64 109 151 
1.17496 0.912219 4.79715 66 76 103 
-1.66839 -0.445996 6.87811 33 32 40 
-1.92534 0.042613 6.67722 134 140 172 
1.025 0.0481392 5.47208 88 96 119 
1.3628 -0.271169 4.60395 46 57 89 
-1.4374 0.710023 6.63722 29 45 78 
1.51245 0.478092 3.97024 86 105 137 
-2.40132 0.161626 5.82955 64 75 103 
0.860567 -0.496698 5.77631 56 46 45 
0.479144 1.18012 5.61678 45 51 83 
1.54421 -0.529718 4.04119 110 126 160 
1.02074 0.687114 5.33657 50 59 92 
0.93498 -0.450522 5.82102 32 31 36 
0.872726 1.2673 5.38654 66 75 104 
1.55656 -0.36336 4.00728 86 102 136 
-1.91662 -0.159022 6.70986 66 87 134 
1.37856 0.747585 4.42134 95 115 150 
1.3212 1.01009 4.44513 90 64 73 
-1.92004 -0.252474 6.7463 60 81 126 
1.17738 1.1882 4.73979 66 73 102 
1.60597 -0.733037 4.05818 84 105 148 
-1.42374 0.0780204 6.85317 99 112 156 
1.2448 -0.682343 5.01091 66 57 58 
0.996085 0.0483394 5.54125 82 96 135 
1.29852 -0.116893 4.7123 64 59 79 
1.24542 0.775549 4.67913 86 102 138 
1.06702 0.0116311 5.37614 91 109 147 
1.3158 -0.303502 4.70649 91 105 144 
1.15435 1.27024 4.73168 68 58 67 
1.16545 0.891333 4.83534 70 83 117 
-2.40929 -0.348205 6.55667 92 102 137 
1.35049 -0.730731 4.71443 106 125 168 
-1.76288 0.495552 6.6004 97 112 151 
1.14809 1.00121 4.74438 75 88 122 
1.04843 -0.0717316 5.41592 88 107 140 
0.0805692 1.2302 5.43996 11 14 29 
-0.712147 0.8069 5.75144 92 56 66 
1.42952 0.481764 4.22408 75 87 125 
-1.63715 0.363999 6.66853 79 83 120 
1.35554 -0.202989 4.58877 61 69 108 
-1.88729 -0.163216 6.69137 94 115 158 
-1.32103 0.719946 6.72916 63 77 114 
-0.239226 0.386066 5.5244 28 24 38 
0.0779553 -0.112742 5.78765 28 39 61 
1.15546 0.653507 4.88309 70 83 117 
0.860338 1.07086 5.44247 35 40 62 
1.46673 -0.738672 4.3664 59 50 55 
1.34046 -0.225666 4.64317 86 105 138 
1.60365 -0.128409 3.91058 65 73 112 
-1.45367 -0.477631 6.85362 15 23 34 
0.703948 -0.025852 5.73982 101 101 125 
1.21805 0.728576 4.75781 85 101 137 
1.06117 0.119273 5.44372 54 65 87 
1.16737 -0.51178 5.1595 85 101 137 
1.29566 0.52955 4.58639 43 50 79 
0.0775203 -0.410218 5.84652 31 39 62 
-1.97378 -1.3347 7.40506 181 202 255 
1.37233 -0.168389 4.58734 95 108 142 
-2.32519 -0.270019 6.62545 74 97 147 
-1.47071 0.362339 6.73137 62 54 77 
-2.23709 0.389817 6.4635 86 92 126 
-2.33587 -0.271403 6.5619 65 83 131 
-2.24002 0.0130999 6.51385 116 130 165 
0.929732 0.883002 5.51457 42 45 62 
-0.259085 0.602839 5.40116 22 21 29 
1.17158 0.845125 4.82399 70 80 115 
1.22594 1.2131 4.60962 62 52 60 
0.69819 0.497832 5.59362 29 36 64 
1.1882 -0.723773 5.15281 22 29 45 
-0.266016 0.279275 5.59768 48 38 47 
1.4222 0.770447 4.14122 42 47 76 
0.675285 0.293841 5.69227 96 93 112 
1.43298 0.777603 4.18016 45 49 78 
-1.29744 0.764724 6.66553 78 97 139 
1.04307 0.831233 5.31388 77 84 112 
1.16691 0.885271 4.86937 84 100 136 
1.68717 -0.432605 3.66913 85 105 132 
0.170413 -1.08139 6.30245 53 57 86 
-2.41002 -0.0125451 6.46995 108 108 134 
1.37018 -0.761785 4.72511 45 59 98 
0.607142 -1.36932 6.04007 71 118 160 
1.0192 0.790991 5.36808 60 53 71 
1.36939 0.54723 4.41971 88 107 147 
1.21808 1.16863 4.69014 59 71 97 
0.938189 0.56939 5.57837 35 40 60 
1.21117 -0.463055 5.04287 75 90 123 
1.21278 1.08341 4.72354 62 77 108 
-2.44918 0.608601 6.13177 16 36 61 
-1.92582 -0.284589 6.74903 53 76 120 
0.713784 -1.39322 6.00841 52 95 138 
1.22812 0.649384 4.76211 48 52 87 
0.802552 1.07723 5.40488 70 81 111 
1.34001 -0.186416 4.62884 76 92 126 
0.817584 -0.546234 5.80055 92 106 141 
1.5623 -0.107639 4.05335 93 109 143 
1.2141 -0.609609 5.06012 48 47 63 
0.915012 -0.113849 5.68286 46 53 72 
1.52662 -0.313311 4.12005 42 51 84 
1.43896 0.272833 4.25626 48 48 72 
-1.80277 -0.41574 6.81656 22 26 55 
1.7022 -0.440479 3.63621 65 71 105 
1.21715 0.482813 4.8219 85 104 144 
1.586 -0.725711 4.13262 55 75 125 
1.11101 0.661792 5.05587 43 53 78 
1.36994 0.32509 4.45094 79 95 129 
-1.2009 0.723523 6.29246 89 102 137 
1.1395 -0.504445 5.25067 63 68 97 
1.33251 0.0508299 4.66832 101 112 144 
1.40856 -0.804993 4.54864 59 48 56 
1.41137 0.360254 4.27532 83 102 142 
1.20949 0.838321 4.77531 65 80 109 
0.674046 0.292247 5.66978 98 93 113 
1.14633 0.429318 5.00794 61 71 98 
1.32367 -0.202517 4.67625 63 68 97 
1.57667 -0.720942 4.1423 54 66 114 
1.43632 -0.878152 4.49712 70 90 123 
0.561544 -0.597148 5.89239 109 128 170 
1.18212 0.99107 4.74642 16 20 32 
1.48239 0.867148 4.00019 38 42 69 
1.47227 0.00787196 3.22287 50 56 72 
1.29565 -0.32838 4.78507 99 119 156 
1.37531 0.746902 4.40864 96 114 150 
1.21274 -0.736516 5.10061 45 56 84 
1.37119 0.475606 4.38957 68 83 116 
1.48409 0.313168 4.09173 91 113 152 
0.0429428 -0.595967 5.92635 72 81 112 
-0.242225 1.20204 5.34891 20 20 32 
-2.44527 -0.434993 6.40412 54 61 80 
1.09287 0.64016 5.1365 51 57 91 
-0.240395 0.586535 5.48998 19 18 26 
1.15922 -0.615999 5.22974 63 55 53 
1.33091 0.37391 4.52311 92 112 149 
1.17145 0.970395 4.78108 69 78 109 
0.73865 -0.4542 5.82499 96 107 139 
0.605359 0.237745 5.69126 75 75 103 
0.821748 0.593912 5.50648 57 47 45 
-0.559002 0.467245 2.41031 64 82 118 
0.47874 1.30417 5.58334 44 49 79 
-2.3673 -0.204352 6.54741 71 92 137 
-1.47544 -0.321628 6.88235 75 69 95 
1.56755 0.369674 3.64939 71 87 121 
-1.90708 -0.254714 6.73513 64 81 127 
0.481598 0.986052 5.65105 53 59 83 
-2.50083 -0.900938 6.41267 69 74 104 
-0.240356 0.808351 5.43489 15 14 22 
-0.270325 0.278065 5.57667 49 39 48 
1.05421 -0.464893 5.57593 86 106 143 
0.776514 1.31808 5.24546 46 47 65 
0.758988 -0.610963 5.79789 108 123 162 
1.28865 0.52285 4.61444 79 91 131 
1.34274 0.644812 4.52826 71 78 106 
-1.4008 -0.0671367 6.90552 65 86 133 
0.0574314 -0.925964 6.27205 37 46 75 
-2.43252 0.739258 6.20028 89 106 149 
-2.34662 -0.874851 7.29296 185 205 255 
1.35406 0.256976 3.45304 61 55 43 
-1.37578 0.551344 6.76468 105 120 161 
1.17849 1.03828 4.78482 65 74 103 
-1.31161 -0.175281 6.98139 65 86 133 
0.479449 1.11248 5.62286 47 53 79 
0.0775528 0.305439 5.68098 30 38 59 
-2.24774 -0.252415 6.60074 61 82 129 
1.55912 -0.318925 4.01992 67 72 110 
1.40615 0.924447 4.19438 77 93 127 
-1.90862 -0.282562 6.74413 60 74 119 
1.02891 -0.000433609 5.47152 63 68 98 
1.5036 0.305782 4.03754 96 111 152 
1.38144 -0.183944 4.52305 97 112 151 
1.15208 -0.569559 5.15053 89 89 101 
1.56628 0.297109 3.64497 28 23 17 
0.731651 0.826724 5.48494 49 42 50 
0.939267 0.607841 5.5703 47 45 50 
1.66013 -0.279656 3.6489 44 38 38 
0.633671 0.210944 5.72843 37 44 72 
-2.35809 -0.357601 6.54428 57 70 104 
1.65958 -0.225244 3.68148 86 82 97 
-1.98594 -0.433094 6.71485 18 16 29 
1.39667 0.702201 4.29301 85 100 131 
1.49249 0.806351 3.96829 76 95 127 
1.4877 -0.0323899 4.17705 63 63 87 
1.45885 0.947909 4.06798 41 46 68 
1.34401 0.304096 4.48849 84 102 142 
-1.33306 -0.182434 6.82733 63 85 134 
-1.89664 0.363035 6.5989 58 64 88 
0.70093 -0.177849 5.762 29 40 72 
-1.33815 0.584838 6.75936 40 51 79 
1.24002 0.379712 4.81638 54 61 87 
1.17615 1.03695 4.77232 66 72 98 
1.29948 0.570223 4.58034 92 116 152 
0.390241 -0.828058 6.22394 32 40 59 
0.858049 0.941662 5.46839 41 42 63 
1.26198 -0.715589 4.97503 58 55 66 
1.40048 0.705207 4.30789 80 95 124 
1.34689 0.304977 4.50084 84 102 142 
0.872055 1.01686 5.44358 65 76 108 
1.48606 0.690262 4.0059 48 59 91 
1.02934 -1.11522 6.01916 91 105 142 
-2.28293 -0.196342 6.59903 77 101 145 
1.48299 -0.936038 4.35663 67 83 119 
0.16172 1.0124 5.53604 79 95 129 
0.552798 -1.38144 6.05812 61 102 148 
1.38682 0.318556 4.38855 67 80 115 
0.53566 0.898438 5.54863 50 57 86 
1.43541 0.275669 4.2429 50 50 78 
1.36685 0.299001 3.46669 48 46 51 
1.16496 -0.448326 5.18075 86 90 127 
1.66929 -0.246407 3.62879 86 78 91 
1.13866 -0.639977 5.29249 57 47 48 
1.44196 0.310238 4.22187 101 101 101 
0.998671 1.23091 5.28194 45 51 77 
1.24819 -0.670567 4.98479 72 69 64 
1.08314 0.0170236 5.30776 87 84 101 
1.0451 0.247173 5.43492 70 76 112 
1.38648 -0.659432 4.68624 105 121 157 
1.16694 0.760524 4.89835 84 100 134 
-1.88157 -0.280312 6.75215 56 77 124 
1.70684 -0.28997 3.6225 24 25 19 
-1.78725 0.609008 6.53561 65 84 126 
1.49095 0.497142 4.12139 44 50 76 
-2.41782 0.617609 6.22551 88 110 151 
1.28463 0.815117 4.5573 83 97 132 
-2.42596 -0.406653 6.52784 53 49 66 
-2.55254 -0.0445952 4.77265 36 40 67 
1.38035 0.479309 4.4265 68 85 115 
1.20972 0.464441 4.87501 75 90 121 
-1.18732 -0.264818 6.92799 67 81 118 
1.50896 0.861064 3.92192 72 86 123 
-2.31322 -0.176985 6.53593 114 133 176 
1.20305 -0.682002 5.12705 69 84 113 
0.171443 -0.742169 5.94663 51 58 77 
-2.40943 -0.126765 6.51125 106 122 158 
-1.31161 -0.132098 6.9688 63 86 130 
0.853179 1.27108 5.40487 70 76 102 
-1.33375 0.0849526 6.91005 98 113 154 
1.42093 -0.844051 4.53708 73 85 125 
1.24898 -0.456966 4.95292 56 60 89 
1.48652 -0.739663 4.32291 63 53 61 
1.42653 0.0921471 3.21695 95 72 88 
1.17227 1.18709 4.76391 52 61 94 
0.615499 1.39981 5.36544 5 10 16 
-1.09977 -0.183614 6.84368 32 34 57 
1.55541 -0.336325 4.03871 87 107 144 
0.741267 0.773931 5.50686 71 78 104 
1.28306 0.688669 4.57993 85 105 138 
-1.77652 -0.387912 6.82086 114 134 184 
0.738332 0.827596 5.5013 48 42 52 
1.33174 0.990452 4.45344 72 51 58 
0.607978 0.850147 5.56113 78 83 112 
-2.4715 -0.3761 6.18548 93 100 129 
-1.93787 -0.271293 6.74232 107 123 157 
1.34631 0.45842 4.42154 87 105 141 
1.44635 -0.831384 4.4631 63 51 55 
-0.231819 -0.00428286 5.66706 36 33 44 
1.24841 -0.603546 4.94925 57 51 53 
0.616122 1.40245 5.37746 6 11 15 
1.50543 0.774966 3.93189 72 87 118 
1.3957 0.867711 4.2392 82 98 132 
1.53604 -0.439199 4.08697 82 94 132 
1.10242 -0.48497 5.51026 86 92 128 
1.21952 -0.710063 5.07506 80 96 130 
1.23424 -0.166294 4.90821 61 65 92 
-0.248665 -0.0680095 5.69713 49 46 55 
-1.70965 -0.39013 6.84474 99 118 160 
1.24392 -0.417298 4.92135 51 58 86 
1.22128 0.597566 4.77183 39 46 72 
-1.87925 0.236744 6.59089 108 125 169 
-2.51845 -0.920993 6.38545 19 22 39 
1.28427 0.612534 4.62288 69 80 108 
0.662372 1.10138 5.45821 42 46 73 
1.35041 -0.646544 4.78245 85 102 145 
-2.32881 -0.122247 6.56185 115 132 175 
-2.54327 0.0696066 4.76041 85 96 128 
1.0188 -0.190065 5.56749 72 60 80 
1.10678 0.813477 5.0913 79 93 128 
0.515106 0.7121 5.63858 86 102 138 
1.23081 0.389437 4.83198 60 67 96 
1.37529 -0.160951 4.49256 70 67 88 
0.528681 -0.59328 5.92348 104 118 153 
1.50797 0.541651 4.01202 46 50 75 
0.859728 0.764959 5.51253 31 36 56 
-2.41381 0.336399 6.39494 86 84 108 
1.27261 0.986477 4.55104 77 90 124 
0.13101 -0.687923 5.82588 41 54 73 
1.39225 0.557411 4.28493 87 103 139 
-0.240517 0.697263 5.47617 17 17 27 
0.749691 0.169278 5.63728 95 92 113 
-2.45407 -0.397118 6.25085 110 114 149 
1.59405 -0.319976 3.91249 89 106 132 
1.29636 0.695305 4.55854 77 93 129 
1.32259 0.321485 4.53705 81 96 135 
-1.36389 -0.737052 7.41228 204 220 254 
-1.31112 -0.26996 6.93072 56 67 97 
1.046 -0.0595235 5.50506 70 85 116 
1.2188 0.782917 4.76887 46 53 81 
1.55404 -0.485271 3.99346 93 108 149 
1.2142 0.959723 4.7608 64 79 108 
0.438674 -0.812807 6.20028 91 111 148 
1.57037 -0.898633 4.17176 47 53 75 
-0.236028 -0.201067 5.73073 54 50 65 
1.55821 0.295426 3.62255 28 23 19 
0.678227 0.835665 5.5194 39 31 42 
1.51065 0.48727 3.98112 49 60 92 
1.45793 0.945804 4.05562 40 46 68 
-1.1673 -0.284466 6.87925 59 69 104 
-1.96387 -1.25007 7.40074 183 205 254 
1.34018 0.478181 4.43919 71 85 120 
1.3633 0.243806 3.44833 25 24 19 
1.39388 0.679721 4.27719 83 103 136 
1.34814 -0.296424 4.65157 79 91 129 
-2.38689 0.0970766 6.30124 101 118 162 
-1.77111 -0.193328 6.79072 111 128 171 
-0.239801 1.11092 5.3735 20 18 29 
-2.40889 0.768706 6.19575 89 106 149 
0.78848 0.936546 5.44485 44 46 67 
1.30338 -0.342781 4.78311 63 71 107 
1.2864 0.727284 4.57973 78 91 123 
1.60312 -0.847602 4.1017 40 62 103 
1.20572 0.00563951 4.9517 81 96 129 
0.987095 0.808597 5.39283 81 97 130 
-1.88736 -0.146223 6.6864 102 119 163 
-1.77521 -0.413175 6.81974 23 29 53 
1.59157 -0.31283 3.93813 58 61 94 
-1.30629 -0.270337 6.9124 59 66 94 
1.60363 -0.718388 4.07194 57 76 119 
1.3612 0.515004 4.40764 94 116 155 
1.56732 0.423923 3.63822 35 30 37 
0.260439 -1.24183 7.1156 184 206 255 
1.27143 0.750844 4.62528 49 55 87 
1.0912 0.739687 5.1303 58 51 69 
1.42762 0.0375261 3.32114 36 38 61 
-1.95326 -0.413296 6.7859 115 130 173 
-2.33908 -0.00114071 6.34786 106 118 158 
1.60458 -0.29979 4.00669 89 89 115 
1.63805 -0.188672 3.75422 35 39 64 
1.22184 0.71708 4.74669 44 52 88 
0.102903 -0.543427 5.97519 85 100 131 
1.57802 -0.887572 4.16932 35 46 74 
1.49855 0.446677 4.0685 73 86 118 
1.56752 -0.331603 3.97803 86 104 144 
1.28285 1.15207 4.50345 44 46 69 
1.34828 0.439355 4.44731 48 54 80 
1.50853 0.723848 3.93267 38 43 72 
0.987283 0.93281 5.36477 79 94 125 
-2.34408 0.535097 6.32662 45 67 104 
1.56099 -0.380263 4.02951 54 59 89 
1.16809 0.647779 4.93522 71 84 116 
0.931405 1.22106 5.42981 37 42 64 
1.38655 -0.228785 4.50463 65 79 118 
1.05376 0.644499 5.25726 81 100 133 
-2.35276 0.760561 5.45999 93 112 155 
1.14264 -0.626538 5.24941 77 68 71 
1.22082 1.27212 4.71082 67 57 65 
-2.49447 0.0159751 6.14055 111 128 174 
0.870052 0.931167 5.45979 65 75 100 
-2.34212 -0.244666 5.45185 123 134 179 
1.2154 -0.118884 4.97554 82 95 130 
0.662654 -0.180183 5.77103 89 95 121 
0.525965 1.09063 5.51598 49 53 80 
1.05758 0.742488 5.21799 53 60 89 
-1.79929 -0.232044 6.77158 92 113 158 
1.27199 1.14342 4.51714 69 80 112 
-2.38894 -0.0960824 6.50916 63 85 134 
1.48998 -0.311011 4.24857 59 69 96 
0.866047 -1.37337 6.08464 62 103 149 
-2.19181 1.21075 6.20617 67 85 121 
1.29728 0.63518 4.5857 70 88 124 
-2.36333 0.0918657 6.30136 101 119 165 
-2.00631 -0.892482 7.20273 53 84 115 
1.35319 0.142733 4.66503 28 32 57 
-2.26127 0.602649 6.37143 55 73 109 
-2.36925 -0.244514 6.55382 111 125 164 
1.35463 0.460927 4.45579 84 102 140 
-1.39685 -0.211557 6.94763 61 79 125 
1.16066 1.22141 4.79097 53 50 71 
1.02645 1.20972 5.25126 47 36 50 
1.54838 -0.518639 4.15744 83 76 92 
0.788536 1.21353 5.38413 46 48 71 
1.43738 -0.845579 4.48842 78 96 132 
-0.222 1.1076 5.36341 28 30 51 
1.59614 -0.325842 3.88863 90 109 151 
1.41937 -0.861603 4.5546 69 88 121 
0.602808 0.280014 5.65598 75 69 95 
1.20771 0.894258 4.75738 64 80 106 
-1.39767 -0.0771552 6.90128 63 81 129 
0.184157 1.00495 5.46431 74 90 126 
-2.37049 0.7618 6.16683 88 105 148 
1.15964 -0.366536 5.10839 86 98 136 
-1.02616 0.89769 6.48385 47 42 62 
-0.227052 -0.165243 5.71185 55 54 72 
0.994637 -0.22048 5.63462 82 91 130 
1.57517 -0.291006 3.91944 64 60 75 
1.45909 -1.27132 4.97708 14 14 42 
0.788985 0.834465 5.46929 45 51 75 
0.18992 1.02096 5.515 72 88 124 
1.18801 -0.430521 5.08375 22 33 51 
1.64015 -0.227745 3.76768 46 51 80 
-1.8305 -0.360083 6.75396 105 105 131 
1.28523 0.861725 4.56135 66 71 100 
1.21055 -0.117878 4.94913 79 91 129 
-2.44501 -0.0227187 6.37852 98 117 159 
1.25116 0.382189 4.74507 67 67 91 
-2.39668 -0.168498 6.52204 60 84 132 
0.933441 1.19916 5.42381 34 38 63 
1.22644 0.653183 4.78158 66 72 106 
0.471609 -0.42034 6.0032 56 60 85 
1.40634 0.714937 4.23688 78 93 126 
-1.3506 -0.063559 6.92291 64 86 133 
1.29203 -0.164902 4.7695 101 119 159 
-1.39546 -0.238888 6.94898 59 77 123 
-2.40226 -0.248826 6.53138 101 113 151 
-0.229578 0.76362 5.45269 54 58 70 
1.3069 0.52552 4.57357 68 85 115 
1.04772 -0.446424 5.574 75 87 125 
-1.37631 0.0159541 6.8938 111 130 172 
0.717449 1.05988 5.43294 79 86 114 
-0.240312 0.445947 5.54056 24 24 36 
-0.241683 0.782914 5.45897 18 17 25 
-1.10371 -0.269505 6.86198 18 23 42 
1.15833 0.0391275 4.99509 92 106 141 
-2.28682 -0.181026 6.61673 71 94 138 
1.16806 1.01276 4.84964 75 89 126 
1.42165 -0.715839 4.51111 86 81 78 
1.60377 -0.774716 4.08667 51 65 112 
1.39369 0.807449 4.2438 83 98 131 
1.57645 -0.851256 4.17264 41 59 97 
0.637346 0.196768 5.69666 77 92 123 
1.51364 -0.45128 4.14293 74 88 125 
-1.44023 0.521041 6.70878 90 104 141 
-2.43329 0.363485 6.33715 74 92 132 
1.33921 1.10081 4.34434 66 73 101 
1.07167 0.504288 5.22756 68 83 116 
0.082345 0.280081 5.69315 24 30 54 
-1.79229 -0.245117 6.79289 62 84 133 
-0.270783 0.0342835 5.65629 76 70 82 
1.41997 -0.537867 4.45703 53 59 85 
-2.46318 0.591389 6.13641 86 108 149 
1.472 0.489895 4.05742 46 51 80 
-2.55721 0.0693938 4.75374 107 129 168 
-2.38175 0.540333 6.39416 50 64 99 
1.62872 -1.02203 3.98284 64 75 107 
1.21764 0.765674 4.74061 78 92 121 
1.05188 0.720757 5.24773 90 110 147 
1.30583 0.994811 4.47142 77 76 107 
0.502419 -0.0486827 5.85572 56 62 86 
1.4127 0.588384 4.23705 67 78 106 
1.31099 -0.282228 4.63766 100 117 160 
-1.41938 0.401837 6.77387 58 63 85 
1.07934 -0.00410194 5.29107 93 113 150 
1.21203 1.18275 4.69259 58 68 93 
-1.79472 0.659526 6.56809 46 65 107 
-2.27378 -0.191262 6.57957 72 95 139 
-0.251972 0.836736 5.4292 15 15 17 
0.141616 -1.01194 6.28755 35 44 61 
0.586685 -0.231253 5.82448 75 73 87 
1.21793 0.642377 4.77888 78 89 121 
1.01905 0.439522 5.50009 85 87 112 
1.35186 -0.161332 4.59586 60 69 108 
-0.237064 -0.115021 5.70681 42 38 52 
-0.128629 -1.39916 7.34242 190 211 255 
1.38218 0.129198 3.47188 67 47 59 
1.03975 1.28194 5.12961 66 73 99 
1.53481 -0.273675 4.04325 86 97 127 
1.43631 0.263208 4.27659 59 63 90 
0.700012 0.78178 5.45167 73 79 105 
1.1796 -0.690642 5.13233 15 19 31 
1.18813 1.16197 4.73187 12 14 26 
1.05045 0.747634 5.22947 50 57 83 
-2.08328 -0.460146 7.25892 18 28 53 
0.0815857 -0.0174295 5.76131 25 33 54 
-2.16741 -0.53178 6.56753 13 17 28 
1.18573 -0.0123354 4.96919 34 45 63 
-1.917 0.482207 6.53242 101 113 151 
0.062716 1.33344 5.40363 68 83 116 
1.37484 -0.812873 4.65995 87 83 108 
-1.71629 -0.405765 6.81776 17 23 47 
-2.32946 -0.811291 7.18472 186 206 255 
0.80027 -0.73195 5.87207 110 125 166 
0.861354 1.2791 5.39415 43 44 65 
-0.253572 1.38371 5.26005 18 18 18 
1.39788 0.00126415 4.48177 84 88 123 
1.11867 1.04367 4.99189 80 99 132 
1.38502 1.01158 4.24088 54 61 90 
0.636818 -0.599174 5.83398 109 128 170 
1.1672 0.778296 4.81624 69 80 112 
1.59296 0.374293 3.80329 77 93 129 
0.819891 -0.387651 5.76861 83 96 131 
1.28634 0.737923 4.59547 68 75 103 
0.51739 1.10813 5.53944 78 93 122 
0.449818 1.4427 5.56453 34 32 37 
-0.359813 -0.569008 5.85594 73 64 83 
0.7114 1.40349 5.36909 12 13 18 
0.932035 0.844553 5.52183 40 46 72 
-0.240535 0.89458 5.41906 14 14 22 
-0.232863 1.35679 5.27053 59 52 68 
1.22536 0.896812 4.74711 73 87 122 
1.19009 -0.638249 5.13923 26 35 52 
-0.26798 1.22062 5.35864 23 22 30 
0.768262 0.476899 2.20893 74 87 121 
1.48641 0.801357 3.98981 39 45 71 
0.759542 1.36865 5.31433 57 44 53 
1.60805 -0.33009 3.92584 86 105 147 
0.348602 1.44787 5.49966 34 35 37 
-2.45357 -0.302066 6.33887 10 25 54 
1.54453 -0.270781 4.03224 77 73 90 
0.791634 1.08742 5.41329 38 43 72 
-0.186624 -0.213823 5.68742 109 123 160 
-1.00823 0.141245 6.63129 65 57 72 
-0.251859 0.86638 5.37792 24 23 31 
0.64803 -0.0344019 5.73724 104 110 142 
0.551101 0.807738 5.56409 89 85 108 
1.44289 0.960474 4.05904 75 88 120 
1.3784 1.00388 4.25864 81 95 132 
-1.514 -0.701409 7.41529 51 51 77 
-0.227272 0.272709 5.59628 43 45 60 
0.683735 0.82637 5.51967 48 41 48 
1.31927 -0.222999 4.68196 80 94 129 
1.40857 0.840866 4.22062 74 87 121 
-2.37185 0.776418 6.19362 87 104 147 
0.886587 0.192125 5.65246 42 45 64 
1.42879 -0.699714 4.46661 56 47 66 
1.1696 0.226325 4.98792 89 105 141 
0.669802 0.925546 5.49769 63 55 76 
-2.4348 0.636895 6.22627 93 110 153 
0.534766 -0.531693 5.88944 92 107 140 
0.599925 -1.38352 6.05393 59 102 144 
1.12831 0.713523 5.04603 55 59 86 
1.56741 -0.762387 4.1635 91 103 143 
1.16658 0.0919434 5.00709 87 103 139 
-0.23622 -0.161867 5.72139 45 38 54 
0.851019 1.15328 5.45933 66 76 103 
1.18361 0.549399 4.84818 16 22 34 
0.109952 1.38815 5.44084 74 70 84 
0.0836114 -0.699389 5.82301 10 14 23 
-2.44526 1.31684 5.87276 74 85 117 
1.70356 -0.632492 3.63084 87 85 106 
0.73859 1.0581 5.42656 60 60 84 
1.18992 -0.431257 5.09544 22 31 48 
0.752355 1.40603 5.33884 61 53 64 
0.991102 0.70346 5.40957 77 89 129 
-2.58141 -0.565222 4.91773 49 66 109 
1.24275 0.0469826 4.85903 53 59 85 
1.17211 0.226971 4.99841 89 105 141 
1.13426 0.709608 4.8997 60 71 101 
1.1019 1.11648 5.01636 86 96 132 
-2.01608 -0.902984 7.18643 22 36 63 
0.111938 1.37669 5.39896 76 74 88 
-2.34426 -0.0580822 6.44292 79 98 140 
-0.254989 0.812131 5.44965 51 51 63 
-2.29834 -0.135796 6.54731 63 85 134 
1.35583 0.742712 4.45851 81 91 127 
0.696744 0.724797 5.51829 78 89 121 
1.3232 -0.334824 4.70611 93 107 144 
-0.277377 -0.0345591 5.71939 67 56 70 
-1.92698 -0.412366 6.75918 110 124 169 
-1.02927 0.899142 6.49801 47 42 62 
1.13923 0.439935 5.05942 64 74 101 
1.41409 -0.900047 4.55398 61 75 101 
1.56112 -0.425616 4.06436 98 115 158 
-1.7336 0.0605698 6.71651 112 103 120 
1.45052 0.752794 4.13396 70 83 117 
-2.26456 -0.236036 6.6483 106 125 165 
1.48827 0.443964 4.02816 70 83 115 
-0.250861 0.515799 5.51339 50 54 81 
1.48242 0.437705 4.06236 45 51 75 
1.25077 0.888662 4.64423 41 52 80 
0.660302 0.85109 5.52696 74 75 96 
-1.76594 -0.375653 6.7273 118 134 183 
0.764579 1.34531 5.22685 62 45 51 
1.33656 -0.234938 4.65087 54 52 73 
1.48159 -0.667913 4.31593 71 68 97 
1.62831 -0.855115 3.93454 77 87 122 
-1.68242 0.419051 6.63606 102 119 162 
-0.216761 0.56404 5.49537 25 26 44 
0.760395 0.908912 5.50709 83 78 98 
0.767898 1.27766 5.38613 76 65 79 
-1.99855 -1.3121 7.36228 181 203 253 
0.782205 1.07846 5.41546 73 82 111 
0.989677 0.702355 5.42396 80 94 131 
1.11959 0.661028 5.04545 44 50 74 
1.44215 -0.794547 4.49135 84 74 73 
-2.42915 0.000164704 6.45425 107 101 115 
0.835816 -0.596545 5.78442 58 62 89 
1.35623 -0.162215 4.57536 92 106 141 
0.52864 1.38071 5.4105 82 76 90 
1.29638 0.519819 4.59682 48 58 94 
-2.24753 -0.18124 6.58299 58 76 124 
1.27436 0.62759 4.67141 48 55 83 
1.58892 -0.302602 3.92575 89 93 122 
-2.25554 -0.140652 6.57655 62 85 127 
0.526935 1.36714 5.36036 85 78 94 
0.857594 1.35073 5.3724 38 37 53 
1.36472 0.497798 4.40354 68 83 124 
1.05325 -0.143865 5.42212 96 115 155 
-0.247366 -0.0641606 5.66977 52 42 53 
1.37889 0.948734 4.36724 90 110 145 
-1.90034 -0.125319 6.70965 72 90 136 
1.38982 -0.0201313 4.44136 93 111 147 
1.14412 0.169229 5.0902 64 69 98 
0.5315 -0.715258 5.91641 107 124 167 
1.1091 -0.263827 5.41226 95 103 140 
-2.33551 -0.565571 5.23681 119 137 187 
-2.43611 0.413493 6.3492 68 79 111 
0.0299656 0.27941 5.71122 102 116 155 
1.53963 -0.335179 4.07207 90 106 140 
1.32381 1.11048 4.37664 70 85 114 
1.24634 0.264298 4.77459 58 62 87 
-0.246948 0.31702 5.6076 42 32 43 
0.0801167 0.815399 5.55892 21 29 52 
1.25359 1.02894 4.60273 53 62 93 
-2.24679 -0.124253 6.56799 60 78 126 
1.52702 -0.257062 4.09548 61 47 70 
1.21804 1.03102 4.69975 44 49 78 
1.49161 0.928932 3.97649 35 45 72 
0.931724 -0.626717 5.85066 30 19 25 
1.13261 -0.69345 5.32955 74 90 124 
0.489017 1.18485 5.58786 75 90 121 
1.61752 -0.319384 3.77681 79 91 129 
1.29972 0.927969 4.48954 80 96 130 
-1.3046 -0.0734205 6.95448 62 80 126 
1.21047 0.767983 4.79237 67 78 110 
1.44801 -0.727783 4.40602 68 59 64 
1.14281 0.168292 5.0668 63 66 97 
1.02125 0.504421 5.37301 78 93 124 
1.04827 0.712181 5.26471 66 86 121 
1.60938 -0.3453 3.77896 89 103 142 
1.43682 0.474984 4.17821 72 85 117 
-1.75691 0.385535 6.64875 83 83 111 
0.0828595 -0.838792 6.19306 40 52 76 
-2.39598 0.584663 6.21748 78 78 102 
-0.229825 -0.236329 5.74254 45 43 64 
0.750659 -0.771435 5.97474 114 129 172 
1.29837 0.870827 4.50632 76 92 128 
-2.32256 0.813842 6.20121 89 106 150 
1.41555 0.667044 4.20117 76 90 125 
-2.52542 -0.955756 6.39947 13 19 35 
-2.3958 -0.0218166 6.48459 68 92 138 
1.00173 0.711666 5.38282 45 50 79 
0.757712 -0.127612 5.69561 103 100 119 
0.547276 0.832904 5.5912 80 82 107 
1.17351 0.998612 4.83805 46 50 79 
1.36961 -0.257032 4.50432 53 62 101 
1.55366 -0.375006 4.07969 71 84 118 
0.865519 -0.382889 5.69804 42 48 64 
-0.270585 0.794222 5.453 26 21 27 
1.10211 0.886384 5.07626 78 91 125 
0.970973 0.546921 5.47458 54 60 82 
1.20398 1.12565 4.73992 16 21 40 
-0.227729 -0.514842 5.77907 41 37 54 
-2.37235 0.610458 6.35313 53 69 103 
1.50841 -0.442745 4.16584 83 96 131 
1.47499 0.798601 4.05033 69 82 114 
-1.44198 -0.13267 6.89415 66 87 134 
-1.22217 0.575972 6.80066 96 111 154 
-1.79287 -0.115658 6.74445 68 90 139 
1.24757 0.265664 4.78717 58 63 85 
-0.252577 0.451004 5.53315 70 72 97 
1.32285 -0.839831 4.8009 66 79 113 
1.58704 -0.470863 3.97446 89 105 141 
1.35051 -0.394923 4.66065 64 61 78 
1.31773 -0.195213 4.69421 91 107 141 
-1.81805 -0.403155 6.80989 104 123 165 
1.34493 -0.629848 4.78848 62 76 113 
1.52281 -0.269092 4.12016 69 77 124 
-1.781 -0.0735214 6.74138 85 106 149 
-2.56183 -0.341241 4.79356 75 62 72 
0.675914 -0.0337165 5.78607 94 90 105 
-0.242123 0.726324 5.46856 19 17 28 
-0.241202 0.92325 5.41785 18 17 25 
-1.28799 -0.258948 6.96348 55 66 98 
0.669747 0.644829 5.59384 88 84 101 
1.15973 0.501851 4.92328 87 101 136 
-2.33097 -0.250625 5.44414 119 135 184 
-1.93002 -0.406861 6.71368 115 132 176 
1.21435 -0.690432 5.07023 58 48 47 
1.31572 1.12982 4.40554 44 44 68 
1.45471 0.414263 4.21207 85 103 139 
1.47863 0.142546 4.15271 87 97 132 
1.42113 -0.871474 4.53974 59 56 85 
1.32655 -0.287672 4.72063 100 119 161 
-1.92922 -0.206871 6.71104 116 130 169 
1.37433 -0.218765 4.53844 86 104 142 
0.791265 1.19056 5.39384 37 40 59 
1.24396 0.829329 4.6766 51 52 82 
0.972743 0.548107 5.49815 55 60 82 
0.645432 0.641902 5.58719 94 100 134 
-0.220882 0.869101 5.4242 15 20 40 
0.512549 1.03572 5.57451 52 56 83 
-0.228841 0.369545 5.54094 72 78 102 
-0.234992 0.176104 5.62194 34 31 42 
1.00198 -0.137094 5.64787 85 98 133 
1.40968 -0.73499 4.55527 50 57 86 
0.80625 0.86864 5.42224 44 46 71 
1.39378 0.12931 3.40353 61 67 99 
0.491277 0.571315 5.70717 65 70 99 
-1.8017 -0.00708941 6.72989 85 106 149 
1.43411 0.833836 4.1271 45 56 86 
0.512806 0.197511 5.75059 61 66 95 
1.16143 0.15817 5.05865 55 64 93 
-2.40129 -0.299957 6.5643 57 78 123 
1.29888 0.945429 4.51078 65 82 112 
-0.292356 0.116756 5.60668 68 59 76 
1.32153 -0.139986 4.67215 87 100 132 
-0.318064 1.04861 5.35671 30 25 31 
1.37278 -0.304707 4.64107 101 120 160 
1.13933 -0.658841 5.32189 81 91 126 
-2.39082 -0.367763 6.56597 56 56 80 
1.34456 0.317201 4.46997 84 99 140 
0.88367 0.392644 5.62674 47 48 69 
0.577762 0.441503 5.6209 68 62 76 
1.11031 -0.267759 5.36426 90 106 142 
0.820454 0.575257 5.56172 76 91 124 
1.32011 0.55166 4.52693 90 108 146 
-2.07975 -0.44244 7.19201 108 123 166 
1.33865 0.29844 4.53153 53 60 89 
-0.231118 0.48593 5.53418 53 56 73 
0.768798 1.15715 5.35195 68 65 86 
1.1757 0.929585 4.83518 50 54 81 
-0.229995 0.634817 5.48665 62 65 84 
0.747679 -0.0899111 5.70804 102 98 121 
-2.46476 -0.274891 6.13758 104 119 152 
1.68113 -0.340907 3.65869 34 20 19 
1.41644 -0.894874 4.54135 59 64 93 
-1.90616 -0.39949 6.74546 118 135 181 
1.45423 0.821202 4.08583 38 44 70 
-2.34187 -0.321078 6.5847 58 75 119 
1.12461 1.07924 5.10278 65 79 108 
0.975812 1.00128 5.37854 71 86 117 
1.02966 0.53394 5.36083 70 84 113 
1.51062 0.650464 3.98166 70 84 119 
1.2244 -0.716927 5.06512 78 90 128 
0.492815 -0.377134 5.81327 75 67 65 
1.17259 -0.188179 5.06283 88 101 135 
-1.353 0.0392016 6.89824 66 87 134 
1.11713 0.709537 5.05049 73 82 113 
1.30006 0.885385 4.53397 74 87 122 
0.881203 1.06348 5.40437 41 44 63 
-0.232703 1.21752 5.36991 41 44 59 
1.62139 -0.320738 3.78732 78 91 126 
1.17055 -0.610745 5.17169 82 93 121 
0.784924 1.20681 5.41498 70 77 103 
0.0978934 0.0935956 5.71951 93 106 140 
1.42661 0.0904409 4.42584 86 98 136 
-1.93514 0.109938 6.57513 111 128 174 
1.00663 0.757862 5.37485 85 105 138 
1.33488 -0.331353 4.64553 70 82 122 
0.0802215 -0.225444 5.81641 27 37 64 
-0.230987 0.169377 5.64178 27 25 39 
1.45535 -0.812716 4.42412 68 63 69 
0.611856 0.143485 5.71715 81 94 126 
-2.38379 0.296743 6.40065 90 79 87 
1.29808 -0.387967 4.79066 92 92 118 
0.975906 0.932829 5.43115 48 52 77 
1.05421 -0.0513172 5.38701 78 93 126 
-1.90328 -0.01954 6.70455 101 116 159 
1.04284 -0.148751 5.45693 69 83 122 
-2.27695 -0.332449 6.61185 82 97 140 
0.984037 -0.544932 5.70542 61 61 73 
-1.79309 0.645721 6.553 52 74 115 
1.30046 -0.379599 4.78092 96 94 115 
1.41891 -0.779195 4.53315 83 78 72 
1.26396 0.268613 4.73456 87 103 137 
1.60304 -0.497582 3.98004 82 97 138 
1.36193 -0.163458 4.59979 88 104 138 
1.0699 0.682983 5.20307 63 79 115 
1.27972 0.703578 4.60288 64 75 107 
-2.26411 -0.216642 6.58806 61 82 127 
1.00257 0.801806 5.36722 83 99 133 
0.481116 -0.36539 5.98555 71 68 77 
1.22158 -0.728933 5.06097 74 87 122 
0.974235 1.05442 5.38367 48 53 73 
1.6636 -0.184167 3.63693 60 67 96 
1.00238 1.05011 5.30224 74 89 120 
1.36897 0.00104406 4.59061 105 127 168 
0.935731 0.825899 5.52129 38 44 70 
0.823836 -0.480343 5.77243 70 62 59 
-1.30871 0.040846 6.94387 65 83 131 
-0.291562 0.540765 5.53397 25 20 27 
-1.93422 0.113342 6.52644 112 129 175 
1.50959 0.303105 4.08592 64 59 79 
-2.26882 -0.830614 7.14617 186 208 255 
1.15702 -0.0474731 5.09456 58 71 103 
0.102227 0.505504 5.65614 85 94 133 
1.36759 0.259233 3.45168 25 22 13 
0.511173 0.590998 5.68379 67 68 96 
0.500264 0.865097 5.62726 80 93 127 
0.195491 -0.816567 6.21485 14 22 33 
-1.99313 0.448766 6.54271 104 121 165 
-2.07527 0.412185 6.49545 104 121 165 
1.34498 0.503865 4.48431 83 101 137 
0.106541 0.0494482 5.74865 99 115 149 
0.801333 0.64083 5.51941 83 102 134 
1.20896 -0.536205 5.05251 80 90 125 
1.32842 -0.350679 4.69198 88 100 138 
0.659514 0.640503 5.55141 85 83 107 
0.115616 0.569384 5.58974 90 104 139 
1.29379 0.583297 4.57743 77 95 133 
1.34497 -0.864556 4.74486 36 40 67 
-0.206842 0.551521 5.52706 90 104 131 
1.29774 0.51511 4.58788 58 64 100 
1.2627 0.92969 4.6055 70 83 115 
1.66864 -0.39739 3.72219 36 36 60 
0.766157 0.743628 5.48184 69 76 104 
1.56707 -0.242273 3.98487 17 16 22 
1.35009 -0.326371 4.64329 97 114 158 
0.0705368 -0.573999 5.91947 28 36 59 
0.97327 1.1827 5.36154 44 50 74 
1.48732 0.679942 3.96633 69 81 121 
1.47039 0.929371 4.02366 65 76 104 
1.01167 -0.121333 5.54358 90 110 147 
1.32889 -0.849719 4.79391 40 45 74 
-1.95773 -1.32383 7.41017 184 204 255 
0.0627932 0.672723 5.58009 82 98 132 
1.13828 -0.635015 5.30989 75 67 64 
-0.287128 0.0196536 5.65394 53 40 50 
1.35153 -0.839095 4.71671 76 90 129 
1.49999 0.720732 3.99271 68 81 113 
-1.93879 -0.0145754 6.7048 81 100 143 
1.18465 -0.148615 4.99989 32 43 61 
-0.19767 0.283236 5.5609 100 116 150 
1.48713 0.00226958 4.17039 66 72 108 
1.05321 0.214491 5.408 74 84 119 
-1.7674 -0.113797 6.74661 66 85 128 
1.39387 0.058504 4.46223 87 86 117 
0.0852247 -0.0968719 5.77108 29 37 60 
-0.681373 0.787247 5.79833 41 20 27 
0.64666 0.129267 5.70103 60 66 88 
1.15119 -0.334564 5.15983 62 67 96 
1.1091 0.874825 5.07011 69 83 112 
-0.224751 -0.382972 5.76289 52 49 68 
0.602932 0.828727 5.54505 39 32 48 
1.39551 -0.847787 4.6281 71 80 119 
0.129056 0.832144 5.50671 84 102 138 
1.60873 -0.220347 3.98505 61 73 97 
0.185495 0.865735 5.49109 83 99 133 
1.35745 1.08253 4.27417 66 73 99 
1.35582 -0.30945 4.6289 89 106 149 
1.41133 -0.846281 4.55517 49 59 95 
1.23011 1.17975 4.62963 48 49 70 
-0.391433 -0.236505 5.75161 84 75 92 
1.61595 -0.190262 3.94796 45 67 106 
1.2126 -0.563567 5.05958 53 62 95 
1.15449 0.827072 4.8899 78 92 129 
-2.25912 -0.114133 6.58563 77 94 138 
1.41765 0.79075 4.16763 74 88 125 
-1.21424 0.279577 6.73379 95 114 157 
0.666827 -0.0606463 5.75387 100 98 122 
1.34286 0.737982 4.51083 92 102 137 
0.755011 0.794711 5.46029 66 71 93 
-0.710981 0.744103 5.86833 86 54 69 
0.530724 0.790197 5.56134 77 86 117 
-1.43386 0.0592253 6.83075 63 84 129 
0.0581383 0.467348 5.64018 84 99 132 
1.51461 0.601887 3.97544 41 48 77 
0.972331 0.76094 5.42168 64 71 99 
0.757041 -0.161485 5.7261 104 101 122 
0.105546 0.0499166 5.76865 99 113 148 
0.956702 0.938001 5.4424 43 49 73 
0.991184 0.998608 5.3081 68 82 111 
1.67858 -0.297554 3.66043 62 61 77 
0.885541 1.35294 5.36833 37 34 51 
1.30362 -0.315323 4.74349 94 108 145 
0.739345 -0.216956 5.74715 69 67 81 
0.00236006 -0.762159 5.89624 50 57 75 
-1.7564 0.393891 6.65789 86 83 110 
1.05902 -0.653738 5.51688 65 84 117 
1.43982 0.507354 4.18526 71 82 110 
-1.93666 -0.303068 6.73577 103 114 146 
1.40315 -0.653398 4.5191 84 100 134 
-1.02551 0.420212 6.60686 57 52 72 
1.17369 1.21159 4.80002 70 81 111 
-1.31115 0.008616 6.94264 61 81 131 
0.420564 -0.820898 6.2231 22 28 44 
-1.54164 -0.697324 7.38219 51 52 80 
-0.231388 0.0252978 5.67398 31 29 43 
-1.82915 -0.409726 6.84078 78 92 131 
1.47142 -0.862514 4.39192 84 102 140 
1.14998 1.07656 4.88657 44 53 82 
1.53923 -0.268195 4.08921 88 85 106 
1.17852 0.462333 4.89892 41 43 68 
1.16849 0.798706 4.89171 75 88 120 
-0.203294 0.911643 5.40055 76 87 117 
-1.94533 0.0414915 6.61555 111 105 119 
1.3901 1.08923 4.22626 48 51 70 
1.28504 -0.519481 4.89785 84 98 135 
1.57463 -0.320775 3.98261 64 78 117 
0.172136 1.08792 5.55242 69 85 119 
1.02977 0.0187254 5.49073 65 73 110 
1.60291 -0.358354 3.91264 92 111 151 
1.40957 -0.902715 4.57774 33 35 56 
1.01964 -0.170672 5.50728 69 76 105 
-2.3986 -0.325693 6.56363 50 72 119 
-2.24861 -0.312234 6.61567 55 76 121 
1.28288 0.978955 4.52135 68 80 104 
1.31976 -0.618087 4.81794 68 56 76 
-1.06329 0.791087 6.5483 93 108 151 
1.20226 -0.70399 5.11448 69 80 112 
0.395121 1.38462 5.59325 70 83 117 
1.26754 0.593886 4.65645 68 83 116 
1.67306 -0.831662 3.84261 64 61 88 
-1.89714 -0.0821142 6.65599 104 126 165 
-2.46007 0.250109 6.02629 74 78 103 
1.53861 -0.984913 4.2082 42 43 63 
1.39737 0.930592 4.22577 76 91 124 
1.22525 0.322105 4.85761 57 62 91 
-2.27625 -0.274545 6.60164 85 103 149 
0.999538 0.531188 5.43989 79 88 127 
0.0353831 -0.447428 5.89988 106 120 159 
-2.57805 -0.687827 4.92642 49 68 108 
0.675836 0.994426 5.47701 62 58 81 
-1.60476 0.137714 6.50281 110 127 173 
0.66282 0.755236 5.53636 67 73 99 
0.849196 0.774328 5.51683 61 69 90 
1.47806 -0.805561 4.3232 80 76 77 
-1.6413 0.440824 6.51246 101 118 162 
1.66639 0.683997 3.50024 20 22 35 
1.18012 0.545932 4.85944 19 20 40 
1.1219 1.02903 4.96912 47 52 82 
