ply                 
format ascii 1.0    
element vertex 1307
property float x    
property float y    
property float z    
property uchar red  
property uchar green
property uchar blue 
end_header          
-0.291326 0.537176 5.50754 25 20 24 
-1.92846 0.112714 6.5199 112 129 175 
0.748682 0.542218 5.54508 91 88 107 
-1.96844 0.444269 6.47417 104 121 165 
1.73342 -0.488707 3.55587 64 71 90 
0.11438 0.56968 5.60177 90 104 139 
0.931987 0.947502 5.48663 43 47 72 
1.7304 -1.10005 3.70694 30 33 50 
-0.265539 0.465754 5.52084 30 29 35 
1.42556 -0.30537 4.41086 76 81 113 
-0.323561 0.918163 5.38158 35 28 35 
1.56368 0.831691 3.47427 66 63 58 
1.67829 -0.884565 3.81985 88 95 113 
-1.2854 -0.23132 6.94734 66 75 116 
-1.4662 -0.43399 6.84517 53 44 47 
0.772967 1.19897 5.38047 71 72 93 
0.808769 0.626054 5.5101 70 68 82 
-1.95192 -1.32002 7.40449 184 204 255 
0.0774201 -0.699956 5.83308 12 17 23 
1.77569 -0.522389 3.4306 45 66 83 
-0.286146 0.0200767 5.63838 51 37 50 
-0.268168 0.463616 5.5234 32 31 39 
0.548305 0.77903 5.55284 86 85 103 
1.35891 -0.302718 4.59331 100 117 160 
0.687719 -0.0313879 5.7253 100 105 135 
1.02789 -0.0210138 5.46667 66 72 98 
-2.53546 0.338892 4.6754 62 55 63 
0.129639 0.832859 5.52842 84 102 138 
1.54576 0.210436 3.0069 19 15 14 
1.24659 -0.255833 4.89102 75 72 99 
0.184344 0.867448 5.51432 83 99 133 
1.20851 -0.631137 5.09142 46 51 71 
-1.37572 -0.221902 6.93064 107 122 163 
1.05885 -0.682151 5.5169 68 76 112 
1.02491 0.0188257 5.47925 69 77 113 
0.057309 0.465488 5.62436 84 99 132 
-1.72648 -0.325906 6.78386 106 102 119 
-0.200286 1.36377 5.29588 37 36 42 
0.881531 1.34824 5.35844 37 34 51 
0.73285 -0.214671 5.71462 69 67 81 
1.53795 -0.299426 4.0889 92 108 141 
0.0578484 0.702148 5.57292 85 99 134 
-0.269854 1.16328 5.37313 27 25 30 
-1.93103 -0.302504 6.73016 103 114 146 
0.916159 0.583534 5.56364 69 74 96 
-1.32994 -0.193154 6.94608 66 87 132 
0.104934 1.09878 5.4817 74 88 123 
0.0498533 1.39383 5.38339 37 35 48 
0.0578883 0.465106 5.61865 84 99 132 
1.46017 -0.118416 4.2817 51 57 83 
1.38012 0.309314 4.40836 93 113 150 
-0.204445 0.911975 5.41087 76 87 117 
0.727599 1.03675 5.42164 53 55 78 
1.62336 -0.902229 3.96691 79 92 126 
1.17109 1.20564 4.70918 55 51 66 
0.537291 1.22732 5.44573 67 72 101 
1.74372 -1.07947 3.66051 66 76 111 
1.26253 0.591803 4.64788 68 83 116 
1.73877 -1.05582 3.68347 62 74 100 
1.22124 0.321091 4.85242 59 66 95 
-0.204566 0.24298 5.57162 97 113 147 
0.0325081 -0.444316 5.86049 104 120 156 
0.81283 -0.518797 5.78367 80 70 68 
0.742576 0.536576 5.56594 91 88 107 
0.658602 0.750628 5.51067 67 71 96 
1.24614 -0.185671 4.87188 67 71 100 
0.79739 0.64136 5.50555 86 102 138 
0.464509 -0.382199 5.98447 83 94 124 
0.168085 1.08124 5.53074 71 87 121 
-0.277051 1.19149 5.35801 52 44 57 
0.879077 -0.512228 5.82251 49 43 43 
-1.89369 0.968403 6.51755 11 22 28 
-2.05259 -0.520576 6.70675 12 18 30 
0.600002 0.156964 5.69816 77 79 102 
0.643591 0.762294 5.51134 40 45 67 
1.78767 -0.378133 3.40341 38 34 33 
-2.07394 -0.447971 6.58732 47 30 36 
0.748307 0.732525 5.48544 54 54 80 
-0.317579 0.629223 5.45265 64 51 61 
1.67518 -1.07056 3.8465 30 29 45 
1.58754 -0.43585 3.97651 81 89 136 
1.3097 0.545219 4.56345 82 100 138 
0.841475 0.890487 5.47469 66 72 104 
0.837176 0.109903 5.638 59 56 75 
-1.04778 -0.0758739 6.73383 102 119 162 
0.747477 0.752086 5.46817 40 46 68 
0.238545 1.02598 5.45294 69 79 114 
1.41718 -0.740757 4.51215 80 75 79 
1.4899 -0.695887 4.28858 83 97 134 
1.74462 -1.05926 3.66644 72 81 114 
-0.276758 0.695947 5.47094 26 19 27 
1.28766 -0.346603 4.77966 89 99 134 
0.86003 1.2552 5.38716 35 37 58 
0.927876 -0.514739 5.83175 36 28 26 
-0.266183 1.34974 5.27466 59 54 61 
-0.275301 0.695147 5.46383 27 22 26 
0.933 0.764911 5.52167 28 36 55 
0.784799 1.35476 5.31645 81 70 74 
1.47728 -0.718785 4.34142 66 63 90 
1.69372 -0.56645 3.6414 66 54 76 
1.68282 -0.302192 3.63328 52 50 61 
0.982926 1.32777 5.29863 60 65 87 
0.73005 1.03995 5.4205 52 56 81 
0.789348 -0.626255 5.79543 72 71 102 
1.64096 -0.836067 3.9174 82 79 88 
0.666045 1.07964 5.42576 72 76 103 
-0.205917 0.243503 5.57811 104 117 152 
-1.02452 0.521909 6.56325 59 50 67 
0.760257 1.02253 5.41214 84 79 99 
-0.193662 -0.132887 5.67769 103 117 154 
1.64255 -0.898151 3.91691 86 86 84 
0.0564531 -0.194374 5.77855 98 113 152 
-0.225003 1.35285 5.2956 67 63 77 
1.22645 0.445484 4.82782 95 99 98 
0.837869 -0.0502397 5.68236 53 57 82 
-0.699552 0.765433 5.8557 50 24 33 
1.5389 0.404976 3.9577 75 95 128 
0.912248 0.993921 5.47853 59 66 85 
-2.04698 -0.51947 6.70504 14 20 32 
1.49203 -0.837463 4.32236 77 84 112 
0.499901 -0.299222 5.89464 65 70 99 
0.0515292 -0.426918 5.83633 100 116 152 
0.789217 -0.625699 5.78966 66 60 86 
0.789701 1.06465 5.40345 41 51 78 
0.922473 -1.36749 6.03156 71 115 152 
0.0506914 -0.427322 5.84143 100 116 152 
1.70454 -0.364811 3.56241 62 57 61 
-2.41165 -0.377684 6.52148 74 62 72 
0.708461 0.137489 5.6695 62 68 92 
1.56969 -0.460736 4.0317 93 112 154 
1.57539 -0.40995 3.99548 44 55 87 
-1.30281 -0.0485373 6.92076 63 84 131 
0.0555934 -0.194642 5.7899 99 119 156 
0.28496 1.40694 5.47044 53 40 50 
1.77994 -0.619894 3.43539 53 47 61 
0.982552 -0.525658 5.67346 81 92 122 
1.24655 -0.233426 4.88392 69 73 108 
1.19728 -0.255242 5.03009 74 93 125 
1.48789 0.0896508 3.0899 51 42 45 
1.26814 0.800417 4.6442 71 87 120 
1.78269 -0.61541 3.42302 46 46 56 
-1.49554 -0.40029 6.81026 46 34 36 
0.837382 0.557471 5.5303 65 63 85 
1.55702 -0.0425543 3.02955 68 51 59 
-0.149704 0.749982 5.45565 89 109 142 
1.2615 0.935998 4.63076 67 78 108 
-0.232159 0.963717 5.39664 50 53 70 
0.989359 0.809882 5.34318 62 75 109 
0.583537 0.768125 5.53542 44 48 73 
1.68276 -0.302735 3.63224 48 48 58 
0.391133 -0.573208 6.01264 75 86 116 
0.511761 -0.456462 5.88629 81 76 70 
-0.0754815 1.39605 5.33454 62 59 68 
1.4771 -0.719218 4.34159 66 63 90 
1.06355 0.703495 5.20748 90 110 145 
-1.83208 -0.403187 6.76683 97 114 157 
0.855321 1.0295 5.44269 48 53 75 
0.815232 -0.580866 5.80664 94 108 145 
0.153607 -0.692051 5.81353 14 21 29 
0.814131 -0.0895888 5.67777 84 96 136 
-2.41205 0.465263 6.37668 95 92 119 
0.109736 -0.048655 5.75577 104 119 158 
1.02906 -0.10083 5.48504 95 115 152 
0.746192 -1.46134 6.03027 106 157 204 
1.40766 -0.278385 4.45098 93 106 140 
1.54933 0.690219 2.82885 75 64 72 
1.26487 1.15459 4.52384 46 48 69 
0.770677 -1.26847 5.8879 54 44 52 
0.0114048 0.588326 5.6139 94 110 146 
1.55962 0.675009 2.83545 45 47 44 
1.55436 -0.281066 4.04061 89 93 118 
0.808424 1.21487 5.36834 60 66 92 
0.113777 0.100714 5.72521 98 114 150 
0.840473 0.800518 5.49727 62 68 92 
-2.51874 -0.0682028 4.78261 101 98 115 
0.683181 0.785714 5.5126 70 80 107 
-1.92681 -0.0194166 6.66289 108 121 156 
0.774479 -1.38695 5.97516 67 112 153 
-1.33839 0.802423 6.70895 61 53 64 
0.799093 -0.507941 5.77807 87 97 124 
0.803369 -1.39556 5.9685 92 139 183 
-0.172893 0.723541 2.68416 8 13 17 
-1.49318 -0.429634 6.84766 26 25 33 
-2.40317 0.188985 6.29033 97 114 157 
1.36875 -0.280908 4.57877 75 88 130 
1.41041 -0.00788322 4.39347 92 106 143 
-1.43862 -0.0862772 6.87236 65 86 131 
0.673393 -1.37021 6.00497 86 135 178 
1.19719 -0.639544 5.11307 73 86 118 
0.767175 1.07968 5.40832 67 71 100 
0.0608005 0.893481 5.50898 83 97 132 
0.904692 -0.541972 5.82549 54 60 84 
0.799182 -1.41199 6.01342 100 149 192 
0.0991703 -0.117174 5.7912 98 117 150 
-2.43959 -0.0114848 6.42142 98 115 158 
1.8388 -0.926008 3.39749 78 92 131 
0.749669 0.682053 5.49568 66 67 95 
-1.22073 0.779159 6.71509 89 103 140 
0.823915 1.34489 5.348 37 36 50 
-2.3198 -0.541682 6.44417 9 13 24 
0.354967 -0.574994 5.98315 80 88 124 
1.47633 -0.718008 4.33632 62 66 95 
1.49802 -0.488725 4.2336 90 104 139 
-0.33426 1.11971 5.32825 41 28 37 
0.66209 -0.56727 5.81372 106 121 164 
-2.49302 -0.932904 6.38134 48 53 73 
0.652385 1.07192 5.43634 47 53 79 
1.10405 1.06538 4.8949 67 78 110 
0.0520295 0.0446371 5.72261 92 110 146 
0.80865 -0.43178 5.75671 86 93 122 
-2.38977 -0.328629 6.57115 47 70 112 
1.81644 -0.592995 3.34736 50 55 84 
1.56245 -0.984984 4.15065 50 56 88 
-0.230401 -0.311765 5.75202 47 43 58 
0.80278 1.23306 5.38866 69 78 107 
-2.41371 0.299674 6.37121 90 83 99 
-0.293714 -0.514147 5.75759 77 67 76 
1.24809 0.23553 4.77882 62 66 91 
0.644056 0.741008 5.51296 43 48 77 
-0.26443 1.18731 5.3478 42 38 52 
-0.137615 1.40167 5.30188 32 30 35 
1.27248 0.933807 4.56172 41 48 77 
0.829494 -0.37073 5.7544 59 64 94 
0.83178 -0.133138 5.69504 58 63 93 
-1.48863 -0.429732 6.83408 22 20 31 
1.77472 -0.548677 3.44315 48 48 46 
1.47444 -0.387679 4.29192 89 103 140 
-2.03878 -0.516674 6.703 13 19 31 
-1.28419 0.0517562 6.9159 109 125 161 
0.663751 -1.47034 6.07494 100 145 187 
-1.4264 -0.0440995 6.8637 76 94 140 
-2.17037 0.00569957 6.53896 114 127 172 
1.52708 0.704989 2.89966 78 74 75 
1.498 -0.489033 4.23376 86 100 137 
0.186037 -0.879817 6.26852 22 28 60 
-1.48929 -0.430517 6.83728 23 23 33 
1.49086 -0.697652 4.29423 83 95 133 
0.153076 -0.693054 5.81745 14 21 29 
-0.338575 -0.0026194 5.61004 52 41 55 
1.41047 -0.00772703 4.39459 91 104 138 
-0.206681 0.473209 5.53308 93 106 140 
0.671163 1.08142 5.42302 69 73 100 
1.58397 -0.369327 3.96923 74 73 91 
1.74317 -0.536104 3.49471 45 44 39 
1.48917 -0.646526 4.29505 93 106 141 
-1.43987 -0.044143 6.83923 79 98 141 
1.44063 -0.257913 4.3648 79 90 122 
-0.198012 0.191804 5.59613 102 116 151 
-1.35628 -0.322635 6.96828 58 65 94 
1.67557 -0.908627 3.81772 82 90 109 
1.68881 -0.501185 3.69398 48 55 81 
1.2598 -0.202894 4.84974 98 112 149 
0.925525 0.969322 5.47659 42 48 72 
-1.35245 -0.235646 6.9477 56 79 123 
0.12742 0.926256 5.51811 84 100 136 
1.65787 -0.349156 3.60434 34 24 23 
0.734434 0.338322 5.57214 73 78 108 
0.763734 0.825519 5.46951 88 85 104 
1.72758 -1.05289 3.70761 63 73 108 
1.2156 -0.574755 5.06341 79 75 90 
1.76621 -0.369878 3.47189 46 37 42 
1.29257 1.06487 4.50592 71 79 115 
-0.339425 -0.117884 5.63011 53 42 56 
0.0561531 -0.132644 5.77024 96 112 148 
0.65612 -1.16643 5.95991 87 101 136 
0.0717695 0.187889 5.70092 42 56 82 
-0.218351 1.36529 5.27561 36 33 42 
0.257385 -0.856292 6.35291 49 56 82 
1.43059 -0.631161 4.45454 60 64 91 
-2.33225 0.436632 5.29725 109 124 163 
-0.264945 0.392161 5.54269 35 29 39 
-1.22244 0.0934916 6.88391 94 109 148 
1.43832 -0.727924 4.44772 82 81 79 
0.061192 1.19163 5.45074 71 89 125 
0.95381 1.18834 5.39465 49 51 74 
-2.33849 -0.415162 6.55444 82 94 134 
-1.42965 -0.212541 6.90515 61 79 125 
0.904651 -0.543944 5.83547 59 65 91 
1.27231 0.933387 4.55812 41 48 77 
-0.176292 -0.326021 5.74783 107 121 158 
-0.0129975 0.605547 5.60581 96 108 148 
0.109448 -0.43276 5.85035 103 119 155 
-2.07972 -0.504254 6.65763 19 23 35 
0.729413 0.653316 5.51753 69 64 86 
1.74757 -1.09813 3.67171 38 42 71 
1.77964 -0.516686 3.43652 53 67 80 
-2.31708 -0.541158 6.45461 12 15 22 
-1.88637 0.0951716 6.62988 111 128 174 
1.52667 0.788755 3.88747 66 80 115 
-2.31708 -0.541158 6.45461 12 15 22 
0.200674 1.38659 5.44445 85 81 98 
0.752835 -0.480529 5.7877 109 106 127 
0.0820208 1.21417 5.44156 17 21 33 
1.63182 -0.803903 3.92742 83 96 131 
-2.31568 0.787786 4.93803 93 115 156 
1.48893 -0.646142 4.29412 89 101 139 
0.703458 1.09281 5.4209 68 70 95 
0.104441 1.18977 5.45864 71 86 119 
-0.322584 0.565707 5.46313 33 28 35 
-0.268196 0.615756 5.48327 30 23 30 
0.73113 0.719826 5.49393 78 84 116 
1.59949 -0.48597 3.94746 98 116 156 
0.779878 0.751219 5.44901 38 44 66 
-1.89681 -0.0518435 6.7149 94 115 160 
-1.31895 0.0322668 6.86767 87 102 145 
0.479919 1.32118 5.57001 51 57 83 
0.043001 0.127255 5.7079 100 116 152 
-2.04169 -0.531458 6.70203 21 21 31 
0.985886 0.621312 5.41919 87 102 141 
-1.87207 -0.755298 6.77749 65 57 68 
0.834272 0.892317 5.47089 62 68 100 
0.74488 0.329055 5.57814 69 73 102 
-1.99816 -0.415806 6.66704 48 46 60 
0.0202871 1.27307 4.86696 62 56 68 
0.0477058 0.580482 5.60294 89 103 138 
0.0490221 -0.134766 5.75902 105 120 159 
0.798293 -1.40547 5.99 96 148 188 
1.68277 -0.860955 3.80544 83 94 114 
1.23675 0.128301 4.8302 66 68 93 
0.977569 1.36753 5.2938 64 52 62 
-2.01197 -1.31057 7.39304 182 203 255 
1.20006 -0.273425 5.01417 81 96 129 
1.57546 -0.408922 3.99621 63 78 109 
0.688928 -0.255828 5.7404 96 97 125 
0.752822 1.15771 5.39476 78 70 81 
0.705122 1.06683 5.43068 53 55 78 
1.79254 -0.38235 3.40527 26 24 27 
-0.47099 1.05802 5.54878 61 53 64 
1.47755 -0.928541 4.38021 59 65 91 
0.886128 0.936068 5.45266 46 51 70 
1.70168 -1.06102 3.77427 71 87 121 
-0.206913 -0.289941 5.70979 105 118 152 
1.17888 0.941741 4.77387 20 21 39 
-0.293361 0.536275 5.49275 26 21 27 
-1.25039 0.785016 6.71119 85 76 95 
0.982086 0.248753 5.50451 82 96 133 
1.79582 -0.820234 3.55283 70 98 138 
0.70155 0.715449 5.51092 75 84 115 
-0.278671 0.615442 5.48722 31 25 27 
0.745878 0.00291693 5.65353 72 78 110 
-2.16547 0.681748 6.38077 97 114 157 
-0.179177 -0.0183586 5.64659 108 126 162 
1.54273 -0.423891 4.09361 92 109 152 
-0.107592 1.40519 5.32112 31 30 35 
1.07857 1.19143 5.06768 78 88 123 
1.23928 -0.576328 4.97569 70 66 93 
-0.317187 0.981943 5.37388 55 42 52 
1.40827 -0.278265 4.4565 86 102 136 
1.11432 -0.417858 5.30741 91 104 138 
0.925679 1.38853 5.361 52 37 44 
1.53723 0.688146 2.88607 72 77 70 
0.830904 -0.296579 5.73426 61 62 92 
1.20519 0.0658618 4.92899 85 100 133 
0.858686 0.878865 5.47132 43 48 70 
1.59527 -0.468557 3.95448 94 112 152 
1.71383 -0.236821 3.59874 71 73 96 
-1.47242 0.0817112 6.80579 99 95 112 
1.74168 -0.547005 3.50682 54 50 47 
-1.95083 -1.37861 7.40696 182 202 255 
-0.265152 0.00405469 5.64186 65 58 74 
1.2388 -0.575515 4.97302 71 67 92 
1.53478 0.440375 3.96335 68 84 118 
-0.317394 0.982091 5.37423 55 42 52 
-1.31945 -0.256988 6.94801 63 81 121 
0.580874 1.16242 5.45001 30 19 25 
1.67573 -0.324317 3.65017 20 15 21 
-0.181717 0.185093 5.61239 102 116 153 
1.63015 -0.965327 3.97133 77 90 124 
0.693323 0.864042 2.77354 28 34 56 
0.824908 0.787546 5.5229 63 69 93 
1.11225 -0.181348 5.24844 96 110 147 
1.53964 -0.419175 4.08858 97 119 160 
-0.299549 -0.0940693 5.65428 75 66 83 
0.115569 -0.211309 5.80405 106 124 164 
1.1123 -0.181156 5.25112 93 107 142 
0.834571 1.1728 5.41739 55 67 91 
-0.288948 0.809796 5.43047 56 43 50 
0.833279 -0.198574 5.71713 52 58 84 
0.699934 1.06517 5.42911 54 59 81 
1.57887 0.826742 3.47147 31 31 23 
0.777382 1.11085 5.39513 61 67 89 
-0.32479 0.67001 5.44582 63 49 62 
0.588245 -0.504472 5.84757 103 98 121 
0.296531 -1.13636 6.9503 63 69 101 
-0.278807 0.458234 5.51558 42 35 42 
1.48626 -0.0631731 4.1882 70 70 94 
-0.199351 -0.575964 5.77297 92 107 138 
1.6776 -0.489194 3.69356 86 105 138 
0.916456 1.12242 5.44566 57 59 80 
1.32096 0.580007 4.51748 79 84 113 
0.69243 0.746007 5.49065 67 74 100 
1.3681 -0.280283 4.57111 77 90 134 
1.32375 0.800332 2.91993 39 41 53 
0.220549 -0.585961 5.95716 78 89 121 
0.586252 -0.503665 5.84405 103 100 121 
0.835469 -0.534994 5.77685 78 87 116 
-0.292733 0.810933 5.44514 58 45 52 
1.57908 0.826802 3.4718 31 31 23 
1.46533 -0.409284 4.31222 64 69 98 
-0.208265 -0.088978 5.66839 106 117 149 
1.13011 -0.172892 5.21184 73 82 115 
1.28486 0.870132 4.52422 86 105 138 
0.102045 -0.153307 5.78364 100 118 154 
-0.0985652 -0.213067 5.73358 100 114 149 
-0.234153 -0.0696555 5.69436 42 40 53 
-0.0497566 -0.58739 5.82082 82 97 128 
1.5667 0.825365 3.48011 63 60 53 
0.840276 0.924319 5.4742 63 69 93 
0.796202 0.283998 5.57336 76 89 123 
1.58618 0.865621 3.46856 34 27 34 
0.227459 -0.915702 6.23051 42 48 74 
0.64565 1.05459 5.46059 63 67 94 
-1.03147 0.108421 6.67131 85 99 138 
-1.68384 0.702666 6.55457 97 114 157 
-2.40914 -0.242865 6.51521 87 81 107 
0.812936 0.232177 5.60695 85 98 133 
1.13085 -0.174567 5.22997 67 77 113 
0.745253 1.06408 5.40537 46 50 75 
-1.72127 0.524803 6.63937 84 92 129 
0.144748 -0.29216 5.82381 109 123 160 
0.826197 1.20922 5.37756 59 66 94 
-2.2891 -0.735273 5.05281 108 126 172 
1.4863 -0.062978 4.18845 70 70 94 
0.578098 0.801945 5.52895 67 60 76 
-1.26881 0.541455 6.78235 77 75 99 
0.661807 0.724998 5.5198 79 88 121 
0.834107 -0.200299 5.71195 53 59 85 
0.608902 0.763854 5.51568 43 47 74 
0.6787 -0.104863 5.74857 81 85 114 
0.883316 0.0791767 5.62655 57 53 70 
-1.43394 0.0163902 6.87695 84 101 145 
0.919514 0.616978 5.56452 77 72 66 
0.625333 0.725739 5.52235 83 96 130 
1.19718 1.1347 4.71482 21 27 41 
-1.98937 -1.38467 7.33561 183 203 255 
-2.01926 -1.15177 7.3134 186 206 255 
-0.26406 0.00401896 5.63784 67 61 75 
-1.19899 0.520007 6.70846 93 110 154 
1.59451 -0.406479 3.94791 45 58 92 
1.76538 -0.520553 3.46009 61 70 85 
0.817654 1.14295 5.37455 58 65 93 
1.63072 -0.966091 3.97381 70 83 117 
1.73658 -0.647062 3.51336 62 75 107 
1.19905 0.686644 4.82687 34 42 65 
1.4837 -0.171863 4.21227 74 78 113 
0.459224 1.39218 5.56559 68 79 109 
0.693215 -1.4254 6.04156 95 146 189 
0.490308 1.34494 5.572 57 62 81 
0.864904 1.07725 5.42915 64 76 102 
0.777219 0.72939 5.46 44 48 73 
1.40457 -0.348926 4.46459 95 110 143 
1.1784 0.815149 4.80099 22 24 39 
1.48453 -0.812908 4.32665 77 71 75 
-1.81255 -0.811473 6.7797 58 92 127 
0.906491 0.963694 5.49381 60 66 92 
1.74012 -0.190459 3.5683 73 79 105 
-0.201182 0.00836209 5.6232 106 122 158 
-1.84683 0.134864 6.65211 98 93 115 
1.52682 0.521186 3.96104 77 96 129 
1.68514 -0.513002 3.69303 66 80 109 
-1.9717 -1.04442 7.30491 49 51 64 
1.11777 -1.21941 6.24207 23 20 27 
1.11174 -1.1126 6.18693 195 217 254 
-1.89129 -0.904541 7.32643 32 50 72 
1.45601 -1.24533 4.96038 26 28 49 
-2.04752 -0.912211 7.24849 31 47 70 
1.44923 -1.24791 4.99085 18 18 46 
1.4723 -1.21785 4.99888 200 215 255 
-2.0357 -0.908401 7.22472 20 37 63 
-1.67744 -0.796931 7.1489 211 226 255 
1.14929 -1.2114 5.83543 198 216 255 
-1.90872 -0.871687 7.07261 35 56 85 
1.15275 -1.21754 5.85607 199 217 255 
1.14797 -1.22967 5.78547 197 215 255 
1.46907 -1.23414 5.00406 26 9 79 
-1.96193 -0.970471 7.2648 52 90 129 
-1.9151 -1.33437 7.41122 73 97 167 
-2.01344 -0.996816 7.26678 200 218 255 
-2.50265 -0.939187 6.56531 24 28 40 
-2.0319 -1.34918 7.36312 75 117 159 
-2.49766 -1.01848 6.45696 45 45 69 
-1.92831 -0.968746 7.27054 203 218 255 
-1.17024 0.748725 4.20645 9 22 56 
-1.92335 -0.997093 7.30729 199 217 255 
-2.41422 0.213507 5.92922 34 25 30 
1.35789 0.244047 4.56216 35 42 70 
1.61435 0.665282 3.76657 85 104 163 
1.58585 -0.0996216 3.9971 24 22 36 
-2.49763 -0.898997 6.62736 165 180 237 
-1.95643 -1.01662 7.30318 200 213 255 
1.35562 0.000777649 4.6181 31 36 58 
-2.17405 -0.713864 6.93528 39 43 70 
0.645518 0.185619 5.68821 10 17 36 
1.60396 -0.250324 3.95636 30 37 47 
1.60574 -0.111224 3.94858 33 40 68 
1.35371 0.0401909 4.60316 30 32 55 
0.645993 -0.372425 5.82638 34 43 82 
1.34394 0.25359 4.60576 27 33 57 
0.719214 0.630924 5.55605 17 23 49 
0.696824 0.191124 5.67001 14 19 41 
1.38352 0.703035 4.40141 33 39 61 
1.61505 0.691785 3.76226 86 105 164 
-2.34062 0.416065 6.40648 29 42 74 
0.699278 -0.367436 5.80386 33 46 88 
1.37688 -0.013703 4.57072 27 29 52 
-2.49844 -0.861297 6.61676 166 181 238 
1.33966 -0.41045 4.75017 28 28 54 
1.61215 0.681397 3.778 18 20 58 
1.61143 -0.119657 3.89762 31 38 64 
0.723427 -0.36395 5.79179 32 46 81 
0.854009 -0.682387 5.7533 27 18 21 
0.719558 0.585899 5.56653 20 25 47 
0.643053 0.575823 5.59702 18 24 50 
-1.81365 0.522017 6.56561 27 41 68 
0.46073 -0.647502 5.97703 35 24 28 
-1.81484 0.458636 6.58197 32 49 79 
0.619993 -0.101931 5.77109 22 35 70 
1.5711 -0.090162 4.03528 23 27 38 
-2.35496 -0.614977 5.44491 35 27 38 
-1.88566 -0.917818 7.17464 35 61 84 
1.38211 0.933194 4.35954 9 20 66 
0.645109 -0.443626 5.83789 31 44 79 
-2.28866 0.423105 6.41669 31 47 80 
-1.77311 0.462615 6.60749 26 40 66 
1.06928 -0.234879 5.46164 111 127 163 
-2.31239 0.447734 6.39982 106 125 167 
0.621351 -0.370041 5.82814 33 46 88 
1.58742 -0.0697244 3.99144 25 27 40 
-1.77305 0.526938 6.5914 22 33 61 
1.30105 -0.160897 4.73214 41 52 84 
1.57614 -0.132369 4.05207 36 47 79 
1.61159 -0.0636278 3.88456 23 26 43 
1.37972 -0.0260879 4.5505 48 64 90 
-2.1729 1.25729 6.2232 9 16 42 
-1.42109 0.410056 6.75538 32 38 62 
-2.41231 -0.454142 6.06254 37 31 41 
1.35706 -0.0589651 4.63567 20 26 42 
0.721765 -0.090995 5.72976 26 39 71 
1.38533 0.942513 4.34556 92 114 174 
0.169917 -0.843897 6.24976 105 128 162 
-2.26399 0.33767 6.4484 38 50 74 
1.29941 -0.160092 4.72477 40 51 81 
0.695653 0.553067 5.58281 19 24 54 
-2.19875 -0.756969 7.12562 41 47 73 
1.08394 0.16941 5.34729 27 32 62 
-1.90848 0.51571 6.53745 29 38 67 
-1.81373 0.705452 6.52358 44 58 95 
-1.83778 0.487197 6.56027 111 125 170 
0.193042 1.05182 5.54267 8 11 28 
1.35295 -0.422618 4.71041 27 31 56 
-1.40428 -0.711594 7.42819 191 214 255 
1.38278 0.682453 4.36849 35 48 67 
-2.49661 -0.909752 6.64114 163 183 246 
-2.60781 -0.398263 4.85195 44 66 103 
1.34232 -0.0107253 4.62262 77 95 119 
1.37921 0.0371354 4.53073 53 67 94 
-1.78425 0.383638 6.60344 24 36 60 
-2.37971 0.47394 6.36627 24 34 61 
0.642238 0.891694 5.52729 16 23 42 
-2.36526 0.331471 6.40886 29 29 53 
1.38595 0.746193 4.36085 47 64 84 
-1.39016 0.743548 6.68488 32 43 75 
1.38794 0.927683 4.33662 9 21 63 
1.05108 0.43543 5.38753 24 31 57 
0.697426 -0.0473233 5.72709 28 40 78 
-1.8932 -0.30755 6.73581 59 74 113 
1.06411 0.18239 5.40514 30 36 62 
1.33915 -0.467336 4.76487 31 31 59 
1.05619 -0.479885 5.55821 29 36 65 
-1.39276 0.440574 6.80993 35 35 69 
-2.48 -0.784153 7.04415 29 35 67 
-1.94923 0.0599533 6.60166 59 70 100 
0.697341 -0.131412 5.74821 29 39 74 
0.771355 -1.82535 6.42424 197 221 255 
-2.38207 0.417024 6.38362 30 45 76 
-1.86552 0.701948 6.51251 41 57 91 
0.709817 -0.0731979 5.73092 100 116 149 
-2.12266 1.11875 6.16706 21 22 50 
1.07725 0.429873 5.31258 99 115 151 
1.5839 -0.55389 4.05247 117 136 179 
-1.6286 -0.72358 7.34483 175 197 247 
0.764588 -1.29545 5.8655 10 25 46 
-2.38933 -0.512073 5.78165 114 128 177 
1.35483 -0.447719 4.72191 27 32 62 
1.3449 -0.431246 4.7283 75 89 118 
1.38327 0.830844 4.36688 28 30 51 
0.696511 -0.0634144 5.72061 29 38 69 
-1.35872 -0.708313 7.44382 199 218 255 
0.193596 1.09755 5.52762 8 15 34 
0.148884 -0.876141 6.25605 35 48 82 
1.0423 -0.471724 5.60518 26 31 61 
-2.31693 -0.783626 7.0955 196 214 254 
1.06626 0.898325 5.23551 28 34 56 
1.59756 -0.062102 3.96435 105 124 167 
-2.34953 -0.772614 7.07868 33 39 75 
-2.23829 0.424905 6.41645 30 46 72 
1.04472 -0.227676 5.54381 28 31 64 
-1.4472 -0.715581 7.40593 186 210 255 
1.34598 0.230838 4.57324 74 89 118 
1.36608 0.713849 4.45813 36 48 74 
-2.48976 -0.797385 7.03193 190 208 254 
-1.7954 -0.808027 6.77204 61 53 66 
0.632796 -0.392812 5.82675 100 120 155 
1.66356 -0.539295 3.72783 32 22 47 
-1.83893 0.725724 6.51084 111 125 164 
-2.55789 -0.95884 6.40549 15 42 87 
1.34156 -0.0498181 4.67566 25 28 43 
-1.58624 -0.723424 7.36398 194 217 251 
-0.634938 -0.166325 6.10926 19 17 20 
1.38233 0.666971 4.40549 23 27 39 
1.38359 0.887403 4.35401 22 29 48 
1.58374 -0.165577 4.06995 24 27 46 
1.5677 -0.54602 4.15034 34 40 74 
1.35891 0.180862 4.5843 22 30 43 
0.224606 0.933687 5.47864 17 20 51 
1.3923 0.8953 4.33593 84 107 139 
1.04533 0.0853755 5.31645 24 35 57 
-2.18342 0.0393952 6.50561 73 70 91 
0.632619 -0.461724 5.84102 99 117 153 
1.34933 0.820081 4.469 28 34 56 
1.06648 1.14066 5.17963 29 40 70 
1.38594 0.681171 4.37937 38 49 69 
-2.34227 0.461214 5.25341 62 52 60 
1.06443 0.311991 5.37144 29 34 54 
-1.34049 0.74721 6.69367 37 52 83 
-1.35097 -0.589534 7.24265 67 82 125 
-1.86582 0.581381 6.54547 32 47 76 
0.709067 0.567437 5.58453 89 105 139 
1.04881 -0.490506 5.58568 66 78 102 
-2.49662 -0.850545 6.61996 163 181 245 
0.697412 -0.0873659 5.73616 29 42 77 
-2.36172 -0.787665 7.06446 198 218 255 
0.634249 0.166621 5.69808 89 108 140 
0.151918 -0.865189 6.25194 33 50 78 
-1.5435 -0.722638 7.39114 201 219 255 
-2.17941 -0.781832 7.13412 190 213 255 
1.36681 0.956557 4.39962 38 50 74 
-2.61058 -0.642968 4.91114 49 68 110 
1.39721 0.11919 3.46999 30 29 37 
1.35869 0.771172 4.47284 55 75 100 
1.41684 0.0911883 3.34206 34 32 43 
1.39127 0.782931 4.36153 91 111 144 
1.08441 0.378231 5.29981 27 31 60 
1.05521 -0.564717 5.57706 31 33 54 
1.06531 0.935732 5.22406 30 32 53 
-1.81573 0.393818 6.602 28 39 61 
1.04918 0.191867 5.44422 27 36 65 
1.05886 1.13011 5.19007 40 50 75 
1.31498 -0.0961455 4.68596 31 21 29 
1.53322 -0.297623 4.12811 44 51 80 
1.40333 0.030666 3.36901 70 85 108 
-1.43688 0.489783 6.73517 31 40 71 
-1.24545 0.119661 6.88473 53 45 58 
1.07797 -0.249935 5.44513 37 40 71 
0.16161 -1.2763 7.14909 43 56 101 
-1.86898 0.39012 6.5898 29 35 59 
-2.31222 -0.3383 6.57653 107 125 165 
1.60392 -0.543938 3.93421 40 36 59 
1.36127 0.949873 4.42488 67 78 108 
1.36137 0.677194 4.44729 33 39 65 
-1.46906 0.782672 6.61068 46 38 53 
-1.81678 0.584443 6.55919 33 48 81 
-1.95303 -0.991837 7.29688 199 214 255 
0.721227 -0.134693 5.73666 25 38 72 
-2.44283 -0.780892 7.07568 27 34 63 
0.224608 0.973332 5.46314 68 88 115 
-2.16859 1.2098 6.22116 7 13 39 
1.5878 -0.188825 4.07379 21 24 43 
-2.35233 0.480319 6.3524 63 78 107 
-2.37988 0.6627 6.32689 39 54 93 
-2.55925 -0.979891 6.41499 17 45 95 
1.06255 0.146647 5.40391 26 33 61 
0.644548 -0.473338 5.84518 31 43 81 
-2.28547 0.342747 6.4331 18 29 47 
-1.84182 0.41999 6.58933 112 129 173 
1.0752 0.0640068 5.32417 48 52 64 
1.05226 0.908974 5.27994 30 34 61 
1.56471 -0.309455 4.00208 102 121 161 
1.04854 0.230658 5.43322 26 28 51 
1.05099 1.0018 5.25513 28 33 62 
1.58957 -0.225689 4.02247 8 15 33 
1.34906 0.762302 4.47937 28 31 48 
1.3573 0.946555 4.40977 61 75 104 
1.04228 -0.398455 5.58483 30 27 56 
-1.9418 0.741341 6.43301 43 41 63 
1.36017 -0.050896 4.58616 106 125 168 
-2.35596 0.481571 6.36083 74 91 117 
1.3809 0.964129 4.35946 91 104 146 
-1.47488 0.100881 6.77363 63 61 85 
1.07846 1.14576 5.13289 82 91 134 
-2.17276 1.11571 6.15095 12 28 61 
-1.61108 -0.707579 7.34336 30 38 77 
-2.31219 0.376739 6.41727 105 124 167 
0.619914 -0.170459 5.78518 26 39 74 
1.60994 0.655268 3.7789 24 23 55 
1.43474 0.311343 4.25634 43 31 31 
-2.2618 0.490984 6.4041 57 76 106 
1.58905 -0.142181 4.01078 55 73 113 
0.13165 -0.847625 6.24449 89 108 138 
1.64921 -0.470852 3.66829 107 123 159 
1.34927 0.688156 4.4999 30 32 53 
1.06378 0.124418 5.41702 24 31 59 
1.0513 1.15019 5.21804 38 46 82 
-2.40318 -0.789799 7.0545 200 222 255 
0.625162 -0.502959 5.81601 67 65 78 
-1.24296 0.803305 6.715 52 44 59 
1.33632 -0.684181 4.81669 29 34 66 
-2.33991 0.539329 6.37838 35 50 81 
1.56569 -0.791976 4.20376 33 47 76 
1.35014 -0.623982 4.75404 47 63 99 
1.05136 0.945408 5.26766 26 33 52 
-1.41998 0.56369 6.73154 65 72 101 
-1.24207 0.800077 6.69986 47 39 52 
1.05342 0.797349 5.16465 36 46 73 
0.195008 1.06964 5.5047 22 25 44 
-1.7932 0.55816 6.57143 90 108 144 
1.18101 0.601576 4.82995 17 21 33 
1.17271 0.748292 4.84591 84 99 130 
0.699591 -0.46901 5.82888 33 45 85 
-1.29972 0.746844 6.72544 29 43 70 
-1.90912 -0.32052 6.7341 56 63 91 
0.723044 -0.464553 5.81407 35 45 81 
1.35081 0.665772 4.50981 25 33 52 
1.34516 0.116657 4.59967 75 91 117 
-2.23008 -0.781849 7.13484 186 210 255 
-1.7833 -0.743708 6.70582 10 17 25 
-1.77516 0.387815 6.61845 25 31 53 
-2.39454 -0.102662 5.86983 44 56 94 
1.06553 1.10404 5.18204 31 38 64 
1.33798 -0.711708 4.82916 27 32 62 
0.621417 -0.477487 5.8621 36 49 83 
1.38365 0.184617 4.50221 78 93 126 
1.3818 -0.40869 4.54804 35 31 48 
0.245516 0.961904 5.47 24 33 50 
-1.28998 -0.685551 7.45916 35 39 68 
-1.90962 0.577149 6.52326 29 42 76 
1.07284 0.373002 5.31833 102 120 158 
1.15127 0.559098 4.97644 86 101 140 
-1.41323 0.589086 6.71332 84 98 135 
-2.378 0.343877 6.39327 25 33 56 
1.19323 1.19309 4.71274 10 10 18 
0.697433 -0.162156 5.75536 30 38 74 
1.04871 -0.248878 5.51667 71 83 107 
-1.83996 -0.27587 6.75163 127 143 192 
1.0721 0.31505 5.32466 96 114 150 
-2.33269 0.392514 6.41184 28 34 66 
1.07608 0.184847 5.36363 98 116 154 
0.629729 0.607959 5.5744 77 89 115 
0.711176 0.623773 5.59222 72 84 110 
1.58969 -0.174643 4.0155 40 59 99 
-2.57121 -0.39619 4.87618 47 66 106 
-2.12984 1.09859 6.16878 82 94 132 
-1.91833 -0.329911 6.7151 46 37 54 
-2.55146 0.202319 4.72332 27 30 49 
1.028 0.0883189 5.49076 31 24 32 
1.07464 0.908079 5.19791 89 110 141 
1.05115 0.872441 5.28389 29 31 54 
0.0816868 1.40781 5.39862 13 13 23 
-1.84218 0.556606 6.55749 108 125 169 
1.06638 0.967761 5.21949 32 39 65 
1.39114 0.898068 4.30423 29 31 54 
1.0623 -0.579038 5.54407 90 103 137 
1.59266 -0.892949 4.1627 93 111 151 
-2.31758 0.342777 6.43523 103 117 154 
1.57293 -0.38376 4.00289 52 40 54 
-2.33914 -0.025981 6.49956 59 79 129 
1.41309 0.106359 3.30689 93 106 140 
1.38396 0.918866 4.29439 59 71 97 
1.07573 1.02922 5.17009 93 113 146 
1.06592 0.842628 5.24617 26 29 44 
0.632237 0.964605 5.52432 75 85 110 
-1.26591 -0.701007 7.48433 182 209 254 
-2.53816 -0.0654271 4.77474 45 33 45 
-2.38636 0.536352 6.36542 34 49 82 
-2.2476 0.34682 6.45124 24 31 50 
-2.26081 0.44936 6.406 103 121 161 
-2.29476 0.501237 6.39705 18 38 71 
0.631862 -0.0431574 5.75784 106 121 160 
-1.98878 -1.33129 7.37701 179 202 252 
-1.86536 0.638368 6.52763 43 57 96 
1.37181 -0.676677 4.72131 50 67 110 
-1.83747 0.634809 6.53568 108 125 168 
1.05157 0.981141 5.26073 34 41 70 
1.17027 0.80973 4.82377 79 93 128 
-1.81414 0.641986 6.53858 40 58 94 
0.863379 -1.63842 6.36994 197 215 255 
1.37762 -0.0752493 4.58557 25 27 48 
1.54646 -0.236991 4.08179 38 26 36 
-1.81606 -0.228174 6.75068 66 86 136 
1.05583 0.354383 5.37904 71 83 109 
-2.33182 0.525293 6.37871 36 42 76 
-1.90677 -0.235429 6.71327 62 84 131 
1.17321 0.872034 4.81766 79 95 128 
-2.17105 -0.70855 7.02438 91 94 135 
1.58016 -0.149316 4.0384 51 75 113 
1.05782 0.325542 5.38852 83 100 130 
-1.91837 0.345914 6.55069 40 38 52 
1.34069 0.626798 4.51955 34 37 52 
-2.38682 0.493597 6.35941 23 42 75 
-2.48949 -0.902179 6.54746 33 34 52 
1.32921 -0.634818 4.81222 86 100 137 
-1.77619 0.580986 6.59611 29 42 76 
0.630376 -0.0766995 5.76772 75 90 129 
1.38472 0.0581317 4.50682 38 45 74 
1.33415 0.209079 4.62639 99 113 148 
-1.86576 -0.169685 6.71641 67 89 138 
1.40663 0.544125 4.32214 45 51 85 
-1.75003 -0.315477 6.77175 53 44 61 
-1.97 -0.444067 6.70485 7 12 18 
1.37862 0.950681 4.26669 102 116 155 
-1.59252 -0.730774 7.38342 209 225 255 
1.35138 0.850677 4.46674 30 38 61 
1.41644 0.325358 4.2996 42 46 75 
-1.85941 0.566385 6.54742 36 45 78 
-1.04891 -0.344725 6.78577 80 92 134 
0.684822 0.87824 5.50984 86 101 130 
1.38596 0.257888 4.41153 61 59 72 
-1.91622 0.402609 6.56547 19 34 63 
-1.18771 -0.397829 6.8648 23 22 28 
1.03052 0.806889 5.3222 31 25 35 
0.685696 0.601212 5.57574 86 95 126 
-2.23344 0.698062 6.35694 99 117 155 
1.29319 0.733186 4.56041 48 55 84 
1.3815 0.127975 4.50911 76 96 123 
-2.28887 -0.021674 6.51711 58 80 130 
1.08791 1.11665 5.1381 32 41 84 
0.241476 0.939581 5.47061 85 95 130 
-1.41842 0.523939 6.74661 90 110 147 
1.60782 -0.153966 3.96231 46 68 107 
0.712632 -0.368079 5.80433 84 104 141 
-2.28942 -0.0170536 6.51515 59 81 130 
-2.23422 0.505684 6.40877 23 28 58 
1.08249 1.08889 5.13312 31 35 73 
-2.56495 -0.577154 4.90641 50 69 111 
1.34886 1.09537 4.32429 27 34 50 
-2.29518 0.369288 6.42665 19 39 76 
0.526056 -0.812382 6.14792 107 122 165 
-1.84373 0.614608 6.5519 108 125 168 
1.59698 -0.137543 3.97506 102 117 160 
1.42463 -0.808811 4.51743 50 38 42 
1.34602 -0.404493 4.71708 93 113 148 
1.58784 -0.178043 4.04659 85 105 140 
1.35583 0.703566 4.47701 67 81 110 
1.21422 1.22381 4.72829 90 79 87 
1.08803 1.07451 5.151 31 42 70 
0.23569 1.0104 5.44862 32 37 66 
0.710391 0.968793 5.50847 74 80 106 
0.792852 -1.31845 5.88932 112 156 201 
-1.44894 -0.646485 7.36436 43 47 74 
0.719597 0.18574 5.65518 32 43 73 
0.207699 0.94212 5.48198 84 97 132 
1.04187 0.334267 5.42447 95 111 144 
-1.84121 -0.20153 6.73525 131 149 195 
1.56275 -0.112452 4.04818 88 110 149 
1.64265 -0.259445 3.76955 97 96 78 
1.60804 -0.187389 3.96832 29 38 71 
1.35695 0.249117 3.49368 40 32 30 
1.39853 0.793926 4.25126 42 47 77 
1.0486 1.17557 5.23507 99 112 144 
1.0881 1.1538 5.02773 49 33 44 
1.33389 0.0292395 4.6668 92 110 146 
1.0499 -0.362973 5.55666 66 78 104 
1.10029 0.670295 5.10977 40 50 75 
1.38412 0.708325 4.34443 81 101 138 
1.08373 -0.222076 5.35879 65 56 75 
-0.219478 1.33859 5.30244 18 15 24 
-2.23904 0.546785 6.39299 39 53 88 
1.29414 0.797123 4.54035 49 60 88 
1.64501 -0.204071 3.76245 31 30 38 
1.64089 -0.244737 3.76227 20 19 27 
-1.43815 0.422637 6.75719 26 34 55 
1.52214 0.468617 3.99035 45 50 79 
0.657926 0.241176 5.67005 97 100 131 
0.731988 0.957683 5.48408 90 100 127 
1.0144 -0.573842 5.62478 39 26 36 
-2.2366 0.399864 6.43795 25 30 60 
0.0346587 1.37206 5.43364 80 84 111 
1.33495 -1.03473 4.72389 48 56 103 
0.842781 -0.730958 5.84013 27 33 65 
1.28581 0.67045 4.55649 51 57 91 
0.626694 0.985897 5.50749 90 108 146 
-1.20587 0.232339 6.71124 96 113 156 
1.33137 0.271099 4.58609 100 114 149 
0.618576 0.52566 5.61679 36 49 84 
-1.77939 -0.223465 6.78322 65 87 134 
-1.12988 -0.330255 6.89194 61 68 97 
1.57981 -0.801404 4.16064 49 71 112 
-2.23977 0.373998 6.45113 28 35 63 
1.32459 -0.242677 4.6707 55 72 102 
0.149368 -1.04494 6.2378 17 19 31 
0.644874 0.15605 5.70073 35 48 80 
1.45473 0.0126625 3.25215 28 28 40 
0.686706 -0.151165 5.7563 91 105 140 
-2.38626 0.361665 6.38839 21 42 73 
-2.28702 -0.207134 6.55842 62 82 132 
-0.229256 1.34287 5.33771 31 31 39 
-0.553149 0.432922 2.39798 83 103 138 
1.59412 -0.186984 4.00372 99 124 164 
1.64451 -0.2457 3.772 30 28 33 
1.39935 0.853387 4.22912 43 47 76 
-2.35997 0.188174 5.2976 106 118 156 
1.2075 1.10989 4.71543 76 93 123 
1.33129 0.0287062 4.65478 86 101 142 
1.55608 -0.646182 4.1751 96 110 145 
-1.50384 -0.499845 6.84475 54 50 64 
-2.165 1.09723 6.1599 84 104 141 
-1.96496 -0.40506 6.71009 101 118 161 
0.157317 -0.856863 6.26276 34 48 85 
-1.78124 0.0213473 6.73193 67 89 136 
0.999539 -0.170483 5.55235 65 60 80 
1.00972 -1.32186 6.04049 97 138 182 
-1.39517 0.441233 6.77861 28 40 66 
0.305656 -1.19979 7.04485 183 207 255 
1.42696 -0.765673 4.49705 47 37 46 
-2.44199 -0.0886476 6.18944 111 126 169 
1.34816 -0.464161 4.74092 82 102 137 
-2.57689 -0.382923 4.86537 48 65 108 
-1.84181 0.671255 6.53101 105 122 165 
1.06903 -0.537881 5.53823 89 104 145 
-2.01223 0.319871 6.51554 92 89 110 
-2.3391 -0.27074 6.55689 59 81 130 
1.00815 -1.31852 6.02678 109 152 194 
-2.38681 0.519831 6.35353 31 49 87 
-1.32085 0.597526 6.75142 84 100 136 
0.0841543 0.674422 5.57927 18 24 40 
-1.86594 -0.106651 6.70947 62 84 133 
-1.90713 -0.172916 6.69974 65 86 133 
-1.89585 0.563628 6.54533 47 57 93 
-2.29549 0.364143 6.44515 27 38 66 
1.04788 -0.385025 5.56114 70 85 116 
1.00703 0.0219911 5.51121 39 54 87 
1.06099 0.20135 5.32227 84 98 135 
0.702111 0.999426 5.47052 100 115 154 
-2.28598 -0.267175 6.5682 60 82 131 
1.05864 1.06874 5.21596 67 78 106 
1.28916 0.609962 4.58942 48 54 88 
-2.39146 0.685664 6.30695 112 122 157 
0.609393 0.553911 5.62015 81 94 126 
-1.77675 -0.160539 6.76103 66 88 137 
-1.39611 0.054111 6.86012 64 84 134 
-2.26458 0.689904 6.35641 87 107 142 
1.58176 -0.83429 4.16358 44 61 104 
1.38719 0.110094 3.47931 81 90 119 
1.04362 1.05042 5.26116 92 105 139 
1.57727 -0.545567 4.1251 83 105 146 
1.39083 0.0836004 3.44707 72 91 123 
0.710078 -0.378335 5.7935 89 104 143 
1.39845 0.915041 4.21359 42 46 75 
-1.32206 0.710929 6.73047 75 95 132 
1.42903 0.423363 4.25012 45 58 100 
0.688304 -0.456922 5.82723 107 120 155 
0.633121 0.184447 5.70175 83 94 124 
1.40569 0.92138 4.24096 42 43 71 
-2.27039 0.412257 6.44178 78 92 129 
-1.30486 0.696619 6.76768 35 48 80 
-1.75625 0.429489 6.62244 95 105 140 
-1.77725 0.726075 6.47958 92 109 152 
1.61695 -0.15728 3.91993 49 64 107 
1.5534 -0.373152 4.05324 43 38 58 
1.19205 0.970636 4.78062 13 17 29 
-1.51395 -0.503687 6.88094 54 50 67 
1.2924 0.981181 4.49292 43 48 78 
-2.31265 -0.240857 6.55721 117 131 176 
-2.36123 0.649809 6.35419 58 80 117 
1.30402 1.02008 4.4554 41 27 40 
-2.23289 0.644792 6.37318 33 47 82 
1.64826 -0.169772 3.76264 45 43 57 
0.0927863 -0.649011 5.90896 37 28 33 
1.00819 0.490903 5.42001 54 50 67 
-1.10491 0.533941 6.65461 15 21 43 
1.58902 -0.795455 4.12241 103 120 164 
0.0550256 1.38181 5.42644 83 80 99 
1.07941 0.051068 5.319 38 34 48 
-2.38527 0.593176 6.34978 40 58 94 
1.60595 0.669019 3.78429 72 80 126 
1.04714 0.0101193 5.40231 96 112 146 
0.156589 -0.901838 6.2809 34 49 80 
1.61433 -0.332347 3.7643 48 41 59 
-1.1356 -0.322644 6.89619 62 71 102 
1.16635 0.444037 4.93875 83 98 131 
-1.86474 -0.107767 6.70009 68 90 139 
1.59033 -0.185135 4.04132 87 104 147 
-2.0142 -0.468152 6.70623 36 21 24 
1.34542 -0.674587 4.81176 55 77 116 
-1.85982 0.374515 6.5898 22 27 49 
-2.26444 0.656753 6.3747 54 74 111 
1.04351 0.210738 5.45484 91 105 140 
1.38664 -0.0010928 4.54174 89 107 145 
1.35527 0.631895 4.50181 35 48 64 
0.708521 0.192665 5.67154 72 86 112 
1.59782 -0.569233 4.04881 59 73 120 
-2.396 0.43856 6.36532 98 111 143 
-1.41319 0.703329 6.69023 78 94 128 
1.38655 0.610482 4.42886 20 20 32 
1.20776 0.627112 4.79739 70 84 111 
0.774603 -1.69572 6.34072 192 216 254 
-1.09429 -0.326324 6.8599 30 27 48 
1.37263 0.619156 4.43936 75 90 123 
-2.23369 0.531872 6.40253 27 42 75 
1.04962 -0.550889 5.60444 69 81 107 
1.36035 0.268867 3.50218 37 28 29 
0.720969 0.155006 5.67222 35 50 83 
1.21826 0.93188 4.74989 69 84 117 
-1.88112 0.721985 6.48359 88 103 146 
1.16512 -0.67693 5.20114 75 88 123 
1.37885 0.456026 4.40997 70 83 125 
1.21006 0.741289 4.7715 69 83 112 
-1.90661 0.431727 6.57749 33 42 71 
1.57247 -0.542787 4.11051 89 111 150 
-0.679277 0.69723 5.97101 18 12 14 
-2.24011 0.687095 6.35067 86 108 145 
-0.749191 0.769663 5.92089 26 11 14 
0.439376 -1.12462 6.23023 82 91 130 
1.2063 0.556469 4.83882 35 48 83 
1.12042 -0.564026 5.32836 45 51 75 
-0.200106 1.32744 5.31223 81 97 133 
-1.2947 0.586918 6.76916 40 47 75 
-1.57595 -0.645031 6.97053 43 47 74 
1.05554 -0.0615021 5.40271 64 61 88 
1.55543 -0.38625 4.05559 64 79 112 
1.18178 0.868809 4.78857 15 23 42 
-1.91632 0.675702 6.50732 32 46 83 
-2.54339 0.137206 4.74104 96 107 139 
1.18496 0.779797 4.78954 16 22 34 
-2.44584 0.614373 6.05593 95 109 148 
1.16199 -0.674081 5.18205 74 87 122 
1.38215 0.576827 4.36391 39 33 47 
0.794079 -1.69949 6.33212 199 217 255 
-0.24032 -0.621167 5.75609 20 19 24 
1.36229 0.619595 4.46664 23 31 44 
1.2212 0.808719 4.7856 71 84 119 
0.686714 0.170272 5.67857 80 95 126 
-2.42907 0.20384 6.04939 71 62 83 
-0.246578 -0.625933 5.80064 16 16 18 
1.1677 -0.642204 5.1789 82 94 120 
-1.39662 -0.189441 6.9218 64 82 132 
1.58537 -0.126246 4.02751 108 126 164 
1.37361 0.451606 4.38556 89 103 142 
1.1132 -0.601137 5.34677 43 52 81 
0.225594 1.00851 5.46738 51 55 80 
0.174131 1.32301 5.36333 74 90 123 
1.62034 -0.199704 3.9513 85 105 142 
-2.27917 0.370593 6.43181 29 38 67 
-1.91148 0.00973665 6.67135 72 94 141 
-1.31934 0.770607 6.71052 88 106 144 
0.536247 1.355 5.39564 50 54 79 
-1.30479 0.0707446 6.90066 59 80 125 
1.32751 -0.232088 4.66187 57 55 77 
1.15543 0.697375 4.84239 71 82 114 
1.29422 0.303112 4.61237 45 37 52 
0.116053 -0.577693 5.85206 70 79 108 
0.658621 -0.39229 5.82559 106 116 143 
0.707347 0.584121 5.57714 70 85 108 
1.49036 0.61159 4.03932 41 45 72 
-1.28806 0.781549 6.72789 102 115 149 
0.672545 -0.442572 5.83617 93 93 117 
-1.43787 -0.285135 6.90173 58 60 85 
1.59972 -0.220335 4.00213 68 72 117 
1.16432 0.649388 4.88666 56 70 99 
1.54243 -0.320094 4.07315 61 66 96 
-1.25534 0.392382 6.82818 84 68 81 
1.10633 0.786273 5.07182 51 56 86 
0.621095 0.145245 5.71144 30 45 76 
1.16959 0.503984 4.90846 93 111 147 
-0.747807 0.76667 5.90585 28 12 15 
1.35 0.629481 4.51424 20 24 36 
1.15594 1.21755 4.71906 88 74 87 
-1.2434 0.381406 6.80829 75 68 86 
1.42733 0.330437 4.27601 94 90 89 
1.06982 -0.596045 5.4884 55 56 76 
1.46464 0.688995 4.09232 44 48 75 
-2.34804 0.49759 6.37818 26 41 72 
1.16557 0.477011 4.90984 87 96 113 
1.04394 0.865405 5.30621 77 92 125 
1.20195 0.572812 4.85023 67 82 113 
1.58832 -0.243835 4.02168 7 13 25 
1.60752 -0.196027 3.98497 75 91 124 
0.711457 0.775444 5.50042 80 85 115 
-2.39195 0.329215 6.41026 17 29 55 
1.06478 0.806874 5.25169 24 26 41 
1.06532 0.0169516 5.36414 84 102 140 
1.3688 0.961629 4.37078 90 113 154 
1.1038 0.912982 5.04946 46 52 84 
1.31136 0.294409 4.60571 57 44 54 
0.680716 0.854719 5.51425 81 90 119 
1.41374 0.719831 4.22547 45 51 77 
0.791301 -1.68531 6.27865 199 217 255 
0.115853 -0.865644 6.22277 37 52 83 
-1.32205 0.737313 6.72485 77 92 125 
0.232187 -0.999546 6.30336 20 19 33 
-2.3938 -0.00241909 6.45967 105 110 142 
-2.58651 -0.42687 4.86535 95 109 146 
0.189963 -0.950206 6.24998 16 18 31 
1.06133 0.0880968 5.418 22 27 46 
1.58238 -0.672996 4.13605 55 72 116 
1.33652 0.524733 4.48103 59 67 103 
1.557 -0.396861 4.04288 62 72 108 
0.655745 -1.3513 6.01263 61 103 143 
1.02075 0.478433 5.41183 57 49 60 
1.14753 -0.701742 5.2701 71 82 112 
1.052 0.817515 5.2997 20 22 35 
0.641759 0.527341 5.6012 38 46 82 
1.15194 1.06102 4.73581 70 76 108 
1.10513 1.0954 4.9898 50 54 79 
1.21179 0.678067 4.82426 74 89 122 
1.36083 -0.631871 4.72733 106 125 167 
1.64581 -0.302649 3.78409 53 45 43 
-2.39784 0.562393 6.33956 93 112 145 
1.41254 -0.702701 4.52783 61 50 64 
-1.842 0.000972698 6.69529 123 140 186 
-0.240298 0.500682 5.51678 21 20 34 
0.993487 1.10183 5.30166 47 52 81 
1.46557 0.564875 4.12309 46 52 78 
-1.82445 -0.274797 6.76571 57 80 130 
0.77551 -1.36803 5.99749 59 102 144 
1.49134 0.0194287 3.1552 35 42 60 
0.734207 -0.0744499 5.71648 99 104 133 
1.61178 -0.252751 4.02864 16 14 25 
1.59137 -0.109469 3.95832 104 117 161 
1.31654 0.296069 4.62944 59 46 56 
0.969975 -0.567311 5.67752 74 88 123 
1.18773 0.78329 4.80799 15 21 33 
-2.31389 0.15469 6.34647 107 122 165 
0.497624 -0.466923 5.86831 77 71 71 
1.59346 -0.839182 4.10587 45 64 104 
1.05917 -0.231352 5.47239 48 63 102 
1.56692 -0.562715 4.14826 38 48 83 
1.46704 0.940273 4.03774 36 43 69 
-1.91762 0.649148 6.51753 35 53 91 
0.127615 -0.56322 5.84482 77 88 118 
1.43844 0.767223 4.14346 41 45 74 
1.09099 -0.642349 5.43723 76 92 125 
1.08293 1.13667 5.06332 96 111 142 
0.880427 -1.35889 6.02261 49 90 134 
1.51445 0.782899 3.92699 39 41 66 
1.38391 0.0465722 3.47573 34 27 34 
-2.26993 -0.0351871 6.52019 71 89 135 
-1.80983 -0.314554 6.76758 62 69 97 
1.1038 0.974775 5.03345 48 53 83 
-2.25837 0.531907 6.41518 34 52 90 
-0.78425 0.811676 5.87645 23 10 17 
1.07652 0.808873 5.22507 75 90 123 
-2.24758 -0.264077 6.5908 59 81 128 
0.784393 1.24525 5.36851 40 41 62 
0.720989 1.00334 5.47559 95 111 147 
1.30745 0.598937 4.56015 60 51 70 
1.07883 1.09515 5.15513 77 91 128 
-0.254089 0.557186 5.50103 64 66 87 
0.673771 0.163412 5.70985 78 75 94 
-2.31131 0.472258 6.39156 103 121 161 
1.11747 0.609077 5.07686 44 54 89 
1.16982 0.847348 4.81347 72 78 110 
-1.88468 0.0371579 6.643 104 117 161 
1.16992 0.723472 4.84487 71 82 112 
-2.22751 0.636224 6.33077 40 52 90 
1.54493 -0.388356 4.06766 43 54 86 
-1.43869 0.437949 6.75855 29 39 64 
1.59514 -0.541968 3.95359 36 28 43 
0.437768 -0.867003 6.18197 101 116 155 
-2.38305 -0.222277 6.5374 62 85 129 
1.18284 -0.293157 5.05728 20 23 38 
-0.234741 -0.271928 5.74859 48 42 54 
0.58584 -0.312704 5.84615 100 114 149 
1.16837 0.606353 4.86235 61 68 94 
0.119687 -0.8587 6.24615 33 52 84 
-1.4441 0.384355 6.71924 38 34 49 
1.35273 -0.184988 4.57023 101 119 159 
0.992688 1.03887 5.31464 45 51 77 
-1.16675 0.727019 4.20484 72 87 110 
1.43186 0.346742 4.23417 87 105 141 
1.42987 -0.719794 4.47359 58 46 48 
0.669698 -0.149695 5.76104 85 80 103 
1.35346 -0.184473 4.57561 97 115 151 
1.49148 0.486395 4.07096 44 51 77 
-0.0285436 -1.43384 7.32352 189 212 254 
-2.35647 -0.479469 5.38453 59 74 117 
1.1484 0.756081 4.80607 78 88 123 
-1.50183 -0.467386 6.83136 72 60 70 
-2.24784 -0.202899 6.57893 56 77 124 
1.08725 -0.636481 5.42174 76 91 124 
-1.91267 0.62488 6.52046 40 52 90 
1.22854 0.899709 4.71104 44 49 78 
0.610236 -0.465118 5.85186 103 111 147 
-2.38191 -0.267536 6.54098 58 79 126 
1.58723 -0.218413 4.07376 16 15 21 
1.58204 -0.353799 3.9796 79 98 131 
1.3111 0.502547 4.52844 45 51 83 
0.131392 -0.912016 6.25538 70 85 114 
-0.0171593 -0.949015 6.38151 8 12 23 
0.415946 -0.839702 6.21589 36 38 61 
1.44718 0.569194 4.12435 44 51 79 
1.21392 1.05095 4.69506 67 82 113 
1.38567 0.626359 4.27926 81 96 129 
1.36216 0.798456 3.33884 73 70 61 
-1.34488 -0.185932 6.93659 64 85 132 
-1.81227 -0.0446868 6.69093 73 96 146 
0.667845 0.519826 5.59844 78 73 95 
0.478943 -0.480238 6.03416 57 51 53 
-1.32645 0.495457 6.80101 66 85 118 
1.40981 -0.726718 4.52662 52 51 69 
1.31713 0.351322 4.56122 62 75 109 
-2.45951 -0.337118 6.15063 102 113 143 
-2.14155 -0.534021 6.5929 17 19 31 
1.41252 0.594708 4.25275 45 49 78 
-1.78127 0.572405 6.57367 32 46 81 
1.388 0.595394 4.36565 24 26 41 
-2.61708 -0.566325 4.89265 48 69 114 
0.927765 1.25795 5.41811 38 40 61 
1.32736 -0.732603 4.84777 86 99 131 
1.3582 0.732234 4.46876 92 112 149 
1.41896 -0.834294 4.52954 81 97 133 
1.36216 -0.719243 4.74541 99 114 157 
1.26587 0.579304 4.64545 77 92 125 
1.36437 -0.534179 4.70225 102 119 163 
1.1827 -0.745852 5.13831 55 65 90 
1.40443 0.549456 4.28526 85 103 139 
1.36429 -0.592496 4.71797 103 120 163 
1.51565 0.657548 3.95632 42 46 73 
1.60854 -0.621237 4.04411 90 109 152 
1.49102 0.860264 3.98143 39 43 68 
-2.56381 -0.455185 4.87611 47 64 108 
-1.90145 0.722153 6.49658 88 106 146 
1.43135 0.723633 4.18162 79 94 133 
0.0827673 1.12182 5.47845 12 20 41 
1.38668 0.142612 3.48236 94 101 130 
1.25415 0.821143 4.65648 50 56 82 
0.660905 0.51109 5.60779 82 82 106 
0.667374 0.519156 5.58986 75 68 86 
1.54941 -0.863778 4.21985 70 83 118 
-2.45537 -0.443307 6.37892 9 25 50 
-0.218141 0.76996 5.45274 19 17 31 
1.55243 -0.866466 4.22915 68 81 116 
1.44295 0.0871187 3.23486 85 94 125 
1.58468 -0.766791 4.11009 104 125 168 
-2.39167 -0.373455 6.53207 36 30 44 
1.51906 0.730721 3.92789 79 99 132 
1.41276 0.844637 4.19952 41 47 71 
-2.38372 0.606393 6.32544 44 63 103 
-1.9189 -0.125314 6.70128 62 84 133 
0.799907 0.946456 5.4343 73 87 114 
0.480484 1.23778 5.5976 47 48 76 
0.426397 -0.843874 6.21864 35 41 67 
-1.38392 0.0400586 6.7904 65 83 133 
1.0081 1.20203 5.23841 45 33 47 
1.42854 -0.874805 4.53323 44 45 73 
1.05089 0.0310048 5.40824 49 54 83 
-2.55464 -0.437657 4.87663 48 65 109 
1.04769 0.0306385 5.38354 58 59 87 
0.697167 0.153691 5.67894 35 50 83 
1.18576 1.00302 4.76501 16 19 34 
1.21347 0.440866 4.83749 55 56 84 
-1.91443 -0.254652 6.71787 59 81 130 
1.17392 0.659967 4.80167 20 22 35 
1.38038 0.234081 3.4735 63 57 45 
1.33499 -0.217908 4.63789 74 92 130 
1.05857 0.198674 5.41995 84 102 142 
1.42329 0.356593 4.27582 88 104 138 
0.601786 -1.35064 6.02348 64 109 151 
1.1727 0.911212 4.80002 66 76 103 
-1.66106 -0.444739 6.86209 30 36 48 
-1.9177 0.0427022 6.66389 134 140 172 
1.02174 0.048259 5.47054 93 101 124 
1.36101 -0.270896 4.60878 46 57 89 
-1.43192 0.70717 6.62386 29 45 78 
1.51319 0.478635 3.98029 86 105 137 
-2.39559 0.161344 5.82641 64 75 103 
0.856886 -0.494742 5.76891 56 46 45 
0.476939 1.17679 5.61193 45 51 83 
1.54458 -0.530174 4.05046 110 126 160 
1.01799 0.685984 5.33773 53 64 96 
0.930831 -0.448564 5.81263 35 34 40 
0.869728 1.26425 5.38384 66 75 104 
1.55715 -0.363734 4.01697 86 102 136 
-1.90884 -0.158022 6.69588 66 87 134 
1.3774 0.747497 4.42772 95 115 150 
1.32205 1.01167 4.45964 93 68 74 
-1.91209 -0.251028 6.7318 60 81 126 
1.17545 1.1872 4.74404 69 76 105 
1.60629 -0.733609 4.06723 84 105 148 
-1.41622 0.0780596 6.83074 89 104 145 
1.24186 -0.68101 5.0118 66 57 58 
0.993384 0.0486683 5.54376 80 98 136 
1.29764 -0.116774 4.72149 76 68 92 
1.24343 0.774931 4.68311 86 102 138 
1.06422 0.011146 5.37698 95 115 152 
1.31369 -0.303108 4.71035 91 105 144 
1.1527 1.27002 4.7372 69 57 69 
1.16309 0.890275 4.83787 70 83 117 
-2.39801 -0.346159 6.53995 84 92 128 
1.34829 -0.729883 4.7181 106 125 168 
-1.75771 0.493979 6.59283 95 115 152 
1.146 1.00021 4.74771 75 88 122 
1.04598 -0.0711414 5.42017 94 110 144 
0.0795188 1.22782 5.43991 11 14 29 
-0.710816 0.80465 5.74657 92 56 66 
1.42909 0.481966 4.23207 75 87 125 
-1.62836 0.362109 6.64674 75 79 117 
1.35297 -0.202503 4.59048 57 71 110 
-1.87967 -0.162201 6.67754 94 115 158 
-1.3167 0.717509 6.71821 60 72 110 
-0.239351 0.385177 5.52078 28 24 38 
0.0769489 -0.112137 5.78074 28 39 61 
1.153 0.652693 4.88519 70 83 117 
0.857379 1.06819 5.44003 38 42 67 
1.46604 -0.738803 4.37498 65 54 58 
1.33855 -0.225395 4.64763 86 105 138 
1.60488 -0.128613 3.92131 65 73 112 
