ply                 
format ascii 1.0    
element vertex 1260
property float x    
property float y    
property float z    
property uchar red  
property uchar green
property uchar blue 
end_header          
0.231796 0.295625 3.49157 37 36 31 
-1.58284 -0.0900096 3.42578 82 55 34 
1.06406 -0.113906 4.1577 254 231 213 
10.4112 -0.402256 18.7973 255 255 253 
-0.108037 -0.957527 3.22355 96 93 88 
-1.58032 -0.0880563 3.43669 126 103 72 
1.06855 -0.344826 4.16521 203 181 160 
-3.21117 -0.860389 4.32588 42 29 21 
-1.46675 -0.571271 3.59465 255 239 219 
-2.72341 -0.70598 4.40213 58 36 22 
-1.1742 -0.852863 3.39261 251 234 218 
-0.22515 -0.328008 2.75789 242 224 202 
-0.777313 -0.360711 2.7209 235 204 184 
1.07678 -0.179049 4.13569 243 221 197 
-1.59445 0.15377 3.4124 125 97 76 
-0.212009 -0.424038 2.757 223 200 169 
-3.14621 -0.888874 4.32486 40 25 18 
-0.377949 -0.0828347 2.87015 239 212 193 
-1.67635 0.250884 3.29849 207 182 160 
-2.69006 -0.873412 4.46132 95 66 52 
-2.64137 -0.157533 4.43578 69 43 28 
6.20857 0.294372 10.17 159 168 61 
6.49199 0.225961 9.34055 140 128 76 
-2.9371 -0.523787 4.31784 30 19 13 
-2.67396 -0.411258 4.43521 131 95 73 
5.90114 0.0259668 10.9665 156 170 95 
-2.70439 -0.0563183 4.41506 115 74 54 
0.977228 -0.298558 4.2607 196 175 156 
1.0228 -0.0439209 4.18061 205 178 159 
5.36665 -0.087871 11.3842 155 162 84 
-1.62084 0.0504102 3.37741 71 44 27 
-1.01709 -1.18178 3.27069 201 164 145 
-2.46365 -1.56902 4.85188 102 99 108 
-1.16011 -1.22859 3.38965 162 125 99 
-0.254446 -0.436304 2.78444 237 221 206 
-2.85534 0.136609 4.29064 50 32 18 
-0.274895 -0.491873 2.80935 247 230 214 
-0.347525 -0.504986 2.85946 211 188 170 
0.99022 -0.302204 4.25153 246 225 208 
-2.96402 -0.824757 4.34578 30 28 16 
-0.856567 0.15389 2.66021 245 222 204 
-3.11986 -0.830532 4.32101 43 32 28 
-2.67484 -0.287828 4.42824 60 34 19 
-2.83291 -1.18346 4.43137 50 37 28 
-2.63998 -0.196273 4.44564 66 37 19 
0.993514 -0.421235 4.25343 244 223 204 
-3.03468 -1.17199 4.39316 41 28 20 
-0.722847 0.389381 2.57748 89 76 67 
9.54618 -0.875208 19.5916 255 255 253 
-3.03346 -1.17565 4.39363 42 28 25 
-3.22913 -0.285325 4.26088 26 13 4 
-2.98131 -1.21046 4.40512 45 36 27 
-3.08879 -1.04675 4.35459 92 60 49 
1.02593 0.039622 4.1804 211 189 168 
-3.11723 -1.3441 4.38776 17 15 16 
-2.59834 -1.18422 4.57191 99 85 76 
-3.20555 -0.666537 4.30292 61 48 42 
0.229589 -0.227359 3.60522 64 54 44 
-0.425087 0.40627 2.8049 212 186 161 
-1.6786 0.186494 3.30232 230 208 187 
-0.549362 -0.127193 2.80831 75 54 37 
-0.807397 0.278922 2.61592 243 224 207 
0.929583 -0.0678072 4.29224 197 178 161 
-3.095 -0.647969 4.29538 50 34 21 
-3.12929 -0.965081 4.34371 62 47 40 
-2.81347 -1.16071 4.43523 82 68 59 
-2.75119 -0.591384 4.38991 196 167 149 
-0.335694 -0.402601 2.84628 204 179 159 
-3.03745 -0.627243 4.31094 97 80 64 
-0.433301 -0.818559 2.93258 189 164 144 
-2.65467 -1.09791 4.52043 49 30 15 
-0.346171 -0.506581 2.85722 198 172 155 
-2.88942 -0.716889 4.35286 111 85 62 
-3.21728 -1.17974 4.39674 113 100 92 
10.3406 -1.87616 18.8851 208 192 179 
-2.76536 -0.158313 4.3551 101 83 71 
11.0082 -2.73231 20.6548 165 147 135 
10.0061 -1.88989 19.0724 201 183 171 
-1.18715 -0.825265 3.39341 252 231 214 
-3.14827 -0.535232 4.26529 40 31 32 
-0.409218 -0.890132 2.92018 248 225 207 
0.95868 -0.3121 4.29399 248 225 209 
-0.517857 -0.110171 2.83525 144 112 91 
-2.6172 -0.814747 4.51591 122 81 59 
-2.57103 -0.0683634 4.46384 239 225 216 
-0.667389 -0.233103 2.67546 164 128 104 
-0.747078 -0.482192 2.705 252 233 218 
-0.397047 -0.718875 2.90423 249 221 200 
-2.611 -1.17497 4.57725 64 44 33 
-1.78446 0.0335115 3.40282 228 202 185 
-3.17067 0.018322 4.24448 46 30 17 
-2.6121 -0.990524 4.53808 106 70 48 
2.51004 0.622191 4.95168 120 132 46 
-0.952898 -1.08632 3.21089 255 244 227 
-1.15172 -0.680834 3.35475 224 194 170 
-0.396842 -0.574487 2.892 193 157 135 
-3.19016 -0.647271 4.29443 27 17 15 
-2.75244 -0.132497 4.35342 76 47 29 
-0.392047 -0.179252 2.86995 206 180 155 
-0.424724 -0.206346 2.89559 216 189 172 
-0.753704 0.113938 2.58399 200 174 149 
-2.94911 -0.645753 4.33553 25 20 16 
-0.397412 -0.505315 2.89576 202 180 159 
-2.61909 -0.275589 4.47363 70 44 29 
-0.399281 -0.703162 2.90758 254 235 220 
0.337354 0.0611247 3.72275 18 19 14 
-2.80343 0.0795948 4.31199 56 32 20 
0.959979 0.161878 4.22712 209 188 171 
9.49308 -1.76379 19.5318 183 174 169 
-3.21302 -0.490421 4.27291 83 66 58 
-1.26326 -0.973261 3.46109 243 220 202 
-0.415836 -0.676314 2.915 255 238 223 
10.8524 -0.657958 18.1927 254 253 249 
-1.70208 -0.515747 3.45747 255 238 222 
10.7996 -0.64224 18.2623 254 255 250 
-2.21977 -0.639081 4.21026 192 164 142 
-0.394773 -0.843401 2.90724 212 180 155 
3.17515 0.563745 6.74897 213 198 191 
6.46308 0.142974 9.63163 143 157 82 
-2.6788 -0.0289866 4.4008 107 75 54 
-0.458089 0.279861 2.84807 214 188 163 
-0.445825 0.147948 2.85633 201 175 158 
-1.04518 -0.930889 3.28594 171 131 105 
-2.60205 -1.16177 4.56732 94 77 67 
-0.225477 -0.251476 2.75126 199 177 156 
-2.94283 -0.928552 4.34339 75 54 37 
-2.57985 -0.149192 4.47456 79 55 43 
-2.88054 -0.0379166 4.30039 89 66 50 
-2.80628 0.202983 4.31043 53 31 17 
-2.78313 -0.674292 4.38337 184 151 132 
-1.16158 -1.04753 3.38604 178 142 120 
5.74349 0.126907 11.033 104 117 38 
-2.71725 0.0654348 4.36679 86 59 40 
-0.751445 -1.22948 3.06844 201 167 142 
-0.959585 -1.10955 3.22189 187 159 135 
-1.21791 0.238235 3.35398 203 175 154 
-3.18928 -0.853448 4.32564 43 28 21 
-3.18048 -0.279611 4.25518 49 31 21 
-3.00971 -1.20855 4.39541 49 35 26 
-2.73558 -0.618661 4.38412 245 219 204 
10.2027 -2.80766 21.1233 192 174 164 
5.34725 0.0597468 11.4944 140 152 68 
1.08244 -0.280961 4.14999 218 188 162 
-0.497014 -0.3911 2.87137 125 93 70 
-3.02917 -1.14808 4.38334 50 37 31 
0.901518 0.250348 4.251 120 88 63 
-2.58337 -0.709938 4.52579 219 196 182 
4.789 0.592301 7.54164 153 162 109 
-2.65044 -1.16805 4.53891 93 77 64 
-0.20878 0.268262 2.65337 157 121 97 
-2.78454 -0.845309 4.38941 115 80 61 
-1.4843 -0.794515 3.58694 146 115 94 
9.4113 -1.75246 19.3773 200 192 190 
-0.284036 -0.439287 2.81353 175 154 135 
-0.42434 -1.13664 2.94404 148 112 88 
-1.19517 -0.231262 3.37506 221 190 169 
-0.342513 -0.236398 2.84201 157 125 102 
-0.84761 -0.0297188 2.66994 203 181 158 
-0.593286 -0.687811 2.77886 104 97 89 
6.42923 0.138676 9.74824 99 114 45 
-1.24522 -1.23743 3.44525 225 197 176 
-1.64802 0.0546007 3.34738 125 101 77 
-3.2041 -0.440272 4.27019 67 49 39 
-0.478627 0.274438 2.85611 172 142 118 
-2.69446 -1.12289 4.50818 50 32 22 
-3.01829 -0.954285 4.3503 80 51 33 
-2.96268 -0.816375 4.3447 28 25 18 
-3.25823 -0.95874 4.3389 14 13 9 
-2.82684 -0.596655 4.36179 89 67 54 
6.25066 0.330125 8.9991 144 159 58 
-3.21715 -0.473444 4.27112 38 28 19 
1.00537 -0.311909 4.2285 255 237 221 
1.0197 -0.0327798 4.19359 236 211 191 
-2.74228 -0.550415 4.38744 204 169 150 
0.935994 -0.527783 4.31293 216 194 170 
0.146837 -1.07529 3.45406 145 121 21 
-2.71186 -0.330207 4.39543 103 70 51 
-0.325845 -0.34374 2.84033 236 211 189 
-0.414215 -1.19283 2.90045 33 26 18 
-1.56557 -0.300585 3.46256 81 49 28 
-2.63238 -0.723449 4.48466 93 61 38 
-2.64707 -0.413216 4.4437 106 69 50 
-0.228502 0.177953 2.67519 141 106 78 
-3.20484 -0.476264 4.27887 31 21 11 
-0.405205 -0.599868 2.89968 211 183 162 
-0.445931 -0.767432 2.93427 230 205 185 
11.2996 -2.08422 20.0745 129 124 121 
-2.78631 -0.887687 4.41672 78 52 39 
1.03928 0.132396 4.13482 215 193 172 
-0.819019 0.235265 2.62766 242 225 207 
-3.11923 -0.779081 4.3105 48 33 28 
-2.24549 -0.324073 4.21056 252 225 208 
0.0257712 -0.761988 3.32071 221 197 173 
-3.02375 -0.994708 4.35255 55 27 15 
6.03866 -0.0369374 10.7122 153 165 89 
-2.66937 -0.71165 4.46248 112 74 55 
-0.424829 -0.545382 2.91105 214 187 168 
-0.791521 0.105271 2.61868 211 183 159 
-3.17226 -0.81615 4.32162 48 31 21 
-2.68374 -0.885391 4.46769 115 88 71 
-3.09352 -1.26224 4.40676 42 32 23 
-2.72521 0.17448 4.36933 52 29 15 
-3.21126 -1.2511 4.41902 56 47 40 
-3.09134 -1.09157 4.36885 111 88 74 
-3.12817 -0.818318 4.31453 41 30 26 
-0.39235 -0.553544 2.88778 250 228 207 
-2.62756 -0.323374 4.46786 70 41 25 
-0.42813 -0.961969 2.93285 255 227 206 
-3.20706 0.0569844 4.2485 75 56 42 
-0.205849 -0.0417345 2.72639 185 135 100 
-0.309715 -0.51266 2.82463 244 221 203 
-1.08115 -0.814063 3.30841 247 229 209 
-1.15679 -0.700529 3.35053 198 176 155 
-0.222066 -0.214784 2.74414 171 146 126 
1.03349 0.008476 4.17965 206 181 159 
-0.857608 0.0826424 2.66792 243 221 200 
0.959683 -0.253216 4.27287 255 249 231 
-1.2341 0.374204 3.36112 236 217 202 
-2.70638 -1.15824 4.48442 53 35 25 
-1.5723 -0.831791 3.46784 79 56 38 
0.434905 -0.341004 3.8308 111 79 66 
-3.07666 -0.990305 4.34521 52 35 27 
-3.11519 -1.25987 4.40947 57 46 40 
3.3089 0.591105 6.62836 161 142 135 
10.2948 -0.963683 19.2083 155 147 145 
-0.744208 -0.158307 2.62347 241 220 201 
9.02594 -1.72773 18.9505 254 252 253 
6.35508 0.17214 10.1974 152 165 93 
-2.6684 0.00641348 4.41091 63 36 19 
-2.741 -0.311608 4.40211 97 71 56 
9.10253 -1.83996 19.2859 221 204 194 
-0.422169 -1.16623 2.93345 53 39 28 
10.229 -2.0003 19.3623 185 166 152 
6.35233 0.147969 10.1509 154 170 99 
-2.93915 -0.874764 4.3296 79 48 28 
-2.86707 0.244737 4.2835 53 31 18 
-2.63189 -0.130241 4.45142 74 47 30 
-1.18509 -0.290221 3.37153 213 177 153 
9.90013 -0.961513 19.0951 228 215 206 
10.4389 -2.05911 19.3921 193 171 158 
6.4562 0.0857568 9.53763 128 142 63 
11.7645 -2.45773 20.5911 223 223 223 
-2.70549 -0.0753088 4.37985 75 48 31 
-2.70789 -1.15999 4.48964 49 31 21 
-2.90631 -0.616157 4.33507 70 48 37 
-2.97816 -0.43049 4.28676 26 17 12 
-2.91018 -1.2594 4.45282 37 33 24 
-0.456384 -0.561085 2.92156 220 198 175 
-0.440014 -0.574237 2.91977 207 179 157 
-0.231718 -0.213339 2.75549 205 179 162 
3.19276 0.62233 6.7279 204 188 175 
-3.16179 -1.09211 4.36863 77 54 46 
-2.89663 -0.642129 4.32868 97 77 66 
-0.255072 -0.308669 2.78364 254 227 208 
-3.00311 -0.545073 4.305 25 21 20 
-3.01845 -0.82463 4.30884 55 33 22 
-2.74635 -0.739333 4.40738 54 32 19 
-2.72861 0.0595777 4.36193 71 44 27 
-0.326641 -0.355675 2.84294 215 179 153 
-2.74373 -0.549769 4.39088 204 169 150 
-3.09177 -1.05675 4.35793 74 42 29 
-0.406428 -0.0288583 2.85677 211 187 163 
9.98993 -0.737026 18.8547 255 255 253 
-2.74278 -0.43232 4.3741 69 42 31 
-1.41774 -0.547397 3.5678 209 182 163 
-2.66783 -0.704777 4.45163 122 85 66 
0.969776 -0.325685 4.27363 254 231 215 
-3.18182 -0.856174 4.32281 46 33 27 
-2.82082 -0.757139 4.36913 204 172 151 
-0.749058 0.387503 2.55886 194 168 153 
-0.479247 -1.17882 2.8937 26 21 15 
-0.220965 -0.216648 2.74564 224 201 183 
0.363946 0.0684402 3.71651 28 27 25 
0.169197 0.190195 3.44453 80 81 73 
3.32694 0.564938 6.62524 193 180 171 
-1.6457 -0.500875 3.41986 232 203 187 
-0.211114 -0.406846 2.75345 181 150 129 
-1.59769 -0.475562 3.44108 144 98 72 
-3.09042 -1.04728 4.35802 89 59 48 
-0.416197 -0.00602474 2.84399 172 146 121 
-2.73404 -1.15853 4.47759 61 47 36 
-3.17304 -0.243697 4.24584 31 18 9 
-1.80123 0.27431 3.39577 249 232 214 
0.445048 0.066751 3.82721 35 28 22 
6.45849 0.162284 9.5397 132 142 71 
-2.93013 -0.790498 4.3373 59 42 32 
-2.63999 -0.404989 4.45759 127 90 71 
-2.89779 -1.2141 4.41609 67 56 50 
-1.79051 0.122677 3.39533 207 176 156 
-2.76488 -0.0206459 4.34654 103 79 69 
-0.238703 -0.41904 2.7765 219 189 155 
-0.819609 0.37765 2.61667 248 235 219 
-0.445737 -0.767109 2.93613 236 211 189 
5.88923 0.447924 9.2313 135 156 55 
-0.337685 -0.14938 2.83557 218 190 166 
-0.416517 -0.310084 2.90185 255 237 222 
0.443869 0.0654791 3.82358 31 23 20 
-1.17708 0.0501729 3.33853 206 178 154 
-2.74712 -0.735593 4.40799 57 35 24 
-2.87374 -1.16266 4.41098 81 68 59 
-2.80075 -1.45891 4.72152 173 154 147 
-3.05651 -1.01205 4.33932 93 65 53 
-0.349697 -0.47522 2.86332 212 186 169 
6.36696 0.0171671 8.60354 113 124 58 
-2.67921 0.145306 4.40343 112 83 67 
-3.0852 -1.07887 4.36631 82 48 36 
-0.318465 -0.336239 2.82613 222 201 182 
-0.422511 -0.466442 2.91295 213 185 164 
-3.1539 -0.2689 4.25085 62 45 35 
0.938822 -0.377403 4.30224 240 217 199 
-0.370077 0.323711 2.76992 177 146 118 
-2.67699 -0.405593 4.43528 128 96 75 
11.4903 -1.4947 16.3073 198 179 165 
-1.5142 0.00904135 3.52305 145 109 83 
-3.20442 -0.666502 4.30072 61 48 42 
-2.99093 -1.19223 4.39284 96 79 69 
-2.87081 -0.218055 4.30709 104 78 55 
-0.804977 -1.22404 3.10712 192 152 126 
-2.3231 -0.634908 4.29514 186 149 123 
-1.10743 -0.665577 3.33896 152 115 96 
-2.66557 -0.0219376 4.39746 114 76 53 
-0.332429 -0.575262 2.85416 244 225 208 
-2.50417 -0.58985 4.45732 191 155 129 
0.973817 -0.47536 4.27713 229 206 175 
-2.33435 -0.804685 4.32066 220 184 158 
-0.807347 -1.23954 3.10547 225 197 173 
-3.1397 -0.849004 4.3255 47 32 25 
9.21307 -2.09465 20.0967 207 190 180 
-1.54587 -0.408507 3.49167 133 86 60 
-1.24562 -1.16395 3.45743 218 181 155 
-3.18146 -0.856269 4.32082 43 33 24 
-2.98758 0.258793 4.24355 47 30 22 
9.02349 -2.0449 19.837 218 204 193 
-1.05308 0.420363 2.83142 211 191 167 
-2.08342 -1.00614 4.11994 184 148 122 
5.36809 0.220407 11.2782 150 163 81 
-0.500752 -1.33554 2.80046 148 122 89 
6.04275 0.34082 10.1841 187 200 92 
-2.8307 0.108833 4.29529 50 31 17 
-1.14312 -0.943591 3.36606 252 235 217 
-0.995945 -0.97952 3.24948 255 243 227 
-1.04002 -0.614082 3.2731 143 125 111 
-2.52563 -1.57911 4.84727 144 122 108 
2.85045 0.589507 3.9493 63 59 50 
-3.03189 -0.770962 4.31204 65 43 29 
9.31422 -2.21578 20.0874 186 166 157 
-0.324991 0.382751 2.72985 175 136 103 
-0.374946 -0.323923 2.86684 204 170 145 
-0.81505 -0.580584 2.7564 255 245 227 
-0.721462 0.470006 2.51481 144 124 53 
-2.69077 0.0502918 4.38909 67 41 24 
-0.76538 0.196106 2.59367 250 231 217 
-1.18691 -0.970571 3.39519 249 230 213 
0.596689 -1.55094 4.03385 92 73 67 
-0.27351 -0.0500138 2.77548 225 185 160 
-3.12087 -1.081 4.36244 112 92 81 
-2.83053 0.0759981 4.29296 55 37 23 
-1.21175 -0.956173 3.4181 254 235 220 
0.0281601 -0.80253 3.32503 211 180 152 
-1.26377 0.121131 3.39687 219 187 164 
-1.14815 -0.883654 3.3651 253 235 221 
10.8743 -0.669468 16.7408 230 225 221 
10.9957 -0.787791 16.9965 255 255 255 
0.967589 -0.199174 4.26622 156 133 117 
-1.26628 -0.164459 3.41435 251 226 206 
8.8011 -1.87052 19.621 201 183 173 
-0.807412 0.344455 2.61403 254 237 221 
-2.90851 0.0342433 4.30945 29 22 14 
-1.64802 -0.101393 3.34294 89 62 43 
-1.46165 -0.917455 3.61181 222 190 167 
-3.11574 0.12051 4.23513 68 48 37 
-1.1973 -0.225891 3.37342 219 191 169 
-1.15459 -0.558608 3.37095 229 192 173 
1.07297 0.224471 4.11008 236 213 197 
0.343941 -0.157285 3.72715 245 220 190 
3.37179 0.526849 6.57 198 184 175 
-0.626993 0.428632 2.67182 149 126 76 
-1.15291 -1.21364 3.38241 200 155 132 
-2.59978 0.344866 4.4652 46 33 25 
-3.00191 0.191216 4.24552 51 32 18 
-1.50529 -0.481678 3.56434 208 179 149 
-2.92062 0.332425 4.26402 58 44 31 
-2.62678 -0.322794 4.46551 68 41 24 
6.14434 0.303096 8.13253 177 185 76 
0.993092 -0.428715 4.26459 204 183 164 
-2.99412 0.17314 4.25088 49 29 18 
-2.93317 0.124849 4.25913 40 20 9 
11.2053 -3.27203 20.9115 255 255 253 
8.98019 -1.8221 19.5752 180 167 158 
-0.42655 0.275424 2.81971 195 170 150 
-2.48737 0.343001 4.37414 233 207 184 
9.47041 -1.34118 19.8322 255 255 255 
-3.03334 -0.46553 4.29667 30 26 23 
-0.975231 -1.26538 3.24685 127 113 102 
-2.64697 -0.862377 4.48778 68 40 26 
-2.96146 -1.19217 4.40205 57 44 38 
-1.60898 -0.304879 3.40942 176 137 106 
10.8214 -0.542151 18.2902 255 255 253 
-0.308371 -0.513606 2.8306 244 221 203 
-0.396191 -0.288077 2.8875 203 171 146 
-0.3396 -0.388073 2.84355 217 189 167 
1.02984 0.174664 4.15171 224 203 182 
-2.65475 -0.110438 4.41566 48 29 14 
3.33315 0.585276 6.60224 154 140 129 
0.939929 -0.377521 4.30485 254 233 216 
-2.73211 -0.25743 4.37726 111 78 61 
-3.15307 -0.268728 4.24913 62 45 35 
-3.07242 -1.17726 4.38726 44 33 27 
0.966901 -0.198689 4.26477 202 179 163 
-0.491917 0.223861 2.84697 148 111 85 
-3.15818 -0.726608 4.30982 35 24 18 
-1.26693 -0.489968 3.44454 244 219 199 
-3.16847 -0.987579 4.34674 40 27 21 
-2.83889 0.126743 4.29477 85 63 49 
-2.65093 -0.201626 4.44104 70 42 28 
-0.255397 0.275189 2.6903 148 121 94 
-0.819845 0.343709 2.62076 244 226 206 
-1.15781 -0.557391 3.37354 228 190 169 
-0.210575 -0.302828 2.74715 225 198 177 
-3.14324 -0.885437 4.32416 45 31 22 
5.78374 -0.0722548 11.0813 143 152 71 
-2.63006 -0.384721 4.47191 71 40 22 
-2.87353 0.245035 4.28693 53 31 18 
3.26039 0.513045 6.69927 176 159 151 
-3.05335 -1.20294 4.4147 47 37 28 
-2.96558 -0.845886 4.32656 108 82 67 
9.86448 -1.84564 19.1813 175 166 167 
-1.14795 -0.696225 3.34711 192 164 140 
-1.49852 -0.547703 3.56203 110 74 50 
-2.61881 -0.167533 4.46911 59 38 21 
-0.358375 -0.254003 2.85051 190 155 133 
-2.77616 0.015235 4.34915 40 26 23 
-0.372988 -0.411662 2.87484 211 188 174 
-1.10622 -1.23043 3.34524 184 144 119 
-0.547222 -1.2521 2.90665 211 184 167 
9.29973 -2.4784 20.6314 245 231 222 
-1.50093 -0.738193 3.56488 107 71 47 
-1.56227 -0.846106 3.47951 87 56 36 
-0.364028 0.152761 2.78061 181 147 122 
6.30497 0.175966 8.42651 137 151 90 
-3.10161 -0.47547 4.26797 27 20 14 
0.959494 -0.432462 4.29298 208 187 168 
-0.339354 -0.373841 2.84429 188 160 138 
10.0019 -0.691322 18.788 220 217 210 
-2.74869 -0.130409 4.35744 95 60 41 
10.857 -0.345712 17.777 255 255 253 
-0.448208 -1.062 2.95556 220 198 184 
-2.89585 -1.20334 4.416 47 36 30 
-0.417709 -1.16206 2.9332 101 84 74 
-1.54309 -0.287603 3.49633 185 155 129 
-2.71262 -0.329882 4.39184 105 74 54 
-2.82923 0.074802 4.2933 53 35 21 
-1.20373 0.291861 3.34379 229 208 189 
9.22252 -2.66939 20.3369 255 255 243 
1.02587 0.0195742 4.18254 233 208 186 
-2.92109 0.0736728 4.25628 40 26 13 
-2.85749 -0.653493 4.34749 114 95 80 
0.971083 -0.134644 4.25283 255 234 220 
-3.10678 0.18829 4.23706 63 45 33 
-3.11847 0.120591 4.24081 71 51 40 
-2.61912 -0.944448 4.53135 115 75 50 
-0.266634 -0.217793 2.7908 200 172 150 
-2.82886 0.299559 4.30798 120 93 76 
9.76198 -1.9136 19.2296 192 173 158 
6.23253 0.346948 9.27073 191 203 101 
-2.98733 0.0687861 4.24402 45 28 18 
-0.268174 -0.341947 2.79616 226 204 183 
6.16312 0.131368 10.565 148 163 94 
-0.584418 -0.158704 2.76044 71 46 26 
-2.66117 -1.17929 4.52761 59 42 32 
-2.82153 -0.988792 4.39436 105 77 65 
5.34453 0.0999332 11.4543 117 129 55 
-2.73445 0.0611146 4.35641 76 50 33 
-1.60501 -0.616361 3.41683 112 74 38 
-1.08132 -0.736176 3.30269 216 176 151 
0.46233 -0.666158 3.87298 219 192 171 
-1.67142 0.360618 3.29762 184 158 131 
-0.348965 -0.398327 2.8514 218 193 173 
-2.83211 0.109013 4.29537 50 31 17 
1.04949 -0.324554 4.17737 247 226 205 
-0.463374 0.422677 2.83548 233 211 188 
-2.71527 -1.12041 4.48519 50 32 20 
9.18244 -1.92719 19.5159 177 159 147 
-0.41647 -0.757782 2.92272 255 236 222 
-1.16249 -0.54547 3.37527 203 167 145 
-0.420002 -0.817102 2.92402 213 182 161 
-2.7194 -0.103191 4.37456 110 75 56 
0.979507 -0.342128 4.25659 217 198 181 
-2.82234 -1.2053 4.2415 41 37 28 
-3.06544 -0.511251 4.29082 23 22 17 
-2.62939 -1.11537 4.5445 51 29 18 
0.40742 -1.16434 3.75299 30 26 23 
3.50385 0.453825 4.73182 115 107 104 
6.17503 0.3867 9.45274 176 189 81 
-2.78644 -1.18455 4.45923 56 41 34 
-0.259968 -0.179208 2.77591 219 191 170 
-2.93546 0.245996 4.27259 52 34 22 
-3.11783 -0.778631 4.30756 48 33 28 
-1.65044 -0.0992234 3.34671 90 63 44 
-3.17964 -0.813483 4.32408 41 26 19 
3.48965 0.530147 6.09789 124 107 97 
1.04834 -0.0235201 4.16435 244 222 201 
-0.486991 -0.294226 2.87576 117 86 66 
-0.360839 -0.390235 2.85939 186 159 138 
-1.49259 -0.27083 3.56664 127 91 67 
-1.60699 0.366427 3.37144 110 82 61 
-3.08376 -0.583869 4.29158 33 29 26 
1.03986 0.0195801 4.17236 247 225 204 
-0.364362 -0.541197 2.86409 204 176 155 
-2.69689 -1.15632 4.49906 46 28 18 
-2.9898 -0.839891 4.30937 81 52 34 
-3.04881 -1.14717 4.3799 54 37 30 
-2.17063 -0.697837 4.18247 246 211 189 
-2.83442 -0.605854 4.36293 81 60 41 
-0.320769 -0.339287 2.81924 226 205 186 
-2.73639 -0.986256 4.4479 106 75 57 
-2.77317 -0.65966 4.38472 182 149 130 
-2.59263 -0.999171 4.55294 158 125 106 
-1.67111 0.342738 3.29684 185 161 137 
-3.00405 -1.14754 4.38451 41 28 22 
-2.89463 0.0297468 4.26835 25 20 16 
10.9893 -2.65028 20.5062 196 178 166 
-2.89692 -0.662961 4.33786 61 45 32 
-2.73966 0.138538 4.36489 65 42 24 
-1.27552 -0.103987 3.4272 255 242 226 
10.7658 -0.604539 18.0232 255 254 251 
-3.02389 -0.989196 4.33881 59 33 20 
-2.98649 0.0694126 4.24293 45 28 18 
-3.10656 0.278868 4.24245 75 58 48 
9.56019 -1.19693 19.4348 245 234 230 
-2.89778 -1.17343 4.40336 44 27 20 
-2.75447 -0.37244 4.37331 100 67 50 
0.615212 -0.812445 3.98592 184 142 120 
5.4612 0.23453 10.9038 153 167 90 
0.168812 0.190138 3.44332 80 81 73 
-2.66381 -0.293532 4.42075 52 25 8 
1.02058 -0.324754 4.21477 244 228 212 
-2.81434 -1.23134 4.44447 64 57 49 
-3.1795 -0.856036 4.33889 46 33 25 
-2.78922 0.107031 4.31974 63 35 21 
-2.66538 -0.191529 4.42195 61 35 20 
-0.212211 -0.144912 2.73529 203 178 156 
-3.13768 -0.846174 4.32553 54 39 32 
-3.03021 -0.89638 4.33577 73 57 44 
9.03421 -1.98536 19.7714 195 175 166 
-2.68992 -0.181368 4.40876 140 112 91 
-0.421124 -0.260626 2.89624 198 172 149 
-2.96746 -1.20189 4.4102 39 30 21 
0.980028 0.000982981 4.23539 249 224 204 
-3.1435 -0.882505 4.33601 51 34 27 
-3.09326 -0.925742 4.33764 43 29 20 
1.03198 0.231472 4.13338 192 161 140 
-2.81092 -1.15113 4.44443 68 54 45 
-0.810195 -0.10251 2.64198 202 176 151 
0.968392 0.319968 4.21657 188 160 138 
-0.206861 -0.0417882 2.72257 177 125 88 
-2.6247 0.135906 4.45945 66 42 30 
-2.85993 -0.20837 4.30665 37 19 15 
6.04269 0.211624 10.8385 156 170 93 
1.08544 -0.115881 4.13305 215 186 168 
-0.317089 -0.33362 2.82435 224 203 184 
-2.61887 0.100067 4.46138 52 33 18 
10.9837 -2.75892 20.5724 176 158 146 
10.6316 -0.410796 14.3142 217 207 206 
3.26083 0.518797 6.69701 176 158 148 
-0.840546 -0.0789034 2.66892 250 234 219 
6.12244 0.229361 10.7107 129 143 56 
6.03762 0.0380536 10.8516 150 165 84 
-3.00765 0.278533 4.23915 46 29 19 
-3.15424 -0.675488 4.29666 34 27 21 
-1.57802 -0.680394 3.45977 95 76 59 
5.80046 0.253 11.2534 140 148 71 
-3.13711 0.10681 4.23307 36 16 5 
-2.66326 -0.0120329 4.41845 109 73 49 
-1.11372 -0.730164 3.32618 213 183 157 
0.961225 -0.199157 4.27146 184 161 143 
10.8693 -2.92071 21.1036 204 176 164 
-0.342958 0.0791407 2.77152 195 165 139 
-1.11531 -0.809249 3.34123 229 208 189 
-2.8489 0.202917 4.28998 51 32 17 
-1.2078 -0.813322 3.403 254 233 216 
-2.94653 -1.19269 4.41432 67 54 45 
3.50573 0.453879 4.73387 115 107 104 
-2.90364 -1.16555 4.40847 80 67 59 
1.00217 -0.317342 4.22349 232 211 192 
-1.05611 -0.982106 3.29835 247 222 202 
0.517255 0.235624 3.80622 27 30 13 
-0.46269 0.0760794 2.86922 219 189 165 
-2.62217 -0.34123 4.47394 97 68 52 
0.506522 0.0561199 3.89344 83 63 54 
-2.65367 -0.76155 4.49434 126 85 57 
-1.60224 -0.489749 3.41202 163 117 93 
-2.97678 -0.469896 4.29881 29 18 16 
-3.19609 -0.0900518 4.24538 48 30 20 
-0.362992 0.0342388 2.79701 182 158 134 
-0.938932 -1.27078 3.22207 41 24 14 
-0.422442 -0.468664 2.91175 206 175 155 
-0.462055 0.104467 2.87165 210 181 163 
-3.12261 -0.767611 4.30661 36 25 19 
-3.19309 -1.0227 4.35442 38 28 19 
-3.05056 -0.916489 4.32689 45 26 20 
10.8201 -1.83882 17.7057 187 167 158 
-2.6408 -1.20182 4.54326 56 33 25 
5.52139 0.162738 11.3512 123 137 62 
1.0423 0.278452 4.13789 226 206 181 
-0.365469 0.224648 2.7778 162 125 98 
-2.61122 0.250962 4.469 45 31 20 
-2.71096 -0.386806 4.38757 70 43 26 
-0.349913 -0.531499 2.86032 203 176 157 
-2.64083 -0.386459 4.45779 61 34 17 
0.247186 -0.510324 3.62709 92 90 78 
-3.12674 -0.919126 4.32789 88 74 65 
-2.69969 -0.130116 4.39276 70 44 29 
-3.19229 0.0227681 4.2341 46 29 19 
0.308363 -0.464737 3.71552 30 29 25 
-3.10369 -0.655275 4.29016 101 78 64 
5.41709 0.208005 11.487 86 99 20 
-2.96332 0.0298432 4.23845 26 21 15 
1.02634 0.285486 4.14896 252 231 214 
-0.569073 0.181716 2.76075 91 61 37 
0.996581 0.330439 4.17524 237 216 197 
-0.751921 0.368287 2.56815 245 229 216 
-2.61136 -0.0802524 4.46476 87 54 35 
-1.55905 -0.435424 3.49895 92 56 34 
-0.755029 -0.457284 2.706 242 214 200 
-0.808381 -0.75409 2.76342 251 234 218 
-0.605048 -0.288912 2.75955 141 103 67 
-2.74537 -0.185996 4.35921 133 98 79 
-3.08902 -0.560921 4.28762 57 53 50 
-0.373602 -1.25232 2.93196 150 119 99 
1.04337 -0.261343 4.19418 229 207 184 
-0.785116 0.234555 2.60344 255 243 229 
12.508 -2.37438 20.2037 167 149 145 
-2.89312 -1.16843 4.4106 85 70 63 
9.13286 -2.13612 20.0931 182 164 154 
-0.848094 0.280741 2.64997 251 238 230 
-0.413591 -0.823925 2.9167 212 180 157 
10.7121 -0.632471 17.9248 255 255 251 
-3.179 -1.18659 4.38399 124 109 104 
-3.1971 -0.0922118 4.24406 46 28 18 
-2.96161 0.336331 4.25043 89 69 58 
-2.97221 -0.458818 4.2963 41 30 28 
10.8799 -0.670581 16.7425 230 225 221 
5.89101 0.144166 10.9622 142 154 78 
12.435 -2.35828 20.0857 167 149 145 
-0.299365 -0.487546 2.81895 136 105 84 
-2.26017 -0.644341 4.253 207 181 158 
-1.16863 -0.314046 3.37575 183 147 125 
3.21454 0.626354 6.71933 162 149 133 
-1.43737 -0.808285 3.58601 246 220 197 
-2.80958 -0.497987 4.37049 41 30 24 
-1.19675 -0.225455 3.3781 215 184 163 
-2.89145 -1.33596 4.44749 33 24 19 
-0.809757 0.320273 2.61616 251 232 215 
-1.17317 -0.872515 3.38344 251 229 215 
0.995731 -0.0882264 4.24275 181 149 126 
-0.438254 0.285088 2.8315 204 179 157 
3.7914 0.554119 8.55186 188 170 156 
-2.95516 -1.35711 4.4446 46 33 27 
-1.16315 -1.11167 3.37908 191 159 136 
-3.0419 -1.23898 4.40252 45 32 24 
-0.32774 -0.29001 2.82005 208 180 158 
-0.524135 -1.24318 2.88422 204 173 155 
-1.47033 -0.204317 3.57465 254 237 221 
-2.76083 -0.570642 4.38725 255 234 220 
-1.18445 -0.0136564 3.34718 218 186 163 
-3.18146 -0.878681 4.33442 58 40 36 
10.3997 -2.10155 19.3534 193 174 160 
9.51474 -0.713971 19.2572 246 245 241 
-2.61097 -0.0804354 4.46368 87 54 35 
1.78337 -0.237277 5.22228 177 157 124 
-3.1579 -1.28317 4.4139 52 45 37 
-2.96881 -0.457302 4.28845 41 30 28 
-1.21611 -0.526148 3.39033 116 89 68 
-2.1482 -1.07887 4.18268 174 150 122 
5.45347 0.368414 10.7857 197 209 111 
-2.70026 0.273438 4.38701 65 37 23 
10.3536 -2.8866 21.3195 194 171 163 
-2.62897 -0.146291 4.45368 60 39 22 
-2.87377 -1.05305 4.38817 168 131 113 
-0.602677 -0.163704 2.74537 89 72 54 
8.9964 -2.1071 20.0785 198 181 171 
-3.02555 -0.489985 4.28782 32 25 19 
-0.44142 0.127781 2.84982 216 193 175 
-0.281958 -0.200461 2.80239 211 184 165 
-2.7672 -0.764721 4.3991 109 76 57 
-1.78731 0.0176151 3.40026 194 166 145 
-1.4904 -0.714197 3.57833 118 86 61 
-1.46254 -0.602285 3.60409 229 207 193 
-2.74795 -0.513511 4.3869 160 123 105 
-2.96495 -1.2065 4.40928 43 34 27 
-2.62598 -0.145894 4.44518 60 39 22 
-2.62021 -0.538005 4.48842 88 53 33 
-3.25167 -1.57389 4.68881 171 152 137 
-0.386596 0.0270397 2.8117 185 154 126 
-0.306901 0.402885 2.71145 175 141 113 
6.46743 0.0833253 9.70842 174 189 124 
-2.62516 -0.956755 4.52858 127 90 64 
-2.77232 0.316184 4.32426 106 85 66 
-1.12464 0.0184209 3.30483 217 190 163 
10.9106 -0.461262 16.5092 255 255 255 
5.99648 0.141588 10.9708 137 152 85 
-3.17145 -0.774695 4.31277 39 30 23 
11.0921 -2.78611 20.7595 179 161 149 
-2.83695 -1.30158 4.27205 37 24 18 
-3.12171 -0.492673 4.26972 50 31 24 
-2.75989 -0.411549 4.3717 92 78 69 
-2.72939 -1.12458 4.47973 44 27 17 
-1.78942 -0.0204219 3.40662 200 173 152 
-1.11702 0.234541 3.27529 206 179 158 
0.591115 -0.452333 3.97562 226 180 156 
-0.796989 -0.121336 2.6448 221 198 180 
-1.19401 -0.155955 3.37063 255 240 222 
-3.19704 -0.885805 4.33366 39 29 20 
-0.460806 0.379743 2.84305 211 184 163 
-2.72009 -1.12992 4.48542 46 29 19 
-0.381709 -0.532902 2.88283 207 172 150 
-0.662989 -0.163138 2.67693 96 79 69 
5.31734 0.348498 11.6008 146 151 57 
-3.198 -0.299453 4.25773 30 17 8 
-2.60641 -1.21613 4.53861 78 64 55 
-3.15674 -1.00274 4.35859 40 27 21 
-2.74943 0.164558 4.33161 52 33 18 
-3.14987 -0.30487 4.25152 72 54 42 
-0.360527 -1.16416 2.95472 94 68 51 
-3.19502 -0.333919 4.26 35 18 10 
-2.58629 -0.690913 4.52751 219 203 187 
0.959534 -0.182147 4.27813 255 247 230 
-1.47167 -0.19159 3.57621 255 238 221 
-0.392024 0.283934 2.79104 197 165 140 
5.95887 0.413681 9.95453 191 206 103 
-3.22035 -0.708298 4.3052 33 22 18 
-2.72956 -1.14915 4.4843 55 41 30 
-1.17541 -0.54368 3.3838 239 207 186 
-3.08833 -0.973456 4.34446 48 29 22 
5.42159 -0.0207958 11.4303 77 88 45 
-2.69508 -0.353078 4.4072 49 27 14 
-2.6988 -0.139908 4.41771 137 97 72 
-3.06282 -0.919728 4.34043 45 24 19 
-2.89009 -0.922835 4.36235 73 47 32 
6.45989 0.239993 9.40767 156 163 93 
-1.20759 -0.278407 3.37979 251 224 203 
-2.87417 -1.0614 4.38934 180 143 125 
-3.04387 0.0768613 4.23151 34 23 17 
-2.91929 -0.847597 4.34354 80 52 38 
-2.43841 -1.24477 4.45039 50 46 37 
-0.409942 -0.646848 2.91107 212 180 157 
-2.78295 -0.555844 4.38537 47 34 25 
-2.78841 -0.139986 4.36504 43 34 29 
0.959084 -0.458047 4.28748 233 213 189 
-1.46542 -0.362049 3.58539 255 243 227 
-3.14415 -0.891002 4.3267 44 29 22 
-3.16941 -0.849338 4.32823 45 31 22 
-0.746922 0.0983614 2.57407 221 195 170 
-2.84591 -1.22402 4.44184 37 28 21 
-3.05525 0.199862 4.23897 43 26 16 
-3.12313 -0.768231 4.30782 36 25 19 
-0.230083 0.223338 2.67845 193 167 144 
10.7977 -2.88513 20.9396 193 170 156 
-2.96371 0.35247 4.24651 63 45 25 
-3.16746 -0.478617 4.26365 37 24 16 
-3.19617 -0.319492 4.25742 38 23 16 
-1.56322 -0.737832 3.47671 188 158 134 
-0.367557 -0.546166 2.86939 215 193 172 
-2.68561 0.11821 4.38893 65 42 26 
-2.8496 -0.882858 4.37507 141 106 100 
-2.46334 0.185241 4.35984 232 206 191 
-3.18285 -0.86339 4.33174 42 33 24 
-2.58027 -0.683301 4.52806 236 219 203 
9.4041 -3.24445 21.0271 227 225 226 
-2.7144 -0.238193 4.38939 76 50 37 
-2.70476 0.184728 4.38083 101 72 54 
-0.751242 -0.645236 2.71369 248 221 202 
-1.20354 -0.191277 3.37536 246 220 197 
-2.62596 -0.549416 4.48638 89 54 35 
-2.61763 -0.167251 4.46569 58 37 20 
-0.80201 -0.471598 2.74556 254 235 218 
-2.85957 -0.185228 4.30775 35 21 20 
0.951436 -0.228802 4.28297 240 221 207 
-2.77263 0.257074 4.33001 58 40 28 
-0.215059 -0.334943 2.75071 205 183 159 
-1.64393 0.342874 3.32957 165 131 103 
9.99839 -0.65767 18.8542 255 255 251 
-2.62667 -0.947257 4.51287 130 91 62 
5.4294 0.176192 11.4391 128 141 71 
-0.24717 -0.168224 2.77091 232 207 187 
-0.397241 -0.478164 2.89483 218 191 170 
-3.08558 -1.32542 4.32001 15 16 11 
-0.951128 -1.2339 3.22697 189 152 125 
-2.73284 0.136398 4.36442 62 39 23 
-2.75478 -0.760663 4.40526 128 90 71 
-0.3199 -0.873076 2.9777 41 32 23 
-2.67325 0.17608 4.41257 70 41 25 
-2.98645 0.258135 4.24114 48 31 23 
-1.28368 -0.0967689 3.44735 210 180 156 
-3.10779 -0.914276 4.32439 70 56 47 
-2.78064 0.078538 4.33293 61 34 17 
-2.76252 0.194668 4.34136 84 58 43 
-0.286664 -0.464043 2.81649 250 229 212 
-0.70319 0.141842 2.61018 153 136 126 
-2.92381 -0.929832 4.35341 82 56 41 
-3.02417 0.287921 4.24876 77 63 52 
-0.233001 0.11908 2.68458 218 198 174 
10.1374 -1.9344 19.3036 193 174 160 
-0.258825 -0.0251262 2.74693 213 187 164 
0.745833 -0.742077 4.12004 51 52 47 
-2.71774 -1.12379 4.47879 46 29 19 
3.45301 0.57427 6.51927 184 170 159 
-2.27059 -0.223718 4.22215 210 180 156 
-3.10952 -0.71364 4.28683 71 68 63 
-0.392633 0.325354 2.78868 187 156 128 
-2.60976 -0.0190547 4.47338 106 77 61 
-2.67943 -0.200624 4.42338 81 58 42 
0.998059 0.332356 4.17878 232 211 192 
-0.403587 -0.0764237 2.87809 197 169 145 
-1.20715 -0.23745 3.37861 251 226 206 
-3.19881 -0.0941499 4.24605 40 21 14 
-2.87486 0.027814 4.27679 30 21 14 
-1.12745 -0.922449 3.3613 229 210 193 
-0.354118 0.326874 2.76022 171 141 115 
-0.775991 0.218375 2.60102 255 238 226 
-1.60133 -0.544435 3.43689 118 77 55 
-3.0253 0.27437 4.23277 43 29 20 
-0.408758 -0.466886 2.9027 201 170 149 
-2.82062 -0.26146 4.33992 34 27 21 
-1.60866 -0.0542937 3.39142 135 108 87 
-2.61352 -1.17478 4.57274 71 49 36 
-2.62783 0.282842 4.45605 46 28 16 
-3.0166 -1.17843 4.38943 38 27 21 
-1.18547 -0.536906 3.39137 217 189 167 
-3.14138 -1.00751 4.34504 86 73 67 
-2.76902 -0.326146 4.37393 94 80 69 
-1.64277 -0.0866375 3.35121 94 67 48 
-1.19487 0.0394813 3.34861 218 192 169 
-0.748993 0.0920756 2.57398 210 184 159 
-0.354491 -0.546448 2.86456 209 186 168 
-0.442451 0.422959 2.82055 207 181 158 
-3.15037 -0.40645 4.26095 64 47 37 
10.6846 -2.46355 18.4004 222 220 225 
-2.67273 0.235647 4.40451 64 38 25 
-1.64886 0.299626 3.32943 139 94 73 
10.0417 -1.09249 19.1451 172 155 145 
-2.65026 -0.113851 4.43212 51 32 17 
-2.2337 -0.129971 4.17916 238 208 184 
-0.409064 -0.985513 2.92109 200 170 146 
-0.295184 -0.542405 2.8198 202 174 153 
-2.95586 -1.17829 4.39477 66 49 42 
6.21714 0.0466915 10.4502 128 139 61 
-1.46216 -0.601476 3.60069 225 204 187 
6.44585 0.170054 8.9521 188 174 137 
-0.21463 -0.428304 2.75541 216 195 174 
-3.04993 -1.28108 4.4159 62 53 46 
-2.42179 -0.719974 4.3903 202 174 152 
10.0977 -1.93152 19.2331 186 166 155 
-0.251341 -0.142246 2.76611 248 221 200 
-0.348559 -0.38973 2.85399 207 180 161 
-2.67283 0.232993 4.40201 55 29 14 
-2.73177 -0.566351 4.39196 244 225 208 
11.615 -2.34025 20.173 178 158 149 
-1.30742 -0.318342 3.47045 253 239 228 
5.93311 0.0118273 10.9592 154 166 90 
-2.647 0.152608 4.44234 58 32 17 
-2.94518 -1.19204 4.41121 67 54 45 
-0.391302 -0.850872 2.90758 210 175 153 
-2.63282 0.253308 4.44627 46 28 14 
-2.68558 -0.298964 4.41345 64 36 22 
-2.6782 -0.710491 4.45682 91 56 36 
5.22482 0.105613 11.645 232 217 198 
-3.21131 -0.24461 4.25489 39 25 16 
-2.94334 -0.931098 4.34701 78 57 40 
-2.7542 -0.652417 4.38157 237 208 190 
-3.20007 -0.90135 4.33644 57 44 36 
-2.90405 -1.22816 4.41855 40 27 21 
-3.214 -0.92304 4.34098 30 17 11 
-1.04189 -1.23506 3.29407 230 204 187 
0.198565 -1.78061 3.59289 143 129 116 
-2.60857 -1.17159 4.55837 73 49 37 
-0.264333 -0.333916 2.79403 209 184 164 
11.352 -2.7772 20.5098 220 218 219 
-0.250084 -0.460816 2.78692 210 187 169 
10.9901 -2.73998 20.7281 197 177 166 
-2.9045 -1.35887 4.49878 88 71 63 
0.967427 0.530763 4.20511 224 203 186 
-3.08585 -0.884977 4.33009 48 35 27 
-3.28384 -1.03454 4.36846 102 94 92 
-3.17863 -0.315843 4.25322 53 36 28 
10.09 -2.8355 21.1071 191 173 163 
-1.52284 -0.1832 3.52092 119 83 57 
-0.373274 -0.213397 2.86588 191 164 147 
-2.93801 -1.23027 4.40867 56 43 35 
-1.0697 -0.880732 3.3102 252 233 216 
-2.8739 -0.427069 4.3169 83 67 54 
0.968427 0.0894431 4.21771 220 199 172 
-0.791439 -0.118625 2.63167 235 212 194 
1.00533 -0.124497 4.21849 255 242 227 
-2.63752 -0.860619 4.49417 84 56 42 
-2.97286 0.138979 4.24808 46 27 13 
-1.1829 -0.79074 3.38288 251 230 211 
-3.14705 -1.1926 4.39177 90 73 66 
-2.68779 -0.440166 4.425 118 82 66 
-1.49887 -0.293912 3.55144 139 103 77 
-0.346697 -0.305786 2.84921 196 160 134 
-2.86018 0.00344022 4.31766 29 22 16 
-2.65372 -0.742331 4.472 131 96 76 
-1.23492 -0.733523 3.4288 233 216 200 
-0.378727 -0.53577 2.87665 204 169 147 
3.25522 0.526206 6.68694 202 185 175 
-2.96227 -1.2431 4.41487 41 28 22 
-1.53754 -0.758465 3.5146 65 39 24 
-2.75595 0.00218515 4.34338 76 54 40 
-0.456207 0.292247 2.85672 204 174 150 
-0.249009 -0.172781 2.76765 202 176 161 
-2.68094 -0.951059 4.47982 130 93 64 
9.62536 -2.38807 20.5498 187 167 156 
-2.82707 0.331371 4.30738 103 88 67 
-1.60055 -0.543884 3.43236 115 74 52 
-2.98817 -0.638845 4.31845 31 22 15 
-0.410743 -0.842165 2.91749 225 197 173 
-2.9131 0.0634941 4.26182 68 45 31 
-0.429229 -0.118716 2.89875 204 175 157 
-0.404812 -0.847247 2.91304 214 184 158 
-1.59236 0.188622 3.4141 70 48 27 
-2.70418 0.190413 4.37652 74 47 30 
-3.20774 -0.245523 4.25494 42 28 19 
-1.34943 -0.767152 3.48398 92 89 84 
-2.76979 0.109815 4.3334 65 39 22 
-0.775921 0.218312 2.60185 255 238 226 
-2.62948 -0.0540034 4.45045 67 40 23 
-2.77127 0.110303 4.33707 65 39 22 
-2.88025 0.171261 4.28311 42 28 17 
12.446 -2.2878 18.902 183 165 165 
-0.95518 -1.09979 3.21004 189 155 130 
-3.1746 0.0716803 4.23577 38 24 13 
-2.95094 0.0616286 4.25514 64 46 32 
-0.817474 -0.777643 2.76799 202 181 154 
-0.438766 -0.465571 2.92488 203 177 160 
-3.00045 -0.794605 4.32308 31 23 20 
9.3554 -1.79687 19.4561 255 255 253 
-2.57642 -1.49883 4.81319 68 62 64 
-0.26485 -0.383504 2.79412 224 197 178 
-2.82385 -0.990862 4.40044 132 104 90 
9.38181 -2.17718 20.2102 188 170 160 
-0.800934 -1.2249 3.10802 187 147 121 
-2.68941 -0.56555 4.42993 53 33 22 
-1.49461 0.216665 3.54237 155 108 78 
6.45523 0.0232383 9.93154 119 132 52 
-3.07237 -1.18402 4.38238 42 31 27 
-0.713765 0.196673 2.60269 131 108 92 
-3.11797 -0.559686 4.29972 20 16 13 
-2.74787 -0.661059 4.38231 245 224 207 
6.11792 0.00721972 10.6584 143 157 82 
-0.476969 -1.19506 2.88737 24 21 14 
-0.320629 -0.541763 2.84 215 188 167 
-1.22741 -0.0798039 3.38407 253 227 210 
-0.376707 -0.285454 2.86441 189 155 128 
6.16212 0.234208 10.6029 147 160 80 
-0.33918 0.223581 2.75609 169 129 103 
-3.07641 -0.857468 4.32524 61 48 40 
-2.76659 -0.302276 4.37032 92 72 61 
-2.4933 -0.623778 4.45392 209 178 157 
-2.62382 -0.164863 4.44891 57 34 16 
-0.212805 -0.0997666 2.73231 234 194 169 
-3.1526 -0.346119 4.2502 80 62 50 
-0.803636 -0.503024 2.74508 212 190 169 
-3.12921 -0.926513 4.33369 58 43 36 
9.59435 -1.67942 19.4725 255 253 250 
-0.402609 -0.0146723 2.83804 197 171 144 
-3.13601 -0.643328 4.27926 32 26 26 
-1.04256 -1.12283 3.28907 238 217 200 
9.25365 -1.90469 19.4857 211 193 181 
11.552 -3.2345 20.8371 229 227 228 
-2.61021 -0.125562 4.46829 71 43 29 
4.77825 0.575069 7.60782 148 162 74 
1.07309 -0.184281 4.16194 238 216 195 
-2.68817 0.112147 4.41111 62 39 23 
-2.93792 -1.0482 4.36386 89 60 42 
-1.589 -0.717993 3.45444 153 121 98 
-2.78295 -0.197741 4.36137 43 35 32 
6.01836 0.382712 10.032 198 215 103 
-0.955024 -1.10244 3.21702 183 151 126 
-3.15934 -0.67956 4.29884 35 28 22 
-2.79952 0.290903 4.31219 88 65 49 
-0.40755 -0.210091 2.88319 213 188 168 
-0.409662 -0.686305 2.91318 251 228 212 
-0.411176 -1.37588 2.88615 87 88 83 
-2.6902 -0.244364 4.41498 53 27 12 
-3.10992 -0.599863 4.29156 34 19 16 
-2.78892 -0.0640985 4.35409 38 30 27 
-3.16706 0.0384682 4.236 42 26 13 
-0.633323 -0.527453 2.72319 86 73 65 
-2.79128 -0.194609 4.3574 36 31 27 
10.9137 -0.6456 18.0919 255 255 251 
-1.22692 -1.17586 3.44522 244 231 212 
-2.80037 -0.398408 4.3891 46 35 29 
-0.411493 -0.471939 2.90105 205 177 155 
-2.6396 0.121513 4.43916 64 38 25 
11.0844 -0.674267 17.0162 255 253 253 
11.8734 -2.09247 16.8497 187 168 170 
-3.07165 -0.872623 4.3368 54 39 32 
10.4334 -2.83528 20.7507 190 170 159 
-3.1076 0.0285693 4.22846 30 21 16 
-2.57052 -1.49422 4.795 66 60 62 
11.3215 -3.1494 21.1216 255 255 253 
-0.410771 -0.471829 2.90548 205 177 155 
-0.32181 -0.361819 2.83457 197 165 142 
-3.11756 -1.25557 4.40406 79 68 62 
-2.43586 0.0521965 4.34388 243 215 193 
-3.10032 -0.968718 4.34124 50 31 25 
-2.7039 -1.23049 4.50906 53 43 33 
-2.99159 -0.801018 4.33839 25 20 14 
-2.92048 -1.01458 4.37767 75 54 51 
10.8434 -2.71609 20.7259 188 169 155 
-0.317097 -0.194644 2.82955 216 186 162 
-2.62924 0.277005 4.45126 45 27 15 
12.243 -2.52721 21.0481 228 228 230 
-2.70169 0.13257 4.38201 57 28 12 
3.36535 0.511388 6.60254 157 140 130 
-0.416491 -0.276503 2.89379 204 176 152 
-0.580888 -1.22531 2.93179 255 255 244 
-1.65048 0.328615 3.31789 121 94 65 
-2.70572 -0.380091 4.40192 60 34 19 
-2.64027 0.121639 4.44102 63 37 24 
-2.84956 -1.1685 4.42659 47 34 26 
6.4808 -0.00459966 9.65081 133 146 66 
-2.61719 -0.02247 4.47813 104 72 57 
-1.07411 -0.856086 3.3131 255 244 228 
-2.62315 -0.536534 4.48211 102 67 48 
-2.6511 0.00378633 4.41102 69 40 24 
-2.77024 -0.52613 4.38087 59 46 38 
-0.74026 -0.28573 2.69119 248 212 186 
-3.20403 -1.1473 4.38881 42 31 25 
-3.10538 0.23394 4.24179 65 48 38 
-2.62527 -0.352568 4.46541 57 31 14 
9.40155 -1.87107 19.5031 203 185 171 
-3.14564 0.188136 4.23757 35 21 12 
1.01937 -0.34158 4.22001 239 223 207 
-3.11586 0.26291 4.24368 36 23 14 
-2.76809 -0.0674527 4.35146 76 62 53 
-2.8835 -1.12916 4.39829 97 79 69 
-2.69822 0.128681 4.3823 66 40 23 
6.36005 0.251925 10.1472 134 140 50 
6.45123 0.156272 9.74336 176 189 120 
5.29431 0.202304 11.5753 221 206 187 
11.639 -2.44867 20.2044 221 220 226 
-3.20512 -0.709032 4.30995 42 29 21 
9.65752 -1.91026 19.5342 195 172 158 
-0.334206 -0.328474 2.83384 201 169 148 
9.30951 -2.08151 19.9373 185 167 155 
-0.324913 -0.0666968 2.82371 199 172 151 
-3.1219 -0.00886609 4.24998 25 16 17 
-3.21272 -0.9326 4.34568 45 32 24 
-2.497 -1.56514 4.89506 59 53 55 
1.06593 -0.189056 4.16304 242 220 199 
-3.07496 0.207829 4.23088 35 21 10 
12.3358 -2.21443 18.3434 179 160 154 
-1.52199 -0.543678 3.528 109 74 54 
-2.96689 -1.20182 4.40897 39 30 21 
-0.312286 -0.553666 2.83387 217 194 176 
0.224095 -0.707326 3.61818 56 50 36 
-1.405 -0.600278 3.55387 232 205 184 
-3.06369 -0.557631 4.28948 57 47 38 
-0.53278 -1.2561 2.89504 205 182 164 
-1.21742 -0.153455 3.3774 234 208 185 
-3.09932 -0.969101 4.33934 51 32 26 
-3.1745 -1.05991 4.36117 51 36 29 
-2.86847 -1.0344 4.37883 183 152 134 
-3.13442 -1.28422 4.41333 57 46 40 
-3.16443 -0.67966 4.30203 34 25 20 
-2.96684 -0.6718 4.31756 77 55 42 
-1.48671 -1.24654 3.64855 119 93 78 
11.133 -3.14743 20.3889 255 254 251 
-1.05731 -0.995905 3.30283 245 219 204 
11.2093 -3.20515 20.7208 255 254 250 
-2.83403 0.0692268 4.29562 51 33 19 
-2.62504 0.00627927 4.46042 52 28 18 
10.5558 -2.13316 19.6203 202 183 169 
-3.15414 -0.943123 4.35135 112 98 95 
-2.63711 -1.14732 4.53182 45 27 15 
-1.19578 -0.862352 3.40652 246 227 212 
-0.40774 -0.467398 2.90836 203 175 153 
-2.8513 -0.627426 4.34086 41 39 27 
0.60792 -0.758539 3.9722 216 175 153 
0.944873 -0.4318 4.30155 206 183 165 
-1.6903 0.0270451 3.32388 183 151 130 
0.602471 0.102317 3.95292 183 160 128 
-1.67179 0.124412 3.29783 223 200 186 
-1.05333 -0.796038 3.27953 211 186 166 
-0.872365 0.307301 2.66278 255 251 239 
-2.88549 -1.2545 4.4367 53 44 39 
-3.18961 -0.692452 4.30233 34 25 18 
-2.65339 0.133162 4.42616 82 55 38 
-0.342955 0.332176 2.74614 171 140 112 
-2.76546 -0.333458 4.36676 96 84 72 
-3.08901 -1.15503 4.38541 58 49 44 
-2.70811 0.25244 4.38733 62 36 21 
-2.6642 -1.22587 4.54896 43 32 26 
5.75181 0.061403 11.1055 150 163 73 
1.10869 -1.27987 4.53419 213 217 229 
-3.00049 0.266962 4.2407 44 30 21 
-1.17115 0.0409897 3.33875 235 207 185 
-2.74814 -0.202395 4.35949 105 79 62 
-3.14631 -0.920478 4.34128 79 64 57 
-0.289453 -0.168791 2.79594 192 158 131 
-0.394647 -0.474641 2.88891 208 180 158 
6.44692 0.245508 9.04528 197 176 147 
-3.12032 -1.07436 4.36279 126 104 93 
-2.64857 -1.17968 4.5353 55 38 28 
-3.17682 -0.592396 4.28701 60 51 44 
-3.19472 -1.0177 4.35365 39 26 20 
-2.61172 -0.0648001 4.46491 90 59 41 
-1.69908 -0.549236 3.4637 220 185 153 
-2.74513 -0.928863 4.43893 76 58 44 
-1.13106 -0.856663 3.34777 252 233 218 
-2.7663 -0.333464 4.36887 96 84 72 
0.933018 -0.37955 4.30572 224 197 180 
-2.57134 -0.714248 4.52952 237 215 201 
-0.400673 -0.0920965 2.8802 215 187 165 
9.89681 -1.93293 19.2547 185 162 148 
-1.23024 -0.926405 3.43272 249 231 217 
-3.10616 -2.00282 5.5591 186 177 162 
-2.6857 -0.068309 4.40405 72 43 29 
-1.27387 0.182041 3.40318 211 184 163 
-3.03372 -1.25077 4.40894 70 55 50 
-2.70291 -1.23623 4.51063 47 39 28 
-0.403272 -0.131 2.87466 208 177 156 
-2.83852 -0.808281 4.3596 215 183 162 
-2.85569 -1.20863 4.44122 48 35 27 
-0.388408 -0.73284 2.8992 227 197 171 
0.351217 0.055912 3.71367 60 60 48 
2.49636 0.643849 4.91821 131 150 61 
10.7806 -2.65246 20.5241 214 196 182 
10.4222 -2.22238 18.2378 220 219 225 
10.663 -2.62288 20.5915 183 161 147 
9.65215 -1.8473 19.3702 182 168 165 
-3.0197 -0.900953 4.3377 100 76 64 
0.507255 -1.02895 3.8858 113 93 82 
-0.344434 0.379883 2.73934 174 142 117 
-0.413304 -0.937984 2.92265 217 190 171 
-3.0502 -1.23462 4.40166 52 39 31 
-3.07217 -0.930226 4.33466 47 33 24 
6.63299 0.188678 10.5045 143 159 94 
-0.293288 -0.0681631 2.78836 198 163 141 
-3.12112 -0.684474 4.2856 34 29 23 
-2.63818 0.101912 4.43633 89 63 48 
-2.66515 0.0868752 4.41102 66 45 28 
10.1985 -1.98609 19.5756 181 159 145 
-2.89142 -1.18228 4.4145 84 69 62 
-0.604268 0.208594 2.72215 134 103 83 
-0.12137 -1.32165 3.23474 66 53 44 
9.46687 -1.91186 19.4907 199 180 166 
-2.85713 0.161997 4.29303 47 31 18 
-2.87469 -0.382768 4.3173 83 60 44 
-2.59952 0.0753157 4.47707 66 50 37 
-3.10769 -0.898157 4.33341 71 54 46 
-3.12866 -0.978027 4.34821 47 37 28 
10.3428 -2.55734 20.599 176 153 139 
-0.434749 -0.998476 2.93826 215 187 165 
12.504 -2.31281 19.4544 173 155 151 
5.40504 0.161166 11.5023 194 203 124 
6.39706 0.0238265 8.84109 103 105 32 
-0.457512 -0.760848 2.93601 203 176 155 
-3.20964 -0.748377 4.30587 31 20 14 
-0.432095 -0.502364 2.92208 223 201 180 
-2.7273 -0.195406 4.35942 100 69 49 
-3.14662 -0.740996 4.30833 46 33 27 
-2.6882 -0.439995 4.42605 116 81 61 
-2.22946 -0.27159 4.19271 220 188 165 
-1.46586 0.114095 3.56093 206 181 159 
-0.399104 -0.593426 2.89219 209 181 159 
-3.07499 -0.923867 4.34741 113 98 93 
5.94054 0.0678381 10.8143 138 150 76 
-2.75095 -0.00460052 4.34864 86 59 40 
-2.67981 -1.24336 4.5176 25 20 16 
-3.00329 -1.20688 4.39638 43 30 21 
-3.00562 -1.24247 4.40365 59 46 38 
-3.11114 -0.949162 4.33903 50 37 29 
9.57855 -1.82581 19.4877 159 154 150 
-2.87677 -1.32501 4.41176 30 23 15 
1.08985 0.0383168 4.12113 228 211 191 
-1.06659 -0.842112 3.29941 212 186 169 
-2.6212 -1.20083 4.56689 75 56 49 
-1.50001 0.22212 3.53312 140 93 63 
-2.60261 -0.883706 4.54014 115 80 61 
-3.19734 -0.296241 4.25016 29 16 7 
-2.84007 -1.20726 4.44302 41 31 22 
-2.58026 -0.973893 4.55309 201 174 157 
-0.419635 -0.506056 2.90556 219 196 178 
-2.97543 -0.656135 4.3111 51 35 22 
-2.84595 -0.881314 4.36616 119 82 66 
-2.74267 -0.270512 4.3577 86 60 45 
-3.19817 -1.01957 4.36085 44 31 23 
-1.11087 -0.983186 3.34665 247 225 211 
10.8675 -2.66967 20.6363 214 196 182 
0.564186 -0.907425 3.95847 181 146 127 
-0.416249 -0.439252 2.8999 255 232 214 
10.1586 -1.76525 19.1069 255 255 255 
-2.74765 -0.00584437 4.34601 87 56 38 
-2.79107 -0.182449 4.36604 29 21 18 
-3.20595 -0.752289 4.30696 36 25 19 
-2.60123 -0.885444 4.52701 118 83 63 
-0.286658 -0.476959 2.81729 249 230 215 
-2.2628 0.288908 4.18198 242 217 197 
11.8662 -2.09155 16.84 187 168 170 
-0.808614 0.181423 2.62401 250 228 205 
-3.1255 0.0397057 4.23778 30 17 8 
5.95679 0.406141 8.05205 171 186 83 
-2.91672 -1.34164 4.45261 27 20 12 
-3.17837 0.0657094 4.23602 43 27 14 
11.3922 -3.14046 20.6362 232 230 231 
-2.79743 0.0581636 4.32595 60 39 22 
-2.70503 -0.336278 4.40353 116 81 62 
10.7785 -2.51797 20.2376 191 169 158 
-2.99733 0.00807975 4.24789 43 34 25 
-2.6268 -0.195925 4.4459 89 56 37 
-2.6341 -0.338886 4.45776 86 60 43 
-0.282681 -0.250344 2.79811 224 202 181 
10.7275 -0.445684 17.9186 252 251 247 
-0.779803 0.367459 2.58779 255 236 222 
-1.75183 0.215578 3.36391 215 198 180 
-2.73075 -0.417701 4.38958 99 68 50 
-0.303088 -0.535109 2.82355 213 182 162 
-0.422545 -0.537455 2.90984 212 185 164 
-0.345079 -0.530107 2.8583 201 176 156 
-1.21123 -0.219852 3.3778 244 219 197 
-2.93925 0.0841239 4.25724 61 39 25 
-2.77845 -0.0784792 4.35282 46 39 33 
1.01997 0.00657359 4.19975 205 177 156 
-0.38066 -0.543011 2.87907 208 180 159 
-2.8042 0.167426 4.31515 58 40 26 
9.2557 -3.29267 20.8449 233 233 233 
-0.238416 -0.478416 2.77878 236 216 192 
10.7191 -2.91923 20.6694 228 228 230 
-3.16447 0.269496 4.25711 34 24 15 
-1.22761 -0.430058 3.40804 226 201 179 
-2.68643 0.19815 4.39408 72 43 25 
-0.86008 0.216254 2.66102 242 223 206 
-1.66127 -0.0350857 3.3311 108 78 52 
-0.727843 -0.286618 2.67887 234 206 184 
-1.55936 -0.669581 3.48306 113 84 66 
-2.64504 -0.253198 4.44474 66 43 25 
-0.710062 -0.234657 2.66156 254 236 222 
-0.752603 -0.449204 2.7028 254 236 222 
-3.12283 -0.980327 4.34321 46 36 27 
-2.60117 0.176776 4.46877 63 45 33 
-2.73786 -0.416162 4.36585 110 78 65 
11.0192 -0.886652 17.3497 255 255 255 
-2.69419 0.0639439 4.39109 67 38 22 
-0.844867 0.282982 2.64534 255 246 237 
-3.28709 -0.948577 4.35435 24 20 17 
3.3371 0.519207 6.62099 178 161 151 
10.9858 -1.44741 16.1579 151 138 132 
-0.791616 0.467384 2.54374 210 187 155 
10.8813 -2.4746 20.1264 193 176 166 
5.33519 0.0339066 11.4701 168 180 98 
-2.93516 -1.2136 4.40651 40 27 18 
-2.64408 -0.479595 4.4554 138 102 78 
10.8356 -0.63867 17.9473 255 255 251 
0.962981 -0.000103517 4.25885 252 229 211 
3.2973 0.581976 6.66357 195 178 168 
-3.06494 -0.879395 4.33117 45 30 23 
