ply                 
format ascii 1.0    
element vertex 45
property float x    
property float y    
property float z    
property uchar red  
property uchar green
property uchar blue 
end_header          
-0.0688979 0.0534492 1.49759 158 154 145 
-0.200337 -0.375086 1.7626 33 27 11 
-0.56555 -0.433663 2.04705 212 203 198 
-0.0977547 -0.130587 1.65619 227 213 202 
-0.0424479 -0.436607 1.62068 223 209 206 
-0.595921 -0.267946 1.98407 229 228 223 
0.00488114 -0.555008 1.58972 40 18 7 
-0.0379738 0.0532264 1.47006 194 182 166 
-0.114209 -0.503779 1.68073 209 198 192 
-0.584741 -0.366983 2.05898 46 29 22 
-0.0191121 -0.435106 1.60137 188 177 173 
0.128506 -0.384923 1.48303 59 39 40 
-0.235666 -0.635095 1.78864 210 208 193 
0.146793 -0.284428 1.4606 185 181 172 
-0.476386 -0.474454 1.97659 205 192 183 
-0.138162 -0.555615 1.70485 207 206 201 
-0.477729 -0.486921 1.97889 212 205 197 
-0.496644 -0.340242 1.98497 206 194 182 
-0.474239 -0.487213 1.97757 49 42 34 
-0.476486 -0.475124 1.97796 202 190 178 
-0.602257 -0.255739 1.97536 182 190 151 
-0.124194 0.00567814 1.66904 188 178 166 
0.0121122 -0.405278 1.57517 222 211 205 
0.00551614 -0.444296 1.58201 209 196 190 
0.177315 -0.278342 1.43687 221 211 202 
-0.099255 -0.118614 1.65764 208 190 180 
-0.0490006 -0.391531 1.62326 202 191 185 
-0.107172 0.0222738 1.65983 164 153 125 
-0.115777 -0.556823 1.68937 201 190 186 
0.0506913 -0.340778 1.54901 213 195 183 
-1.85229 -1.38035 5.31984 136 121 126 
0.0515978 -0.343563 1.54811 63 45 41 
0.17752 -0.278231 1.43579 210 200 191 
-0.601469 -0.25517 1.97195 217 220 173 
0.0765979 -0.418379 1.52563 186 179 171 
-0.582595 -0.297691 2.00533 163 163 153 
-0.118905 0.0316646 1.66736 187 172 151 
0.121302 -0.399583 1.49107 193 188 182 
-0.0111573 -0.501694 1.5975 45 38 32 
0.0296579 -0.633959 1.56718 240 235 231 
-0.601741 -0.255157 1.97254 217 220 173 
0.00397022 -0.475158 1.58264 213 203 191 
0.198837 -0.322375 1.42088 201 197 186 
-0.0975762 -0.133047 1.65595 151 133 123 
-1.85366 -1.37311 5.30379 109 92 98 
