ply                 
format ascii 1.0    
element vertex 570
property float x    
property float y    
property float z    
property uchar red  
property uchar green
property uchar blue 
end_header          
-0.0729671 0.0549924 1.50018 158 154 145 
-0.205752 -0.380506 1.77291 33 27 11 
-0.577129 -0.440634 2.06628 212 203 198 
-0.101919 -0.131733 1.66293 227 213 202 
-0.045394 -0.443173 1.62804 223 209 206 
-0.608552 -0.272175 2.00269 229 228 223 
0.00285503 -0.563703 1.59702 40 18 7 
-0.0415858 0.0547209 1.47204 194 182 166 
-0.118191 -0.511472 1.68968 209 198 192 
-0.596817 -0.372837 2.07893 46 29 22 
-0.0216972 -0.441666 1.60832 188 177 173 
0.128203 -0.390777 1.48738 59 39 40 
-0.241405 -0.645064 1.8006 210 208 193 
0.14662 -0.288577 1.46403 185 181 172 
-0.486252 -0.481902 1.99326 205 192 183 
-0.142454 -0.564201 1.71456 207 206 201 
-0.487605 -0.494585 1.99563 212 205 197 
-0.507031 -0.345391 2.00205 206 194 182 
-0.484051 -0.494873 1.99425 49 42 34 
-0.486351 -0.482583 1.99467 202 190 178 
-0.615077 -0.259785 1.99394 182 190 151 
-0.128907 0.00682025 1.67554 188 178 166 
0.00997629 -0.411349 1.58144 222 211 205 
0.00333094 -0.45104 1.5886 209 196 190 
0.177632 -0.282427 1.43983 221 211 202 
-0.103402 -0.119705 1.66448 208 190 180 
-0.0521058 -0.397314 1.63046 202 191 185 
-0.111594 0.0235852 1.66612 164 153 125 
-0.119711 -0.565436 1.69875 201 190 186 
0.0490848 -0.345762 1.55446 213 195 183 
-1.89761 -1.41403 5.46954 136 121 126 
0.050009 -0.348596 1.55356 63 45 41 
0.177839 -0.282316 1.43872 210 200 191 
-0.614277 -0.259209 1.99043 217 220 173 
0.0755075 -0.424748 1.53098 186 179 171 
-0.594828 -0.302374 2.02413 163 163 153 
-0.123515 0.0331464 1.67379 187 172 151 
0.120908 -0.405679 1.49566 193 188 182 
-0.0135252 -0.509428 1.60469 45 38 32 
0.0281577 -0.644135 1.57444 240 235 231 
-0.614554 -0.259194 1.99103 217 220 173 
0.00180083 -0.482444 1.58939 213 203 191 
0.199583 -0.327251 1.42374 201 197 186 
-0.101685 -0.134388 1.66281 151 133 123 
-1.89916 -1.40671 5.45325 109 92 98 
0.183577 -0.304869 1.40468 243 243 235 
0.329764 -0.185919 1.27431 209 202 192 
-1.93915 -1.41062 5.44233 252 255 255 
0.325668 -0.126418 1.27724 239 232 222 
0.121909 -0.380071 1.46388 230 222 209 
0.0877008 -0.327635 1.48568 221 214 208 
-2.07632 -1.22796 5.56862 115 125 135 
0.0746009 -0.414667 1.50045 200 190 178 
0.134784 -0.36997 1.45322 211 201 199 
0.384228 -0.167671 1.22613 237 231 215 
0.308308 -0.215381 1.29253 192 195 174 
-2.01591 -0.928876 5.2124 255 253 252 
-2.04709 -0.94969 5.31871 251 244 234 
0.0655463 -0.377927 1.50912 58 39 25 
-1.98316 -1.33062 5.45014 248 229 233 
0.310602 -0.156935 1.28867 220 216 205 
0.0586849 -0.442129 1.51496 210 193 183 
0.241585 -0.266154 1.3546 188 181 175 
0.0820638 -0.38984 1.49634 203 196 188 
0.204036 -0.257112 1.38337 196 193 188 
-1.91072 -1.40177 5.37922 158 154 155 
0.0649902 -0.346629 1.51008 201 187 178 
-0.0747209 -0.268032 1.61175 153 144 135 
-2.43006 -1.19157 5.80307 221 216 236 
0.316034 -0.232239 1.28891 207 199 188 
0.330497 -0.107442 1.26688 215 212 205 
0.0820684 -0.422651 1.49719 97 92 86 
0.310675 -0.195755 1.29041 203 196 186 
0.185175 -0.232796 1.39847 245 243 228 
-2.01268 -1.14852 5.47663 90 61 66 
0.271176 -0.193933 1.32254 222 218 209 
0.143885 -0.376594 1.44344 60 46 35 
0.0449625 -0.334956 1.52636 87 70 62 
0.338256 -0.223649 1.2706 195 192 177 
-0.0267652 -0.224781 1.44464 185 159 144 
0.233962 -0.194354 1.35434 204 189 182 
0.344311 -0.220128 1.26247 57 43 34 
0.0608754 -0.406879 1.51431 253 243 242 
-0.133473 -0.29312 1.65787 197 189 186 
0.25029 -0.199956 1.34415 211 200 194 
0.341832 -0.140323 1.26404 253 247 233 
0.0411934 -0.355698 1.5282 36 22 9 
-2.03178 -0.941385 5.2729 229 222 214 
0.143742 -0.283288 1.43628 185 181 172 
-1.57689 -0.428801 3.53118 194 190 187 
0.0969968 -0.326366 1.4807 187 172 165 
0.277023 -0.148665 1.31705 238 228 216 
0.259049 -0.253199 1.33689 205 196 181 
0.264071 -0.21426 1.33038 220 217 212 
-1.94487 -1.36831 5.29385 120 114 116 
0.080228 -0.332679 1.49455 249 239 230 
0.327242 -0.228447 1.27857 230 224 210 
0.276083 -0.242179 1.32295 199 189 180 
0.0992102 -0.308236 1.47525 35 28 20 
0.386423 -0.0897789 1.22126 186 173 157 
0.0949297 -0.406291 1.4871 65 57 54 
-0.0278828 -0.129763 1.44337 179 174 171 
-2.10001 -0.925587 5.05756 254 254 252 
-2.12495 -0.918979 4.94103 252 253 235 
2.12908 -1.79095 4.20602 255 255 253 
-1.93723 -1.44085 5.55846 156 152 153 
-0.0301413 -0.192962 1.45019 189 176 134 
-1.95137 -1.42259 5.47667 254 255 255 
0.118875 -0.331932 1.46349 242 241 211 
2.72103 -1.68341 4.40503 97 92 96 
-1.96983 -1.39706 5.41167 222 213 214 
0.00789655 -0.402592 1.55252 38 33 27 
0.232715 -0.299585 1.36566 108 100 98 
0.336856 -0.199384 1.26842 64 56 45 
-0.0808494 -0.258639 1.61459 242 228 217 
0.125302 -0.358239 1.45723 46 33 27 
0.131412 -0.297869 1.44883 196 197 183 
0.313218 -0.242933 1.29279 140 142 131 
0.295824 -0.220428 1.30678 62 53 44 
-1.96415 -1.3939 5.39112 212 202 203 
2.02308 -1.81247 4.31702 255 254 251 
-0.0552077 -0.0474294 1.45017 178 178 176 
-2.11849 -0.913115 4.92056 255 255 236 
-1.88924 -1.4188 5.55597 240 241 245 
-1.93271 -1.40685 5.41864 255 254 255 
-1.88058 -1.40125 5.41903 136 121 126 
2.03882 -1.83607 4.25367 134 124 125 
-0.461517 -0.274209 1.92922 64 53 49 
-1.99231 -1.33592 5.46881 219 200 204 
0.280302 -0.181897 1.3162 213 205 202 
-1.9697 -1.42867 5.43513 149 147 148 
0.0509938 -0.346274 1.52319 219 210 201 
0.126536 -0.348474 1.45383 198 185 177 
-1.9966 -1.15735 5.52401 212 198 198 
0.273411 -0.17627 1.32128 167 166 161 
0.320168 -0.189362 1.28208 144 139 135 
2.14783 -1.77994 4.14831 255 255 251 
-1.91881 -1.42579 5.51639 113 98 103 
0.103182 -0.409097 1.4788 203 193 184 
0.121498 -0.400136 1.45523 191 192 187 
0.057789 -0.317336 1.49706 186 179 133 
0.245174 -0.173213 1.34327 162 161 156 
0.227916 -0.247263 1.36648 40 37 32 
0.377499 -0.0988557 1.23421 172 168 143 
-1.99679 -1.14314 5.42635 117 84 91 
-1.95779 -1.12789 5.39632 179 164 161 
0.212617 -0.194684 1.37319 188 175 159 
0.222383 -0.273065 1.37061 220 217 208 
-2.01257 -1.45416 5.5922 107 92 97 
2.24713 -1.77519 4.04107 255 255 251 
2.10073 -1.82821 4.17427 110 83 90 
0.0681327 -0.369011 1.51228 206 180 167 
-2.02448 -1.16107 5.50919 90 54 66 
2.23827 -1.76965 4.03109 253 253 251 
-2.04913 -1.17749 5.57891 91 53 66 
2.12715 -1.77148 4.11963 252 252 250 
-0.00687469 -0.17557 1.48611 220 208 192 
-0.0731416 -0.242019 1.66785 247 233 224 
-0.0285501 -0.143878 1.50277 199 188 184 
-0.067322 -0.103672 1.65985 243 216 199 
-0.00235019 0.00876825 1.46256 64 43 14 
-1.91739 -1.41277 5.47749 240 235 239 
-0.0153931 -0.146203 1.49123 176 169 159 
-0.124386 0.0204661 1.70002 204 188 175 
-0.0205096 -0.219015 1.4977 196 207 149 
-0.0886953 -0.215345 1.67769 236 213 195 
-0.0198847 -0.100801 1.49329 218 204 203 
-0.0324676 0.0310696 1.48804 200 199 195 
-0.010458 -0.203072 1.48925 174 174 164 
-0.0165753 -0.132859 1.49153 171 165 131 
-0.0390202 -0.165328 1.51242 210 201 186 
-0.0252906 -0.0347349 1.48589 196 189 183 
-0.101145 -0.272412 1.68964 228 210 198 
-0.0291806 0.00426099 1.48733 48 42 30 
-1.89107 -1.40474 5.47455 247 255 255 
-0.053484 -0.223863 1.52771 197 194 187 
-0.142629 -0.231017 1.71862 209 191 179 
-0.0508595 0.0355532 1.50462 232 222 212 
-0.0180609 -0.174617 1.49227 245 255 210 
-0.0737981 -0.0510712 1.66332 222 212 211 
-0.0915945 0.00531049 1.66972 221 210 165 
-0.0516259 -0.275404 1.65079 226 207 203 
-1.89176 -1.42859 5.54561 123 122 140 
-1.9043 -1.41703 5.51615 248 255 255 
-0.0821084 -0.161287 1.67438 233 219 206 
-0.0699157 -0.121577 1.66294 58 34 22 
-0.0106034 -0.0740669 1.48455 246 233 214 
-1.89515 -1.40458 5.42948 118 108 116 
-1.86951 -1.40337 5.49501 247 255 255 
0.241905 -0.26846 1.40594 188 188 178 
-1.91254 -1.43002 5.51892 149 150 168 
0.25314 -0.20176 1.39216 204 196 175 
-0.0376566 -0.049133 1.49645 251 248 243 
-1.86015 -1.39355 5.46308 179 185 199 
-1.93322 -1.42934 5.48263 145 141 155 
-1.90828 -1.42514 5.50454 121 118 135 
0.283938 -0.255494 1.36829 205 199 177 
0.271787 -0.183314 1.37513 223 216 206 
0.174452 -0.267478 1.46758 210 196 183 
-1.86636 -1.39413 5.43823 94 83 91 
-1.88438 -1.41275 5.5002 94 82 92 
0.186884 -0.309945 1.42923 243 243 235 
0.127834 -0.389408 1.48287 59 39 40 
0.33526 -0.189056 1.29573 209 202 192 
-0.0509835 -0.0509259 1.48764 255 249 241 
0.331882 -0.128878 1.2924 254 252 239 
0.0849398 -0.426999 1.51859 255 250 244 
-0.0305498 -0.195641 1.48015 189 182 154 
-0.0431017 -0.032056 1.47493 219 216 207 
0.313105 -0.152044 1.31318 218 214 211 
0.268987 -0.217911 1.3531 228 227 222 
-0.0333783 0.0939017 1.45989 203 189 178 
0.100249 -0.424055 1.49839 255 255 255 
0.347702 -0.142596 1.28555 253 247 233 
-0.613119 -0.25993 1.9893 211 206 168 
-0.124607 -0.0091125 1.67336 48 32 17 
0.097832 -0.416813 1.50517 230 226 217 
-0.0277038 -0.243894 1.47751 236 217 177 
0.331669 -0.231266 1.29643 210 203 193 
-0.0296093 0.0823188 1.45773 222 214 203 
-0.0915783 -0.157004 1.65137 232 215 207 
0.340854 -0.244703 1.29488 223 219 210 
0.067772 -0.407797 1.53225 213 194 177 
-0.0503824 -0.201745 1.49539 199 206 139 
0.389914 -0.170267 1.24455 237 231 215 
-0.0431645 0.030408 1.47244 184 187 168 
0.104718 -0.399894 1.50032 225 212 206 
-0.646922 -0.255614 2.00026 170 185 130 
0.0658289 -0.378674 1.53948 227 204 196 
-0.663107 -0.255768 2.01202 30 18 0 
0.00669803 -0.270467 1.50041 13 3 0 
-0.0150128 0.0477848 1.43622 177 165 141 
-0.0441621 -0.202657 1.48452 213 215 140 
0.0774742 -0.441711 1.52209 234 235 230 
-0.0306981 -0.106279 1.48424 210 201 196 
0.246154 -0.271138 1.38018 188 181 175 
0.0834103 -0.396189 1.52049 203 196 188 
0.341412 -0.12437 1.28699 192 187 157 
0.176911 -0.280469 1.43381 211 201 191 
0.0652276 -0.447575 1.53461 237 232 228 
0.207694 -0.261549 1.40785 196 193 188 
-0.631754 -0.260048 1.98404 218 208 146 
-0.0415285 0.0545577 1.46964 194 182 166 
0.0902162 -0.335039 1.50755 196 185 165 
0.0812848 -0.337271 1.51681 229 218 212 
-0.044339 -0.144857 1.48847 199 197 184 
0.0572964 -0.451413 1.54612 219 206 197 
0.147779 -0.391566 1.46026 63 57 41 
-0.061574 -0.00474684 1.49219 24 11 0 
0.0663288 -0.437694 1.53521 206 205 200 
0.311517 -0.249557 1.31588 199 192 174 
-0.031683 -0.13257 1.47948 151 151 143 
0.262459 -0.256441 1.35747 197 183 172 
0.013344 -0.373194 1.57833 213 199 196 
0.321461 -0.236056 1.31106 207 199 188 
0.2443 -0.314161 1.3778 53 53 45 
0.335986 -0.109151 1.28802 215 212 205 
0.31661 -0.199598 1.31528 203 196 186 
-0.0453971 0.116581 1.46763 177 178 164 
-0.0284366 -0.0889818 1.47233 231 215 190 
0.305649 -0.137033 1.31857 203 190 181 
0.187971 -0.23642 1.41962 245 243 228 
0.248415 -0.299684 1.3731 176 174 149 
0.275503 -0.19701 1.34367 222 218 209 
-0.0634851 -0.382506 1.6335 198 185 179 
0.101217 -0.313511 1.49965 40 31 24 
-0.0813904 -0.298649 1.64561 211 194 187 
0.271771 -0.233619 1.34943 180 182 171 
0.146125 -0.381764 1.46445 60 46 35 
0.0663038 -0.36269 1.53677 204 186 176 
0.0460796 -0.340875 1.5554 87 70 62 
0.0349835 -0.495159 1.55719 190 179 161 
0.344205 -0.227696 1.29322 195 192 177 
-0.0229992 0.0522628 1.44511 206 196 171 
0.241051 -0.295938 1.38256 238 232 218 
-0.00670772 -0.39736 1.58813 201 194 188 
-0.0327007 -0.103401 1.47133 222 207 164 
-0.114457 -0.179469 1.67193 189 176 170 
0.353679 -0.208299 1.27929 212 205 189 
-0.0101768 -0.443178 1.59611 75 66 61 
-0.0439157 -0.4141 1.6146 184 181 176 
0.132293 -0.367727 1.47863 150 143 135 
0.00139758 -0.298227 1.53842 191 178 100 
0.28857 -0.242809 1.33749 186 175 169 
-0.0408039 0.00430964 1.47504 36 33 18 
0.349782 -0.223259 1.28245 57 43 34 
0.062089 -0.414023 1.54147 253 243 242 
-0.659114 -0.253374 1.99693 70 55 34 
0.129272 -0.350915 1.47725 65 52 44 
0.145329 0.0842925 1.25847 224 228 205 
0.388239 -0.208673 1.24399 226 233 181 
-0.647289 -0.253504 2.01198 20 15 0 
0.329232 -0.193052 1.30256 169 166 157 
0.12064 -0.336214 1.48359 242 241 211 
0.204118 -0.324555 1.41215 239 226 184 
0.146109 -0.287715 1.45921 185 181 172 
-0.126263 -0.0550111 1.68447 208 189 174 
-0.0180291 -0.414578 1.59124 81 66 61 
0.281881 -0.15137 1.34026 238 228 216 
-0.0359606 -0.0232237 1.46091 238 252 177 
-0.0763136 -0.273393 1.64459 138 128 119 
-0.068132 0.0561074 1.4925 46 38 27 
-0.011114 -0.435368 1.59002 45 34 28 
0.282584 -0.225145 1.33719 190 180 171 
-0.0511111 -0.0505566 1.47705 255 252 246 
0.317648 -0.163732 1.30717 205 198 188 
-0.101969 -0.131244 1.66128 227 213 202 
0.0665039 -0.343815 1.53657 181 166 159 
0.280736 -0.245809 1.34489 199 189 180 
-0.0126587 -0.281843 1.52682 41 12 0 
0.392478 -0.0910781 1.24057 186 173 157 
0.12638 -0.376473 1.48535 45 37 24 
-0.619047 -0.243018 1.9633 219 212 206 
0.285629 -0.185307 1.34088 213 205 202 
0.249108 -0.24377 1.37703 64 49 30 
0.0463715 -0.355766 1.55291 44 27 17 
0.317443 -0.16106 1.31689 240 237 228 
0.236826 -0.305063 1.39007 108 100 98 
0.1255 -0.387763 1.49287 230 221 206 
0.342806 -0.202807 1.29094 64 56 45 
-0.0823491 -0.264108 1.65113 242 228 217 
0.274327 -0.220477 1.34414 196 193 188 
-0.130084 -0.118711 1.69734 170 163 155 
-0.0625525 -0.0488468 1.49606 167 177 104 
-0.0481625 0.0564277 1.47967 184 181 166 
0.13387 -0.303553 1.47589 196 197 183 
0.395223 -0.107131 1.24294 179 178 176 
0.300973 -0.224196 1.32956 62 53 44 
0.0362851 -0.305689 1.51728 226 224 201 
0.0655664 -0.350328 1.52754 202 185 175 
0.316902 -0.210659 1.31186 211 206 186 
-0.122921 0.0324946 1.66524 187 172 151 
0.253513 -0.202577 1.36532 169 166 161 
0.342836 -0.189709 1.28724 48 43 37 
-0.00669648 0.0668368 1.445 166 154 140 
-0.062556 -0.39025 1.64067 189 176 160 
0.106794 -0.372269 1.49817 191 172 157 
-0.00779926 0.0665312 1.43081 210 192 172 
0.380973 -0.10051 1.24757 109 108 80 
0.277657 -0.178594 1.3415 167 166 161 
0.199511 -0.326971 1.423 201 197 186 
0.257303 -0.287995 1.35679 42 33 24 
0.0588939 -0.322382 1.52171 186 179 133 
0.0860792 -0.359662 1.51272 65 61 52 
0.192611 -0.316125 1.41934 140 126 115 
0.290539 -0.209873 1.3303 138 137 133 
0.0605602 -0.4118 1.5269 109 104 98 
0.0660839 -0.384385 1.52815 44 24 13 
0.123178 -0.406881 1.47843 197 196 192 
0.044566 -0.458791 1.54502 206 192 165 
-0.0718577 0.0560283 1.51441 168 156 142 
-0.02817 -0.431953 1.61307 205 187 177 
-0.033685 -0.434955 1.59744 58 50 48 
0.0808284 -0.42945 1.52839 59 52 46 
0.227175 -0.243227 1.38603 212 196 173 
0.256872 -0.212772 1.36644 188 178 169 
0.222702 -0.278533 1.39564 48 47 43 
0.0640555 -0.329031 1.53394 46 34 22 
0.336006 -0.119128 1.29607 160 161 155 
0.195743 -0.319897 1.43181 86 78 75 
0.333778 -0.138972 1.29292 43 40 31 
0.388774 -0.0586441 1.25052 210 195 176 
0.257023 -0.304051 1.37045 158 158 156 
-0.0106155 0.0726043 1.42222 169 152 136 
0.0672142 -0.415235 1.50657 79 70 63 
0.271693 -0.218654 1.30738 224 210 199 
-0.134746 -0.288454 1.63802 228 211 203 
0.263221 -0.221356 1.31294 205 198 192 
0.244559 -0.221006 1.32825 205 197 184 
0.331939 -0.219192 1.25705 81 59 46 
-0.074052 0.0540945 1.44509 82 65 47 
-0.0184288 0.0464627 1.39365 210 200 173 
-0.102442 0.047208 1.5974 183 167 154 
0.154203 -0.329041 1.41321 193 193 185 
-0.0625546 0.0331687 1.43417 233 224 215 
0.0938631 -0.306372 1.46226 211 202 173 
0.195072 -0.31569 1.38018 210 208 183 
-0.0430555 0.0301717 1.41719 195 186 179 
-0.110159 0.0286032 1.60138 32 11 0 
-0.127519 0.00753622 1.61624 206 198 177 
-0.10183 0.00516448 1.59511 229 228 208 
-0.033815 -0.190688 1.4348 168 150 130 
-0.04303 0.00413268 1.4248 43 27 14 
-0.0761987 0.00267328 1.45056 233 212 195 
-0.045649 0.112462 1.41844 200 198 177 
-0.0637048 -0.00414075 1.44475 32 11 0 
-0.124746 -0.00854379 1.61841 78 56 35 
0.075639 -0.327999 1.48048 253 236 226 
0.00370735 -0.262986 1.45655 254 253 222 
-0.0908797 -0.0237355 1.59338 210 198 182 
-0.0391568 -0.0226066 1.41619 229 225 214 
0.0841981 -0.322091 1.47236 47 34 26 
-0.0862028 -0.0282917 1.46387 239 219 210 
-0.0912513 -0.281216 1.60836 245 219 206 
-0.169483 -0.0510013 1.68254 203 177 160 
-0.0244021 -0.236042 1.43655 211 214 207 
-0.0464874 -0.0465296 1.42724 19 9 0 
0.257669 -0.181862 1.31551 206 215 186 
0.20616 -0.218316 1.36077 195 177 165 
0.21005 -0.300572 1.36538 193 186 160 
0.114301 -0.327347 1.45135 233 231 206 
-0.0342786 -0.206904 1.43741 189 187 164 
0.317475 -0.230813 1.27038 217 207 171 
-0.0810095 -0.114403 1.59034 37 11 0 
0.0601928 -0.342049 1.49378 220 210 200 
-0.0160744 -0.105379 1.41691 228 208 201 
0.305325 -0.159292 1.27502 224 215 206 
-0.101212 -0.127218 1.60513 61 38 24 
-0.085302 -0.211007 1.60186 246 226 219 
-0.148896 -0.218243 1.64869 241 232 225 
-0.0283816 -0.135147 1.42939 220 214 198 
0.0374568 -0.356836 1.51689 74 51 37 
-0.0406603 0.0898813 1.41489 185 183 171 
-0.0351442 -0.127501 1.43083 164 157 151 
0.323005 -0.105859 1.256 235 226 221 
-0.00716171 -0.113724 1.40584 219 207 195 
0.250552 -0.270302 1.32867 206 201 195 
-0.0385675 -0.137291 1.43782 229 222 214 
0.0589057 -0.367475 1.49749 46 32 29 
-0.021542 -0.165343 1.42464 213 197 181 
0.302591 -0.193069 1.27839 223 214 207 
0.333257 -0.137824 1.25086 255 253 242 
0.294033 -0.255994 1.29297 207 204 163 
-0.0318679 -0.164204 1.43078 239 233 207 
0.31693 -0.124291 1.2646 255 251 242 
0.121406 -0.378639 1.44678 68 52 39 
0.112662 -0.380522 1.45452 226 215 211 
0.129237 -0.36477 1.43864 226 225 221 
0.0490768 -0.292858 1.47275 199 164 162 
0.314913 -0.186547 1.2667 226 221 215 
0.234243 -0.26249 1.34134 205 196 189 
-0.149834 -0.303891 1.6484 204 181 165 
-0.132332 0.0198722 1.62402 213 199 186 
-0.0358591 -0.147347 1.43552 201 196 190 
-0.0124472 -0.313476 1.53533 244 249 185 
-0.0516009 0.0483148 1.42719 197 186 168 
0.210542 -0.262607 1.3606 203 203 195 
-0.0893639 -0.0844386 1.59749 206 190 175 
-0.101862 -0.116491 1.60853 38 12 0 
0.071119 -0.349992 1.48538 197 193 184 
0.291488 -0.241939 1.29155 182 173 166 
-0.0445909 -0.0323577 1.4258 156 145 123 
0.320554 -0.152695 1.26177 234 222 206 
0.322846 -0.181665 1.26259 47 41 29 
-0.101815 -0.184869 1.61019 223 205 191 
-0.0821333 -0.288903 1.59936 218 200 188 
0.245214 -0.17253 1.32707 208 207 202 
0.159521 -0.284668 1.40858 238 221 213 
0.370456 -0.057504 1.21421 89 72 62 
-0.0649417 -0.0452659 1.44275 172 178 116 
-0.0467238 -0.206051 1.4483 11 0 0 
-0.128065 -0.0265952 1.6219 196 190 178 
0.138353 -0.279342 1.42448 223 211 211 
-0.0227115 0.0721355 1.39964 201 195 181 
0.350535 -0.126092 1.23301 40 28 16 
-0.134239 -0.0989158 1.63054 200 188 176 
0.264248 -0.191336 1.31074 232 230 207 
0.368208 -0.0907062 1.21897 216 208 187 
0.299537 -0.242705 1.28436 209 201 180 
-0.0985139 -0.202865 1.60789 198 169 153 
-0.0444156 -0.0761021 1.43887 240 214 191 
-0.0452312 -0.359766 1.57411 188 177 173 
0.217229 -0.257313 1.35584 177 174 167 
0.242531 -0.19191 1.32869 69 59 47 
0.225606 -0.294323 1.34966 70 61 54 
0.130191 -0.262677 1.42958 188 187 183 
-0.0568386 -0.0494054 1.438 231 228 221 
0.300655 -0.147703 1.28081 233 229 220 
0.0837553 -0.351377 1.47462 206 201 195 
-0.599194 -0.250137 1.93326 228 226 214 
-0.0926245 -0.151569 1.6001 236 214 201 
-0.025486 -0.0694152 1.42088 255 243 227 
0.0434066 -0.336324 1.50606 89 61 39 
-0.0426386 -0.246976 1.4802 235 227 208 
0.257674 -0.211674 1.31927 223 219 216 
-0.0296597 -0.221905 1.43187 199 205 157 
0.170564 -0.233187 1.39042 189 180 173 
0.197404 -0.253313 1.36955 210 199 195 
-0.034849 -0.100731 1.43981 255 237 213 
0.177349 -0.300394 1.39076 246 240 228 
0.226389 -0.190481 1.34102 215 209 175 
-0.0118269 0.0640408 1.39146 229 214 191 
-0.0330308 0.0798142 1.41023 222 210 198 
0.274009 -0.179703 1.30585 234 230 219 
0.0776441 -0.384578 1.48225 211 198 192 
-0.03129 -0.0354053 1.41476 178 169 152 
-0.0384913 -0.157308 1.43631 189 188 183 
-0.0447149 0.0524106 1.41757 204 188 175 
0.23804 -0.291287 1.33978 203 182 161 
0.217995 -0.246938 1.35565 202 192 183 
0.328102 -0.195964 1.25506 52 48 39 
0.0955619 -0.365129 1.46576 198 192 178 
-0.0598261 -0.0256313 1.4395 53 36 16 
0.307945 -0.228849 1.27666 205 205 195 
0.2777 -0.224594 1.30054 220 217 212 
-0.18355 0.141224 1.64273 183 192 161 
0.179635 -0.230011 1.38633 255 253 240 
0.169158 -0.272166 1.39457 231 219 207 
-0.051349 -0.155633 1.44818 183 175 164 
0.123223 -0.34197 1.44551 83 64 47 
0.380225 -0.103983 1.21097 199 198 194 
0.188163 -0.30864 1.38615 236 229 223 
0.253509 -0.241771 1.32405 167 156 150 
0.278882 -0.203578 1.30361 225 222 205 
-0.0958298 -0.0371337 1.59243 56 37 22 
-0.0140841 -0.43562 1.55722 71 60 54 
0.01638 -0.290845 1.48901 235 218 128 
-0.202714 -0.367792 1.71828 42 32 20 
0.23671 -0.228639 1.33786 204 203 172 
-0.0476672 -0.139397 1.44068 231 219 195 
-0.0494516 0.0993042 1.42214 125 122 113 
0.370485 -0.170828 1.2219 48 39 32 
0.0561035 -0.315673 1.48782 190 183 167 
0.0618014 -0.396179 1.49487 178 151 134 
0.125457 -0.293388 1.4332 137 123 114 
-0.0946584 -0.0999944 1.60493 184 161 147 
0.268353 -0.275911 1.31214 80 66 57 
0.287971 -0.21707 1.29417 73 56 46 
0.323138 -0.213125 1.26473 23 19 18 
0.228699 -0.285849 1.34332 176 162 151 
-0.0343916 -0.17589 1.43572 169 151 127 
0.100283 -0.327859 1.45821 49 39 30 
-0.432304 -0.316106 1.89111 188 174 165 
-0.0270628 0.0503087 1.39981 208 198 173 
0.271316 -0.146844 1.30248 223 219 210 
-0.122851 0.0327929 1.61208 201 183 159 
0.376148 -0.0888138 1.20899 147 136 118 
0.12266 -0.354665 1.4369 225 217 206 
0.0942637 -0.412905 1.46504 239 239 237 
0.0325335 -0.345461 1.51274 57 40 32 
-0.112201 0.0221544 1.60913 183 162 141 
-0.641309 0.124675 1.91814 187 187 159 
-0.459369 -0.271461 1.91172 73 62 56 
-0.0829845 -0.256243 1.59775 179 162 146 
-0.455511 -0.246932 1.91575 218 201 193 
-0.0802793 0.123744 1.44728 76 54 40 
0.34203 -0.082526 1.23898 212 194 170 
0.150043 -0.252518 1.41058 142 138 129 
0.372611 -0.0712687 1.21265 184 171 155 
0.240161 -0.170403 1.33457 205 196 187 
0.211408 -0.24377 1.36572 177 165 153 
0.0296597 -0.294401 1.47949 218 210 199 
0.0359467 -0.350657 1.50588 82 64 50 
0.357906 -0.0931509 1.22794 224 221 214 
0.203152 -0.290704 1.36764 175 171 159 
0.0914841 -0.395428 1.46609 50 40 31 
0.30362 -0.204197 1.27941 218 206 190 
0.0608245 -0.351151 1.50328 208 190 176 
0.0619951 -0.392131 1.5063 228 212 187 
-0.590202 -0.258904 1.92272 136 124 112 
-0.0886895 -0.256975 1.65621 224 207 199 
-0.124925 -0.00877983 1.676 78 56 35 
-0.0429282 -0.0320006 1.47626 255 248 230 
-0.0316526 -0.132734 1.48164 164 157 151 
-0.0354094 -0.142441 1.48565 229 222 214 
-0.0177492 -0.172026 1.47256 213 197 181 
-0.0792671 -0.00331698 1.50891 237 208 192 
-0.12838 -0.0276511 1.68097 196 190 178 
-0.0819085 -0.158224 1.64909 219 195 185 
-0.100984 0.00506964 1.65162 200 201 185 
-0.0415026 9.02634e-05 1.4734 54 37 17 
-0.101594 0.0490884 1.65568 167 155 139 
-0.0250473 -0.141145 1.4768 233 230 211 
0.272515 -0.193078 1.35461 211 206 202 
0.245036 -0.307848 1.38404 58 42 26 
-0.0426352 0.0300054 1.47378 191 184 168 
0.256982 -0.228393 1.36686 216 209 193 
0.248622 -0.236292 1.37627 204 203 172 
-0.0611408 0.0344819 1.48887 145 138 130 
0.159636 -0.261813 1.45425 142 138 129 
