ply
format ascii 1.0
comment PCL generated
element vertex 1143
property float x
property float y
property float z
property uchar red
property uchar green
property uchar blue
element face 0
element camera 0
property float view_px
property float view_py
property float view_pz
property float x_axisx
property float x_axisy
property float x_axisz
property float y_axisx
property float y_axisy
property float y_axisz
property float z_axisx
property float z_axisy
property float z_axisz
property float focal
property float scalex
property float scaley
property float centerx
property float centery
property int viewportx
property int viewporty
property float k1
property float k2
end_header
-2.28444 -0.026042501 6.6424098 86 97 129
-2.27898 -0.018337199 6.66714 84 89 118
-2.26667 -0.022215899 6.7104301 95 110 148
-2.2607701 -0.021290001 6.7323098 104 120 159
-2.2576201 -0.020319 6.75772 107 124 165
-2.24332 -0.022265401 6.7892299 107 124 168
-2.2411399 -0.0265249 6.80443 108 125 168
-1.96385 -0.0242007 7.6528602 96 113 151
-1.93422 -0.0246762 7.6679502 95 113 150
-1.33787 -0.027491599 7.4440598 40 47 78
-2.78813 -0.0110685 5.1332598 99 118 160
-2.7818999 -0.011005 5.1477499 93 99 127
-2.79495 -0.0093942396 5.2054701 84 91 111
-2.7978201 -0.0105288 5.2354398 24 32 52
-2.7934899 -0.0122974 5.2515101 18 18 31
-2.7897 -0.0068893898 5.25985 33 36 61
-2.78689 -0.012603 5.2718501 73 80 106
-2.7784801 -0.0126018 5.2765298 16 23 42
-2.7761099 -0.0087753097 5.2867599 16 18 26
-2.7797999 -0.0129225 5.3157001 18 17 26
-2.7749801 -0.0091465097 5.3225999 36 34 54
-2.76614 -0.00761363 5.3259902 102 108 139
-2.7596099 -0.0134491 5.3288598 94 103 132
-2.7546699 -0.0106352 5.3361602 86 83 104
-2.7384501 -0.0119918 5.3389301 94 91 103
-2.7326701 -0.0124098 5.3527999 39 44 59
-2.7327299 -0.0124683 5.3735499 18 23 30
-2.74143 -0.0143528 5.40481 22 22 34
-2.7392199 -0.0089329798 5.4123001 35 37 55
-2.7349 -0.0136441 5.42031 76 85 109
-2.73155 -0.00766451 5.4281998 26 36 57
-2.7225299 -0.0076583 5.4320102 23 28 41
-2.7258799 -0.0106161 5.46104 28 31 44
-2.7184 -0.0116452 5.4763298 92 100 129
-2.7123401 -0.0074850698 5.48103 97 108 139
-2.70028 -0.0117104 5.4874301 95 89 107
-2.67696 -0.0117086 5.4964399 96 92 105
-2.6707101 -0.0078420704 5.5020099 98 94 107
-2.6591401 -0.0126016 5.5218601 90 100 132
-2.6549001 -0.0081112497 5.5286598 103 119 157
-2.64588 -0.0085054301 5.5397801 107 124 168
-2.54018 -0.0073894099 5.8867202 110 126 170
-2.53016 -0.0085820695 5.8962798 95 111 150
-2.52894 -0.0152611 5.9115601 93 98 126
-2.53072 -0.0090447096 5.9257798 98 97 117
-2.5355699 -0.0135693 5.95297 93 93 113
-2.53529 -0.0115206 6.0123 93 110 147
-2.5325301 -0.015673401 6.03403 91 109 144
-2.51917 -0.0076895799 6.0697198 86 100 134
-2.51649 -0.0129869 6.0802498 56 65 99
-2.5107999 -0.0079355501 6.0851002 103 115 149
-2.4994199 -0.01282 6.09266 76 75 99
-2.4788599 -0.0138932 6.1008201 87 85 97
-2.47329 -0.0129985 6.1264 22 25 39
-2.4825699 -0.0111195 6.1664901 27 31 47
-2.4795101 -0.0089525301 6.18572 55 65 86
-2.47381 -0.0142833 6.1945601 19 26 42
-2.4716301 -0.0115427 6.21421 21 24 35
-2.4643199 -0.0152603 6.23351 49 53 77
-2.44912 -0.00946612 6.2424202 66 62 84
-2.4326999 -0.0087492 6.2490401 90 77 86
-2.41868 -0.0095316004 6.25705 87 77 89
-2.4094999 -0.0145339 6.2658901 96 90 105
-2.3894701 -0.0157592 6.29948 106 124 167
-2.3827701 -0.0128166 6.34232 87 106 146
-2.3786299 -0.0096480101 6.3526702 55 71 107
-2.37848 -0.0129592 6.3541799 54 69 105
-2.36936 -0.0097098304 6.3570399 25 33 56
-2.36253 -0.0166304 6.3655601 31 36 60
-2.3526001 -0.016632499 6.3679399 91 104 138
-2.34848 -0.0081433402 6.3707299 101 118 156
-2.3277299 -0.0106316 6.3724699 107 124 167
-2.3380101 -0.0080150999 6.49647 109 125 169
-2.32618 -0.0111213 6.5216599 89 99 132
-2.3223801 -0.0092796804 6.5416002 89 85 102
-2.3178401 -0.015528 6.5489202 62 54 66
-2.3152499 -0.0093122805 6.55967 50 37 46
-2.30586 -0.011805 6.5942402 66 54 64
-2.29899 -0.0116171 6.6128302 84 76 87
-2.2943001 -0.013859 6.6302199 98 94 109
-2.28721 -0.0137929 6.6429501 97 95 111
-2.2746201 -0.0127364 6.6750398 92 93 117
-2.2674899 -0.017648101 6.6933899 82 93 127
-2.26544 -0.0106183 6.7024498 85 88 116
-2.26349 -0.0155952 6.7182398 85 97 132
-2.2586701 -0.0142825 6.7423201 92 106 143
-2.2413199 -0.0091465795 6.7880902 101 119 157
-2.2420399 -0.015754201 6.8053498 107 124 167
-2.21612 -0.0119857 6.8292499 108 124 168
-2.1990499 -0.0118041 6.8645802 108 125 168
-1.32774 -0.014103 7.4395099 23 29 52
-1.3164001 -0.017320599 7.4506202 57 73 105
-1.2809401 -0.0166879 7.4510398 100 118 161
-2.7911401 -0.00079679099 5.1177902 104 122 165
-2.7861099 -0.00098785502 5.1320901 95 113 154
-2.78479 -0.0059704301 5.1410298 87 101 137
-2.7830999 -0.0047405502 5.16084 101 99 116
-2.7922001 -0.0024583 5.2007198 94 97 115
-2.79094 -0.00161183 5.25103 73 84 109
-2.78512 -0.0020181399 5.2754798 43 58 90
-2.7818999 0.00108683 5.2856302 37 48 75
-2.77652 0.000105546 5.2870598 22 29 50
-2.7780399 -0.00386689 5.31563 19 18 30
-2.7679801 -0.00052053598 5.3200102 73 76 102
-2.7518201 -0.00194491 5.3354902 90 85 102
-2.7375801 -0.00056984503 5.3365302 95 91 104
-2.73353 -0.0062589799 5.3421602 79 81 95
-2.7330501 -0.00098243996 5.3525701 33 39 53
-2.73136 -0.00091125799 5.3713598 19 22 29
-2.73774 -0.00142239 5.3927898 22 22 32
-2.7364099 -5.83402e-05 5.41465 70 77 100
-2.7254701 0.00065240799 5.4278202 22 28 45
-2.7270701 -0.00117085 5.4545798 28 31 44
-2.72177 -0.0066061998 5.4688902 42 45 67
-2.70401 -0.00321533 5.4833102 85 85 107
-2.6742599 -0.002814 5.49476 95 91 103
-2.66172 -0.00643807 5.51229 95 98 121
-2.6580801 -0.0028357899 5.5222602 92 104 139
-2.6493599 -0.0036060601 5.5325799 108 124 167
-2.6472299 -0.0035274599 5.5297399 108 124 167
-2.52757 -0.0032977599 5.9060898 92 99 127
-2.5366399 -0.0054301699 5.9676099 83 88 115
-2.53301 -9.5083496e-06 6.0124602 80 93 125
-2.52984 -0.0060875001 6.0309701 98 114 150
-2.5246899 -0.00732907 6.0433302 90 107 143
-2.52231 -0.00172561 6.0548601 95 114 149
-2.50313 -0.0045341402 6.0896201 83 87 116
-2.4779 -0.0045678299 6.0969801 89 87 100
-2.4737599 -0.00099502399 6.1201501 27 33 56
-2.4774401 -0.00255016 6.1949601 22 29 48
-2.47177 0.00043759699 6.2058401 21 26 38
-2.46526 0.00052136998 6.2207098 26 27 45
-2.46264 -0.0045026201 6.2323999 66 71 98
-2.42504 -0.0039113099 6.25319 92 82 92
-2.4163799 -6.9681497e-05 6.25529 85 76 89
-2.4075799 -0.000214054 6.26963 92 91 110
-2.4050701 -0.00623162 6.27913 85 91 121
-2.39942 -0.00051882397 6.28508 102 116 155
-2.3952 -0.0062231701 6.2920799 106 123 166
-2.3908999 -0.00642914 6.3226399 105 122 165
-2.38537 -0.0065565701 6.3329802 99 118 159
-2.38217 -0.0034044699 6.3447499 76 96 135
-2.3779299 0.00141656 6.35358 45 60 94
-2.37696 -0.00020461 6.3534698 43 58 90
-2.36134 0.00032773099 6.3633299 38 45 70
-2.3522999 0.00032538801 6.3673501 95 110 145
-2.34671 0.000347672 6.3780298 104 121 163
-2.3271799 -0.0047733202 6.5069799 99 115 155
-2.32493 -0.0043277298 6.5327501 94 96 119
-2.31915 -0.00307684 6.55161 63 54 64
-2.30195 -0.0057350299 6.6023302 53 40 47
-2.2931099 0.000193785 6.57547 53 38 43
-2.2955899 -0.0051599802 6.6232901 61 50 59
-2.29127 -0.00495179 6.6406202 75 65 73
-2.28456 -0.00300139 6.6587 84 74 85
-2.2797999 -0.0078805601 6.66716 98 94 110
-2.2739899 0.000475954 6.68119 91 84 95
-2.26963 -0.0047208699 6.69171 98 95 112
-2.2604201 -0.0036653101 6.71034 94 92 113
-2.25807 -0.0072711799 6.7542701 82 91 123
-2.25336 -0.00124714 6.7618599 85 89 117
-2.24858 -0.0065897498 6.7705598 85 98 134
-2.24367 0.00118623 6.78021 80 86 118
-2.23651 -0.0024431299 6.7953401 90 104 142
-2.22808 -0.00312896 6.8132901 102 118 157
-2.22208 -0.00160139 6.8355598 105 121 161
-2.21574 -0.0055878102 6.8436799 107 124 166
-2.20681 -0.0076432601 6.8550901 107 124 167
-2.1867499 0.000432092 6.8888202 106 123 166
-2.1816001 -0.00167287 6.9029799 105 122 165
-1.33746 -0.0065218201 7.4396501 39 44 76
-1.32163 -0.00827845 7.4486799 41 53 80
-2.7899899 0.0039450801 5.1273298 102 121 164
-2.78848 0.00281217 5.18646 104 102 114
-2.7778201 0.0073471698 5.1852598 93 95 106
-2.77881 0.00774376 5.1868701 92 95 106
-2.77333 0.0073326598 5.2012401 21 25 40
-2.7811501 0.00302346 5.2255702 59 62 84
-2.7883799 0.00312517 5.2597899 88 98 126
-2.7861099 0.0079634497 5.2681098 87 98 128
-2.7814801 0.00685141 5.2744699 82 96 126
-2.77583 0.0049856799 5.3137798 29 34 60
-2.7636199 0.0042134998 5.3273101 101 111 140
-2.73435 0.0051818802 5.3418999 76 78 92
-2.7325001 0.0047936901 5.36166 18 23 33
-2.7416301 0.0050479299 5.4096498 29 31 48
-2.7305901 0.0050753402 5.42208 33 43 66
-2.72893 0.0078581301 5.4598298 28 32 46
-2.7207899 0.00244242 5.4697499 57 62 87
-2.6735699 0.0087132398 5.49296 95 90 102
-2.6687601 0.00115869 5.5005798 100 97 108
-2.66503 0.0062818299 5.5069699 101 100 117
-2.65769 0.0065347701 5.5215101 93 106 142
-2.6530199 0.00183484 5.52667 106 121 161
-2.6479101 0.0053919302 5.53438 108 124 167
-2.53811 0.00271786 5.8847399 110 126 170
-2.53161 0.0081102597 5.8876901 104 122 163
-2.5289299 0.00239431 5.89575 92 107 144
-2.5384099 0.00181374 5.9446702 94 94 111
-2.5357001 0.00451945 5.9665599 49 52 72
-2.5346799 0.0045064399 5.9990602 61 67 92
-2.5285399 0.0034962799 6.0308299 80 93 127
-2.5258801 0.0046328302 6.0493102 86 99 132
-2.52052 0.0035055701 6.06885 102 116 150
-2.50634 0.0074180202 6.08604 93 97 128
-2.4934399 0.00356504 6.0890098 84 76 95
-2.4776199 0.00616924 6.0963502 93 92 111
-2.4853599 0.0057043801 6.1510701 55 67 98
-2.4813499 0.0014125101 6.16747 40 47 74
-2.4799399 0.0036421199 6.1849699 53 64 91
-2.4723899 0.0104251 6.20186 27 35 59
-2.4679401 0.0065752198 6.2116599 23 25 42
-2.46155 0.0064116302 6.2309599 79 85 114
-2.4511499 0.00467009 6.2406301 70 67 91
-2.44242 0.0046776501 6.24575 83 68 81
-2.4279101 0.0032923799 6.2456298 92 79 90
-2.41135 0.0057282499 6.2618399 92 87 102
-2.39838 0.0093069198 6.28585 105 121 160
-2.38605 0.0024860899 6.31849 103 122 164
-2.3823099 0.0070886798 6.3466101 69 88 127
-2.38462 0.0023038101 6.3348398 94 114 155
-2.37181 0.0101102 6.3525 29 39 64
-2.35605 0.0087713599 6.3638902 77 87 120
-2.34881 0.0087852599 6.3713799 103 119 159
-2.3343501 0.0057103299 6.3702898 106 123 165
-2.3445799 0.0048037199 6.4380598 108 125 169
-2.3317201 0.0062264199 6.4393702 108 125 169
-2.33689 0.00291589 6.4967999 109 126 169
-2.3273101 0.0081728799 6.5049901 99 116 155
-2.3275499 0.00188229 6.5209498 89 100 132
-2.3229899 0.0024943701 6.5423398 89 85 100
-2.3168001 0.0031437699 6.56282 54 42 48
-2.2901399 0.0061914101 6.5847802 54 39 43
-2.29459 0.0036081099 6.6205502 52 36 42
-2.2819099 0.0107391 6.6055799 56 40 44
-2.28755 0.00198579 6.6472802 56 42 48
-2.2774799 0.0050363801 6.6684899 60 48 56
-2.2699299 0.0082339998 6.6853399 63 50 59
-2.2629299 0.0022671199 6.6911602 94 88 100
-2.2594099 0.0082113501 6.7182498 92 85 96
-2.25841 0.0022787401 6.73173 97 94 111
-2.2527001 0.0101635 6.7597399 97 92 107
-2.24896 0.0047658598 6.7698998 90 91 113
-2.23441 0.0101667 6.7913599 89 90 114
-2.2255299 0.0031580599 6.8238702 88 102 139
-2.2236099 0.00901997 6.83606 78 88 123
-2.2170801 0.0050550401 6.8439002 96 110 150
-2.2004099 0.00161752 6.8788099 105 123 165
-2.19576 0.0082553597 6.8849702 105 122 163
-2.18276 0.0085172299 6.8920298 105 122 164
-1.33111 0.0077081402 7.4334698 25 29 55
-1.32425 0.0076370202 7.4444799 33 42 66
-0.76501298 0.0069709299 7.23318 101 119 162
-0.74762702 0.00063758902 7.24441 102 120 164
-0.74058098 0.0087000197 7.23843 102 120 163
-2.79123 0.0085941004 5.1196198 104 122 165
-2.7874701 0.0137489 5.1252198 100 120 161
-2.7825899 0.0141378 5.14047 89 98 129
-2.7770801 0.0139418 5.1553402 100 98 114
-2.7736299 0.0124946 5.1914401 48 54 66
-2.7843699 0.0122749 5.2307801 18 18 29
-2.7877901 0.0126742 5.2586799 54 56 78
-2.77913 0.0151078 5.2769098 22 26 46
-2.77862 0.0100509 5.2890501 73 81 102
-2.78055 0.0106556 5.30791 80 88 112
-2.7741101 0.0138486 5.3132801 75 81 106
-2.76879 0.0090666199 5.3228402 98 108 141
-2.7555399 0.0140077 5.3284898 83 85 107
-2.74014 0.0094509404 5.3371201 95 92 105
-2.7380199 0.014701 5.34479 77 79 96
-2.7341199 0.0104459 5.3522902 32 37 53
-2.7436099 0.0099514499 5.3993301 23 22 33
-2.74067 0.0140137 5.4092398 37 38 57
-2.7351899 0.0138659 5.4265199 31 40 62
-2.7274899 0.0095754499 5.43011 23 28 43
-2.7286899 0.0168867 5.4611001 28 32 46
-2.7186699 0.0117771 5.4702201 83 89 119
-2.7119901 0.0154707 5.4749599 101 112 143
-2.6677899 0.0127697 5.49825 100 97 109
-2.6635001 0.0170165 5.5048599 99 99 117
-2.6603 0.0116056 5.5116901 91 97 124
-2.6565499 0.0154986 5.5214 97 112 149
-2.5287399 0.0134029 5.8970199 90 103 137
-2.5404899 0.0135805 5.9485698 92 93 109
-2.53512 0.0144665 5.96661 27 30 44
-2.5313799 0.0101536 5.97786 26 27 42
-2.5362599 0.016574301 5.9963698 21 22 33
-2.53455 0.01054 6.01054 40 43 65
-2.52807 0.0184619 6.0346699 28 35 57
-2.52403 0.0169557 6.0531301 40 43 62
-2.5136399 0.0168845 6.06637 64 68 96
-2.50998 0.0123773 6.0766602 83 94 126
-2.4984601 0.012008 6.0879402 79 75 97
-2.48997 0.0120134 6.0925698 92 84 97
-2.4760001 0.016783999 6.1010699 95 100 124
-2.47767 0.0109971 6.1196599 86 100 131
-2.48229 0.0175534 6.1546502 89 106 142
-2.4805501 0.0106522 6.1619101 79 94 129
-2.47895 0.0142955 6.1958799 65 81 114
-2.46258 0.0131438 6.2211599 43 48 78
-2.45643 0.0117637 6.2368798 89 95 124
-2.4470201 0.0138157 6.2396998 72 64 83
-2.43662 0.013819 6.24301 90 76 85
-2.4261301 0.0124179 6.2439299 93 81 91
-2.41909 0.0163466 6.2491398 87 77 89
-2.4110899 0.01846 6.2544198 92 84 99
-2.4069099 0.0115026 6.2693501 87 88 111
-2.40311 0.0151295 6.2796998 92 103 139
-2.39521 0.0188726 6.2832499 106 123 164
-2.38521 0.0110417 6.3077698 104 122 165
-2.3809299 0.0177345 6.3462801 62 80 117
-2.3665099 0.0188087 6.3527198 23 29 49
-2.3529699 0.018241899 6.3621202 90 104 138
-2.3459699 0.0114702 6.3773799 106 122 164
-2.34462 0.016269101 6.4362001 107 124 168
-2.3352699 0.0125694 6.4650402 108 125 169
-2.3347299 0.0174173 6.48803 107 124 166
-2.3311601 0.0116154 6.4966698 107 126 167
-2.32849 0.0148191 6.5202498 91 101 133
-2.3276701 0.0151656 6.5458598 91 89 106
-2.3208399 0.015786 6.5686698 46 39 50
-2.31531 0.0114621 6.5957198 55 40 45
-2.30001 0.0157765 6.6202502 58 42 46
-2.28913 0.0128549 6.6440501 56 40 44
-2.2725599 0.018091301 6.6662402 55 38 43
-2.26683 0.0152781 6.6932802 56 42 50
-2.2565601 0.0188316 6.7154899 49 35 43
-2.2537899 0.0129423 6.7259798 79 70 81
-2.24703 0.0162546 6.76581 90 83 95
-2.2448001 0.0118863 6.7759399 95 91 108
-2.2323501 0.020867901 6.7866602 95 88 102
-2.2301099 0.0192731 6.8094301 96 91 110
-2.22913 0.016857101 6.8022799 94 91 112
-2.2255399 0.0147961 6.8214302 86 88 114
-2.2253799 0.0138021 6.8214898 84 87 114
-2.2174101 0.015773199 6.83916 81 85 115
-2.2025599 0.011891 6.8776202 98 113 152
-2.1923599 0.0149093 6.89326 104 121 161
-2.1839199 0.0183791 6.8976598 105 122 163
-1.3389601 0.012925 7.4365702 45 52 83
-0.76044101 0.0152341 7.2357202 87 103 143
-0.75230497 0.0117553 7.2420001 98 116 159
-2.7920599 0.019005399 5.1210198 102 121 163
-2.7854199 0.0189158 5.1331401 86 103 142
-2.7795601 0.018830299 5.14779 99 99 119
-2.7808499 0.019514799 5.1714902 100 98 111
-2.7753301 0.017206701 5.1823702 92 95 107
-2.7752099 0.0174869 5.1825199 92 95 107
-2.7722299 0.022253999 5.1897101 39 45 57
-2.78144 0.021545 5.2254801 16 17 26
-2.7894199 0.017287901 5.2490301 20 18 30
-2.7823999 0.019729 5.2694201 31 42 65
-2.7773499 0.019965401 5.2862601 18 18 30
-2.7788999 0.0195009 5.3089299 26 25 40
-2.77194 0.0226865 5.31355 40 38 61
-2.7677801 0.017041299 5.3187799 97 103 134
-2.7593 0.0201435 5.3213902 95 104 133
-2.7553599 0.022824099 5.33003 86 85 104
-2.7383001 0.0199591 5.3343 96 93 106
-2.7322099 0.023195401 5.3617902 56 66 89
-2.74086 0.023472199 5.4096498 49 57 86
-2.7344601 0.024166999 5.4242401 30 42 72
-2.73123 0.0194102 5.4318099 23 29 46
-2.7251401 0.021730401 5.4433498 28 31 45
-2.7235 0.020829801 5.4674401 48 51 76
-2.72386 0.0210199 5.4676399 47 50 75
-2.71644 0.0249721 5.4700198 102 111 142
-2.67202 0.017477 5.49157 94 91 103
-2.66663 0.0217366 5.4971299 101 98 111
-2.6608701 0.020580901 5.5151801 90 98 129
-2.6545899 0.024506999 5.5218 104 119 157
-2.6421001 0.0209263 5.5308399 106 123 167
-2.5313699 0.0192731 5.8885899 99 117 157
-2.52917 0.025559301 5.8970199 90 101 134
-2.5384901 0.0258775 5.9460101 91 90 105
-2.53582 0.0196482 5.9539099 65 67 81
-2.53529 0.020949099 6.00705 23 25 38
-2.5338399 0.0272818 6.0149398 50 56 75
-2.52354 0.0236471 6.0418701 20 22 36
-2.52142 0.0225823 6.0660601 26 27 43
-2.51157 0.0232777 6.0761199 89 97 126
-2.4921801 0.022258 6.08498 84 78 94
-2.47896 0.022679999 6.0910101 94 91 107
-2.4747 0.0232086 6.1103101 90 99 129
-2.4846101 0.0268624 6.1648102 91 106 140
-2.48051 0.020419 6.1709299 90 109 144
-2.4781599 0.024228301 6.18928 92 108 146
-2.4751999 0.0204274 6.2018399 84 102 139
-2.46103 0.024922499 6.22331 95 109 145
-2.4526899 0.0209153 6.23668 76 77 105
-2.4419601 0.0229964 6.2402201 84 71 85
-2.4302299 0.023357401 6.2409701 91 79 90
-2.4158199 0.025496701 6.2495599 88 77 90
-2.4059899 0.0207098 6.2673998 90 92 115
-2.4066801 0.0241822 6.2682099 90 92 116
-2.4028299 0.024986699 6.2789998 94 106 143
-2.4012699 0.024722699 6.2793698 97 111 149
-2.39499 0.0283753 6.28613 107 124 166
-2.38555 0.028833499 6.3192501 100 119 161
-2.38343 0.028745901 6.3343201 87 106 146
-2.3785 0.0286937 6.34517 54 70 104
-2.35901 0.0243377 6.3584599 50 57 85
-2.35147 0.0277484 6.3632998 99 114 151
-2.3466799 0.0216689 6.36935 103 119 160
-2.3473001 0.0240211 6.3877802 104 121 163
-2.3457899 0.021681899 6.4231801 106 123 166
-2.3501999 0.027196599 6.4175601 107 123 166
-2.3429899 0.027741401 6.43262 106 123 166
-2.3434601 0.022992801 6.44594 107 124 168
-2.3339801 0.0290829 6.4885402 107 125 167
-2.3303599 0.022947799 6.4966102 105 123 165
-2.3306899 0.0213129 6.53439 94 98 122
-2.3255301 0.0221867 6.5609398 64 61 75
-2.3220201 0.022419799 6.58463 48 44 57
-2.3141899 0.028212801 6.63905 46 41 51
-2.3022499 0.025129501 6.6557002 53 40 44
-2.30865 0.025193499 6.6497302 48 38 44
-2.28072 0.021121699 6.6551199 57 41 44
-2.2702601 0.026095601 6.6932302 70 56 63
-2.2550199 0.029381501 6.7140298 52 37 41
-2.2521601 0.0235114 6.7252498 48 33 39
-2.24668 0.029691 6.7315502 52 35 39
-2.2427199 0.028791901 6.7595701 49 35 41
-2.2416101 0.023666199 6.7743001 69 58 67
-2.23365 0.024843801 6.7916098 84 74 85
-2.2360699 0.0306329 6.7794199 54 40 46
-2.23014 0.031168001 6.8006902 63 50 59
-2.22773 0.026408801 6.8179102 92 85 98
-2.2168801 0.0260155 6.8329601 96 91 108
-2.2155299 0.0311321 6.8587399 97 90 106
-2.2014101 0.023657899 6.87255 80 86 118
-2.1985199 0.028894801 6.8853402 87 98 134
-2.1911299 0.0248207 6.89468 103 119 161
-1.3247401 0.030562099 7.4386501 30 39 62
-1.3125 0.0325628 7.44244 68 85 122
-1.3173 0.0224953 7.4433999 54 69 100
-1.08517 0.026544301 7.3541002 100 117 161
-0.31738701 0.0308674 7.4401898 101 118 161
-2.79339 0.024382301 5.1117902 104 121 164
-2.78948 0.0292252 5.1176701 103 122 164
-2.7873399 0.0241428 5.1252799 96 116 157
-2.78491 0.0290244 5.1332102 85 100 137
-2.7751501 0.023497799 5.1532102 99 97 112
-2.77459 0.026979201 5.1813898 87 91 103
-2.7751999 0.0243364 5.2046599 15 19 30
-2.78652 0.0241924 5.26261 81 89 112
-2.78005 0.025059599 5.2789502 13 18 29
-2.77843 0.0298848 5.2888699 15 17 22
-2.77878 0.031517599 5.3096099 17 17 26
-2.77126 0.031525601 5.31497 58 58 81
-2.7630999 0.031524502 5.3194199 104 113 143
-2.7523501 0.031604499 5.3275099 86 83 101
-2.73827 0.0297167 5.3364 95 93 106
-2.73367 0.024405999 5.3406301 87 91 110
-2.7307401 0.029229101 5.3533502 58 64 86
-2.7311699 0.0288525 5.43185 34 45 71
-2.7261 0.0259312 5.4584699 29 33 52
-2.72791 0.030704601 5.4484401 34 41 65
-2.7212501 0.030159701 5.4648399 58 61 91
-2.6705799 0.028012 5.4884601 95 91 103
-2.6656101 0.0321301 5.4960799 102 99 113
-2.6632299 0.026858199 5.5042901 98 99 118
-2.6598401 0.032026801 5.51124 90 98 127
-2.6465499 0.026921401 5.5256901 107 124 166
-2.5311201 0.031599 5.88732 97 114 153
-2.5397999 0.032012701 5.9355898 96 95 113
-2.5376 0.0319908 5.9577899 50 53 66
-2.5316 0.0281913 5.9807301 20 22 30
-2.5378499 0.032074399 6.0047302 20 22 33
-2.5199699 0.0292613 6.0531201 19 21 30
-2.5197599 0.0345993 6.0373201 18 20 32
-2.5125 0.0336558 6.0756602 93 101 130
-2.5062201 0.0288381 6.0801802 97 106 135
-2.4983499 0.031549498 6.08494 78 74 96
-2.4758 0.0326556 6.0883198 88 86 100
-2.4757299 0.035712399 6.1180601 49 52 72
-2.48104 0.034910299 6.1552801 69 76 105
-2.4791901 0.029709199 6.1733098 89 105 138
-2.47366 0.0358142 6.1759901 75 88 121
-2.46908 0.0303181 6.1854601 99 113 148
-2.4717801 0.031343799 6.2069998 99 114 149
-2.4628301 0.031275 6.2140198 95 110 146
-2.4593599 0.0364835 6.22471 96 108 141
-2.45311 0.032179002 6.2304401 82 86 116
-2.4451699 0.0342957 6.2358999 81 70 88
-2.4216599 0.031332001 6.24616 89 77 89
-2.4133799 0.0363588 6.2470698 87 78 91
-2.3984599 0.0345507 6.2768502 101 116 154
-2.3836 0.030098399 6.3039498 103 121 164
-2.3862901 0.029920399 6.32692 98 117 158
-2.38188 0.037959501 6.3371801 74 92 131
-2.37816 0.031054899 6.34372 54 71 105
-2.369 0.0335287 6.3471098 26 33 57
-2.34407 0.030966399 6.3686199 104 121 162
-2.34568 0.0309368 6.37257 104 121 163
-2.3476 0.038031999 6.3664398 102 119 160
-2.34185 0.033498202 6.4019899 105 122 166
-2.3443501 0.034031302 6.44274 105 123 166
-2.32935 0.034439601 6.4971099 104 122 163
-2.32728 0.0349763 6.5630498 50 49 64
-2.3259799 0.035207499 6.5875101 26 28 42
-2.32638 0.0304309 6.6219301 46 47 62
-2.3178899 0.038289901 6.6374302 35 39 56
-2.3089099 0.0351885 6.6476998 45 43 55
-2.3041501 0.034772199 6.6813898 41 34 41
-2.29649 0.034740601 6.6883101 41 30 36
-2.2873499 0.034742501 6.6925201 55 41 47
-2.2620101 0.035778601 6.7034101 60 48 55
-2.24686 0.0358699 6.7530499 54 38 42
-2.2407801 0.0358238 6.7691898 51 35 39
-2.2238901 0.039622098 6.8204398 51 36 42
-2.2192199 0.036176499 6.8315902 69 56 67
-2.2181699 0.038584098 6.8503599 67 55 65
-2.20766 0.0332064 6.8653898 97 92 108
-2.2021301 0.035187401 6.8761902 93 93 118
-2.1975701 0.040451001 6.8860698 95 105 141
-2.1895001 0.0350946 6.8948398 106 123 163
-2.18169 0.037846901 6.9013901 106 123 166
-1.32662 0.039429601 7.4292102 24 30 52
-1.08761 0.0352677 7.3482099 101 118 161
-0.81903899 0.032001901 7.27075 83 82 101
-0.327672 0.0350402 7.41959 100 118 161
-0.319875 0.039417401 7.4295502 100 118 161
-0.29628801 0.0339128 7.4464202 101 119 162
-0.292261 0.041478802 7.4558601 101 118 161
-2.79597 0.0343365 5.1159601 104 123 166
-2.7871301 0.0341083 5.12571 95 114 155
-2.7816899 0.034216698 5.14008 94 99 124
-2.7753401 0.034744799 5.1530499 99 97 111
-2.7772501 0.0319249 5.1743202 100 100 112
-2.7718401 0.031697098 5.1890101 31 38 50
-2.77701 0.035657 5.2063799 15 19 28
-2.7885799 0.035905499 5.2445598 18 18 30
-2.78809 0.031756099 5.25667 62 65 85
-2.7845399 0.0360322 5.2645402 51 62 87
-2.77496 0.035062101 5.2732501 13 16 27
-2.76741 0.039560601 5.3174701 102 108 136
-2.72928 0.035360999 5.34304 46 50 64
-2.7302599 0.034504998 5.3646898 33 35 53
-2.7392299 0.032873899 5.4075298 86 97 126
-2.73298 0.035150599 5.4207101 82 98 128
-2.7307799 0.038927801 5.4313302 72 80 105
-2.72771 0.033951402 5.4388199 61 73 101
-2.72473 0.034956399 5.4572902 47 56 85
-2.7188001 0.038309701 5.4633799 88 98 131
-2.7028999 0.033052299 5.4770198 90 87 108
-2.6702299 0.036854401 5.4900398 97 93 106
-2.66206 0.037294999 5.50281 96 98 119
-2.6515801 0.0332921 5.5213699 107 123 163
-2.64345 0.035704099 5.5251198 106 123 167
-2.5404601 0.042390998 5.8772898 108 125 169
-2.52982 0.0418582 5.8868999 93 109 147
-2.52933 0.037710901 5.8965802 89 100 131
-2.5375099 0.043540899 5.9573798 42 45 58
-2.53685 0.037918799 5.99053 19 21 30
-2.5357001 0.042633001 6.00453 23 25 38
-2.5323501 0.041997001 6.0149999 68 77 99
-2.52911 0.036483899 6.02355 52 62 86
-2.52349 0.040334899 6.0306101 16 22 37
-2.52092 0.044008002 6.0495601 18 20 28
-2.5215099 0.0386337 6.0646501 18 20 32
-2.51545 0.0428661 6.0703602 58 63 87
-2.51548 0.0428693 6.0703902 58 63 87
-2.50648 0.038621899 6.0799999 95 104 132
-2.4856801 0.039156798 6.09027 92 87 99
-2.4764299 0.042911399 6.0918198 73 73 86
-2.47296 0.040097199 6.12325 32 35 52
-2.4807701 0.039616801 6.17097 74 85 115
-2.4674101 0.042056199 6.1976299 70 77 106
-2.46281 0.043029901 6.2197199 79 88 121
-2.45417 0.042270198 6.2289801 80 83 112
-2.4431801 0.043462198 6.2381701 88 74 87
-2.42996 0.046225201 6.23523 90 77 89
-2.42361 0.046174999 6.24335 88 76 89
-2.40644 0.046447799 6.26191 90 90 112
-2.40277 0.040459398 6.2699599 88 96 128
-2.3973401 0.044044498 6.2783599 103 118 159
-2.39201 0.037958801 6.2831602 105 123 165
-2.3864601 0.0401669 6.3286901 95 114 155
-2.3804801 0.047329601 6.3397899 50 66 102
-2.36689 0.044064499 6.3478298 23 29 50
-2.3594699 0.0409583 6.3547802 46 53 81
-2.35162 0.044235699 6.3594599 97 112 149
-2.3419399 0.042459302 6.3935099 106 123 166
-2.34162 0.040613901 6.44873 105 123 166
-2.3337801 0.040569801 6.4903302 108 125 169
-2.3277099 0.047527298 6.4976802 101 117 158
-2.3283501 0.040642399 6.5117302 92 104 138
-2.33125 0.041690402 6.5561199 79 78 94
-2.32866 0.048108801 6.5673099 37 38 51
-2.33235 0.046309099 6.6094298 22 25 37
-2.32951 0.041661199 6.6254401 39 43 60
-2.31809 0.048118901 6.6362901 27 30 48
-2.2817199 0.043623701 6.6925001 71 59 66
-2.2678199 0.040873699 6.6969199 79 69 79
-2.26193 0.0458447 6.7034402 53 45 55
-2.25436 0.044947401 6.7251301 49 37 44
-2.2360401 0.043788001 6.7753201 55 38 40
-2.2309501 0.043142799 6.80022 53 37 40
-2.2153299 0.0477915 6.8365898 52 35 42
-2.2121501 0.0468853 6.8541298 59 44 55
-2.20309 0.046027299 6.8615198 91 82 100
-2.1907599 0.045787498 6.8924799 105 122 163
-2.1103499 0.051235002 7.1791902 104 120 163
-1.71661 0.049347199 7.6087699 95 113 151
-1.6698 0.050810199 7.55896 96 113 152
-1.64426 0.054553401 7.55339 96 115 153
-0.79026598 0.052343901 7.2623801 93 91 106
-0.73653698 0.0449108 7.23839 102 120 163
-0.334521 0.051619802 7.4015098 101 119 162
-0.33042401 0.043491598 7.4096298 102 118 162
-0.33181599 0.0434503 7.4127102 102 118 162
-0.322575 0.0478657 7.4193001 98 115 158
-0.31209499 0.043655999 7.4415698 100 117 160
-0.298926 0.0468909 7.4464202 101 117 160
-0.28787199 0.049077202 7.4495201 101 117 160
-0.27798799 0.052461099 7.4973202 99 117 159
-2.7857299 0.043609399 5.1245399 92 111 150
-2.7839899 0.0389929 5.1321902 85 99 134
-2.7839601 0.0387192 5.1329598 85 99 133
-2.7806599 0.0434874 5.1394501 96 99 122
-2.77827 0.042507902 5.1759501 99 100 112
-2.7720399 0.040667199 5.1904302 22 28 39
-2.7780099 0.046099801 5.20859 14 18 26
-2.7843599 0.045261901 5.2655401 34 44 67
-2.7718699 0.043926701 5.27074 14 16 24
-2.7815101 0.0456996 5.3022599 15 16 21
-2.7771201 0.040403001 5.30829 18 17 28
-2.7600601 0.043941502 5.3195 91 99 127
-2.74705 0.0403721 5.3218298 84 81 97
-2.72627 0.040898699 5.32937 90 93 102
-2.72332 0.046067201 5.3375401 39 46 55
-2.72651 0.0457642 5.3656101 20 22 33
-2.7379899 0.046412598 5.3937998 24 25 40
-2.73248 0.0445337 5.4211001 27 36 59
-2.72697 0.043653902 5.4384499 50 54 75
-2.72509 0.0483649 5.4478598 35 38 56
-2.72437 0.043870401 5.4595599 73 80 106
-2.7137301 0.0425 5.4693999 104 115 146
-2.69559 0.0418864 5.4748902 101 94 109
-2.6842 0.0418997 5.47578 103 97 109
-2.67522 0.041998401 5.4829402 99 94 105
-2.66767 0.045719601 5.4889202 100 95 108
-2.6610301 0.0474873 5.5016699 94 97 121
-2.6585701 0.042314399 5.50984 89 99 131
-2.6544199 0.047445901 5.5157599 100 115 154
-2.6496999 0.0422314 5.5207601 106 123 164
-2.5334301 0.0472387 5.8797998 105 123 165
-2.5292201 0.049885701 5.8965302 91 99 129
-2.53369 0.0528179 5.96943 17 21 32
-2.52402 0.049375501 6.02389 19 26 46
-2.51932 0.0536488 6.0488901 17 19 28
-2.5197699 0.053706702 6.0497499 18 19 28
-2.5193701 0.048324801 6.0631099 21 22 37
-2.5046899 0.047943398 6.0801802 85 91 119
-2.4788301 0.0485323 6.0824499 90 89 100
-2.4735999 0.053192299 6.0891399 62 63 76
-2.4742801 0.047636099 6.1039801 28 30 44
-2.4793401 0.0496311 6.16997 69 78 102
-2.4672 0.0471186 6.1817098 40 44 67
-2.4642701 0.047671601 6.2062101 55 60 86
-2.4633701 0.053003401 6.2196598 64 68 96
-2.4124501 0.047313999 6.2460799 91 82 95
-2.4021599 0.052353598 6.2694201 91 101 135
-2.3915601 0.047422402 6.2864099 104 121 164
-2.39012 0.050314099 6.3164401 101 119 162
-2.38502 0.0504089 6.3278499 88 107 147
-2.36537 0.053458702 6.3497701 23 29 50
-2.3561201 0.053452499 6.35361 70 80 112
-2.34793 0.0534501 6.3591099 102 119 158
-2.3364 0.049675401 6.3687601 106 123 166
-2.3468101 0.0485759 6.4095702 107 124 168
-2.3515601 0.052199699 6.42904 108 125 169
-2.3508999 0.050797001 6.45473 107 124 168
-2.33178 0.054308798 6.4910002 107 124 167
-2.32882 0.053724501 6.5156498 92 101 132
-2.3308301 0.054889102 6.5580602 68 67 81
-2.3312299 0.054455198 6.5575399 72 70 85
-2.32831 0.0537831 6.5843 23 25 36
-2.32955 0.052982401 6.62428 45 51 68
-2.31392 0.056422699 6.6600399 22 22 31
-2.31339 0.0514553 6.6724 21 22 32
-2.31006 0.0570671 6.6834202 52 56 76
-2.29726 0.0524409 6.6888599 60 58 77
-2.2878201 0.0524409 6.6927099 66 55 65
-2.2764399 0.052453801 6.6933498 81 70 78
-2.26738 0.052453 6.6981201 76 70 81
-2.2589099 0.050794899 6.7147799 46 43 55
-2.2697699 0.053605601 6.78091 46 40 53
-2.2654901 0.059244901 6.7911801 48 45 59
-2.2578001 0.054269601 6.7999101 50 39 46
-2.25178 0.057420298 6.8064899 48 38 45
-2.2431099 0.054733999 6.8178601 57 41 45
-2.23156 0.0525559 6.8316798 56 38 41
-2.21187 0.0560744 6.8447499 71 55 64
-2.20419 0.0552085 6.8545198 87 75 89
-2.1956799 0.052389599 6.8861699 99 112 149
-2.1108 0.0595253 7.1675801 103 120 163
-1.83924 0.0614671 7.6595101 93 110 149
-1.77811 0.061902501 7.59904 94 110 150
-1.74909 0.064716697 7.5867901 95 110 149
-1.73369 0.0647154 7.5795102 95 111 150
-1.7133501 0.064201899 7.5630102 94 112 150
-1.7057101 0.0641708 7.57408 95 112 149
-1.70274 0.064253598 7.56989 95 112 149
-1.68981 0.064242497 7.5678101 95 112 149
-1.66379 0.064438798 7.5521598 96 112 150
-1.26425 0.062927902 7.4086599 98 116 158
-1.06627 0.056823 7.34337 89 100 135
-1.0485899 0.057498202 7.3354802 85 82 102
-1.03511 0.060508799 7.3377199 90 86 102
-1.0246201 0.060554702 7.3404899 90 87 102
-0.955778 0.062883198 7.3197198 84 79 90
-0.326509 0.055441201 7.4100499 99 116 159
-0.31890401 0.059780698 7.4177098 88 100 139
-0.310563 0.064069897 7.4211602 85 90 119
-0.29102299 0.062086701 7.4537902 88 101 131
-2.78807 0.048509501 5.11692 103 121 163
-2.7846799 0.053024199 5.1240301 88 106 145
-2.7790999 0.052670199 5.1395102 99 99 119
-2.7741499 0.047547001 5.1431999 101 99 113
-2.78123 0.047064099 5.1683302 101 99 112
-2.7790699 0.051644299 5.1770601 98 98 111
-2.77175 0.050282001 5.1870699 24 31 43
-2.78813 0.049007501 5.2485399 36 36 53
-2.7837 0.0510967 5.2642298 31 41 64
-2.7783201 0.054197598 5.2852302 14 16 22
-2.77476 0.049229201 5.30691 22 20 33
-2.7677901 0.052050799 5.3120198 91 94 121
-2.72454 0.051705699 5.3284702 84 87 96
-2.7249899 0.0517428 5.3508501 18 22 32
-2.7349501 0.049537599 5.4130101 56 67 92
-2.7285399 0.048669498 5.4289999 25 29 46
-2.7226701 0.053771801 5.4331698 27 31 44
-2.72317 0.0539652 5.43117 27 31 43
-2.72156 0.052743401 5.4577198 47 49 74
-2.7105801 0.051374 5.4672499 98 107 135
-2.69997 0.051384602 5.4705501 93 91 110
-2.67786 0.0499028 5.4749999 102 97 109
-2.6716101 0.050772101 5.48245 97 93 104
-2.6661999 0.0547367 5.4884501 101 97 111
-2.6577001 0.0525098 5.5088902 89 100 135
-2.6536 0.057011198 5.5156798 103 118 159
-2.64657 0.051880602 5.51721 106 122 165
-2.6484101 0.0511817 5.5208802 106 122 165
-2.5396299 0.059707802 5.8687701 107 123 168
-2.5380299 0.052611802 5.8743401 107 124 168
-2.5399599 0.056252901 5.9271898 96 96 115
-2.53652 0.0550735 5.9557099 35 39 53
-2.5376899 0.059071898 5.9896598 18 20 33
-2.53142 0.055404 6.01264 72 81 103
-2.5197899 0.057655901 6.0257301 16 21 34
-2.5199001 0.061186802 6.0418401 17 19 28
-2.5183101 0.058022499 6.0633101 25 27 45
-2.50788 0.057289202 6.07481 102 112 142
-2.50049 0.060879499 6.0792599 77 77 101
-2.50001 0.059439499 6.0801601 77 76 99
-2.48891 0.060493 6.0745201 87 81 97
-2.4765501 0.0601491 6.1135101 22 25 37
-2.47486 0.057990201 6.10742 23 26 39
-2.48212 0.0567941 6.15133 26 30 47
-2.47837 0.059436802 6.1704202 56 67 90
-2.4670899 0.057077099 6.18189 25 29 44
-2.4649301 0.058501001 6.2062201 28 31 49
-2.46188 0.063035503 6.2179499 72 77 105
-2.4553001 0.0569821 6.2270598 91 94 123
-2.4475701 0.056977302 6.2329502 73 64 83
-2.43698 0.0569744 6.2351999 86 72 84
-2.4242001 0.056975901 6.2337999 86 74 87
-2.4110701 0.058435 6.2441401 91 83 97
-2.40223 0.063057303 6.2706299 93 105 140
-2.3981099 0.057494301 6.2778401 104 121 160
-2.3923399 0.062499002 6.28339 105 122 164
-2.3961201 0.0589904 6.3171101 103 121 164
-2.38885 0.059043799 6.32442 98 116 158
-2.3824799 0.062640399 6.3313799 76 96 136
-2.3771901 0.056750201 6.3372102 47 63 96
-2.3599999 0.0619497 6.3501601 41 48 75
-2.3524401 0.065642297 6.3544598 94 108 145
-2.3371601 0.063612103 6.3610101 105 121 164
-2.33781 0.060134798 6.4865398 108 125 168
-2.3303399 0.064658798 6.4910202 106 123 165
-2.3296299 0.0668483 6.5183501 93 100 128
-2.3297 0.067620598 6.5573502 59 59 72
-2.3299601 0.067642398 6.5562401 64 63 76
-2.32705 0.067391202 6.5843301 23 25 36
-2.33041 0.059590802 6.6101398 24 27 41
-2.3296599 0.062669098 6.6299701 64 71 90
-2.31739 0.065251797 6.6378002 23 26 41
-2.31199 0.063406698 6.6721401 25 26 40
-2.3018301 0.061333299 6.6865301 82 86 111
-2.2806101 0.0612824 6.6903601 81 69 77
-2.26703 0.0660735 6.7031999 49 47 60
-2.2646201 0.0636857 6.7192798 30 31 45
-2.27016 0.070336901 6.7801399 42 48 68
-2.26616 0.066777103 6.8034201 41 43 59
-2.2581301 0.066290803 6.8288298 44 41 54
-2.2398 0.066287503 6.8378901 52 37 44
-2.2320001 0.068732701 6.8471899 76 61 68
-2.20294 0.068473302 6.8530102 94 85 100
-2.2024 0.061753601 6.8678002 94 90 112
-2.1941299 0.063607402 6.8861699 102 117 155
-2.1117401 0.067839302 7.1574202 103 120 162
-2.1071601 0.0721379 7.1701798 102 119 160
-2.10394 0.064891703 7.1791902 103 119 161
-2.1006701 0.074236803 7.2140999 100 117 155
-2.0751901 0.070293002 7.2388802 101 118 158
-2.08234 0.075267799 7.30936 100 116 158
-1.9554 0.071127303 7.6391602 94 111 148
-1.86985 0.074613199 7.6177101 93 110 148
-1.85469 0.074632898 7.6117401 94 111 149
-1.8387901 0.073542401 7.6065302 94 110 148
-1.82458 0.073539697 7.6022902 94 111 149
-1.81025 0.073540203 7.59796 93 110 148
-1.8099101 0.075928397 7.6043601 93 110 148
-1.79579 0.073558703 7.5935602 94 110 148
-1.7808 0.073568001 7.5872402 94 110 148
-1.77982 0.070555598 7.5858998 95 110 149
-1.7658401 0.073508501 7.5787902 94 109 147
-1.75453 0.073555201 7.5824499 92 108 145
-1.7246 0.0771598 7.5694098 85 99 135
-1.71393 0.077158697 7.5731602 84 97 132
-1.6998399 0.0771586 7.5692401 81 96 130
-1.68332 0.077159002 7.5603099 81 94 127
-1.6541899 0.077525102 7.5394201 80 91 123
-1.63739 0.077675998 7.5537 88 105 142
-1.33184 0.073023997 7.42629 24 30 54
-1.04743 0.0744581 7.3459601 97 92 108
-1.02162 0.071317703 7.3291402 71 62 75
-0.96756297 0.068532199 7.3236098 64 54 64
-0.95886499 0.0743635 7.3301301 46 37 48
-0.77911198 0.065650098 7.2462702 95 94 110
-0.73795599 0.073444404 7.2299399 100 119 162
-0.327914 0.071320198 7.4075899 99 116 159
-0.317655 0.0729376 7.41821 85 93 128
-0.30207199 0.074961103 7.4373899 65 59 73
-0.290411 0.074889302 7.4672098 71 69 84
-0.285512 0.068114802 7.4828401 89 96 122
-0.28428501 0.068988599 7.4737 88 94 118
-2.7913899 0.0533107 5.1104102 105 122 165
-2.78245 0.0575382 5.1331401 90 98 127
-2.7734399 0.056941502 5.1440301 100 97 112
-2.7838099 0.060465399 5.1704898 102 99 114
-2.78139 0.055705901 5.2095599 15 20 32
-2.7727499 0.061343301 5.18893 35 44 68
-2.7886801 0.054566499 5.2392998 18 18 29
-2.78671 0.059889998 5.24825 53 56 77
-2.7841599 0.060205199 5.2645798 26 35 57
-2.7799499 0.055162001 5.3027101 16 16 24
-2.7735901 0.0585467 5.3081298 37 36 54
-2.7667301 0.061864398 5.3127799 105 110 139
-2.7599101 0.056381699 5.3143401 99 107 135
-2.7244799 0.063036397 5.3283501 75 78 89
-2.7225599 0.057307001 5.3364601 31 36 48
-2.7276499 0.063158102 5.3545098 18 22 32
-2.7290201 0.063099302 5.35675 18 22 32
-2.7377801 0.057982601 5.3947802 29 31 49
-2.7344601 0.059304599 5.4127302 44 55 79
-2.72262 0.058787499 5.4218202 23 29 41
-2.72732 0.057824198 5.4542699 30 33 50
-2.7270401 0.058680799 5.4497299 28 32 47
-2.7200699 0.062117599 5.45679 57 60 86
-2.69435 0.0589238 5.4699402 104 98 111
-2.6770999 0.058823101 5.47119 102 98 109
-2.66644 0.063758597 5.4897799 102 99 113
-2.66117 0.057664402 5.5021701 91 96 123
-2.6466601 0.061113998 5.51894 106 122 165
-2.52985 0.062045701 5.8972001 92 98 126
-2.5358901 0.066317797 5.9545999 68 75 98
-2.5309401 0.065888897 6.0146699 71 83 111
-2.5225899 0.065886997 6.0202699 17 24 45
-2.5215001 0.071049199 6.0328202 17 21 40
-2.5169301 0.067820802 6.0633998 37 39 61
-2.5056 0.066587999 6.07371 95 103 132
-2.49739 0.070153996 6.0767102 80 77 99
-2.4730301 0.063546397 6.09062 47 49 61
-2.48527 0.068967603 6.1507201 24 27 43
-2.48261 0.064913303 6.1634202 65 72 94
-2.47014 0.071116097 6.17136 23 29 48
-2.46558 0.069343299 6.20575 26 30 47
-2.4607999 0.0736937 6.2189298 90 97 126
-2.4504099 0.065391697 6.2283401 72 70 94
-2.4505401 0.066640504 6.2280998 73 70 95
-2.4530101 0.066466302 6.2248402 85 87 116
-2.44208 0.066639602 6.2329202 84 71 85
-2.43138 0.066194102 6.2350798 90 77 89
-2.41066 0.069506302 6.2438898 91 83 98
-2.4005301 0.073986202 6.2692499 97 111 148
-2.39694 0.0681962 6.2769198 105 122 162
-2.3926401 0.073630802 6.2847099 105 122 165
-2.39324 0.067689598 6.3220601 101 119 162
-2.38556 0.073748603 6.2971601 104 121 165
-2.38129 0.072670199 6.3317299 71 91 130
-2.3763599 0.066983499 6.33742 44 61 93
-2.3662 0.066938102 6.3390799 25 33 55
-2.3506801 0.075178601 6.3544598 97 113 153
-2.3453701 0.069322497 6.3597398 102 119 161
-2.3366599 0.073094003 6.3624902 105 121 165
-2.33901 0.0680108 6.3984799 107 124 168
-2.33706 0.072640598 6.4083099 107 125 168
-2.3350799 0.070408396 6.4845901 108 125 168
-2.32868 0.074973702 6.49019 103 121 161
-2.3334 0.074095599 6.54849 88 88 104
-2.3282199 0.074328601 6.5675201 29 30 43
-2.3280201 0.074317001 6.5686598 27 29 41
-2.3307199 0.074598901 6.6145101 29 34 50
-2.3264501 0.072176702 6.63025 63 71 92
-2.3164799 0.075139999 6.6388898 23 25 38
-2.3106101 0.075206399 6.6726799 33 34 52
-2.3131199 0.069826201 6.6598701 23 23 32
-2.3062401 0.070216604 6.6838102 86 93 119
-2.29635 0.070218503 6.6867599 73 72 96
-2.28666 0.070219897 6.6900501 76 65 78
-2.26841 0.071952499 6.6896701 82 76 87
-2.27019 0.080334701 6.78267 35 42 63
-2.2662001 0.0743986 6.7913699 24 29 46
-2.2636499 0.080094598 6.8076601 23 27 40
-2.2594299 0.079253703 6.8286099 40 44 63
-2.24385 0.074976802 6.8348699 51 45 60
-2.23634 0.074975699 6.842 72 58 68
-2.22733 0.078287698 6.8474898 85 69 78
-2.20696 0.075474098 6.8448 88 75 87
-2.1919301 0.073955402 6.8850002 104 120 160
-2.1064799 0.0800125 7.1552 103 119 161
-2.0987699 0.076873697 7.1757398 94 110 150
-2.09339 0.0825703 7.1879301 83 96 132
-2.0870399 0.081073403 7.2409101 99 115 153
-2.0756099 0.079224199 7.24891 100 118 156
-2.0803699 0.085222296 7.2571998 97 114 150
-2.0699201 0.085403197 7.2730899 99 116 155
-2.0578799 0.084697597 7.33564 99 116 157
-2.05055 0.082627997 7.3229699 99 116 157
-1.97155 0.088433199 7.6485701 92 108 145
-1.94942 0.0859183 7.6402102 92 110 145
-1.9484299 0.085212901 7.6385198 93 110 145
-1.93369 0.085913099 7.6334701 91 108 144
-1.93707 0.085219003 7.6408901 91 108 144
-1.92378 0.082999699 7.6340399 92 109 145
-1.90625 0.082997203 7.6227899 91 108 145
-1.90725 0.082930699 7.6234698 92 108 145
-1.89375 0.0830018 7.6220899 91 108 145
-1.88791 0.083613999 7.62257 91 107 144
-1.8722301 0.083554499 7.6156101 91 107 143
-1.85902 0.085442901 7.6082702 86 102 138
-1.8474801 0.085444897 7.6093602 85 99 135
-1.83211 0.086274199 7.60537 81 93 129
-1.8169 0.086688697 7.6010799 79 91 125
-1.80382 0.0866891 7.60075 78 89 122
-1.77325 0.086848304 7.58038 76 86 117
-1.7736 0.084217101 7.5846801 79 90 124
-1.76053 0.084175996 7.5805898 79 89 122
-1.7428499 0.085713297 7.5689502 79 87 117
-1.72943 0.079545803 7.5715199 81 94 129
-1.61465 0.086149402 7.5416799 98 115 155
-1.32464 0.082454398 7.4211702 27 34 56
-1.08571 0.078521602 7.3474398 100 118 161
-1.00843 0.083130799 7.3299899 35 26 37
-0.90354502 0.0774872 7.3119702 48 45 63
-0.89659202 0.084147803 7.3231602 56 60 85
-0.85295802 0.080599897 7.29985 54 57 77
-0.78992403 0.076985098 7.2615099 93 91 108
-0.73965299 0.075258903 7.23067 100 119 161
-0.72581899 0.073444597 7.2251801 101 119 162
-0.32304701 0.079655297 7.4088702 96 110 151
-0.30479401 0.085716203 7.4359298 84 81 97
-0.29240599 0.080112301 7.4558702 67 63 76
-0.284127 0.085299097 7.4897399 70 66 78
-2.79228 0.062656701 5.1117501 104 121 164
-2.7850201 0.0624277 5.1259298 86 102 139
-2.78403 0.067776904 5.1349802 92 98 126
-2.7811601 0.065681897 5.1767502 102 101 118
-2.7781401 0.0669773 5.2097902 67 80 114
-2.7883699 0.066876799 5.2462101 55 64 96
-2.78105 0.065777801 5.2726002 13 18 35
-2.77545 0.065386802 5.2857199 16 17 25
-2.7778499 0.064013101 5.30268 18 17 26
-2.7473099 0.064001501 5.3147802 86 84 102
-2.73629 0.063989103 5.31599 98 94 105
-2.7264299 0.0682927 5.3199501 99 101 109
-2.7223899 0.068721198 5.3359399 25 29 42
-2.7350099 0.068657003 5.37672 20 22 34
-2.7383399 0.067685001 5.39678 41 44 64
-2.7370901 0.064261101 5.4047198 79 87 112
-2.7313499 0.069178998 5.4134598 24 34 55
-2.72685 0.070748001 5.4369602 27 32 43
-2.7269199 0.067596696 5.4524002 31 33 50
-2.71929 0.071507297 5.4568601 73 77 104
-2.69873 0.067961097 5.4650602 83 80 101
-2.6870799 0.067942299 5.4659801 98 92 104
-2.67346 0.067823201 5.4699101 102 99 111
-2.6605301 0.067824401 5.5012102 90 96 125
-2.6517899 0.066208802 5.5145001 105 121 161
-2.6472399 0.070633203 5.5208001 105 122 165
-2.5365 0.069865003 5.8651099 106 124 168
-2.5308499 0.072295099 5.8745298 100 118 159
-2.52932 0.078106999 5.88485 88 101 134
-2.5297999 0.072352096 5.89853 93 96 121
-2.53825 0.072251 5.9454002 82 85 104
-2.53615 0.078217797 5.9546599 37 40 59
-2.53756 0.071147896 5.9888101 69 80 107
-2.5369999 0.075011604 6.0046301 81 92 121
-2.5316999 0.079577498 6.0110898 92 105 137
-2.5265999 0.074115701 6.01649 59 75 107
-2.52337 0.076263398 6.0507102 25 31 53
-2.5150199 0.077572703 6.06212 52 59 90
-2.51086 0.072133198 6.0689201 102 111 142
-2.5045199 0.076276101 6.0742502 88 93 122
-2.4888899 0.079667702 6.0704799 89 83 100
-2.4809999 0.075467803 6.0791402 92 89 100
-2.47281 0.075698398 6.0914798 36 38 50
-2.47736 0.072647803 6.1170602 22 25 35
-2.4827099 0.079269499 6.1596699 62 70 92
-2.4699299 0.080557302 6.17345 23 29 46
-2.4665699 0.0746857 6.1935701 25 29 42
-2.4653201 0.079565004 6.21173 41 44 68
-2.4544499 0.078081101 6.2241802 87 91 119
-2.4463301 0.075085603 6.23034 78 68 86
-2.43734 0.0750857 6.2343798 90 76 88
-2.4221699 0.081379198 6.2326498 88 77 90
-2.4100001 0.080063596 6.2427001 93 84 99
-2.4047799 0.079734303 6.2623501 85 91 122
-2.38603 0.077136599 6.3141899 99 118 160
-2.3796501 0.082668103 6.3312802 61 79 116
-2.37012 0.075319096 6.3361502 26 39 65
-2.3646801 0.078261599 6.3456302 23 30 53
-2.35618 0.081016302 6.3495402 68 80 112
-2.3406401 0.078767501 6.3540201 102 119 162
-2.33987 0.083972901 6.3695402 103 121 164
-2.3411601 0.0851226 6.4091401 106 123 167
-2.3266001 0.085249797 6.48874 100 117 155
-2.3259399 0.0795867 6.50313 92 103 135
-2.3348899 0.087129503 6.54809 90 91 109
-2.3299799 0.086797401 6.6141 35 42 66
-2.32932 0.080706701 6.5959702 22 25 40
-2.32689 0.082561597 6.6272502 68 77 100
-2.3236499 0.087307103 6.63976 24 30 48
-2.3157401 0.087160498 6.65626 21 22 32
-2.3087599 0.086902298 6.6737199 55 59 82
-2.29548 0.085468903 6.6828899 76 76 101
-2.2799399 0.085336901 6.6898198 85 75 84
-2.2677 0.085332498 6.6893201 77 73 85
-2.27368 0.084550202 6.7336402 25 28 42
-2.2753201 0.084930301 6.76126 37 44 63
-2.2664399 0.084406801 6.79427 23 28 44
-2.2634201 0.089044698 6.8072701 22 27 41
-2.2578299 0.089356303 6.82868 61 67 90
-2.2407601 0.083665103 6.8396101 67 56 72
-2.2267201 0.090778202 6.83672 86 71 81
-2.2167799 0.0824714 6.8475199 87 72 83
-2.2077701 0.0883855 6.8501201 90 79 93
-2.1998501 0.086057499 6.8670101 91 93 119
-2.1951001 0.090381101 6.8778701 96 110 148
-2.1897099 0.084250197 6.8839698 104 120 162
-2.09461 0.087925203 7.2149801 82 92 123
-2.0859101 0.095346898 7.2392902 84 91 118
-2.0773201 0.087353401 7.2632098 96 112 148
-2.05353 0.096585996 7.31531 97 114 153
-2.0529599 0.094875701 7.3278198 99 115 155
-2.04247 0.094120197 7.3422399 100 116 156
-2.0382199 0.0974309 7.3661699 98 115 155
-2.01524 0.088949099 7.3826199 97 114 155
-2.01947 0.097167499 7.4165902 97 113 154
-1.9574701 0.097750701 7.64327 90 107 143
-1.95816 0.097922303 7.6445098 90 107 143
-1.94482 0.097927503 7.6427398 85 101 138
-1.94415 0.097751901 7.6416302 85 101 138
-1.92873 0.097745903 7.6353598 77 89 124
-1.92737 0.097910598 7.6321001 76 89 124
-1.91388 0.097922496 7.62918 72 82 115
-1.8974 0.097917698 7.6200099 71 79 109
-1.89838 0.097962499 7.6222601 71 79 109
-1.88146 0.097909398 7.6135802 74 79 107
-1.8819 0.097959802 7.6142802 74 79 107
-1.86555 0.097909398 7.6064801 74 79 105
-1.85049 0.097906999 7.60109 75 79 103
-1.8346601 0.097896002 7.5935702 74 76 99
-1.82294 0.097915798 7.5942898 79 77 99
-1.82113 0.097529799 7.5914698 79 78 100
-1.80635 0.097895697 7.5858998 79 77 97
-1.7898901 0.097880803 7.5790801 78 75 93
-1.77684 0.097873896 7.5763001 76 72 88
-1.76117 0.097855799 7.5682402 73 67 82
-1.76156 0.089985602 7.5732498 79 84 110
-1.74744 0.097849503 7.5643601 71 64 78
-1.74634 0.0900966 7.5694499 82 85 109
-1.73248 0.090090401 7.56496 83 85 107
-1.71919 0.090086102 7.5616102 80 81 102
-1.70412 0.090086699 7.5563898 80 79 99
-1.68843 0.090086199 7.54954 77 74 92
-1.67189 0.090080403 7.5408001 74 69 85
-1.64941 0.090640597 7.5380201 80 78 99
-1.63519 0.090640597 7.5328999 85 94 125
-1.6328599 0.097527102 7.5404701 91 105 139
-1.33376 0.088310502 7.4162302 32 38 66
-1.05419 0.085964203 7.3352199 93 93 116
-1.02631 0.088071004 7.3305001 80 70 84
-1.01478 0.092116997 7.3388801 44 37 50
-1.00175 0.089441001 7.3396902 46 45 61
-0.99026901 0.087783098 7.3414502 50 52 68
-0.92201298 0.09025 7.31037 47 51 73
-0.90970302 0.092899501 7.3014798 53 63 90
-0.90119201 0.092914201 7.3064799 74 87 119
-0.88108301 0.091584101 7.31493 37 42 64
-0.86945403 0.090925299 7.30374 37 42 61
-0.853944 0.090903401 7.2889299 37 42 63
-0.795434 0.094366498 7.2505798 68 71 87
-0.782906 0.089988999 7.2445998 94 93 109
-0.73456103 0.084295496 7.2306499 100 118 162
-0.32700101 0.0861651 7.41184 99 115 156
-0.31782499 0.086231299 7.4202099 84 91 126
-0.310671 0.0921399 7.43576 87 86 106
-0.29384801 0.087666303 7.4582701 84 81 94
-0.291471 0.096782997 7.4608898 68 63 73
-0.275675 0.089564197 7.4906402 75 72 83
-2.7916701 0.071204498 5.1150599 104 122 165
-2.7848001 0.073136903 5.1256399 86 100 136
-2.77876 0.073033497 5.1395102 99 98 115
-2.77718 0.072001301 5.1530299 101 98 110
-2.7797599 0.071435198 5.1761999 105 103 120
-2.77705 0.072774597 5.1996799 105 118 153
-2.78707 0.072686702 5.2357101 102 116 153
-2.7862999 0.0715639 5.2588801 81 99 135
-2.78069 0.077247798 5.2751002 85 100 136
-2.7808399 0.0714202 5.2846498 18 25 48
-2.7723401 0.076684996 5.2863998 45 56 88
-2.77546 0.072840497 5.3023901 24 26 49
-2.7637 0.070714898 5.3112602 109 116 146
-2.7551501 0.074387699 5.31287 89 93 118
-2.74296 0.0744038 5.3131399 92 88 102
-2.73317 0.073532097 5.31847 103 100 111
-2.7263401 0.078351602 5.3204298 97 98 108
-2.7381401 0.078211002 5.3975902 57 61 83
-2.7356501 0.073884897 5.4070101 65 75 100
-2.7294199 0.078437701 5.4106202 23 33 53
-2.7235601 0.076526403 5.45117 34 35 54
-2.7139699 0.075854003 5.4621902 107 116 145
-2.7140999 0.075888999 5.4623199 107 116 145
-2.70503 0.078471802 5.4632702 85 88 113
-2.6726501 0.076731302 5.45892 103 100 111
-2.66974 0.073231101 5.4765601 98 95 106
-2.6657701 0.0770308 5.48557 102 99 114
-2.66097 0.077880099 5.5011101 88 95 125
-2.65169 0.075359203 5.5149398 105 122 162
