ply                 
format ascii 1.0    
element vertex 716
property float x    
property float y    
property float z    
property uchar red  
property uchar green
property uchar blue 
end_header          
-2.34382 -0.00311354 4.27055 64 75 103 
-2.30561 0.436572 4.21127 5 25 49 
-2.35 -0.102489 4.29493 66 72 98 
-2.30178 0.465478 4.20695 46 63 91 
-2.35772 -0.228139 4.31016 44 51 93 
-2.34563 -0.0954661 4.28837 25 20 50 
-2.34453 -0.0719064 4.28969 21 20 38 
-2.34462 -0.0858247 4.28986 76 86 122 
-2.34462 -0.0858247 4.28986 76 86 122 
-2.36071 -0.293527 4.32242 38 51 96 
-2.338 -0.02678 4.28209 25 28 37 
-2.338 -0.02678 4.28209 25 28 37 
-2.34556 -0.109925 4.29614 27 32 61 
-2.35192 -0.245944 4.31331 45 58 100 
-2.30317 0.361857 4.2295 66 73 101 
-2.28588 0.548448 4.19914 61 72 100 
-2.30021 0.371667 4.22824 25 29 56 
-2.29135 0.481753 4.21438 40 47 65 
-2.33362 -0.0576629 4.29289 18 28 63 
-2.33779 -0.0993684 4.30193 70 85 126 
-2.33779 -0.0993684 4.30193 70 85 126 
-2.34031 -0.126435 4.30842 80 94 139 
-2.32624 -0.0169242 4.28668 70 83 117 
-2.28747 0.46674 4.22107 7 12 18 
-2.28747 0.46674 4.22107 7 12 18 
-2.32533 -0.0113834 4.29175 35 48 83 
-2.32738 -0.0229802 4.29889 36 40 75 
-2.32646 -0.0568617 4.29828 65 76 104 
-2.32576 -0.0488734 4.29899 20 24 62 
-2.2821 0.495972 4.21937 12 12 20 
-2.32729 -0.066066 4.30411 22 27 56 
-2.32729 -0.066066 4.30411 22 27 56 
-2.28544 0.440201 4.2275 42 59 87 
-2.32696 -0.0914544 4.30967 67 78 108 
-2.32392 -0.0839692 4.3047 18 23 52 
-2.32652 -0.0992749 4.31203 20 30 57 
-2.33881 -0.257167 4.33631 27 44 87 
-2.32244 -0.0750883 4.30662 67 80 114 
-2.26958 0.546231 4.2116 54 69 98 
-2.33598 -0.24165 4.33469 38 51 95 
-2.28339 0.391354 4.24042 19 25 51 
-2.26996 0.524759 4.21899 17 18 23 
-2.32447 -0.141835 4.32393 34 44 80 
-2.29835 0.307522 4.27811 76 81 101 
-2.31442 0.139686 4.30864 21 27 53 
-2.33238 -0.249946 4.34286 85 102 145 
-2.27354 0.450079 4.23634 5 7 19 
-2.3145 -0.0603406 4.31265 71 93 132 
-2.3145 -0.0603406 4.31265 71 93 132 
-2.31719 -0.0898074 4.32223 18 19 39 
-2.31706 -0.0897238 4.32208 18 19 39 
-2.90938 -1.40552 5.4301 167 192 249 
-2.26345 0.528689 4.22496 8 8 18 
-2.32941 -0.276303 4.34852 31 30 44 
-2.3157 -0.12424 4.32536 43 52 83 
-2.27735 0.360557 4.25979 53 69 102 
-2.26332 0.482623 4.23803 64 79 120 
-2.3098 -0.121983 4.32801 36 38 79 
-2.3015 0.160409 4.31685 22 28 54 
-2.30459 -0.0624615 4.32372 26 39 73 
-2.3231 -0.277106 4.35903 46 44 55 
-2.3231 -0.277106 4.35903 46 44 55 
-2.25856 0.495864 4.24651 21 32 64 
-2.2947 0.0300357 4.31554 69 71 94 
-2.29813 -0.0337197 4.32544 33 48 87 
-2.29392 0.00963331 4.32064 77 94 138 
-2.28723 0.0225952 4.3204 19 21 42 
-2.28645 -0.00291981 4.32869 18 28 64 
-2.28722 -0.016649 4.33287 29 42 86 
-2.25373 0.378167 4.27772 70 85 116 
-2.24296 0.458908 4.26576 57 75 111 
-2.24532 0.425802 4.27391 25 37 75 
-2.27547 0.0102547 4.33484 21 29 65 
-2.27547 0.0102547 4.33484 21 29 65 
-2.2435 0.435776 4.27467 70 86 119 
-2.24701 0.38387 4.28211 25 32 61 
-2.27304 0.210124 4.3376 65 77 103 
-2.27785 0.149369 4.34703 75 93 133 
-2.27785 0.149369 4.34703 75 93 133 
-2.27235 0.0188034 4.34066 75 84 123 
-2.27453 0.142672 4.34595 69 88 118 
-2.24347 0.378543 4.2879 62 72 97 
-2.23273 0.502754 4.27015 12 17 36 
-2.23324 0.450492 4.27716 11 13 26 
-2.22476 0.527689 4.26953 64 83 116 
-2.26939 0.141222 4.3565 16 20 45 
-2.23065 0.437609 4.28449 67 78 106 
-2.26738 0.152785 4.35572 71 87 120 
-2.22277 0.483146 4.2774 64 81 124 
-2.22277 0.483146 4.2774 64 81 124 
-2.22523 0.458083 4.28515 55 71 96 
-2.22523 0.458083 4.28515 55 71 96 
-2.2585 0.013274 4.35179 41 55 100 
-2.26471 0.133268 4.36422 66 83 109 
-2.26471 0.133268 4.36422 66 83 109 
-2.22794 0.45295 4.29559 40 51 73 
-2.2227 0.443616 4.29684 16 17 35 
-2.21052 0.547409 4.2778 67 83 119 
-2.22124 0.405676 4.30278 68 81 115 
-2.21808 0.429586 4.30019 18 22 51 
-2.20687 0.525995 4.29032 63 78 109 
-2.21875 0.368281 4.31446 57 71 98 
-2.2425 0.0397047 4.36404 70 81 113 
-2.2425 0.0397047 4.36404 70 81 113 
-2.21065 0.343719 4.30914 14 14 16 
-2.23961 0.027189 4.3676 71 86 119 
-2.22348 0.330221 4.33953 25 19 33 
-2.2096 0.383971 4.31742 27 31 58 
-2.20282 0.47861 4.3043 71 86 127 
-2.23645 0.0210635 4.37238 13 22 61 
-2.28081 -0.538576 4.46064 41 54 96 
-2.28081 -0.538576 4.46064 41 54 96 
-2.20186 0.438868 4.31005 68 85 128 
-2.19321 0.553629 4.29616 29 27 51 
-2.20053 0.453598 4.31135 18 31 65 
-2.23127 0.0437314 4.37872 82 87 119 
-2.22039 0.326137 4.35832 59 68 101 
-2.21537 0.321285 4.36803 41 55 90 
-2.18075 0.562894 4.30818 72 90 130 
-2.21171 0.336419 4.3704 21 19 32 
-2.21429 0.326914 4.37558 103 115 153 
-2.21807 0.226943 4.3918 33 38 70 
-2.38032 -0.851276 4.71852 66 86 111 
-2.18981 0.34981 4.345 12 12 14 
-2.18981 0.34981 4.345 12 12 14 
-2.37595 -0.882518 4.72066 43 63 100 
-2.26082 -0.471892 4.4933 20 20 32 
-2.17274 0.535426 4.32183 18 26 62 
-2.17553 0.492373 4.33249 27 32 62 
-2.16784 0.560145 4.32084 17 24 53 
-2.21334 0.159555 4.4117 41 56 99 
-2.16864 0.513946 4.33191 28 34 68 
-2.20484 0.0437922 4.4044 36 45 88 
-2.15998 0.588368 4.32132 18 16 29 
-2.19848 0.0463942 4.40993 72 87 126 
-2.15579 0.579301 4.32722 74 80 114 
-2.35253 -1.02677 4.72905 11 16 22 
-2.19436 0.0568861 4.4117 30 32 57 
-2.16611 0.402509 4.35699 67 81 118 
-2.16611 0.402509 4.35699 67 81 118 
-2.16611 0.402509 4.35699 67 81 118 
-2.35144 -1.04408 4.73328 4 8 17 
-2.35509 -0.848763 4.74079 63 83 108 
-2.35509 -0.848763 4.74079 63 83 108 
-2.15627 0.491073 4.34731 21 28 70 
-2.15375 0.481153 4.35125 21 21 59 
-2.18363 0.05156 4.41694 80 92 134 
-2.16186 0.353196 4.37838 16 15 20 
-2.14197 0.583688 4.34225 74 89 130 
-2.13542 0.642944 4.33575 66 53 63 
-2.18198 0.19715 4.43371 71 80 111 
-2.18323 0.16629 4.43648 19 30 62 
-2.18223 0.180851 4.43865 65 75 100 
-2.15815 0.307443 4.3968 65 64 72 
-2.14111 0.49236 4.36287 80 97 140 
-2.14111 0.49236 4.36287 80 97 140 
-2.16107 0.288542 4.40608 61 56 63 
-2.14397 0.430616 4.37168 17 26 59 
-2.14397 0.430616 4.37168 17 26 59 
-2.13507 0.469469 4.37305 29 37 73 
-2.1655 0.0615808 4.43835 21 23 44 
-2.14411 0.323747 4.40098 29 26 37 
-2.12642 0.523475 4.36938 35 47 89 
-2.13446 0.399301 4.38806 75 88 132 
-2.16064 0.0751308 4.44854 66 63 72 
-2.12605 0.46867 4.38271 64 83 115 
-2.12308 0.490415 4.37847 28 32 67 
-2.15757 0.0539785 4.45274 27 31 68 
-2.12873 0.392322 4.39568 76 93 136 
-2.13837 0.266633 4.42331 74 72 86 
-2.119 0.470227 4.38674 28 45 75 
-2.13254 0.25119 4.42484 31 28 47 
-2.13246 0.233007 4.43206 33 29 52 
-2.12759 0.2808 4.4226 23 24 44 
-2.12759 0.2808 4.4226 23 24 44 
-2.13921 0.131868 4.44976 74 69 76 
-2.11588 0.408174 4.40414 39 48 89 
-2.11588 0.408174 4.40414 39 48 89 
-2.14021 0.0986597 4.45703 74 67 75 
-2.12668 0.229228 4.44003 30 33 64 
-2.12861 0.187457 4.44603 22 23 43 
-2.11644 0.31554 4.42114 28 34 68 
-2.11644 0.31554 4.42114 28 34 68 
-2.12778 0.182627 4.44767 27 32 52 
-2.13341 0.105363 4.4609 23 24 44 
-2.15546 -0.21622 4.50891 37 46 87 
-2.13247 0.0695375 4.46789 38 39 67 
-2.10082 0.489527 4.40183 38 46 83 
-2.11308 0.284488 4.43549 30 35 65 
-2.12648 0.107283 4.46687 80 88 124 
-2.10461 0.371429 4.42464 22 27 56 
-2.11561 0.181 4.45327 43 46 81 
-2.09641 0.399512 4.42785 35 44 83 
-2.09641 0.399512 4.42785 35 44 83 
-2.06889 0.680379 4.39253 36 43 72 
-2.11277 0.0529232 4.49428 55 65 114 
-2.09862 0.0742305 4.496 89 101 141 
-2.64533 -1.32882 5.67878 24 26 49 
-2.64709 -1.34306 5.68683 151 173 223 
-2.04081 0.738286 4.40831 79 98 140 
-2.01672 0.796387 4.42145 78 69 86 
-2.04101 -0.448979 4.67398 86 103 149 
-2.4519 -1.20901 5.63541 20 15 37 
-1.80478 1.19998 4.18435 1 3 2 
-1.74353 1.04904 4.21073 73 79 91 
-1.72265 1.16491 4.18051 57 69 91 
-1.72571 1.06431 4.21932 32 46 85 
-1.72571 1.06431 4.21932 32 46 85 
-1.91927 0.166137 4.69674 56 63 82 
-1.72073 1.11677 4.21491 63 81 105 
-2.1368 -0.894847 5.24324 122 127 165 
-1.72255 0.972596 4.22511 13 20 49 
-1.72203 1.04902 4.2302 33 40 66 
-1.71532 0.981993 4.2259 40 59 73 
-1.71691 1.06644 4.2301 35 45 80 
-1.90348 0.229746 4.71585 87 102 145 
-2.32272 -1.18202 5.76585 16 12 35 
-1.89873 0.201519 4.71849 26 34 55 
-1.7023 1.12009 4.2345 55 75 84 
-1.706 1.04701 4.2463 24 37 43 
-1.89234 0.213913 4.72041 30 36 60 
-1.89234 0.213913 4.72041 30 36 60 
-1.69608 1.0635 4.25259 21 34 68 
-1.68927 1.04565 4.25934 7 8 38 
-1.65378 1.16768 4.17332 35 55 82 
-1.68289 1.12321 4.24858 53 81 105 
-1.68313 1.03536 4.268 46 61 102 
-1.67711 1.04788 4.26961 4 10 42 
-1.67711 1.04788 4.26961 4 10 42 
-1.66931 1.05006 4.27681 54 67 76 
-1.84742 0.21103 4.76164 28 39 61 
-1.80798 0.184202 4.77735 43 42 58 
-1.7228 0.202235 4.62224 55 64 95 
-1.77027 0.168442 4.81249 51 38 47 
-1.77581 -0.156005 4.87039 43 29 44 
-1.79714 -0.373725 4.93363 37 31 45 
-1.75424 -0.137896 4.89639 66 74 113 
-1.75424 -0.137896 4.89639 66 74 113 
-1.69364 0.885011 4.74336 32 27 34 
-1.56899 0.192721 5.00193 49 61 103 
-1.74824 -0.803318 5.57487 95 109 146 
-1.74715 -0.807766 5.58964 78 96 136 
-1.55527 0.218009 5.01999 46 39 47 
-1.55527 0.218009 5.01999 46 39 47 
-1.54989 0.218472 5.0098 48 38 46 
-1.55918 -0.344895 5.15013 52 44 55 
-1.55918 -0.344895 5.15013 52 44 55 
-1.42342 0.260236 5.14286 47 37 48 
-1.38732 0.251113 5.17077 53 38 45 
-1.58179 -1.04205 6.52914 85 103 143 
-1.56333 -1.0337 6.53778 81 103 144 
-1.56333 -1.0337 6.53778 81 103 144 
-1.37171 -0.709134 5.7533 65 71 83 
-1.16792 0.929578 5.23458 43 49 83 
-1.15476 1.08521 5.25555 59 69 94 
-1.26535 -0.815866 5.77192 10 13 28 
-1.15073 1.05711 5.27026 13 12 18 
-1.13704 1.08825 5.26898 61 71 98 
-1.13511 1.1438 5.26502 48 53 72 
-1.13616 0.998585 5.28291 23 23 33 
-1.1347 1.07062 5.28797 42 49 65 
-1.1347 1.07062 5.28797 42 49 65 
-1.18355 -0.263129 5.51605 54 42 54 
-1.13428 1.0459 5.29183 38 44 56 
-1.13428 1.0459 5.29183 38 44 56 
-1.14795 0.304013 5.40078 48 35 45 
-1.14795 0.304013 5.40078 48 35 45 
-1.11983 1.09219 5.28458 58 68 93 
-1.14328 0.333391 5.40839 11 11 19 
-1.11768 1.1182 5.29094 12 11 19 
-1.16063 -0.0377365 5.52441 84 100 134 
-1.13835 0.371835 5.45961 50 61 79 
-1.10247 1.15054 5.29576 77 83 115 
-1.10247 1.15054 5.29576 77 83 115 
-1.10256 1.07577 5.31431 79 85 109 
-1.12593 0.339618 5.43225 11 11 19 
-1.10312 1.02659 5.32651 74 82 105 
-1.14283 -0.0561482 5.54264 19 26 42 
-1.14431 -0.148234 5.5666 11 12 17 
-1.14431 -0.148234 5.5666 11 12 17 
-1.08948 1.03946 5.32538 70 60 71 
-1.08948 1.03946 5.32538 70 60 71 
-1.19107 -0.643472 5.88048 48 59 89 
-1.12266 -0.118594 5.58407 66 70 99 
-1.12266 -0.118594 5.58407 66 70 99 
-1.09924 -0.0679701 5.55589 91 90 108 
-1.05079 1.03841 5.37666 46 52 68 
-1.09293 -0.0916857 5.59416 14 18 27 
-1.09203 -0.138158 5.60235 11 12 17 
-1.0864 -0.0778063 5.60991 20 24 51 
-1.06135 0.35129 5.48702 9 12 21 
-1.06104 0.436637 5.4946 23 30 48 
-1.06104 0.436637 5.4946 23 30 48 
-1.036 1.08086 5.39212 11 15 24 
-1.07791 -0.109572 5.62103 86 100 129 
-1.04512 0.582489 5.48603 97 110 144 
-1.04918 0.411916 5.52562 87 102 141 
-1.04612 0.47247 5.51187 74 88 114 
-1.01855 1.11509 5.38044 64 69 98 
-1.01862 1.14387 5.38411 77 83 109 
-1.01959 1.0949 5.39575 82 90 113 
-1.01932 1.04277 5.40642 76 82 106 
-1.0465 -0.105065 5.65211 101 112 144 
-0.996926 0.988405 5.42226 42 29 38 
-1.03086 0.00782306 5.61433 60 50 61 
-0.976188 0.968974 5.42298 50 53 84 
-1.01783 -0.227475 5.66455 54 40 53 
-0.99055 0.339317 5.56031 52 37 42 
-1.16353 -0.838222 6.60522 65 77 101 
-1.15646 -0.852267 6.64555 11 13 26 
-0.91497 1.17402 5.438 4 12 33 
-0.79109 1.18663 5.60439 80 84 111 
-0.791757 1.15624 5.61197 82 87 116 
-0.791892 1.12545 5.61702 74 80 106 
-0.852197 -0.536812 6.11724 23 26 43 
-0.795043 -0.410631 5.91349 36 27 30 
-0.746519 1.04717 5.63252 35 36 57 
-0.746519 1.04717 5.63252 35 36 57 
-0.704846 -0.453174 5.90958 25 28 45 
-0.700398 -0.408051 5.90442 18 20 32 
-0.717369 -1.15057 6.17508 87 129 179 
-0.682783 -0.434818 5.91188 106 125 167 
-0.614596 0.794299 5.61713 42 48 74 
-0.601262 0.879132 5.59471 85 104 144 
-0.615694 0.374067 5.7466 88 102 131 
-0.650961 -1.12312 6.09215 47 88 132 
-0.647003 -1.08002 6.07569 51 84 127 
-0.652966 -1.13455 6.15196 62 105 148 
-0.59947 0.743291 5.66114 11 13 26 
-0.600576 0.678005 5.67612 14 14 26 
-0.603384 0.114115 5.80431 8 13 32 
-0.585061 0.763673 5.65267 76 92 125 
-0.585632 0.747633 5.65841 70 76 98 
-0.586467 0.711515 5.66697 73 79 101 
-0.586467 0.711515 5.66697 73 79 101 
-0.588001 0.644545 5.68278 62 64 85 
-0.606897 -0.267185 5.89148 23 32 61 
-0.59666 -0.00496559 5.8083 54 56 79 
-0.575483 0.814557 5.61404 84 98 135 
-0.588545 0.379133 5.74238 82 91 122 
-0.597347 -0.285954 5.87791 62 64 87 
-0.60354 -0.578757 5.93938 51 52 72 
-0.60354 -0.578757 5.93938 51 52 72 
-0.598516 -0.380731 5.90299 112 131 174 
-0.598516 -0.380731 5.90299 112 131 174 
-0.569667 0.791239 5.62738 45 42 53 
-0.592307 -0.184149 5.87225 99 115 151 
-0.592307 -0.184149 5.87225 99 115 151 
-0.574392 0.432512 5.72963 10 12 27 
-0.575467 0.366157 5.7466 7 11 23 
-0.595598 -0.538606 5.94837 98 117 150 
-0.576022 0.334284 5.75398 9 13 25 
-0.601137 -1.08156 6.08022 44 78 116 
-0.58156 -0.454196 5.93227 26 39 73 
-0.555634 0.682657 5.67689 62 63 83 
-0.581717 -0.52004 5.94418 28 39 69 
-0.581956 -0.551249 5.95196 27 40 72 
-0.561313 0.415776 5.74195 94 100 124 
-0.562843 0.102491 5.81307 100 106 132 
-0.562569 0.0387375 5.8173 96 105 134 
-0.576619 -1.03532 6.00776 106 155 195 
-0.567134 -0.534325 5.94494 112 121 150 
-0.560855 -0.23424 5.8893 95 99 124 
-0.560855 -0.23424 5.8893 95 99 124 
-0.531803 0.851694 5.60153 43 56 91 
-0.551277 0.104166 5.80749 97 94 111 
-0.551277 0.104166 5.80749 97 94 111 
-0.555213 -0.290003 5.87156 106 103 114 
-0.533938 0.665239 5.67665 76 80 105 
-0.53258 0.711521 5.66577 83 88 117 
-0.53258 0.711521 5.66577 83 88 117 
-0.55932 -0.537789 5.95134 101 102 123 
-0.535699 0.347846 5.74958 82 88 112 
-0.518806 0.829456 5.60689 81 97 133 
-0.536277 0.0461021 5.81805 91 104 138 
-0.519177 0.761842 5.65665 14 16 31 
-0.519543 0.72808 5.66306 11 13 26 
-0.541636 -0.565308 5.94144 42 38 55 
-0.521631 0.443463 5.72982 10 13 28 
-0.522572 0.346817 5.7517 9 11 24 
-0.523724 0.0961625 5.80734 18 27 56 
-0.522925 0.130495 5.79872 23 30 58 
-0.522925 0.130495 5.79872 23 30 58 
-0.546339 -1.08164 6.07324 44 70 103 
-0.526446 -0.217962 5.88004 23 32 61 
-0.506767 0.698859 5.66934 73 80 99 
-0.507331 0.667579 5.67702 63 72 89 
-0.507331 0.667579 5.67702 63 72 89 
-0.506961 0.683393 5.67376 74 80 104 
-0.528263 -0.442819 5.92747 27 37 73 
-0.528927 -0.508614 5.9426 24 37 72 
-0.529314 -0.538288 5.94958 25 40 71 
-0.510144 0.114951 5.8031 91 105 140 
-0.504229 0.327445 5.74281 37 43 57 
-0.510697 0.050689 5.81783 96 112 145 
-0.510229 0.0203151 5.82368 67 74 102 
-0.510229 0.0203151 5.82368 67 74 102 
-0.513218 -0.129597 5.86081 107 121 156 
-0.508088 0.0119934 5.81462 52 52 76 
-0.512685 -0.198904 5.8762 90 106 140 
-0.512746 -0.230992 5.88143 96 113 143 
-0.511429 -0.264024 5.87689 63 71 94 
-0.493278 0.670559 5.67548 16 16 28 
-0.558528 -1.44914 6.42903 185 207 255 
-0.497191 0.431649 5.73264 59 71 97 
-0.514926 -0.48959 5.93809 99 117 153 
-0.514926 -0.48959 5.93809 99 117 153 
-0.515085 -0.521764 5.9454 88 106 142 
-0.515085 -0.521764 5.9454 88 106 142 
-0.519336 -1.03577 6.01552 102 146 191 
-0.512734 -0.554774 5.94422 54 52 74 
-0.493849 0.450373 5.72613 12 12 24 
-0.493849 0.450373 5.72613 12 12 24 
-0.494491 0.416278 5.73507 8 12 24 
-0.494697 0.352747 5.7494 12 14 29 
-0.495508 0.136495 5.79645 22 29 58 
-0.496181 0.102577 5.8063 18 29 49 
-0.496878 0.0386317 5.82113 20 30 55 
-0.477283 0.905352 5.5934 79 95 131 
-0.483092 0.544468 5.66405 77 92 131 
-0.498847 -0.17926 5.87 24 34 61 
-0.498955 -0.211368 5.87795 20 31 61 
-0.499033 -0.243227 5.88544 26 35 66 
-0.544685 -1.46564 6.43761 34 65 112 
-0.50114 -0.470608 5.93299 27 38 70 
-0.501363 -0.502321 5.94132 24 37 71 
-0.480234 0.370274 5.74914 80 81 109 
-0.533754 -1.48988 6.45086 182 205 255 
-0.531257 -1.45013 6.44189 187 205 255 
-0.460108 0.83232 5.60704 82 93 125 
-0.52351 -1.36252 6.41042 183 203 253 
-0.495996 -1.07884 6.08035 39 72 107 
-0.457417 0.539165 5.6741 55 67 109 
-0.457417 0.539165 5.6741 55 67 109 
-0.439845 0.526903 5.67609 90 108 146 
-0.433893 0.811235 5.61145 79 94 127 
-0.43237 0.698686 5.64003 74 85 115 
-0.431716 0.662095 5.64714 91 104 139 
-0.434855 0.475171 5.69138 94 107 142 
-0.434822 0.451282 5.69722 94 108 143 
-0.434822 0.451282 5.69722 94 108 143 
-0.423109 0.786037 5.62272 35 44 77 
-0.420616 0.821164 5.61459 36 45 76 
-0.423127 0.657453 5.65471 74 88 127 
-0.429684 -0.480717 5.89841 22 27 49 
-0.425585 -1.0901 6.07323 51 78 108 
-0.399582 -0.338739 5.89651 34 31 52 
-0.369047 0.833047 5.61749 37 47 82 
-0.359855 0.643933 5.64759 35 28 36 
-0.358028 0.327325 5.72355 92 107 150 
-0.354922 0.543358 5.69996 51 38 56 
-0.354907 0.448913 5.71974 39 31 46 
-0.39073 -1.27048 6.33461 181 202 255 
-0.358701 -0.430666 5.8671 32 26 30 
-0.358701 -0.430666 5.8671 32 26 30 
-0.338894 0.66536 5.62962 83 97 136 
-0.366463 -1.05075 6.15688 34 63 97 
-0.333765 0.681812 5.61732 39 48 81 
-0.323243 -1.04077 6.1963 24 47 78 
-0.289357 -1.12255 6.24739 50 82 129 
-0.246651 0.489016 5.61092 75 86 114 
-0.233471 0.612395 5.51122 42 33 38 
-0.233471 0.612395 5.51122 42 33 38 
-0.227927 0.509074 5.55151 47 54 80 
-0.22852 0.455586 5.56743 37 47 72 
-0.177779 0.501302 5.49074 86 101 142 
-0.175205 0.59209 5.46424 83 102 135 
-0.167541 0.652807 5.43809 93 108 147 
-0.158494 0.770202 5.40569 80 95 134 
-0.151576 0.637726 5.43284 52 60 96 
-0.146888 0.901118 5.36519 43 50 79 
-0.146888 0.901118 5.36519 43 50 79 
-0.138349 0.959756 5.34709 80 89 122 
-0.138761 0.882895 5.36708 77 93 126 
-0.135702 0.902434 5.35782 83 90 119 
-0.131599 0.610163 5.41746 82 101 134 
-0.129114 0.697989 5.39548 90 109 142 
-0.130505 0.314754 5.49285 39 26 35 
-0.124349 0.852028 5.36856 29 30 50 
-0.125177 0.598518 5.4133 28 34 56 
-0.113391 0.612403 5.39393 41 47 83 
-0.0837233 0.659156 5.35854 84 97 129 
-0.0807085 0.289786 5.43152 87 84 93 
-0.0760778 1.04934 5.30431 80 88 109 
-0.0754076 0.727699 5.33249 83 102 134 
-0.0754076 0.727699 5.33249 83 102 134 
-0.0671349 0.644037 5.34263 89 105 138 
-0.0645993 0.721719 5.32103 42 54 94 
-0.0469806 0.700912 5.31237 90 106 142 
-0.0420589 0.635913 5.31703 90 109 142 
-0.0356227 0.509267 5.36179 63 55 70 
-0.0301051 0.276562 5.38204 94 90 105 
-0.022721 -0.251815 5.52214 43 31 45 
-0.00659939 0.621192 5.2887 55 64 105 
0.00459269 0.632619 5.27107 95 113 151 
0.00606135 0.882053 5.25697 72 74 89 
0.00614576 0.930985 5.24524 81 82 102 
0.00626221 0.906286 5.2483 80 85 104 
0.00667948 0.955202 5.23725 82 87 106 
0.0460196 -0.311873 5.42057 78 86 123 
0.0459697 0.626735 5.22496 44 51 93 
0.0226081 0.56386 2.45494 10 38 26 
0.0628548 0.394745 5.26307 95 110 149 
0.0791445 0.580443 5.19661 51 59 95 
0.0799431 0.48863 5.22049 92 105 139 
0.0806132 0.525186 5.21088 99 115 149 
0.0892151 0.968564 5.10933 51 60 91 
0.100572 0.562169 5.18215 43 51 87 
0.103781 0.832364 5.12291 85 94 125 
0.105881 1.00554 5.08244 74 80 102 
0.106765 1.08195 5.06598 83 95 119 
0.110739 0.256562 5.25389 37 25 35 
0.110739 0.256562 5.25389 37 25 35 
0.113957 0.243674 5.24272 87 81 91 
0.115979 0.231301 5.23156 53 51 75 
0.114024 0.773346 5.12796 36 43 72 
0.117364 0.514358 5.19012 83 75 88 
0.123912 0.775677 5.11602 85 92 121 
0.123912 0.775677 5.11602 85 92 121 
0.142137 0.225892 5.21714 53 53 79 
0.145858 0.334421 5.23067 79 92 124 
0.145494 0.581743 5.13413 82 97 126 
0.147728 0.705125 5.10662 36 42 74 
0.159194 0.231835 5.19871 97 90 106 
0.157237 0.746878 5.08781 87 98 130 
0.162462 0.206874 5.19295 105 122 165 
0.159439 0.733941 5.09362 41 42 70 
0.159439 0.733941 5.09362 41 42 70 
0.161619 0.524492 5.12819 36 25 31 
0.162977 0.711828 5.07987 73 88 121 
0.182477 0.699187 5.07232 34 32 54 
0.19146 0.214712 5.16561 55 53 77 
0.191372 0.690262 5.06235 78 84 110 
0.196233 0.5463 5.08581 78 91 126 
0.208365 0.319478 5.15209 60 50 61 
0.204857 0.670782 5.05537 89 89 113 
0.209371 0.761383 5.02875 71 72 92 
0.214471 0.612983 5.05243 84 94 121 
0.214471 0.612983 5.05243 84 94 121 
0.216977 0.699377 5.03225 29 28 34 
0.22314 0.21817 5.13079 92 84 97 
0.224799 0.185363 5.12606 109 126 169 
0.223907 0.64984 5.04603 81 96 129 
0.223907 0.64984 5.04603 81 96 129 
0.223976 0.624443 5.03706 31 33 54 
0.22718 0.597049 5.04257 30 27 44 
0.236072 0.56525 5.04287 44 48 85 
0.243875 0.211672 5.11401 91 85 95 
0.23827 0.974862 4.98915 72 78 100 
0.240299 0.716034 5.00839 87 100 134 
0.240939 0.634415 5.02095 45 54 87 
0.270768 0.721048 4.98835 84 93 134 
0.280906 0.192876 5.06366 41 42 72 
0.311983 1.07183 4.8573 75 90 119 
0.311983 1.07183 4.8573 75 90 119 
0.315224 1.04508 4.85919 76 92 128 
0.315224 1.04508 4.85919 76 92 128 
0.320774 0.898265 4.89069 90 108 146 
0.328224 0.747821 4.90053 94 109 148 
0.336889 0.985724 4.86038 86 106 143 
0.336889 0.985724 4.86038 86 106 143 
0.342156 0.739501 4.90213 40 37 64 
0.357349 0.0224487 5.05305 116 133 179 
0.373559 0.933568 4.82818 52 41 49 
0.389153 0.787392 4.88173 71 73 94 
0.390107 0.858317 4.86348 84 90 116 
0.386979 0.952062 4.80905 86 100 139 
0.399313 0.867728 4.85469 14 18 30 
0.419133 -0.200282 5.0376 82 74 89 
0.402406 0.956951 4.78801 42 39 60 
0.414478 0.875709 4.81553 20 26 40 
0.428989 0.74224 4.80603 32 20 24 
0.444782 0.864828 4.77674 90 81 98 
0.465601 0.799578 4.79222 35 31 48 
0.465621 0.849959 4.78116 40 31 48 
0.472843 0.814306 4.78873 84 91 119 
0.473314 0.864103 4.77646 87 94 120 
0.46785 0.927476 4.72099 93 107 142 
0.46785 0.927476 4.72099 93 107 142 
0.471366 0.937762 4.72034 46 44 66 
0.506831 0.899671 4.6913 55 40 45 
0.531916 0.158938 4.8267 52 39 48 
0.542307 0.13426 4.81229 60 65 95 
0.541986 1.03287 4.63247 82 70 84 
0.573388 1.24547 4.52993 73 70 87 
0.640478 0.135856 4.71891 82 95 129 
0.64342 0.0880097 4.72579 106 124 170 
0.646974 0.110181 4.72151 64 69 101 
0.615429 1.24868 4.46706 8 11 20 
0.615429 1.24868 4.46706 8 11 20 
0.640891 1.18775 4.48046 92 88 102 
0.66083 0.66613 4.58821 64 77 111 
0.70406 -0.430026 4.78057 65 52 59 
0.683822 0.39747 4.63661 59 46 55 
0.665448 1.16159 4.483 91 109 147 
0.695281 0.317539 4.66673 105 124 154 
0.711757 -0.526454 4.77115 97 114 157 
0.701077 0.800369 4.54683 39 37 58 
0.697348 0.99117 4.49003 58 43 50 
0.709127 0.865015 4.53247 75 88 120 
0.71863 0.852197 4.53522 15 20 39 
0.718317 0.874371 4.52637 15 16 34 
0.722924 0.826716 4.53467 12 17 23 
0.722924 0.826716 4.53467 12 17 23 
0.725043 0.806713 4.52066 72 86 112 
0.741805 0.803013 4.50403 69 79 106 
1.05822 1.37536 6.37073 92 107 138 
0.749872 0.666054 4.49265 46 33 40 
1.06495 1.33182 6.32505 12 15 22 
0.76652 0.798579 4.47407 85 83 97 
0.761788 0.950505 4.42492 92 88 102 
0.772757 0.662678 4.48289 47 32 37 
0.775934 0.845883 4.45157 79 69 78 
0.784943 0.831539 4.4553 40 35 55 
0.785418 0.856448 4.44932 38 31 49 
0.785427 0.88155 4.44313 37 30 48 
0.791882 0.821661 4.45891 82 91 120 
0.827561 -0.474873 4.65757 61 49 59 
0.809054 0.344138 4.55037 115 135 168 
0.792744 0.895703 4.4384 78 83 112 
0.792535 0.922144 4.43646 78 88 115 
0.824859 0.0902688 4.54067 56 44 54 
0.808232 0.787446 4.43837 72 87 116 
0.802134 1.19616 4.34566 50 56 72 
0.823819 0.83862 4.41823 56 64 83 
0.823819 0.83862 4.41823 56 64 83 
0.854741 -0.536544 4.58323 102 119 162 
0.827692 0.957871 4.34528 55 40 47 
0.840324 0.713823 4.41132 29 35 59 
0.836604 1.15015 4.27504 29 27 38 
0.952664 0.61899 4.30391 50 35 42 
0.976005 0.652954 4.30432 66 62 77 
0.976496 0.676559 4.29895 67 65 79 
0.977041 0.704431 4.29403 72 71 89 
0.973028 0.73548 4.2761 39 34 54 
0.973221 0.786434 4.26954 34 27 45 
0.973109 0.862508 4.25319 37 28 45 
0.97978 0.756111 4.28165 82 84 109 
0.97978 0.756111 4.28165 82 84 109 
0.981119 0.801704 4.26461 71 84 116 
0.989664 0.639619 4.28245 15 14 20 
0.987857 0.733314 4.26401 24 30 56 
0.989869 0.810164 4.26042 14 17 32 
0.990579 0.859728 4.2498 18 17 31 
0.994328 0.902412 4.21154 92 108 141 
1.0033 0.729542 4.24926 32 37 67 
1.00516 0.88547 4.22701 13 16 31 
1.01235 0.79379 4.23194 61 76 99 
1.02051 0.700309 4.24357 23 32 63 
1.019 0.712252 4.23205 43 58 97 
1.02206 0.601432 4.22801 47 32 39 
1.01692 0.900947 4.20346 99 112 144 
1.02157 0.875085 4.1898 12 15 22 
1.0891 -0.460026 4.41534 111 129 169 
1.04328 0.598452 4.21535 45 28 34 
1.05641 0.742767 4.19375 39 36 55 
1.06456 0.773127 4.18908 62 74 96 
1.06443 0.783574 4.18331 71 85 114 
1.06497 0.833582 4.17356 72 79 107 
1.06497 0.833582 4.17356 72 79 107 
1.06618 0.807007 4.17811 8 15 25 
1.07419 0.768744 4.18772 15 18 37 
1.07419 0.768744 4.18772 15 18 37 
1.07428 0.840785 4.16732 20 22 35 
1.08009 0.722634 4.17096 66 80 107 
1.08754 0.615058 4.17919 12 13 18 
1.01226 0.652527 3.88477 42 55 97 
1.11644 0.018068 4.2545 50 38 48 
1.09638 0.718026 4.15455 69 83 112 
1.09608 0.821725 4.13431 63 74 102 
1.10447 0.681044 4.16271 25 31 63 
1.10259 0.706584 4.14861 24 28 57 
1.10811 0.699534 4.14561 100 119 149 
1.11157 0.703505 4.13566 25 29 58 
1.13823 0.665411 3.96066 89 102 136 
1.13901 0.652458 3.95991 100 114 151 
1.14459 0.648477 3.95932 42 55 100 
1.15288 0.670335 3.95612 16 22 44 
1.15233 0.662543 3.95017 93 113 146 
1.15768 0.676158 3.93421 16 19 34 
1.16522 0.760882 3.95164 21 30 71 
1.16992 0.678951 3.94193 20 31 63 
1.27068 -0.474208 4.23331 49 65 98 
1.33093 -0.568752 4.19014 38 25 32 
1.35224 -0.489978 4.15801 40 53 85 
1.36546 -0.577598 4.12845 42 31 39 
1.35552 0.102961 4.03871 14 12 26 
1.31238 1.07989 3.83234 80 58 70 
1.41015 -0.0716874 3.96716 55 67 107 
1.55801 -0.513277 3.95984 96 115 147 
1.55392 -0.0103507 3.85333 19 21 34 
1.57026 -0.0154397 3.83701 18 16 29 
1.60435 -0.00817821 3.80908 80 76 91 
1.60435 -0.00817821 3.80908 80 76 91 
1.65737 -0.645729 3.86501 36 29 37 
1.62637 -0.0374671 3.78779 15 16 21 
1.65782 -0.66798 3.84822 59 48 56 
1.62741 0.0756819 3.7632 21 18 27 
1.56231 0.545478 3.61059 96 116 153 
1.64418 -0.0166966 3.76873 105 125 160 
1.65824 -0.020005 3.75095 102 122 157 
1.66041 -0.0477866 3.75564 16 17 22 
1.67612 -0.131123 3.70906 54 65 97 
1.60147 0.556592 3.50023 90 108 148 
1.61105 0.554887 3.49997 86 91 123 
1.59792 0.93233 3.46719 5 8 41 
1.61649 0.539177 3.50067 47 61 106 
1.61627 0.549516 3.49886 12 13 41 
1.61627 0.549516 3.49886 12 13 41 
1.61829 0.567249 3.50206 32 45 62 
1.61829 0.567249 3.50206 32 45 62 
1.62117 0.542923 3.49641 89 112 146 
1.62193 0.553928 3.49527 84 111 138 
1.62015 0.916854 3.46991 9 16 24 
1.62784 0.891397 3.47157 21 31 66 
1.67551 0.915552 3.48254 22 28 62 
