ply                 
format ascii 1.0    
element vertex 1252
property float x    
property float y    
property float z    
property uchar red  
property uchar green
property uchar blue 
end_header          
0.0180315 -0.444789 1.86111 164 152 140 
-0.57076 -0.612939 2.30894 159 143 128 
0.199953 -0.464587 1.73927 174 160 149 
0.20585 -0.494673 1.73491 61 48 39 
0.22199 -0.342618 1.71079 62 50 38 
-0.1612 -0.843511 2.02235 53 48 45 
-0.109155 0.164073 1.91534 197 172 152 
-0.10071 0.113816 1.91228 154 133 114 
-0.149598 -0.123687 1.96088 140 127 119 
-0.0781225 -0.238761 1.91857 213 184 166 
-0.92789 -0.48079 2.61359 122 112 100 
0.0745682 -0.699285 1.84184 207 193 180 
0.145128 -0.431689 1.77456 47 37 38 
0.321458 -0.350936 1.63755 77 73 70 
0.195019 -0.429436 1.73812 55 47 44 
-0.118293 0.169383 1.92102 136 108 87 
0.283956 -0.295567 1.66184 147 129 117 
-0.119105 -0.106256 1.93985 60 50 38 
-0.942907 -0.476096 2.62994 62 45 35 
0.205535 -0.486618 1.73373 76 57 43 
0.405981 -0.236078 1.56388 55 42 33 
-0.0477078 -0.671724 1.92582 49 32 25 
-0.129884 0.0254566 1.93937 62 50 34 
0.0293852 -0.709618 1.87552 184 169 166 
-0.0189578 -0.0714839 1.71293 153 134 117 
0.440502 -0.31956 1.5458 132 130 117 
-0.0822162 0.184683 1.89442 49 40 23 
0.00046056 -0.828904 1.9023 92 73 66 
-0.722478 -0.702843 2.43112 97 82 75 
-0.0805297 -0.680116 1.94885 154 149 143 
-0.0908851 0.174384 1.90332 38 28 19 
-0.936865 -0.422208 2.62314 83 67 52 
-0.134797 -0.367375 1.96124 87 78 73 
-0.584532 -0.895345 2.34286 197 182 161 
-0.455818 -0.769394 2.23101 174 164 154 
0.0278776 -0.430639 1.85848 138 122 109 
0.0268353 -0.429829 1.85665 174 160 151 
0.102029 -0.451358 1.80793 86 69 49 
-0.0677058 -0.351856 1.91658 103 81 67 
-0.162025 -0.323763 1.97785 30 27 22 
-0.0669159 -0.378056 1.91704 98 94 91 
-0.126151 -0.149989 1.9487 140 117 109 
0.440051 -0.319338 1.54547 85 83 70 
-0.0673458 -0.279022 1.91217 75 61 52 
0.161628 -0.487138 1.76536 165 151 142 
-0.00200686 -0.464748 1.87608 45 40 36 
0.0144183 -0.231339 1.69527 111 90 73 
-0.103861 -0.0638863 1.92672 89 70 56 
-0.148053 -0.638154 1.99538 117 114 107 
-0.525821 -0.699724 2.27863 157 153 144 
-0.334345 -0.794915 2.14568 57 43 40 
-0.009725 -0.0978492 1.70678 106 89 79 
-0.000466989 -0.453272 1.87517 55 52 45 
0.0280726 -0.661551 1.87139 41 31 29 
0.102076 -0.734545 1.81746 214 203 197 
-0.474505 -0.975097 2.26519 58 51 45 
-0.0347956 -0.901922 1.92225 93 73 46 
0.186362 -0.359909 1.74061 54 53 48 
-0.784022 -0.537736 2.46393 61 45 30 
-0.161795 -0.365832 1.97771 33 26 20 
-0.681716 -0.574523 2.3869 66 50 50 
0.231031 -0.319196 1.70281 48 47 45 
-0.783992 -0.484157 2.46252 137 136 132 
-0.0803513 -0.136346 1.91534 74 58 45 
-0.0734493 0.158738 1.89269 156 137 120 
-0.29391 -0.828117 2.11575 87 73 64 
-0.715825 -0.598542 2.42001 83 72 66 
-0.026462 -0.47749 1.89723 94 72 59 
0.338668 -0.363784 1.62461 172 169 160 
0.178494 -0.474652 1.75349 47 43 40 
-0.410719 -0.842277 2.20578 85 81 78 
-0.434202 -0.89244 2.23011 194 185 170 
-0.554091 -0.904941 2.32335 86 72 63 
-0.899676 -0.543675 2.60606 76 62 51 
-0.414163 -0.979053 2.22154 99 83 68 
-0.75335 -0.479563 2.43261 31 26 22 
0.207986 -0.302139 1.72083 34 35 30 
-0.631626 -0.44044 2.33637 74 66 55 
-0.0719936 -0.0239794 1.90262 154 128 111 
0.0964083 -0.480069 1.81801 41 41 39 
-0.0934803 -0.176113 1.92579 62 44 30 
-0.0410338 -0.455981 1.90339 98 91 83 
-0.0992467 -0.0213748 1.91936 163 137 120 
0.0347567 -0.738798 1.8687 49 36 28 
-0.607996 -0.324229 2.3133 74 60 47 
-0.0716921 -0.197948 1.91464 153 134 120 
-0.222906 -0.951444 2.07601 47 35 35 
-0.139192 -0.252689 1.95826 115 95 88 
-0.786749 -0.618176 2.46623 68 55 47 
-0.369034 -0.687283 2.13949 152 138 127 
0.253166 -0.442626 1.69481 68 63 59 
-0.121395 -0.924945 2.00295 166 148 144 
-0.954984 -0.448755 2.62928 125 109 93 
0.241661 -0.301505 1.69731 116 117 112 
0.395925 -0.241626 1.57249 36 31 28 
0.37639 -0.282017 1.59148 153 136 126 
-0.0892901 -0.210362 1.92653 59 39 30 
-0.145687 0.0455456 1.94905 71 64 48 
0.031654 -0.198341 1.67937 102 78 44 
-0.821735 -0.291937 2.36536 119 103 80 
-0.0963504 -0.577114 1.95348 54 42 30 
-0.914688 -0.526247 2.61128 141 129 117 
-0.101756 0.0252281 1.91998 63 50 42 
-0.569856 -0.789719 2.32516 79 69 68 
-0.0733027 -0.236527 1.91553 112 84 70 
-0.0800782 -0.136535 1.91598 71 55 42 
-0.569887 -0.791064 2.32758 75 65 64 
-0.110261 0.0766276 1.91964 31 26 20 
0.131943 -0.424998 1.791 72 62 60 
-0.134537 -0.786818 1.99613 187 180 174 
-0.044303 -0.430921 1.90328 57 48 43 
-0.00831224 -0.149966 1.70489 105 99 83 
-0.580302 -0.796855 2.33167 197 185 171 
-0.373447 -0.707853 2.15293 70 70 58 
-0.0813299 -0.312834 1.92139 68 57 51 
-0.0188725 -0.107105 1.71375 55 55 43 
-0.716489 -0.59239 2.4231 61 52 47 
0.368949 -0.3967 1.60324 186 185 180 
-0.0747791 -0.675283 1.94472 52 48 39 
-0.126667 -0.0486051 1.94072 66 50 37 
-0.128112 0.0155207 1.93819 100 83 73 
-0.28396 -0.858744 2.11336 92 79 73 
0.218609 -0.0644016 1.69759 98 104 102 
-0.115049 -0.00474315 1.93237 185 166 152 
-0.0798822 -0.312484 1.92196 54 43 37 
0.167768 -0.466665 1.76081 115 110 106 
0.0971341 -0.597762 1.81795 58 49 44 
-0.0972087 -0.151261 1.92628 92 70 56 
-0.898895 -0.474801 2.60018 67 57 55 
-0.753148 -0.387963 2.42634 46 42 33 
-0.57815 -0.355257 2.29395 131 105 90 
0.0628339 -0.75346 1.84911 171 153 141 
0.214232 -0.366246 1.71956 61 52 43 
-0.830352 -0.717622 2.51123 57 49 47 
-0.202763 0.0302082 1.99248 61 57 48 
-0.171493 0.0140031 1.97058 80 71 56 
-0.780004 -0.41031 2.45191 51 46 42 
-0.764789 -0.619388 2.45605 163 143 132 
-0.640036 -0.345624 2.34399 73 60 51 
-0.122198 -0.0354918 1.93894 78 66 54 
0.00437372 -0.410688 1.86998 45 42 37 
-0.592676 -0.294136 2.30183 65 48 38 
0.366646 -0.201338 1.5918 106 108 103 
0.199941 -0.502068 1.73787 158 145 129 
0.00282768 -0.753316 1.89262 101 79 68 
-0.193995 -0.997408 2.0556 165 160 140 
0.0855251 -0.487812 1.82231 40 39 37 
-0.738389 -0.438265 2.42167 44 31 15 
-0.134473 -0.786971 1.99633 187 180 174 
0.00435606 -0.469418 1.87258 44 36 34 
0.405513 -0.335633 1.57161 56 53 46 
-0.581517 -0.79281 2.33272 217 205 193 
-0.0948841 -0.0134576 1.91775 144 125 108 
0.28757 -0.368713 1.66289 135 127 116 
0.339808 -0.32607 1.62028 50 47 42 
-0.954584 -0.480681 2.65224 94 84 82 
-0.0726404 0.212002 1.88624 44 28 15 
0.185385 -0.46543 1.74923 110 100 91 
-0.0048414 -0.559506 1.88601 95 75 64 
-0.764742 -0.398871 2.44263 135 114 95 
-0.0351886 -0.168196 1.72947 79 72 64 
0.328921 -0.380193 1.63098 154 136 122 
-0.422573 -0.984297 2.22955 174 160 147 
0.244435 -0.343489 1.69429 59 54 48 
0.0669092 -0.461335 1.83453 70 51 45 
-0.0624315 -0.360894 1.91355 62 59 50 
0.305548 -0.331255 1.64577 46 39 33 
-0.749651 -0.552742 2.43972 59 44 37 
0.17987 -0.428567 1.74848 53 46 38 
-0.105883 0.16735 1.9134 47 28 11 
-0.134799 -0.92632 2.01337 63 55 53 
-0.0232147 0.00280894 1.69823 186 168 122 
0.386129 -0.279599 1.58371 88 78 66 
-0.121986 -0.923843 2.00148 144 129 124 
-0.0451943 -0.617722 1.92282 44 43 39 
0.0883991 -0.73472 1.82757 176 167 158 
-0.805089 -0.517833 2.47888 163 150 142 
0.0820282 -0.459285 1.82083 52 43 38 
-0.689195 -0.640086 2.40088 67 53 50 
0.115007 -0.457774 1.80241 120 102 98 
-0.197725 -0.984067 2.05996 74 61 53 
-0.47895 -0.771601 2.25171 107 96 92 
-0.128189 -0.346903 1.95653 115 111 110 
0.129118 -0.538678 1.79171 155 139 139 
-0.0309264 -0.360905 1.89247 118 115 108 
-0.875277 -0.467948 2.58136 162 155 145 
-0.0126514 -0.46263 1.88479 51 42 35 
0.0577102 -0.668504 1.85078 65 60 54 
-0.746562 -0.650925 2.44187 75 61 52 
0.294851 -0.400957 1.66039 75 67 56 
-0.019877 -0.668905 1.90459 55 46 39 
0.373297 -0.378875 1.60064 154 144 109 
-0.796751 -0.670707 2.48337 96 87 80 
-0.647989 -0.407383 2.35 66 53 47 
-0.655137 -0.32238 2.35294 129 117 105 
-0.0557619 -0.630306 1.9273 70 52 42 
0.0191283 -0.843582 1.88422 201 185 172 
-0.152914 -0.832169 2.01456 173 154 139 
-0.644039 -0.777996 2.37822 168 154 141 
-0.0599422 -0.406453 1.91411 31 30 26 
-0.438411 -0.727028 2.21238 81 73 60 
0.311413 -0.281459 1.63895 84 70 61 
-0.0156961 -0.196249 1.7183 81 70 66 
-0.149323 -0.0638453 1.96044 43 39 30 
-0.13634 -0.923924 2.01094 81 77 74 
0.185479 -0.36589 1.73828 145 132 124 
0.0721907 -0.512164 1.82977 97 97 95 
-0.0454544 -0.237914 1.73887 30 21 12 
0.35791 -0.323596 1.60886 69 69 61 
0.252799 -0.348352 1.68904 87 74 42 
0.27994 -0.345313 1.66961 91 75 60 
-0.800063 -0.27994 2.33994 34 29 23 
-0.050281 0.00142518 1.71928 44 39 35 
0.283571 -0.335076 1.66559 44 39 33 
-0.59808 -0.767813 2.34352 76 72 71 
-0.841996 -0.0831308 2.31137 40 35 29 
-0.199668 -0.984146 2.0613 82 69 60 
0.298715 -0.392529 1.65675 166 144 123 
-0.612106 -0.655135 2.34736 64 55 48 
0.343288 -0.381826 1.62351 57 45 29 
0.0197624 -0.436103 1.85964 68 64 61 
-0.17146 -0.805858 2.0259 42 37 31 
-0.0830014 0.0135677 1.90467 91 74 58 
-0.0830942 -0.245127 1.92429 122 109 100 
0.0452458 -0.18709 1.67024 36 35 30 
-0.0991176 -0.128558 1.92582 59 50 41 
0.344963 -0.329799 1.61789 153 154 148 
-0.101275 -0.670948 1.96411 55 49 49 
0.118242 -0.461998 1.801 47 37 28 
-0.0618936 -0.898336 1.95701 78 70 59 
-0.123298 -0.143375 1.94367 51 44 36 
-0.668716 -0.349078 2.36364 53 44 37 
0.0305608 -0.411864 1.85635 45 44 39 
0.320425 -0.404151 1.64427 71 63 50 
-0.0810449 -0.639854 1.94923 64 55 48 
0.0755514 -0.553793 1.82488 123 114 107 
0.0952076 -0.623772 1.81925 55 46 41 
0.211174 -0.3088 1.71784 105 104 102 
-0.0200982 -0.173594 1.71871 158 141 123 
-0.0638732 -0.447956 1.92133 97 98 92 
-0.0925627 -0.279204 1.93266 216 194 181 
-0.0929998 -0.0118427 1.91548 103 80 64 
0.0373286 -0.827067 1.87451 111 100 96 
0.124135 -0.529495 1.7899 65 56 59 
-0.0904426 -0.326425 1.93035 73 64 59 
-0.165884 -0.301167 1.97874 107 100 92 
-0.0780036 -0.464224 1.92974 123 122 120 
0.426787 -0.245693 1.54824 184 182 169 
0.0116629 -0.748348 1.88555 44 39 36 
-0.405786 -0.928399 2.21501 159 138 121 
0.0847047 -0.445295 1.81839 92 88 79 
-0.0148031 -0.365986 1.88097 51 37 28 
-0.113334 -0.780309 1.98237 155 142 136 
-0.0991071 0.211722 1.90571 40 31 24 
-0.0818678 0.00424805 1.905 179 157 143 
0.424532 -0.237542 1.55116 44 37 31 
0.00230221 -0.437107 1.87311 66 61 57 
0.0209485 -0.436877 1.86169 65 61 58 
-0.0117868 -0.596583 1.89485 123 112 106 
-0.02139 -0.132883 1.7176 58 52 40 
-0.313198 -1.01816 2.1475 53 49 46 
0.00743906 -0.0208253 1.67682 71 65 49 
-0.484005 -0.675314 2.24216 159 145 134 
0.0163801 -0.0984557 1.68992 82 65 45 
-0.145173 -0.761007 2.00619 126 113 104 
-0.293307 -0.725307 2.10157 51 47 44 
-0.239857 -0.773858 2.06803 78 69 62 
0.0775142 -0.708879 1.83906 161 150 144 
0.154354 -0.463654 1.76998 50 46 43 
-0.458549 -0.915555 2.24865 53 43 41 
0.187702 -0.24619 1.73116 37 39 36 
-0.0984472 -0.269023 1.93538 58 38 29 
-0.201847 -0.775727 2.04403 174 161 152 
0.417213 -0.098994 1.54957 26 26 24 
-0.820692 -0.563104 2.49672 47 46 44 
-0.0415996 -0.800567 1.9326 59 48 46 
-0.0234192 -0.521399 1.89829 177 158 144 
-0.0809342 -0.546783 1.94049 75 68 60 
-0.795915 -0.51842 2.47773 101 83 69 
-0.063484 -0.38234 1.91647 38 33 30 
-0.0995933 -0.196339 1.93357 157 141 126 
-0.00579893 -0.829466 1.90648 166 148 136 
-0.0896249 0.20914 1.89997 72 56 41 
0.397864 -0.277271 1.57282 104 90 77 
-0.374797 -0.877503 2.18027 67 67 65 
-0.360483 -0.819035 2.16655 69 60 53 
-0.0319555 0.0578218 1.7018 90 83 75 
-0.063431 -0.523797 1.92797 73 60 52 
-0.88792 -0.511731 2.59609 104 86 74 
0.118308 -0.50456 1.80238 118 118 116 
-0.0588607 -0.590345 1.92713 48 39 34 
-0.133258 -0.0264812 1.9454 110 90 79 
0.0663558 -0.504373 1.83725 31 30 26 
-0.0825182 -0.567938 1.94201 51 48 41 
-0.285487 -0.87379 2.11426 175 157 145 
-0.420293 -0.93522 2.22169 64 61 56 
-0.752928 -0.520315 2.43937 120 98 87 
-0.386192 -0.941777 2.19833 132 114 110 
-0.299917 -1.0276 2.138 98 91 85 
-0.241835 -0.777508 2.07273 57 48 43 
-0.397835 -0.909194 2.20543 74 67 59 
-0.0172297 -0.0194085 1.69282 34 25 16 
0.107378 -0.522973 1.80896 31 31 29 
-0.148448 -0.0543838 1.95708 109 99 87 
0.058034 -0.668841 1.8513 88 81 75 
-0.0392202 -0.106994 1.72985 152 139 130 
0.411771 -0.10061 1.55134 29 29 27 
-0.117062 -0.0906661 1.93761 67 62 56 
-0.0681686 -0.372602 1.92031 41 36 32 
0.276178 -0.427894 1.67629 66 57 48 
-0.0549162 -0.352139 1.90694 56 49 41 
0.108789 -0.553 1.80552 88 87 83 
0.173515 -0.451385 1.75461 184 173 167 
-0.632283 -0.854856 2.37831 109 90 83 
-0.126708 0.103797 1.93257 122 101 82 
0.0982992 -0.7111 1.82022 175 164 146 
0.0355917 -0.673821 1.86848 97 94 87 
-0.0946009 0.227422 1.90225 43 34 19 
-0.363125 -0.867489 2.17429 139 130 115 
-0.207625 0.0850228 1.99241 32 33 25 
-0.0808935 -0.578113 1.94249 54 44 35 
-0.0414369 -0.616902 1.91594 50 49 45 
-0.622581 -0.807766 2.35854 70 65 62 
-0.0871643 -0.203222 1.9229 70 56 43 
0.360511 -0.347898 1.60502 131 123 102 
0.0984043 -0.458007 1.81043 78 69 60 
-0.145606 -0.287597 1.96537 44 35 28 
-0.038677 -0.480968 1.90112 144 134 124 
-0.231586 -1.00952 2.08593 87 79 76 
-0.072711 0.197921 1.88745 46 30 15 
-0.159409 -0.383986 1.97882 49 42 36 
0.00751451 -0.16417 1.69625 35 35 23 
-0.621362 -0.728718 2.35689 88 79 80 
-0.156857 -0.286028 1.97082 65 42 34 
0.236376 -0.20656 1.69257 86 87 82 
-0.442079 -0.972053 2.23955 177 167 158 
-0.0834792 -0.261151 1.92354 85 72 63 
-0.588852 -0.524865 2.31212 109 87 73 
0.397025 -0.0857788 1.56909 85 86 81 
-0.514472 -0.923248 2.2967 128 119 114 
0.323496 -0.18379 1.62239 37 37 35 
-0.176534 0.144818 1.96499 81 78 69 
-0.399859 -1.00815 2.20996 96 86 74 
-0.652451 -0.306915 2.34742 35 29 29 
0.110537 -0.508208 1.80636 41 40 38 
-0.578275 -0.360378 2.291 93 78 75 
0.17837 -0.38372 1.74747 125 112 103 
0.263697 -0.244446 1.67233 102 102 100 
-0.821301 -0.0696709 2.2993 121 117 108 
-0.1104 -0.149205 1.93486 60 50 41 
0.16453 -0.456716 1.76113 174 158 143 
-0.113923 -0.457474 1.9559 40 39 35 
-0.0197477 -0.39925 1.88553 157 138 131 
-0.0928606 -0.192258 1.92494 78 59 45 
-0.233959 -0.695261 2.05377 56 51 47 
0.0552558 -0.668539 1.85363 82 71 69 
-0.286794 -0.798474 2.11052 135 113 102 
-0.0464411 -0.813845 1.93584 39 38 34 
0.268714 -0.436085 1.68418 154 150 139 
-0.11235 -0.0768829 1.93356 75 56 42 
0.10133 -0.632072 1.81448 39 35 32 
-0.844771 -0.0943038 2.31594 38 34 25 
0.0799625 -0.757646 1.83214 128 120 109 
0.245654 -0.406529 1.69894 46 47 42 
-0.424317 -0.788474 2.2144 155 142 134 
-0.243429 0.108719 2.01566 88 89 83 
-0.0294472 -0.682807 1.91309 54 43 37 
-0.875919 -0.562019 2.58485 138 112 95 
0.243922 -0.038085 1.67824 31 33 30 
0.297992 -0.137696 1.63955 43 43 41 
-0.228363 -0.792624 2.06543 75 70 66 
0.0699218 -0.557811 1.82873 37 34 29 
-0.155048 -0.100392 1.96488 46 45 40 
0.375895 -0.218139 1.5857 105 95 85 
-0.410805 -1.00256 2.21944 67 58 43 
0.371054 -0.178462 1.58754 84 85 80 
-0.815448 0.0126714 2.26731 112 103 74 
0.129091 -0.563661 1.7879 93 93 95 
-0.635769 -0.0618007 2.32742 37 36 34 
-0.1381 0.116424 1.93978 114 104 94 
-0.628217 -0.750896 2.36561 87 75 79 
0.0744136 -0.639382 1.83179 51 46 40 
-0.0556533 -0.805906 1.94275 126 118 105 
-0.0545128 -0.610983 1.92712 102 92 82 
0.28737 -0.312112 1.65991 109 91 77 
0.207288 -0.3124 1.71961 40 42 37 
-0.139207 -0.287709 1.9585 40 33 27 
-0.753154 -0.659809 2.44877 155 139 126 
-0.104121 -0.0155162 1.92431 87 75 61 
0.080177 -0.632372 1.82905 33 30 25 
-0.16484 0.028659 1.96358 61 49 37 
-0.189024 0.00757131 1.98294 74 62 46 
-0.0240577 -0.486388 1.89296 62 52 43 
-0.675635 -0.32576 2.36842 40 36 33 
-0.0824955 0.142158 1.89914 165 143 129 
0.475519 -0.158715 2.07616 80 82 81 
-0.104993 -0.426137 1.94608 38 37 35 
0.10339 -0.521696 1.80717 28 28 26 
-0.170445 0.17524 1.9603 71 68 59 
-0.0818425 -0.206522 1.91883 171 149 138 
0.276768 -0.256761 1.66556 48 48 46 
-0.653999 -0.123845 2.34311 81 81 79 
-0.043631 0.0046107 1.71227 181 158 140 
0.0911907 -0.493756 1.82017 101 98 93 
0.310178 -0.401544 1.64532 83 68 61 
-0.0936555 -0.15148 1.92363 100 80 69 
-0.293425 -0.843717 2.11754 162 149 140 
-0.466743 -0.756941 2.23881 73 66 58 
0.06058 -0.527224 1.83652 92 93 87 
0.101195 -0.522234 1.80976 34 34 32 
-0.684908 -0.613787 2.3954 131 126 120 
-0.135887 -0.0660293 1.94994 35 31 20 
-0.616018 -0.124214 2.31454 45 46 41 
-0.0516291 -0.355903 1.90567 111 106 100 
0.0467476 -0.465299 1.84616 71 58 52 
0.024812 -0.683399 1.8732 54 49 45 
-0.286123 -0.886307 2.11574 166 148 134 
-0.269188 -0.830439 2.09972 49 45 44 
0.173184 -0.107581 1.73411 84 86 81 
0.00548732 -0.495287 1.87241 93 79 70 
0.00835073 -0.442465 1.87167 98 85 76 
-0.419764 -0.943005 2.22177 186 178 165 
-0.631146 -0.12961 2.32683 35 34 30 
0.351114 -0.219031 1.60394 93 95 90 
0.354902 -0.270992 1.60508 149 134 113 
0.280119 -0.290089 1.664 86 79 73 
-0.0933814 0.0570493 1.90498 73 64 31 
-0.0782206 -0.332006 1.92434 153 134 120 
-0.0876774 -0.299669 1.92701 66 55 51 
-0.10916 -0.147455 1.93164 53 43 34 
0.257741 -0.279029 1.6824 38 37 33 
0.220128 -0.187769 1.70492 73 75 72 
0.213566 0.135952 1.69541 73 77 78 
-0.0394321 -0.610877 1.91585 109 105 104 
-0.111528 0.0533269 1.92244 196 169 122 
-0.0877279 -0.380332 1.93336 44 43 39 
-0.164697 0.0999799 1.96064 94 91 84 
0.250707 -0.373473 1.6913 38 33 27 
-0.0954627 -0.101981 1.92438 112 89 75 
-0.621473 -0.338696 2.32992 72 65 59 
0.397077 -0.233047 1.57137 87 78 73 
0.276105 -0.42786 1.67622 66 57 48 
-0.419869 -0.994073 2.22601 54 46 43 
0.425843 -0.239685 1.55031 132 124 113 
-0.0233925 -0.719496 1.91301 102 88 75 
-0.376284 -0.992998 2.19149 53 49 46 
0.375061 -0.350043 1.5966 108 96 82 
-0.1793 0.104829 1.96929 84 86 75 
0.0667173 -0.487878 1.83473 30 31 26 
-0.68648 -0.811753 2.4116 88 78 77 
-7.88016e-07 -0.13611 1.69902 33 32 27 
0.346602 -0.384774 1.62171 123 111 99 
-0.742315 -0.0883027 2.40652 27 26 22 
0.221637 -0.391076 1.71408 57 47 45 
0.207047 -0.430407 1.72974 52 38 35 
0.220168 -0.187771 1.70497 73 75 72 
-0.677611 -0.107554 2.36292 23 25 22 
-0.622084 -0.218658 2.32022 90 91 86 
-0.10023 -0.446808 1.94415 98 97 93 
-0.00260301 -0.809482 1.90533 99 88 86 
0.239512 -0.447474 1.7055 62 57 51 
-0.0812236 -0.440908 1.93339 31 31 31 
0.00637023 -0.231158 1.70103 18 19 13 
-0.113117 -0.500376 1.9593 100 100 98 
-0.0365793 -0.354176 1.89344 114 105 100 
-0.83322 -0.317187 2.4011 80 62 48 
-0.0819091 -0.12197 1.91631 61 38 24 
-0.785112 -0.43832 2.45873 43 34 27 
-0.171634 -0.736646 2.02186 63 58 54 
-0.0735909 -0.246427 1.91555 138 122 109 
-0.123984 0.12518 1.92756 55 48 40 
-0.396498 -0.756922 2.18458 104 94 82 
-0.625387 -0.0421392 2.3159 33 32 28 
-0.023196 -0.523107 1.89703 204 184 173 
-0.242963 0.119319 2.01422 81 81 71 
-0.767813 -0.542048 2.44882 166 150 134 
-0.117389 -0.194377 1.94242 176 157 143 
0.350902 -0.390926 1.61698 133 106 79 
-0.106881 -0.414263 1.94731 77 78 73 
-0.108678 -0.15534 1.93409 109 96 90 
-0.597646 -0.257356 2.30726 45 44 40 
-0.0311992 -0.127417 1.72422 162 136 119 
0.368086 -0.224145 1.5908 60 57 50 
-0.850292 -0.119044 2.32026 77 60 44 
-0.111804 0.191195 1.91576 63 53 43 
-0.17265 0.0828664 1.96257 47 47 39 
0.107722 -0.526011 1.80657 34 34 32 
-0.113567 -0.0937853 1.93625 134 127 119 
0.425694 -0.208932 1.55278 143 142 137 
-0.117972 -0.343773 1.9496 44 39 33 
-0.625409 -0.28456 2.3256 41 40 38 
0.173766 -0.442721 1.75394 112 113 105 
0.0656321 -0.572544 1.83566 62 60 61 
-0.257624 0.0846936 2.02519 30 31 23 
-0.00826869 -0.522342 1.88137 156 134 120 
0.360649 -0.355052 1.60758 140 124 111 
0.0344044 -0.413931 1.85322 49 48 43 
-0.135154 0.0589596 1.93689 153 134 104 
-0.269127 -0.452985 2.09023 85 72 40 
-0.635117 -0.187088 2.33219 42 42 40 
-0.657902 -0.214863 2.35106 87 87 85 
-0.590391 -0.802786 2.33766 101 91 90 
-0.732777 -0.084033 2.40123 68 69 64 
-0.0959452 0.00625918 1.91673 101 83 71 
-0.175483 0.171301 1.96363 33 28 22 
-0.167544 0.162902 1.95947 22 22 14 
0.340896 -0.420032 1.62227 50 52 30 
0.0356735 -0.511421 1.85125 49 46 39 
0.0428564 -0.464131 1.84909 49 38 34 
-0.675507 -0.292644 2.36268 34 34 32 
-0.855507 -0.241647 2.33515 23 22 18 
-0.0153303 -0.00351196 1.69128 76 67 50 
0.254724 -0.0886262 1.67104 105 110 106 
-0.0514554 -0.549461 1.92261 48 49 43 
-0.17202 -0.35192 1.98203 168 125 108 
-0.120275 -0.156603 1.94653 105 96 87 
-0.071081 -0.397434 1.92244 45 44 42 
-0.134566 0.0458124 1.942 69 60 51 
0.0686589 -0.595662 1.83674 39 35 32 
-0.100518 0.130645 1.91615 66 45 26 
0.211571 -0.313995 1.71734 90 92 89 
-0.647858 -0.144165 2.33856 41 41 39 
0.0491022 -0.702601 1.86207 70 65 62 
0.245244 -0.122312 1.67997 83 86 79 
0.282617 0.132822 1.64469 39 39 37 
-0.684779 -0.0364766 2.36566 75 75 73 
-0.0459971 -0.507287 1.9102 66 56 47 
-0.164537 -0.2625 1.97367 149 106 87 
-0.062451 -0.711715 1.94146 57 50 44 
-0.161093 0.0357259 1.96135 65 52 43 
-0.0293441 -0.514347 1.89802 77 78 72 
-0.120872 -0.464567 1.95816 43 43 41 
0.199478 -0.457213 1.73614 85 72 53 
-0.0843746 -0.0161708 1.91119 88 69 54 
-0.0710447 -0.397501 1.92254 75 74 72 
-0.0832235 0.149096 1.89981 76 60 44 
0.261804 0.11798 1.66016 32 34 31 
-0.146813 -0.128025 1.95843 58 49 40 
-0.683589 -0.387355 2.37702 48 45 40 
0.12268 -0.484912 1.80353 53 50 45 
0.0858158 -0.760127 1.82945 111 98 89 
0.0350625 -0.48256 1.85407 49 44 40 
-0.103061 -0.890354 1.98327 47 42 38 
-0.659383 -0.580424 2.37564 102 93 78 
-0.518928 -0.689318 2.27765 140 123 115 
-0.207665 -0.803383 2.05352 99 94 91 
-0.25512 -0.433568 2.07928 94 83 61 
-0.09923 -0.418053 1.94526 28 29 23 
-0.155503 -0.222621 1.96697 131 121 112 
-0.174729 0.0734071 1.96751 46 45 40 
-0.172098 -0.68964 2.01531 33 33 31 
-0.584388 -0.158538 2.28619 35 36 31 
-0.139737 -0.340708 1.96382 87 84 77 
-0.605552 -0.0981962 2.3069 30 31 26 
-0.181229 -0.98275 2.04619 100 91 86 
-0.82109 -0.0771165 2.29651 92 79 71 
-0.154283 -0.434622 1.97322 85 86 81 
0.350914 -0.191155 1.60165 35 35 33 
-0.140745 -0.0745771 1.95391 99 91 80 
-0.63813 -0.172679 2.33063 86 86 84 
-0.689325 -0.145913 2.3711 74 76 73 
-0.135912 -0.121279 1.95336 106 96 86 
-0.221575 -0.965746 2.07849 99 98 94 
-0.0211698 -0.0900756 1.71555 89 75 66 
-0.748208 0.173179 2.37305 18 19 14 
-0.0811613 -0.107374 1.91528 124 101 85 
0.195129 -0.340546 1.73059 89 91 90 
-0.0427348 -0.415142 1.8998 55 51 48 
-0.288946 0.119798 2.04691 34 35 30 
-0.0863058 -0.828203 1.96321 103 87 87 
0.35108 -0.390941 1.61712 123 95 71 
0.0702463 -0.44316 1.83185 137 128 123 
0.044176 -0.662947 1.86269 74 69 65 
-0.174239 0.128725 1.96585 32 33 27 
-0.672271 -0.528401 2.38267 99 96 89 
-0.032779 -0.63633 1.9103 123 105 91 
-0.0513536 -0.574045 1.92182 70 67 60 
-0.172739 0.128464 1.96498 34 33 28 
-0.643814 -0.256063 2.34019 92 92 90 
-0.0320578 -0.200158 1.73157 106 93 85 
0.265789 -0.2202 1.66962 29 33 34 
-0.0297104 -0.365815 1.89053 57 48 41 
-0.124309 0.125118 1.92675 45 38 30 
-0.124099 -0.242874 1.94825 49 44 38 
-0.171402 -0.720961 2.0194 107 106 104 
-0.358447 -0.830265 2.16429 60 56 53 
-0.15278 -0.198448 1.96899 104 97 89 
-0.120969 -0.411314 1.9554 86 81 75 
-0.13953 -0.374161 1.96458 55 52 45 
0.0546533 -0.495416 1.83907 98 97 92 
-0.103081 -0.311518 1.94062 58 55 48 
-0.167951 -0.346981 1.98111 54 41 35 
-0.0507539 -0.695811 1.93072 46 43 38 
0.06186 -0.697544 1.852 102 102 100 
-0.171889 -0.689811 2.01579 33 33 31 
-0.142224 0.108211 1.94313 79 75 64 
0.399605 -0.0984988 1.56459 38 40 37 
-0.245458 -0.697508 2.0612 109 105 102 
0.0930261 -0.485614 1.82093 90 89 84 
0.322586 -0.279329 1.63039 125 111 102 
-0.68299 -0.332533 2.36844 31 30 25 
-0.247949 0.183944 2.01427 76 77 69 
0.255272 -0.446264 1.69305 119 106 89 
-0.12107 -0.149675 1.94354 113 93 82 
-0.116738 0.0386514 1.9309 100 86 73 
-0.0772436 -0.371286 1.92426 44 39 36 
-0.375416 0.111265 2.10742 88 89 83 
-0.194897 -0.730398 2.03322 44 40 41 
-0.093081 -0.0273039 1.91826 121 96 76 
-0.15867 -0.462123 1.97687 40 39 35 
-0.0727645 -0.311226 1.91999 85 68 58 
-0.679659 -0.0972184 2.36469 84 84 82 
-0.127293 -0.249432 1.95199 118 101 85 
-0.370949 -1.01206 2.19121 124 114 105 
-0.12218 -0.270579 1.949 91 84 78 
0.0469889 -0.695066 1.86175 106 105 100 
0.0448143 -0.577982 1.85026 130 122 109 
-0.133781 -0.45798 1.96276 101 102 97 
-0.217221 0.161095 1.99188 32 29 22 
0.205245 -0.297134 1.72189 84 83 81 
-0.508597 0.156524 2.21503 77 76 72 
-0.695081 -0.869551 2.42334 115 115 117 
-0.358886 0.125042 2.09545 40 41 35 
-0.648167 -0.249934 2.33448 36 36 34 
-0.0744716 -0.52825 1.93517 126 117 110 
-0.151409 -0.296613 1.9674 54 51 42 
-0.0785261 0.0788444 1.89944 99 89 77 
-0.212573 0.106684 1.9939 95 95 87 
-0.696607 -0.141144 2.38254 25 27 26 
-0.288695 -0.862914 2.11583 151 131 120 
-0.110875 -0.432911 1.95047 85 81 78 
-0.0845049 -0.167796 1.92105 123 106 98 
-0.403001 0.115297 2.13283 80 83 76 
-0.185628 0.0463962 1.97926 132 116 100 
-0.444258 0.136152 2.16254 36 37 32 
0.0163399 -0.209159 1.69258 23 24 16 
0.0865866 -0.504904 1.82209 33 33 31 
-0.0426935 -0.107331 1.73233 168 155 146 
0.0921177 -0.503582 1.81957 28 28 26 
-0.146726 -0.34193 1.96645 45 40 34 
0.214613 -0.228013 1.70813 97 99 96 
-0.315335 0.146851 2.06376 78 77 73 
-0.18447 0.18648 1.96751 77 78 64 
-0.115447 -0.258521 1.94386 93 81 69 
0.108481 -0.539892 1.80675 44 43 39 
0.265017 -0.220245 1.67249 22 26 27 
-0.111073 -0.200215 1.93995 67 54 45 
-0.149639 -0.138319 1.95652 77 68 61 
-0.711927 -0.244629 2.38886 79 79 77 
-0.111417 -0.653439 1.96904 55 50 44 
0.312232 -0.264297 1.63938 39 40 35 
-0.25453 -0.949017 2.08635 70 57 51 
0.0387728 -0.606823 1.8589 109 95 82 
0.291765 -0.210805 1.64991 96 96 94 
0.161331 -0.349237 1.75932 84 86 83 
-0.0811859 -0.0621342 1.91254 109 94 87 
0.0449852 -0.558836 1.84555 46 39 29 
-0.397308 -0.42174 2.18961 100 101 85 
0.00993841 -0.445341 1.86806 128 116 104 
-0.928934 -0.437048 2.61462 65 55 45 
-0.679476 -0.0889505 2.36855 30 31 26 
0.239105 -0.0251923 1.68075 72 77 73 
0.0471028 -0.721456 1.85881 69 56 48 
-0.597715 -0.0644232 2.2937 35 35 33 
-0.117322 0.118721 1.92406 106 90 75 
-0.455201 -0.910648 2.24739 128 114 105 
-0.151897 -0.141231 1.96192 52 43 36 
-0.12829 -0.248711 1.94937 116 95 78 
-0.103076 -0.00220797 1.92149 71 54 38 
0.216307 -0.259875 1.70901 43 45 42 
-0.253942 0.041646 2.03102 32 32 24 
-0.608956 -0.809672 2.35421 98 93 89 
-0.716424 -0.208243 2.39251 61 63 58 
-0.716918 -0.216484 2.39598 65 66 61 
-0.142493 0.162088 1.94112 20 17 10 
0.303023 -0.16084 1.63681 41 40 36 
-0.375257 0.0998587 2.11106 29 31 26 
-0.702791 -0.739236 2.41584 78 69 64 
-0.195967 -0.60627 2.0166 43 43 43 
-0.682087 -0.103387 2.36287 88 88 86 
0.0140721 -0.493248 1.86666 85 72 64 
-0.322455 0.165938 2.07016 70 71 63 
0.256168 -0.135495 1.67167 71 71 69 
-0.408754 -0.898196 2.20832 101 93 90 
-0.0224604 -0.629703 1.90652 49 48 44 
-0.366638 0.191655 2.10343 38 33 30 
-0.0784562 0.124294 1.89719 106 87 70 
-0.165581 -0.129334 1.97239 89 71 67 
-0.432148 -0.799522 2.2163 155 142 133 
-0.0546335 -0.550802 1.9189 35 36 31 
0.400213 -0.285491 1.56884 159 153 139 
-0.00684349 -0.715679 1.90016 44 40 31 
0.321916 -0.282172 1.63469 135 118 111 
-0.648103 0.0424275 2.33389 66 66 64 
-0.67954 -0.0969269 2.36358 84 84 82 
-0.172292 0.12859 1.96629 34 33 28 
-0.560185 0.148543 2.25518 59 60 55 
-0.0346516 -0.457467 1.89914 99 94 91 
-0.277249 -0.82726 2.10292 156 144 132 
0.17211 -0.0199826 1.73125 70 72 69 
-0.260253 -0.773046 2.08715 97 87 75 
-0.132115 -0.662449 1.98679 135 116 102 
-0.124572 -0.242767 1.94712 46 43 34 
0.212227 -0.403072 1.72507 125 109 94 
-0.0851204 -0.355183 1.92784 75 68 60 
-0.0542776 -0.511532 1.91431 68 65 50 
-0.53012 -0.881681 2.29642 76 66 64 
-0.228106 0.132308 2.00209 33 36 27 
-0.206026 -0.769234 2.04475 78 74 65 
-0.182412 0.0893162 1.97158 89 88 83 
0.095788 -0.747665 1.82166 139 126 118 
0.257657 -0.264762 1.67818 41 41 39 
-0.239309 -0.876292 2.08271 74 69 65 
0.344376 -0.188517 1.60747 103 104 99 
0.296557 -0.0854949 1.6413 94 94 92 
-0.260327 0.195926 2.02131 43 40 33 
-0.112836 -0.252377 1.94148 115 102 93 
0.289384 -0.090448 1.6441 39 39 37 
0.0857651 -0.712641 1.83508 151 128 120 
-0.415441 -0.854258 2.21138 79 70 71 
-0.342924 0.167008 2.08377 71 70 65 
-0.0128447 -0.394464 1.88368 52 43 34 
-0.108386 -0.0803539 1.93285 131 117 106 
-0.321878 -0.748757 2.13261 146 136 126 
-0.587214 -0.0119427 2.2751 35 35 33 
-0.138606 -0.45187 1.96352 44 44 42 
-0.0141865 -0.549065 1.89238 53 37 38 
-0.29107 0.0481655 2.05923 40 42 31 
-0.69891 -0.307273 2.387 30 30 30 
0.0193714 -0.410785 1.86111 52 47 41 
-0.148677 -0.0100504 1.95626 103 93 83 
-0.669774 -0.767038 2.3938 122 115 105 
-0.133366 -0.392157 1.95974 36 34 35 
0.31064 -0.264422 1.637 38 39 34 
-0.22328 0.125325 2.00052 76 76 64 
-0.299094 0.193016 2.05067 79 80 72 
0.293276 -0.150792 1.64399 87 88 90 
0.0520018 -0.60312 1.8452 44 41 34 
0.206151 -0.232609 1.71725 94 96 93 
-0.216731 0.197893 1.98945 24 24 16 
-0.135544 -0.228748 1.95472 74 67 57 
-0.633251 -0.177009 2.33197 39 39 39 
0.367805 -0.3906 1.60486 180 164 149 
-0.0869211 0.0743225 1.90528 45 41 30 
0.249532 -0.187156 1.68095 36 37 32 
0.282189 -0.154091 1.65312 92 96 95 
0.175882 -0.239036 1.74443 97 99 96 
-0.372361 0.149765 2.10808 79 76 71 
-0.606425 -0.902954 2.36023 96 93 88 
-0.0499263 -0.368227 1.90435 103 95 92 
0.142178 -0.274894 1.76918 89 87 75 
-0.662644 -0.885729 2.40113 107 107 107 
0.241514 -0.230221 1.68862 75 77 74 
0.347075 -0.364936 1.61932 96 96 84 
0.25796 -0.21145 1.67399 48 48 46 
0.243467 -0.0108357 1.67522 68 74 70 
0.156738 -0.247336 1.75583 42 43 37 
-0.752736 -0.435867 2.43119 146 129 121 
-0.191668 -0.76462 2.03773 95 90 87 
-0.372461 -0.775172 2.17259 116 106 94 
0.275733 -0.0234223 1.65427 28 30 27 
-0.710097 -0.769048 2.41913 160 145 140 
0.222044 0.034241 1.68986 64 66 65 
-0.137874 -0.58399 1.97958 48 50 45 
-0.165986 0.0863313 1.96409 34 36 23 
-0.265736 0.155763 2.02767 34 33 28 
-0.601764 -0.0892833 2.30339 79 80 75 
-0.654716 0.0166947 2.34053 69 70 65 
0.317465 -0.177692 1.62853 95 94 90 
0.0808152 -0.445809 1.82557 46 37 32 
-0.133155 -0.183968 1.95248 52 45 39 
-0.579647 -0.117939 2.28054 92 91 89 
0.0512147 -0.427826 1.8411 51 46 40 
-0.131428 -0.254841 1.95351 92 83 78 
-0.623225 -0.737579 2.35437 76 72 71 
-0.612542 -0.276225 2.32234 97 92 89 
0.278513 0.0468789 1.64327 57 58 53 
-0.147574 -0.746363 2.00725 109 106 101 
0.37819 -0.290001 1.59056 144 141 122 
0.185603 -0.0728715 1.72193 64 64 62 
-0.335142 0.114799 2.07911 43 44 36 
0.379681 -0.188542 1.58172 81 81 79 
-0.129673 -0.372968 1.95734 47 44 37 
0.208722 -0.307609 1.72004 108 109 104 
-0.16551 0.0863801 1.96274 40 42 29 
0.24755 -0.0920812 1.67729 57 57 55 
-0.159403 0.0698946 1.95658 36 32 23 
-0.0967122 -0.313436 1.93642 54 41 35 
0.2275 0.0122737 1.6894 104 106 105 
-0.10181 -0.000230078 1.92111 67 49 35 
-0.129819 -0.069771 1.94561 43 34 25 
-0.159928 0.0242456 1.96412 52 42 30 
-0.284366 0.0417839 2.05863 37 34 27 
-0.744935 -0.455849 2.42601 151 139 127 
-0.589441 -0.0349505 2.29298 44 44 42 
0.346631 -0.222684 1.60702 42 42 40 
0.0245415 -0.110637 1.68422 82 73 58 
-0.232121 0.151833 2.0045 41 41 33 
0.343671 -0.351192 1.61938 84 65 51 
-0.124698 0.0173348 1.93461 62 49 33 
0.0465241 -0.484113 1.84644 88 85 78 
-0.410298 -0.718544 2.18851 134 115 101 
0.0364545 -0.604739 1.85506 94 78 65 
-0.0755588 -0.0556419 1.90814 99 68 50 
-0.129611 -0.372979 1.95748 47 44 37 
-0.138063 -0.179788 1.95553 96 89 83 
0.155829 -0.387066 1.76448 97 79 69 
0.183888 -0.322426 1.73597 39 41 36 
0.0238206 -0.416832 1.85868 95 91 82 
-0.0637324 -0.414146 1.91638 45 44 40 
-0.588262 -0.189094 2.29512 41 41 39 
-0.801023 -0.615856 2.47997 132 114 102 
-0.152529 -0.392774 1.97539 136 124 126 
0.172985 -0.4353 1.75248 84 76 73 
0.220875 -0.322549 1.711 119 119 117 
-0.266573 0.117927 2.03324 41 38 31 
0.212954 -0.261678 1.70987 49 51 48 
-0.881143 -0.158359 2.34456 49 40 35 
-0.0684568 -0.36465 1.91662 104 97 91 
0.0931717 -0.475895 1.81832 107 106 102 
0.187679 -0.322762 1.73883 36 37 32 
-0.285071 0.0416813 2.0573 37 34 25 
-0.236464 0.114615 2.01071 32 32 24 
-0.238966 0.100866 2.01389 33 34 28 
0.282842 -0.268626 1.65972 42 42 40 
-0.33391 -0.654957 2.14976 71 70 65 
-0.694596 -0.660719 2.40516 59 58 56 
-0.371504 -1.05963 2.19349 99 88 82 
-0.422274 0.13322 2.14618 78 75 70 
-0.158225 0.17823 1.94961 71 69 56 
-0.247119 0.115578 2.01699 41 40 35 
-0.603521 -0.157377 2.30366 78 80 79 
-0.153247 0.109539 1.94911 83 82 64 
-0.187304 -0.646672 2.02124 89 89 87 
-0.202313 -0.813436 2.05287 108 103 97 
-0.658001 -0.259315 2.34803 42 42 42 
-0.589822 -0.0121822 2.28306 35 35 33 
-0.344103 0.154571 2.08458 35 36 31 
-0.811626 -0.0280126 2.28866 20 23 16 
-0.30025 -0.960694 2.1343 91 82 77 
0.230419 -0.310909 1.70565 42 42 40 
0.41271 -0.193225 1.55801 41 40 35 
-0.159063 -0.754544 2.01528 49 45 42 
-0.23568 0.103526 2.01658 37 38 32 
-0.372477 0.188911 2.10463 73 74 68 
-0.0702216 -0.179298 1.91012 91 69 55 
0.171122 -0.502769 1.76008 66 64 52 
-0.0903015 -0.340367 1.92882 131 117 108 
-0.197552 -0.962767 2.05961 59 51 48 
-0.0300153 -0.0454781 1.71751 172 159 142 
-0.824688 -0.19901 2.31547 60 51 44 
0.250481 -0.245966 1.68355 96 97 92 
-0.232821 0.151622 2.00203 40 40 32 
0.249255 -0.0828561 1.67569 73 77 76 
-0.350107 0.134435 2.091 81 81 73 
-0.775608 -0.075836 2.37218 26 27 21 
0.312817 -0.17656 1.63085 49 49 47 
-0.585495 -0.171577 2.28966 37 38 33 
0.243159 -0.0803995 1.67906 84 88 87 
-0.200909 -0.864425 2.05305 102 89 83 
0.285044 -0.273953 1.65893 52 52 50 
-0.33278 0.171047 2.077 32 33 27 
-0.547974 0.124557 2.24805 27 28 23 
-0.154637 -0.153071 1.96645 111 95 80 
-0.0300579 -0.423865 1.89415 71 60 54 
0.105916 -0.704017 1.81424 114 103 97 
0.307296 -0.159341 1.63353 45 46 41 
-0.156738 -0.00953694 1.96155 108 100 89 
0.262589 -0.145451 1.66811 33 33 31 
-0.298351 0.0928589 2.05438 28 29 21 
-0.0944452 0.117127 1.90872 77 61 46 
0.231966 -0.263917 1.70331 39 39 37 
-0.175284 -0.726205 2.02295 43 43 41 
-0.336855 0.221867 2.0783 69 68 63 
-0.264173 0.147012 2.02696 35 36 30 
0.289017 -0.102459 1.64515 29 31 26 
0.0822099 -0.412175 1.82642 86 79 71 
0.0745295 -0.587319 1.83448 55 52 47 
0.250161 -0.336249 1.68977 58 51 41 
-0.313046 0.102302 2.06024 45 41 32 
-0.659394 -0.129333 2.34855 38 38 38 
-0.0425633 -0.0855936 1.73019 136 127 122 
-0.623832 -0.111309 2.3178 36 35 33 
0.272026 -0.139917 1.66029 40 42 37 
-0.121362 0.186334 1.92261 51 34 24 
-0.0402951 -0.545757 1.91131 44 40 31 
0.27125 -0.186978 1.66333 30 33 26 
0.0235265 -0.482367 1.86208 102 98 95 
0.222938 0.0190305 1.69127 28 28 26 
0.347001 -0.222716 1.60734 41 42 37 
0.0181777 -0.789615 1.8864 132 118 115 
-0.507823 -0.911397 2.28792 122 104 100 
-0.211728 0.00862737 1.99889 107 96 66 
-0.334985 0.211651 2.07533 30 29 25 
-0.525988 -1.00948 2.30815 105 104 100 
-0.698061 -0.0659363 2.37946 62 63 58 
-0.678963 -0.404169 2.37314 73 64 57 
-0.620939 -0.0860554 2.31448 31 31 29 
-0.402459 0.162869 2.12996 74 75 69 
-0.690892 0.00131274 2.36756 64 64 62 
-0.539843 -0.829064 2.29993 123 104 97 
-0.50444 0.150472 2.21035 27 28 23 
-0.403154 -0.440788 2.19325 52 48 39 
-0.414259 0.146338 2.14263 31 32 27 
-0.339204 0.22763 2.07774 21 22 17 
-0.107869 -0.645204 1.96362 115 100 93 
-0.721853 -0.0538951 2.39466 25 25 25 
-0.0814899 0.0204965 1.90749 63 50 34 
-0.32679 0.13024 2.07594 43 43 35 
0.214855 0.0406385 1.6965 33 35 32 
-0.494322 -0.760916 2.26375 106 89 82 
-0.336872 0.221473 2.07707 69 68 63 
0.393976 -0.107449 1.56653 62 64 59 
0.258002 -0.211427 1.67403 48 48 46 
-0.406761 0.174866 2.13118 69 70 65 
-0.126774 -0.139026 1.94597 93 84 75 
0.27174 -0.284356 1.67051 98 99 94 
0.28546 -0.237965 1.6572 33 35 32 
-0.108302 0.0328606 1.92369 77 65 51 
-0.850274 -0.0621478 2.3169 66 58 47 
0.189637 -0.321549 1.73499 40 41 36 
0.369301 -0.16198 1.58854 80 79 75 
-0.21528 -0.529789 2.05458 101 79 66 
0.177181 -0.429894 1.75078 92 79 71 
-0.141133 0.178431 1.94003 31 31 21 
-0.181427 0.146716 1.96673 36 31 25 
0.248177 -0.260828 1.68413 42 42 40 
-0.382861 -0.244862 2.18331 16 12 11 
-0.290575 -0.718137 2.09897 105 100 94 
-0.741445 -0.842034 2.45123 116 117 119 
0.151073 -0.21557 1.75576 67 70 61 
-0.0796621 -0.178135 1.91562 72 53 38 
0.293426 -0.407045 1.66047 107 93 80 
-0.198069 -0.680971 2.02716 81 76 73 
0.240258 -0.0892191 1.68064 33 35 32 
-0.250372 0.19663 2.01483 31 32 26 
-0.15153 -0.33602 1.97152 84 83 78 
-0.663764 -0.02574 2.34402 26 25 21 
-0.00673203 -0.641766 1.89388 97 96 91 
-0.201349 0.151165 1.98196 38 35 26 
0.396625 -0.185787 1.56778 50 51 46 
-0.497096 0.112101 2.20803 27 28 23 
-0.531155 -0.341004 2.2939 59 48 46 
-0.256049 -0.450236 2.08208 92 84 65 
-0.00875151 -0.114539 1.70647 62 63 55 
0.22676 -0.0287334 1.68664 35 37 32 
0.376044 -0.203371 1.58458 43 44 38 
-0.308855 0.107471 2.0615 66 66 54 
-0.130812 -0.624291 1.98149 115 105 95 
-0.157324 0.126485 1.95185 36 35 30 
0.353808 -0.310782 1.61167 76 73 66 
-0.531252 -0.340929 2.29273 63 52 50 
-0.110981 0.101951 1.92164 118 95 79 
-0.0933044 -0.3538 1.92638 47 38 31 
-0.0758141 -0.113947 1.91013 116 97 82 
-0.269339 0.22606 2.02612 45 41 32 
-0.0918348 0.0138435 1.91397 89 66 50 
-0.416452 0.061022 2.1526 31 32 27 
0.227573 -0.0882976 1.68996 99 100 102 
-0.145982 -0.576977 1.98477 56 56 54 
-0.335122 0.11488 2.07923 43 44 36 
-0.606591 0.171088 2.29281 64 65 59 
-0.292684 -1.00662 2.13247 69 59 58 
-0.0945341 0.117108 1.90852 77 61 46 
-0.0360504 -0.054776 1.72146 179 163 147 
-0.205619 -0.695859 2.03793 47 46 42 
-0.386053 -0.302735 2.18379 88 78 68 
0.433092 -0.243833 1.544 91 88 79 
-0.621347 -0.592592 2.34712 77 63 54 
0.179914 0.0111436 1.71878 37 38 33 
-0.261594 0.205487 2.02155 35 36 28 
0.0441735 -0.415907 1.84613 92 88 79 
-0.206396 -0.604189 2.02102 41 43 40 
-0.39837 -1.07859 2.21698 127 123 98 
-0.157384 -0.0167877 1.9613 118 112 100 
-0.74415 0.0817278 2.37522 25 26 20 
-0.639251 0.0360089 2.32432 33 32 30 
0.0665367 -0.451144 1.8332 77 62 55 
-0.238846 -0.194862 2.07571 25 24 22 
-0.116055 -0.237471 1.94404 103 94 87 
0.177832 -0.34894 1.74594 37 37 37 
0.29847 -0.318903 1.65306 110 106 97 
0.223307 -0.219029 1.70504 39 41 38 
-0.304855 0.184589 2.05667 29 30 24 
-0.211679 0.128411 1.99279 44 44 36 
0.244261 -0.198299 1.686 38 37 33 
-0.839194 -0.195718 2.32132 55 47 44 
-0.370883 0.0943492 2.107 73 76 69 
-0.28514 0.0352112 2.05553 52 53 37 
-0.501307 0.150583 2.20838 27 26 22 
-0.283331 0.122046 2.04158 30 31 25 
-0.233369 0.23304 2.00218 66 67 59 
-0.32882 0.182325 2.07413 80 81 75 
-0.0116572 -0.113489 1.70773 65 65 53 
-0.637217 0.0264794 2.32513 70 69 65 
-0.51968 0.164885 2.22107 28 30 25 
-0.203608 -0.885847 2.05906 53 49 46 
-0.700512 -0.0877916 2.37908 24 25 20 
-0.511427 0.168974 2.21569 68 69 64 
-0.67645 -0.163439 2.36208 43 42 40 
-0.553089 0.173702 2.2469 23 24 19 
-0.682294 -0.251453 2.3723 41 40 38 
0.169546 -0.328817 1.75142 26 28 23 
0.155023 -0.445623 1.76671 156 149 141 
-0.253946 -0.439197 2.08093 99 82 72 
-0.609335 -0.253373 2.31593 39 38 36 
-0.368338 0.0531773 2.11975 37 37 27 
-0.814979 -0.106492 2.30461 29 28 24 
-0.717548 -0.102357 2.38977 62 63 58 
0.005331 -0.574493 1.87599 40 37 28 
0.101698 -0.620556 1.81618 59 49 39 
-0.522464 -0.885913 2.29333 149 142 132 
-0.161918 -0.0962054 1.9677 103 96 86 
-0.373228 0.194798 2.10544 81 80 75 
-0.1497 0.0513994 1.9469 102 89 73 
-0.666918 -0.0256338 2.349 33 32 28 
0.217678 -0.178791 1.70404 36 35 31 
-0.563832 -1.01539 2.33108 68 69 64 
-0.39406 0.146113 2.12349 79 79 71 
0.175406 0.147242 1.72387 73 75 74 
-0.34224 -0.781685 2.14894 117 94 80 
-0.840529 -0.170533 2.32284 64 61 54 
-0.395019 0.095402 2.13035 64 65 59 
-0.79207 -0.433481 2.46726 102 93 86 
0.215687 0.0490755 1.6957 82 84 81 
-0.230136 0.0702441 2.00312 63 65 51 
-0.323718 0.155385 2.07365 36 37 31 
-0.131401 -0.398889 1.96158 59 59 57 
-0.333853 0.179503 2.0776 28 29 24 
-0.144569 -0.914498 2.02025 132 117 112 
-0.789726 -0.0374504 2.34904 68 65 50 
-0.745124 0.0730836 2.37802 15 18 11 
-0.446757 0.128929 2.16727 69 68 64 
0.329538 -0.231583 1.62029 48 48 46 
-0.110332 0.215531 1.91106 29 19 9 
-0.146607 -0.86807 2.01213 163 147 132 
0.256968 -0.0578506 1.66838 30 30 28 
-0.341567 -0.785158 2.1484 107 84 66 
0.0818764 -0.694875 1.83446 73 58 51 
-0.593166 0.0380361 2.28143 60 61 55 
-0.0580084 -0.356343 1.91088 113 110 101 
-0.596985 0.0625353 2.28687 61 63 58 
-0.0155759 -0.826843 1.91709 110 93 83 
-0.229966 -0.7092 2.05301 70 66 63 
-0.690872 -0.100815 2.36888 30 29 27 
-0.305315 0.199363 2.05373 33 36 29 
0.279135 -0.0738268 1.65334 31 32 27 
-0.382486 -0.294173 2.18534 22 22 20 
-0.233391 -0.456415 2.06385 84 74 64 
0.301471 -0.168414 1.64011 62 62 62 
-0.104665 -0.316236 1.94067 90 83 75 
0.163327 -0.253767 1.75224 83 83 81 
-0.157257 -0.017054 1.96169 102 99 84 
-0.739816 -0.104734 2.40543 58 57 52 
-0.120086 0.177802 1.92262 49 42 34 
-0.614959 -0.849938 2.356 119 99 90 
-0.183861 0.14848 1.96564 36 31 25 
-0.748086 -0.138036 2.41219 65 64 59 
-0.366335 -0.665966 2.17364 85 86 80 
-0.202018 -0.644992 2.02535 78 79 74 
0.294714 -0.108491 1.63945 34 34 32 
0.198929 -0.248133 1.72325 33 35 34 
-0.579545 -0.763094 2.33289 87 79 76 
-0.379227 0.150129 2.11336 36 35 30 
-0.403472 0.179304 2.13157 33 34 29 
-0.337002 0.1486 2.08062 78 75 70 
-0.224247 0.154887 1.99962 65 65 53 
-0.115936 -0.471293 1.95611 77 78 73 
-0.019587 -0.439093 1.88991 101 96 92 
-0.71445 -0.322334 2.39494 27 27 27 
0.275983 -0.0519348 1.65535 97 98 93 
-0.664028 -0.784856 2.39544 101 92 83 
-0.324396 0.213279 2.06967 65 64 60 
-0.562588 0.251589 2.25358 44 46 43 
-0.690768 -0.262706 2.37117 34 34 32 
-0.337025 0.140143 2.08165 29 30 24 
-0.30174 -0.440755 2.12456 73 66 50 
0.187879 -0.0592488 1.72159 60 62 61 
-0.133667 -0.172294 1.95245 58 58 50 
0.281492 -0.271678 1.66181 26 28 27 
0.214497 -0.157288 1.70792 32 32 30 
-0.43931 -1.00953 2.22913 147 128 111 
-0.629688 -0.0694643 2.32331 67 68 63 
-0.195199 -0.673926 2.02617 60 61 56 
-0.619964 -0.250585 2.3095 44 42 43 
-0.706465 -0.134282 2.38663 73 74 69 
0.400944 -0.333291 1.5751 166 156 146 
0.285975 -0.238188 1.65771 34 36 33 
-0.63742 -0.963393 2.37708 115 113 114 
-0.874358 -0.608491 2.59075 168 158 149 
-0.372102 0.165134 2.10676 37 36 31 
-0.145658 -0.577441 1.98567 80 80 78 
0.0676217 -0.72088 1.84474 50 51 46 
0.308416 -0.230205 1.63893 50 50 48 
-0.672766 -0.265016 2.36579 35 33 34 
-0.115317 -0.39529 1.95081 54 50 47 
-0.739059 -0.106525 2.40206 71 72 66 
-0.598578 0.14727 2.28766 60 59 54 
-0.840072 -0.204669 2.32355 25 24 20 
-0.214523 0.0303983 2.00108 52 42 32 
-0.251781 0.102508 2.02063 38 39 31 
-0.145446 -0.37333 1.96859 88 85 78 
-0.346685 0.155241 2.08806 33 35 30 
-0.586419 0.160444 2.27714 55 56 50 
-0.558467 0.110678 2.25851 62 63 57 
-0.0893231 -0.461406 1.93369 38 32 32 
-0.606773 -0.22511 2.31115 73 74 68 
-0.326361 0.223158 2.0728 29 31 28 
-0.65563 -0.15372 2.34801 58 59 54 
-0.324795 0.146235 2.07214 74 75 67 
-0.390264 0.15024 2.12125 41 42 36 
0.10669 -0.787324 1.80912 129 115 102 
0.000863025 -0.492714 1.87519 52 48 39 
-0.300049 0.101394 2.05696 36 33 26 
0.277241 -0.22849 1.66228 48 47 43 
-0.184821 0.149899 1.96986 30 25 19 
-0.278147 0.214276 2.03453 67 67 59 
-0.668093 -0.283964 2.36437 46 46 44 
0.145 -0.218412 1.75879 43 46 37 
-0.509021 0.151233 2.21765 23 24 19 
-0.259782 0.0422353 2.03497 27 27 19 
-0.290178 0.158298 2.04752 37 38 32 
-0.672997 -0.265676 2.36864 32 30 31 
-0.492227 -0.452166 2.26731 80 81 75 
0.203238 0.106832 1.70473 70 76 76 
-0.0314768 -0.406991 1.8951 72 59 53 
-0.388164 -0.217307 2.17396 65 51 38 
-0.252245 0.179815 2.01817 35 36 28 
-0.734237 -0.719736 2.44012 107 97 88 
0.181438 -0.359095 1.74209 106 106 104 
-0.446669 0.12899 2.16825 69 68 64 
-0.126162 -0.279379 1.95422 51 46 42 
-0.161993 -0.675652 2.01096 88 90 87 
-0.750218 0.0352638 2.37357 30 30 22 
-0.495658 0.147025 2.20513 67 64 59 
0.033101 -0.507446 1.85362 106 101 95 
0.122896 -0.497896 1.79683 35 35 33 
-0.553714 0.137075 2.25121 68 69 64 
-0.445965 0.126531 2.1664 85 84 80 
0.183373 0.0751469 1.71966 25 25 23 
0.196953 -0.309455 1.72819 43 43 41 
0.229699 -0.236044 1.69914 40 40 38 
0.273638 0.0405929 1.65316 26 28 25 
-0.12738 -0.278844 1.95122 45 40 36 
-0.252414 0.102496 2.01823 36 37 31 
-0.684831 -0.302546 2.37612 33 32 30 
-0.394915 0.0954063 2.13114 62 63 57 
-0.069001 -0.130832 1.90653 138 112 97 
0.120479 -0.487328 1.80573 65 60 54 
-0.0044851 -0.510477 1.88102 88 83 79 
0.214779 -0.204603 1.70854 90 92 91 
0.163948 -0.0567654 1.73767 28 29 24 
-0.850497 -0.00487661 2.29183 20 19 15 
0.272275 -0.139988 1.66054 40 42 37 
0.0220746 -0.533169 1.86333 133 122 116 
-0.463313 0.133825 2.17318 36 37 32 
0.203291 -0.0461289 1.70781 32 32 30 
-0.666523 -0.719049 2.38835 118 104 103 
0.224335 -0.188815 1.69918 80 82 79 
-0.0481895 -0.531291 1.91431 103 95 93 
0.205463 -0.103787 1.70821 28 33 29 
-0.286951 0.222539 2.04067 30 31 25 
-0.131291 -0.169966 1.953 53 48 42 
-0.28877 0.224392 2.04337 32 31 26 
0.217681 -0.126092 1.70152 24 25 20 
-0.326551 0.222993 2.0718 29 31 28 
-0.558021 -0.284576 2.28995 44 33 31 
-0.659838 -0.0683307 2.3464 54 54 52 
-0.203766 0.0996962 1.98837 44 45 37 
0.229187 0.131782 1.68189 72 76 77 
0.224433 0.0955701 1.68874 60 62 59 
-0.252156 -0.9605 2.09425 100 80 69 
-0.371215 -0.978157 2.18839 118 118 110 
0.181301 -0.16756 1.73297 27 29 28 
0.242762 0.0834079 1.67467 17 21 22 
-0.27602 -0.847354 2.10439 139 126 118 
0.283027 -0.117649 1.65 33 35 32 
-0.75496 -0.0909229 2.40807 26 27 22 
0.302187 -0.144229 1.6372 60 62 57 
-0.805159 0.0211565 2.27303 27 27 19 
-0.0297358 -0.408204 1.89852 72 57 50 
-0.752316 0.0998714 2.36371 27 28 20 
0.22173 0.0585197 1.69047 86 88 87 
-0.118218 0.075739 1.9282 37 30 20 
-0.141744 -0.419011 1.96901 84 83 79 
-0.809176 -0.117457 2.31475 71 72 64 
-0.674545 0.00147332 2.3542 49 51 46 
-0.448919 0.239403 2.16313 19 21 16 
-0.14575 -0.0522031 1.95155 62 44 32 
-0.320922 0.230292 2.06564 65 66 61 
-0.751778 0.0485654 2.37577 52 54 41 
0.28952 -0.406168 1.66412 118 111 105 
-0.585459 0.0272102 2.27325 33 32 28 
-0.619217 -0.841384 2.36271 114 100 97 
0.069319 -0.450418 1.83138 79 67 55 
-0.551627 0.152596 2.24628 23 25 22 
-0.485364 0.135045 2.19571 32 33 28 
0.102448 -0.624745 1.81549 115 105 103 
-0.682736 -0.231748 2.3672 64 64 62 
-0.919224 -0.477712 2.61003 97 86 84 
-0.157101 -0.512715 1.97996 91 91 89 
0.302151 -0.125062 1.6363 64 64 62 
0.221965 -0.0451605 1.6957 73 75 70 
-0.137075 -0.33414 1.96416 74 71 64 
0.177139 -0.263676 1.73955 85 87 82 
-0.448693 -1.1123 2.25384 49 53 52 
-0.703985 -0.230492 2.38388 51 51 49 
-0.398893 0.119466 2.13082 35 36 30 
-0.72727 -0.840509 2.4464 119 119 121 
-0.747313 -0.661319 2.44547 108 90 78 
-0.580281 0.153443 2.27315 21 22 17 
-0.922455 -0.483544 2.61978 89 80 75 
-0.664751 0.0803686 2.34298 27 28 22 
-0.325938 -0.425787 2.13465 76 69 40 
0.068286 -0.589802 1.83711 95 92 87 
-0.710001 -0.222329 2.39146 25 25 23 
-0.745175 0.11379 2.38521 19 21 16 
0.243684 -0.190731 1.68446 85 86 81 
-0.36814 0.201206 2.09916 21 20 16 
0.149699 -0.135595 1.75213 70 73 66 
0.213591 -0.197613 1.71102 41 43 40 
0.28856 0.0436873 1.63976 39 41 38 
-0.873098 -0.0714658 2.33601 64 54 45 
-0.191192 0.152551 1.97385 36 33 24 
-0.450691 -0.891797 2.24055 96 93 84 
-0.500613 -1.01085 2.28933 83 82 77 
0.204835 -0.103799 1.70749 29 33 32 
-0.136932 0.0615734 1.93687 134 118 82 
-0.423741 0.101658 2.14892 71 72 64 
0.240007 -0.283638 1.69619 86 87 81 
-0.771596 -0.0332156 2.37673 50 53 44 
-0.3377 0.163983 2.08044 39 40 32 
-0.396939 0.164314 2.12666 31 32 27 
-0.265059 0.105093 2.034 35 35 27 
0.20275 0.0421132 1.70664 51 51 49 
-0.587677 -0.130245 2.28498 48 48 46 
-0.0519133 -0.362304 1.90555 102 97 93 
-0.610243 -0.248343 2.3145 52 54 51 
-0.523197 -0.571302 2.25682 79 73 73 
-0.239942 0.0415019 2.02106 35 33 20 
0.22384 -0.286706 1.70475 34 36 33 
-0.260472 0.22214 2.02316 27 28 22 
-0.338063 -0.672125 2.1197 53 52 47 
-0.64465 -0.734834 2.37716 118 109 104 
-0.745908 -0.0170442 2.395 24 27 18 
0.213426 -0.144622 1.70989 33 33 33 
0.234086 0.0733177 1.68094 47 51 50 
-0.456754 0.237145 2.16987 55 57 52 
-0.479526 0.138682 2.19243 56 55 50 
-0.731836 -0.662104 2.43156 113 94 87 
-0.646308 -0.241095 2.34204 87 87 85 
-0.32412 -0.408523 2.13289 87 79 68 
