ply                 
format ascii 1.0    
element vertex 1260
property float x    
property float y    
property float z    
property uchar red  
property uchar green
property uchar blue 
end_header          
-0.430068 0.624639 1.99346 79 70 61 
-0.484 0.618406 1.9982 169 154 131 
-0.473874 0.619863 1.99322 161 145 129 
-1.00937 0.638291 2.23887 122 72 63 
-0.526234 0.655482 2.08438 165 131 121 
-0.978284 0.64022 2.22164 159 112 106 
-0.415976 0.643962 2.00179 107 97 85 
-0.483479 0.63146 2.00073 158 141 121 
-1.03741 0.641134 2.24343 31 1 0 
-0.929938 0.6428 2.19752 142 94 84 
-0.904235 0.644179 2.18514 206 182 172 
-0.512231 0.656122 2.03696 204 186 164 
-0.747771 0.652678 2.116 113 73 73 
-0.626916 0.658213 2.08014 172 159 153 
-0.508423 0.655806 2.02688 160 144 128 
-0.451787 0.650738 1.99378 131 115 102 
-0.781913 0.652952 2.12837 59 35 31 
-0.427511 0.658957 1.9994 85 72 66 
-0.509704 0.664879 2.03253 115 99 84 
-0.498581 0.663614 2.01777 79 59 48 
-0.459339 0.664004 1.99591 198 188 178 
-0.484852 0.664422 2.0055 132 112 103 
-0.560808 0.666039 2.03037 182 163 156 
-0.46984 0.669869 1.99895 125 115 113 
-0.41223 0.677419 1.97503 190 175 170 
-0.854797 0.654921 2.09415 88 70 60 
-1.01052 0.651773 2.14283 85 60 55 
-0.791746 0.658985 2.06804 100 51 47 
-0.875793 0.659334 2.08692 103 59 48 
-0.81168 0.661312 2.06352 207 189 177 
-1.00591 0.655632 2.11984 182 154 153 
-0.776363 0.664523 2.04594 149 123 110 
-0.747359 0.66551 2.0317 175 141 131 
-0.949531 0.658194 2.09461 132 93 76 
-0.930616 0.658233 2.08562 124 71 57 
-0.817479 0.66533 2.03832 119 105 96 
-0.976493 0.662182 2.07557 206 173 158 
-0.952754 0.665471 2.06447 197 181 166 
-0.918861 0.664918 2.04859 132 92 80 
-0.908044 0.666434 2.04413 199 157 143 
-0.88679 0.670068 2.04303 211 179 168 
-0.889504 0.668126 2.0345 38 19 5 
-1.01915 0.664291 2.07522 184 186 181 
-0.788609 0.671881 1.99398 190 165 158 
-0.918528 0.669578 2.037 219 212 194 
-0.881757 0.671377 2.01971 84 78 64 
-0.759695 0.673687 1.97724 187 173 164 
-0.938372 0.669843 2.0351 64 72 74 
-0.915153 0.673165 2.02353 145 145 145 
-0.847655 0.680541 1.98222 108 112 113 
-0.890958 0.678899 1.95483 7 7 7 
-0.848174 0.685727 1.9327 133 129 128 
-1.00575 0.689071 1.86755 109 90 83 
1.1187 -2.69802 17.0812 1 1 0 
5.09614 -1.55813 10.7446 14 0 0 
4.85525 -1.48797 10.6615 93 84 77 
-0.102749 -2.41828 16.051 0 4 0 
5.12481 -1.41831 10.5152 127 109 107 
4.64006 -1.33189 10.3706 26 13 4 
4.72007 -1.28843 10.2716 101 88 80 
5.03409 -1.23865 10.1709 19 8 6 
-0.726987 -2.02213 15.5385 8 14 2 
4.90777 -1.05919 9.92814 102 88 79 
0.823958 -1.72037 14.3353 212 203 186 
0.936214 -1.67732 14.3045 51 39 27 
0.681206 -0.505919 3.59744 176 177 179 
0.531359 -1.83186 17.0239 62 59 28 
4.70447 -0.791849 9.29707 125 108 101 
0.126845 -1.3022 13.7545 169 161 142 
4.31115 -0.667464 9.10348 43 26 10 
4.40466 -0.606309 9.02117 35 21 8 
3.88827 -0.603015 9.00989 24 11 3 
-0.140851 -1.17204 13.8073 120 104 78 
0.237565 -0.361402 2.99087 36 35 40 
3.832 -0.555509 8.94362 134 124 114 
3.80982 -0.527018 8.88551 147 136 130 
0.535559 -0.836055 10.8822 42 9 0 
0.659633 -0.347169 3.55074 192 196 197 
3.63355 -0.443337 8.65417 118 109 102 
3.46729 -0.287547 8.37662 125 106 100 
0.365304 -0.523057 10.1882 147 119 105 
3.76115 -0.219812 8.27001 20 0 2 
0.270778 -0.225295 3.02002 46 47 51 
0.419181 -0.210895 3.21255 214 220 220 
-0.948955 -0.195233 8.4327 160 149 131 
-1.46838 -0.195868 9.27827 151 135 112 
-1.4013 -0.19008 9.11266 140 129 109 
-1.37274 -0.167655 9.06156 203 187 164 
-1.04908 -0.137205 8.5398 19 10 5 
-0.264921 -0.0578854 7.48574 69 50 33 
-1.34238 -0.118786 8.86405 107 69 56 
-1.03908 -0.100405 8.52543 193 187 173 
2.91511 0.168588 5.77265 27 22 16 
-0.815522 -0.0607476 8.22025 230 218 204 
-0.316475 -0.0353558 7.57207 97 83 70 
0.365895 -0.0690348 3.12393 146 142 139 
2.55892 0.189888 5.86527 31 22 13 
-0.595197 -0.00126076 7.9004 250 231 217 
-0.537517 0.0106694 7.84862 99 73 56 
-0.444936 0.0237784 7.76788 213 194 180 
-0.620019 0.0153704 7.81666 96 66 55 
-0.529566 0.0366736 7.66774 194 172 161 
0.482404 -0.00978434 3.27128 185 189 190 
0.52339 -0.000136301 3.32555 4 5 7 
2.66385 0.291765 5.84021 75 62 54 
2.68404 0.348052 5.83009 218 205 197 
0.800089 0.0805701 3.19589 126 124 125 
0.765464 0.0824256 3.18063 175 161 152 
-1.25385 0.113335 6.76065 61 40 35 
-1.26367 0.278143 5.25297 26 0 1 
1.68584 0.485084 4.31867 142 122 121 
1.47597 0.502695 4.09806 171 155 155 
-0.203295 0.141057 2.59203 47 38 23 
-0.773043 0.403982 4.28695 205 183 170 
-1.13971 0.38079 4.35559 38 0 0 
0.310409 0.35747 2.58922 134 127 117 
-0.92586 0.451822 3.79797 88 68 57 
-0.173559 0.403971 2.36642 179 181 178 
0.381487 0.630422 2.58831 221 214 208 
-0.22148 0.508715 2.30085 253 255 252 
0.142429 0.646494 2.38397 144 124 117 
-0.801744 0.59101 2.64463 57 39 29 
-0.147077 0.490206 2.03964 142 130 114 
-0.243317 0.571762 2.27093 253 252 247 
-0.154292 0.637857 2.32003 161 160 156 
-0.136423 0.541151 2.03892 199 187 171 
-0.159379 0.647431 2.25562 146 135 129 
-0.249334 0.627401 2.22878 163 154 145 
-0.177927 0.650809 2.22913 126 108 104 
-0.298721 0.640346 2.23756 68 54 41 
-0.224183 0.651379 2.22055 52 41 39 
-0.153255 0.603603 2.05189 153 145 126 
-0.724885 0.608043 2.3007 151 135 119 
-0.962297 0.618097 2.42088 62 32 24 
-0.599804 0.633746 2.29377 106 88 84 
-0.766906 0.623929 2.33212 66 41 34 
-0.589648 0.633088 2.27707 114 86 82 
-0.646475 0.633937 2.24757 55 40 35 
-0.226497 0.668986 2.10401 139 134 128 
-0.164205 0.671052 2.06365 110 98 86 
-0.332153 0.661623 2.10529 24 5 0 
-1.00862 0.630898 2.30572 38 3 0 
-0.933009 0.632642 2.27026 199 165 156 
-0.556591 0.653772 2.10255 57 42 37 
-0.580028 0.653214 2.10507 169 151 141 
-0.544223 0.659708 2.05969 223 193 183 
-0.467569 0.657516 1.99528 142 132 122 
-0.442747 0.673871 1.98914 108 97 95 
-0.806824 0.661013 2.07265 199 179 170 
-1.01962 0.657629 2.12627 89 71 61 
-0.746314 0.671466 2.02045 68 35 30 
-0.872142 0.667806 2.02586 199 172 155 
-1.00961 0.664342 1.99209 94 105 109 
-0.974243 0.677865 1.98891 139 141 140 
-0.920609 0.680581 1.96823 163 162 157 
1.21258 -3.14373 17.6927 55 72 53 
0.188343 -2.64001 16.0625 252 255 246 
4.87699 -1.6684 10.9968 18 18 8 
0.368301 -2.3926 15.3751 252 254 253 
0.752776 -0.66076 3.71843 116 114 115 
4.80918 -1.46935 10.536 32 19 11 
0.383471 -0.585773 3.20403 67 68 70 
4.98893 -1.35249 10.4029 22 7 2 
4.94773 -1.30332 10.2727 22 0 2 
4.81574 -1.22999 10.1447 30 13 6 
4.32735 -1.19848 10.093 37 24 16 
1.2233 -1.39732 11.537 64 27 9 
-0.449347 -2.0393 17.4146 26 25 21 
4.0839 -0.946386 9.59325 20 10 1 
1.13402 -1.26022 11.328 90 57 38 
4.0735 -0.834554 9.46157 16 0 0 
1.04687 -1.13384 11.0484 48 21 4 
-1.02753 -1.69504 15.8416 0 2 0 
4.15287 -0.783246 9.35284 23 14 0 
0.344405 -1.37694 13.7324 88 72 56 
0.540753 -1.11128 11.491 97 54 37 
4.06749 -0.698547 9.07254 29 17 3 
0.214094 -1.3342 14.0179 47 35 9 
4.43088 -0.656098 9.1165 40 24 9 
5.01622 -0.607645 9.0875 27 20 10 
3.92239 -0.66655 9.15084 6 0 2 
-0.419969 -1.56312 17.2951 92 91 73 
3.79568 -0.641539 9.12399 6 0 0 
-0.0420641 -0.382633 2.89085 25 18 2 
0.23861 -0.370911 2.99182 192 193 197 
0.706915 -0.913866 10.9385 85 50 30 
0.375836 -0.980734 11.6436 58 33 11 
3.80518 -0.559423 8.80097 136 124 110 
0.398994 -0.360201 3.20743 102 105 110 
0.351545 -0.356685 3.14162 214 215 220 
-0.604603 -1.29705 16.5193 169 162 134 
3.63122 -0.446836 8.66698 120 113 105 
3.60425 -0.424707 8.6412 43 30 22 
-0.0807333 -0.832538 11.865 89 57 34 
3.57594 -0.416685 8.69037 127 119 108 
0.388829 -0.6458 10.5641 86 45 25 
-0.381228 -0.779658 12.375 132 100 79 
3.48427 -0.284508 8.38173 33 16 9 
3.96911 -0.218349 8.29045 34 15 1 
0.343861 -0.520098 10.1823 52 26 9 
3.45457 -0.180085 8.22279 36 8 4 
0.39231 -0.219322 3.18378 10 13 20 
3.41838 -0.0717384 7.8845 77 60 50 
-0.903727 -0.206559 8.30921 159 151 128 
-0.222393 -0.0982536 7.50513 130 114 99 
-1.04254 -0.127517 8.60781 18 13 7 
-1.44066 -0.1471 8.93893 119 82 64 
2.58557 0.149822 5.94815 116 107 102 
-0.552282 0.00770321 7.85936 255 238 220 
-0.530055 0.0378408 7.63908 163 143 134 
-0.883935 0.278064 5.43109 52 24 13 
-0.866271 0.298835 5.19708 45 28 18 
-0.819017 0.316156 5.14894 34 14 5 
-0.920931 0.314427 5.03283 30 0 0 
0.772378 0.280522 3.21409 84 72 60 
0.296939 0.188992 2.57589 148 140 129 
-0.930542 0.347887 4.77888 70 37 22 
-0.900275 0.362158 4.57359 21 1 0 
0.28983 0.280075 2.58676 109 99 87 
-0.959587 0.409091 4.17001 127 99 85 
0.748348 0.522625 3.2283 112 105 99 
-0.443154 0.157167 1.96023 161 149 135 
0.295367 0.371259 2.58979 152 144 133 
0.783864 0.563535 3.2331 153 154 156 
0.774148 0.568941 3.23359 171 171 171 
-0.142975 0.308959 2.43481 154 153 149 
-0.896533 0.474789 3.60798 61 44 36 
-0.771092 0.487014 3.53017 99 68 65 
-1.02346 0.483745 3.54078 65 31 19 
-0.785894 0.496895 3.39576 254 245 236 
-1.15471 0.482415 3.52372 127 80 64 
0.281402 0.503951 2.62538 144 132 116 
-0.395739 0.542653 3.1418 185 178 170 
0.57579 0.607372 2.87083 120 102 98 
0.269549 0.519252 2.60191 141 129 113 
-0.461677 0.278218 1.96544 192 182 170 
-0.188499 0.464973 2.33016 168 172 175 
0.390701 0.630244 2.60703 178 168 167 
-0.795442 0.564585 2.8653 51 26 21 
-1.05735 0.554483 2.91676 92 44 32 
-0.901253 0.574342 2.78825 45 23 12 
-0.161011 0.554824 2.05412 110 98 82 
-0.0793563 0.564302 2.0455 125 124 122 
-0.174428 0.572097 2.07405 228 216 200 
-0.880821 0.61174 2.46851 177 141 129 
-0.112948 0.587179 2.03827 122 114 103 
-0.474762 0.507273 1.97857 180 165 142 
-0.167729 0.59776 2.06557 181 168 151 
-0.261287 0.647183 2.20575 94 57 49 
-0.70936 0.617047 2.29365 214 199 180 
-0.170873 0.651569 2.07076 161 145 130 
-0.65876 0.635197 2.22584 132 98 86 
-0.1965 0.667 2.09791 81 76 72 
-0.661681 0.640743 2.20659 39 22 15 
-0.337128 0.661135 2.09337 143 119 115 
-0.449661 0.595014 1.98463 119 105 92 
-0.546772 0.651414 2.11309 179 172 164 
-0.471917 0.631187 1.99531 163 150 133 
-0.718037 0.660076 2.10053 41 22 16 
-0.798527 0.66099 2.05957 214 183 180 
-0.985345 0.66461 2.07196 117 108 91 
-1.00713 0.664386 2.07666 208 205 188 
-0.788843 0.670191 2.00322 226 196 188 
-0.974827 0.666658 2.06028 115 112 97 
-0.854181 0.675037 1.99674 97 101 104 
-0.531314 0.69743 1.87432 75 57 43 
-0.993967 0.677551 1.98429 116 106 94 
-0.8201 0.685167 1.92055 162 163 168 
-0.89587 0.684358 1.93852 146 129 119 
-0.990734 0.686834 1.90949 69 50 43 
0.918501 -0.69889 3.92644 65 108 78 
4.98194 -1.15402 9.99361 36 21 14 
0.317856 -0.487291 3.11147 26 30 31 
0.613133 -0.509678 3.51049 7 15 18 
4.51076 -0.858161 9.50192 37 24 15 
0.585304 -0.440242 3.48111 197 198 202 
0.238999 -1.0127 11.9581 123 91 68 
3.85863 -0.498054 8.83198 47 33 20 
3.63968 -0.450687 8.68855 133 127 115 
0.275738 -0.31969 3.03976 210 211 213 
3.59278 -0.423004 8.61879 47 34 26 
3.6636 -0.216192 8.27099 52 37 30 
0.24768 -0.17967 2.97981 6 9 14 
0.320999 -0.108051 3.06295 8 8 16 
-1.37069 -0.167543 9.04806 203 187 164 
-1.0332 -0.0829032 8.53309 102 88 77 
-1.23189 -0.036689 8.08385 91 66 61 
0.310223 0.117963 2.57088 133 127 115 
1.70921 0.464882 4.53852 35 26 21 
-1.20195 0.342313 4.61446 28 0 1 
-1.15615 0.386989 4.30839 35 1 0 
-1.03276 0.423545 3.86891 65 28 20 
0.789355 0.574193 3.25888 166 166 166 
-1.03014 0.474569 3.62633 233 215 203 
-1.04592 0.517065 3.24811 59 40 34 
-0.439685 0.601411 1.98326 119 107 93 
-0.364216 0.665576 2.07896 73 42 40 
-0.469831 0.672334 1.98964 189 183 183 
-0.647809 0.706392 1.82646 49 32 24 
1.2536 -2.98236 17.0177 248 254 250 
-0.536849 -1.70495 17.3566 217 221 207 
-0.371347 -1.75066 17.9412 93 89 64 
-0.194798 -1.51607 17.4458 87 88 54 
0.340657 -0.0853284 3.09481 11 11 9 
-0.341184 0.0271432 7.64886 203 190 174 
-0.938058 0.316022 4.95173 24 0 0 
-1.0269 0.458426 3.74474 62 42 31 
-0.806786 0.590884 2.62889 47 34 25 
-0.11485 0.493938 2.02338 144 134 124 
-0.738154 0.640863 2.2137 56 37 30 
-0.275727 0.678075 2.03205 77 58 52 
-0.701575 0.679312 1.95837 75 65 56 
-0.466898 -2.80702 17.9299 36 44 21 
-0.764275 0.624653 2.30102 215 165 164 
-0.720828 0.623695 2.26633 211 192 185 
-0.0670679 0.670603 2.04875 158 149 142 
-0.223285 0.676401 2.01739 22 11 7 
-0.416229 0.671113 2.01793 86 74 74 
0.536085 -1.54183 3.21893 44 25 10 
0.47439 -1.50085 3.28746 57 35 22 
0.29915 -1.48152 3.39186 47 29 19 
0.464154 -1.40255 3.32577 98 85 69 
0.25835 -1.40757 3.42166 89 77 65 
0.252703 -1.36194 3.41353 196 185 167 
0.340494 -1.30854 3.3514 115 102 83 
0.234557 -1.29831 3.39003 168 156 142 
0.18089 -1.13904 3.30171 168 162 150 
0.244282 -0.437625 3.01589 213 217 220 
0.37676 -0.00328137 3.14159 121 120 116 
0.771114 0.0269019 3.17651 176 165 161 
1.72519 0.0618721 6.25158 166 156 147 
1.74405 0.0660933 6.24329 152 142 133 
1.75652 0.0714065 6.25855 43 33 24 
1.90891 0.0670479 6.20366 83 72 66 
1.81038 0.0729806 6.21427 126 116 107 
1.70479 0.0773214 6.26325 146 136 127 
1.71847 0.0797749 6.25226 167 157 148 
1.91206 0.0795549 6.18892 68 59 50 
1.79485 0.0911438 6.22883 56 47 38 
1.80721 0.0910294 6.2185 58 49 40 
1.78385 0.0954958 6.22567 79 68 62 
1.87463 0.0920481 6.20137 117 108 103 
1.74252 0.0973539 6.24446 79 66 57 
1.81941 0.0952559 6.21751 52 42 33 
1.83117 0.0969504 6.2117 33 23 14 
1.80271 0.0997642 6.22977 35 24 18 
1.7648 0.103468 6.24156 70 57 48 
1.90639 0.0979165 6.19392 105 96 91 
1.71095 0.106788 6.2551 109 96 87 
1.86951 0.101801 6.20434 155 144 140 
1.89547 0.0999662 6.18863 117 106 102 
1.81633 0.105225 6.22512 29 19 10 
1.83664 0.105046 6.21811 150 140 131 
1.9193 0.103155 6.17929 132 119 113 
1.72685 0.109799 6.25533 73 60 51 
1.84805 0.106918 6.21101 165 154 148 
1.7809 0.109781 6.23645 171 160 156 
1.90157 0.106066 6.18138 177 160 153 
1.76513 0.115636 6.24016 60 47 39 
1.73461 0.119627 6.24667 87 75 63 
1.79061 0.116443 6.23311 164 151 143 
1.85529 0.115432 6.21868 147 134 125 
1.88977 0.114216 6.1981 71 58 50 
1.80313 0.11896 6.2334 155 140 133 
1.83059 0.118468 6.21762 76 62 51 
1.8995 0.115427 6.18822 61 47 38 
1.82103 0.119539 6.21252 153 139 128 
1.69593 0.125817 6.26579 103 90 73 
1.79935 0.124308 6.22321 53 39 26 
1.86177 0.121384 6.20399 160 146 135 
1.88049 0.12147 6.19974 50 36 25 
1.84186 0.129209 6.21717 49 36 20 
1.86222 0.128589 6.21185 24 10 1 
1.91506 0.128747 6.18844 102 88 79 
1.89913 0.13182 6.20234 67 53 44 
1.78512 0.138979 6.23549 89 76 60 
1.80948 0.140553 6.22809 108 95 79 
1.90825 0.139076 6.19082 81 67 58 
1.72348 0.149568 6.2604 100 86 73 
1.86892 0.145171 6.21652 116 103 86 
1.77651 0.151157 6.24295 99 85 72 
0.747177 0.0769305 3.17646 149 137 123 
1.73884 0.159903 6.26113 80 66 53 
1.80727 0.158243 6.23552 86 73 57 
1.72382 0.165908 6.2796 175 159 146 
0.741794 0.0856708 3.18008 178 164 153 
1.83206 0.171732 6.23413 81 65 52 
1.84624 0.188873 6.22766 90 74 59 
0.745611 0.0957205 3.17719 151 137 126 
1.68883 0.222825 6.30599 99 86 69 
-0.213672 0.112238 2.61545 133 123 111 
1.83026 0.231842 6.24417 79 63 48 
0.758106 0.11705 3.17865 191 175 162 
1.74 0.24149 6.26424 109 93 78 
1.87967 0.246777 6.23627 76 60 44 
0.739466 0.126741 3.18758 61 48 39 
1.86757 0.257735 6.23248 67 51 36 
0.751494 0.138381 3.18108 78 62 49 
0.329686 0.118921 2.56568 196 186 174 
0.748719 0.163647 3.18953 148 132 117 
0.756877 0.166842 3.18422 154 140 127 
0.747068 0.176423 3.19054 161 148 132 
0.776419 0.1772 3.1857 84 71 62 
0.328401 0.191784 2.57413 159 159 147 
-0.248266 0.22123 2.55389 163 157 141 
0.32709 0.204785 2.5752 143 133 121 
0.341498 0.215741 2.58235 240 230 220 
0.784851 0.269833 3.20244 91 75 62 
0.764735 0.282193 3.20179 172 159 143 
0.744507 0.303729 3.2119 159 146 130 
0.775873 0.305827 3.20607 122 106 91 
0.762391 0.309047 3.20743 103 90 74 
0.75456 0.320862 3.2097 114 100 87 
0.341303 0.268284 2.58742 101 93 82 
0.744284 0.328424 3.21674 94 80 69 
0.753286 0.332369 3.21461 103 89 76 
0.772057 0.340297 3.21034 94 82 68 
0.763759 0.387822 3.21635 49 35 24 
0.777955 0.422398 3.22184 82 70 58 
0.327683 0.357385 2.59028 123 114 105 
0.329568 0.367196 2.59241 111 102 95 
0.768356 0.475703 3.23201 66 55 49 
0.754027 0.523885 3.23585 135 126 119 
-0.0743544 0.353727 2.03937 148 147 142 
0.751932 0.554994 3.24259 112 107 101 
-0.0777247 0.402317 2.04082 133 130 121 
-0.093078 0.420626 2.03385 140 138 126 
0.0594887 0.563766 2.64636 130 131 126 
-0.35973 0.531358 2.36446 182 175 167 
0.162363 0.600939 2.77789 133 129 120 
-0.080133 0.457968 2.04496 87 77 68 
0.255518 -0.543217 3.04558 19 20 22 
0.360686 -0.498611 3.17414 42 43 45 
0.225101 -0.355686 2.98471 218 219 223 
0.552753 -0.404727 3.42057 209 208 213 
0.56058 -0.403204 3.42745 14 15 19 
0.314032 -0.332684 3.10334 158 159 161 
0.381648 -0.144383 3.16766 190 194 195 
0.347251 -0.00246811 3.0998 94 93 91 
1.69774 0.0903476 6.26178 145 132 123 
1.84418 0.0863217 6.21867 39 29 20 
1.75398 0.157061 6.26361 112 98 85 
1.69122 0.174256 6.28555 116 98 84 
-0.0771468 0.221598 2.02715 85 81 70 
-0.0710547 0.292642 2.03834 122 119 112 
0.568084 0.508828 3.33291 202 198 195 
0.659641 0.525928 3.46056 52 48 37 
0.599827 0.528537 3.37058 51 47 44 
0.62318 0.530722 3.40376 130 127 122 
0.0180098 0.620831 2.58117 119 112 106 
0.433269 -0.575685 3.27754 172 173 177 
0.589491 -0.440417 3.47299 195 196 198 
0.315845 -0.355845 3.10505 192 193 195 
0.228434 -0.322877 2.98453 169 168 173 
0.613014 -0.364582 3.49549 226 227 229 
1.73561 0.196968 6.26708 197 181 166 
0.754426 0.153094 3.18291 76 62 51 
0.0152975 0.358004 2.61797 152 150 138 
0.16019 0.577468 2.7801 89 83 83 
0.123016 0.617391 2.70775 132 122 120 
-0.000143022 0.60271 2.5563 154 156 153 
0.726262 -0.779544 3.68627 109 103 103 
0.415024 -0.582094 3.26176 216 217 222 
0.541363 -0.58912 3.43182 128 127 132 
0.345891 -0.484914 3.15965 38 39 43 
0.199582 -0.391568 2.9559 211 215 218 
0.203204 -0.329825 2.95236 202 206 209 
0.355363 -0.292321 3.14703 27 28 32 
0.275336 -0.230351 3.0362 215 216 220 
0.563616 -0.163273 3.40744 37 37 39 
0.412887 -0.107751 3.20223 17 18 20 
0.534619 0.541439 3.28668 231 227 218 
0.0108526 0.623661 2.56895 109 96 88 
0.490712 -0.00600871 3.29326 59 59 59 
0.0881429 0.108576 2.75306 156 157 152 
0.623804 -0.311857 3.50905 31 32 36 
0.455353 -1.50005 3.29902 113 99 86 
0.33153 -1.50234 3.36545 83 64 47 
0.251774 -1.41331 3.41974 198 185 169 
0.311422 0.181294 2.56667 142 134 123 
0.466349 -1.49662 3.29814 47 29 15 
0.450781 -1.49012 3.30735 24 7 0 
0.744226 0.319139 3.21235 80 66 55 
0.761074 0.31855 3.20723 92 78 65 
0.769885 0.367222 3.21396 116 102 89 
0.267565 -1.49787 3.40276 55 37 27 
0.25705 -1.2837 3.36591 68 56 44 
3.01295 -4.84616 22.652 79 81 78 
3.00208 -4.59987 22.662 134 135 137 
0.734876 0.330324 3.22139 140 128 116 
0.203102 -1.51014 3.43545 85 66 52 
2.90564 -4.38431 22.8497 82 68 65 
0.782078 0.14109 3.18701 189 175 162 
0.0596119 -1.6553 3.40221 42 22 11 
0.724178 -1.64253 2.96649 131 97 59 
1.01214 -1.71568 3.21063 87 74 68 
0.997083 -1.70602 3.24874 113 107 107 
0.621349 -1.64733 3.03333 68 44 20 
1.03667 -1.70151 3.37271 84 58 33 
0.0480905 -1.66393 2.95072 67 40 21 
0.544341 -1.64219 3.12209 49 28 7 
-0.27837 -1.76675 3.405 94 66 45 
-0.214843 -1.75828 3.44458 172 145 118 
1.05774 -1.38335 4.21323 126 110 94 
0.842044 -0.958174 3.83875 34 48 35 
0.795681 -0.864348 3.76303 29 54 35 
0.84216 -0.869 3.82519 13 30 20 
0.965104 -0.850558 3.98352 112 102 90 
0.777495 -0.808089 3.73778 207 242 222 
0.759011 -0.783168 3.71313 196 231 199 
0.976972 -0.827712 4.01604 229 219 207 
0.98909 -0.826906 4.02049 238 228 216 
0.865653 -0.768658 3.84682 209 236 219 
0.93014 -0.777287 3.93644 27 14 6 
0.874108 -0.763732 3.85631 72 99 82 
0.958139 -0.775686 3.97821 66 57 42 
0.964799 -0.77085 3.98767 132 122 112 
0.795859 -0.727298 3.75417 54 67 57 
1.00903 -0.753629 4.04313 232 222 213 
0.990763 -0.749314 4.02393 85 75 66 
1.01152 -0.722726 4.047 232 222 210 
0.929217 -0.705593 3.92919 204 217 197 
0.748588 -0.670808 3.69845 115 140 118 
0.749055 -0.66787 3.68303 75 99 77 
0.741493 -0.662809 3.67785 230 212 208 
0.244357 -0.550763 3.05521 208 210 209 
0.462033 -0.561268 3.31744 78 78 76 
0.389329 -0.525357 3.22433 125 125 125 
0.360998 -0.503632 3.18599 74 74 72 
0.300333 -0.416007 3.10598 167 167 167 
0.295597 -0.38505 3.09867 90 90 90 
0.213238 -0.350151 3.00105 155 155 155 
0.204537 -0.330587 2.98504 104 104 104 
0.360638 -0.345998 3.16832 180 180 180 
0.293054 -0.319822 3.08873 144 144 146 
0.183116 -0.305339 2.95288 193 193 193 
0.396587 -0.311324 3.21358 210 210 210 
0.413076 -0.302668 3.22617 85 85 87 
0.287236 -0.216448 3.07624 56 56 56 
0.945362 -0.270508 3.90954 159 159 161 
-0.0598776 -0.16727 2.78997 209 197 183 
0.566348 -0.188982 3.40716 67 63 62 
-0.169832 -0.130561 2.81732 63 51 35 
-0.169267 -0.112333 2.80989 146 129 103 
-0.0190946 -0.0466586 2.70654 181 176 170 
-0.072528 0.0251774 2.66662 142 133 124 
0.777676 0.0170249 3.175 204 187 169 
0.771388 0.0261571 3.16628 169 159 150 
0.797518 0.0315871 3.1731 127 114 105 
-0.0503084 0.0730644 2.64871 157 153 142 
0.800951 0.0439632 3.16782 124 119 115 
0.765592 0.0718659 3.16322 174 157 147 
0.761345 0.081011 3.16147 197 179 165 
0.759822 0.093118 3.16932 181 158 142 
0.781989 0.0955135 3.16569 115 96 82 
0.768009 0.0995668 3.16683 66 48 36 
0.758643 0.104722 3.1661 224 202 189 
0.804445 0.103856 3.18391 255 252 235 
0.745519 0.113948 3.17535 191 178 162 
0.789652 0.110012 3.16849 195 178 162 
0.776809 0.115003 3.17227 231 215 199 
0.333121 0.110927 2.59054 77 64 48 
0.764596 0.120061 3.16893 102 84 70 
0.791164 0.121329 3.17536 196 180 165 
0.75422 0.125003 3.17185 148 132 119 
0.77714 0.127992 3.17142 217 201 188 
0.761727 0.133039 3.17235 161 148 132 
0.751644 0.137414 3.17558 71 55 42 
0.778713 0.137745 3.17705 174 157 147 
0.78734 0.147719 3.17845 56 40 25 
0.347143 0.136946 2.59752 121 108 92 
0.904634 0.194238 3.80953 168 164 153 
0.739296 0.159321 3.18693 147 129 115 
0.786277 0.162858 3.17924 169 151 139 
0.805469 0.169096 3.19296 74 60 47 
0.758633 0.178809 3.18036 55 39 26 
0.776548 0.176876 3.18213 72 60 46 
0.789919 0.176007 3.18406 193 181 169 
0.317767 0.17111 2.59436 135 126 111 
0.352637 0.170623 2.60832 84 72 60 
0.788936 0.187869 3.18599 142 130 118 
0.803882 0.18964 3.19204 89 75 64 
0.343615 0.179452 2.60065 228 220 209 
0.353216 0.181262 2.61125 48 38 28 
0.0138505 0.221381 2.70387 176 176 166 
0.804014 0.204444 3.20028 157 143 132 
0.768068 0.207343 3.18449 68 52 39 
0.592109 0.24491 3.39962 136 126 114 
0.920973 0.260164 3.83117 229 225 214 
-0.299742 0.252984 2.63822 120 107 91 
0.804335 0.21461 3.19941 73 56 46 
0.354633 0.202099 2.6147 66 56 46 
0.799564 0.222559 3.19551 157 140 130 
0.345815 0.208137 2.60356 128 118 108 
0.814828 0.235695 3.21372 177 159 145 
0.797247 0.246877 3.19899 75 59 46 
0.360843 0.224941 2.62341 102 92 80 
0.810888 0.248089 3.21484 99 83 67 
0.807909 0.250054 3.20579 170 153 137 
0.342955 0.228543 2.60899 125 113 101 
0.800938 0.260826 3.20526 55 38 22 
0.358813 0.242995 2.62085 125 115 103 
0.785053 0.269347 3.1965 94 77 59 
0.8106 0.2692 3.21394 109 92 74 
0.34351 0.250341 2.61118 132 120 106 
0.764891 0.28212 3.19873 160 143 123 
0.796282 0.283562 3.20707 81 63 49 
0.130166 0.308145 2.83434 159 155 143 
0.807485 0.287827 3.20865 114 97 77 
0.360154 0.28012 2.62843 112 100 84 
-0.00113535 0.324519 2.67156 172 165 157 
0.775841 0.334908 3.205 105 88 72 
0.769785 0.345732 3.20777 79 63 48 
-0.02123 0.352546 2.65158 225 218 210 
0.800394 0.348487 3.21514 224 208 192 
0.0704711 0.361533 2.75109 136 132 121 
0.112198 0.366658 2.80363 85 75 65 
0.357378 0.316413 2.62807 126 117 102 
0.798684 0.365835 3.21769 116 100 84 
0.346208 0.397008 3.07776 121 116 110 
0.80886 0.367949 3.22036 136 120 104 
0.763658 0.37729 3.21475 82 69 53 
0.76374 0.388297 3.21916 43 29 16 
-0.00575759 0.395725 2.6603 180 176 165 
0.800448 0.395463 3.22413 171 158 142 
1.08135 0.489624 4.01145 126 111 104 
0.647102 0.45725 3.454 112 110 98 
1.00302 0.490613 3.91733 139 130 123 
0.989956 0.501103 3.89394 117 113 102 
1.00802 0.502236 3.91098 133 122 116 
-0.00460929 0.416432 2.66128 163 160 151 
0.969912 0.503528 3.86788 81 72 65 
0.77808 0.422369 3.22037 79 63 50 
0.961241 0.504523 3.85003 179 170 161 
0.943066 0.507712 3.84275 206 203 198 
0.958904 0.512752 3.86017 105 98 88 
0.92334 0.509586 3.80957 154 145 136 
0.404404 0.459145 3.14128 166 163 154 
0.87864 0.506603 3.75972 163 159 147 
0.640722 0.485319 3.44449 37 34 25 
0.866183 0.511532 3.73783 242 238 226 
0.611288 0.48742 3.40835 74 65 58 
0.906544 0.516362 3.79074 159 150 141 
0.967682 0.515193 3.8294 114 103 97 
0.363286 0.388369 2.64715 40 32 21 
0.874264 0.516637 3.75397 205 201 189 
0.625175 0.494116 3.42751 78 73 70 
0.866533 0.521777 3.72792 97 94 89 
0.884432 0.523238 3.74364 107 98 91 
0.595826 0.496645 3.38493 111 108 99 
0.612611 0.500736 3.40755 91 86 80 
0.82288 0.449934 3.25232 100 84 69 
0.627471 0.508582 3.42485 69 64 60 
0.444648 0.494775 3.1924 174 171 162 
0.647623 0.51833 3.44868 50 47 40 
0.0846416 0.465887 2.75784 136 127 120 
0.0993599 0.467301 2.77162 141 134 124 
0.654948 0.523277 3.46158 45 39 25 
0.397952 0.497216 3.13388 163 164 158 
0.620578 0.524169 3.41253 121 116 113 
0.587693 0.5239 3.36857 140 135 131 
0.608948 0.526559 3.40114 23 18 15 
0.530286 0.520703 3.29907 143 139 127 
0.64932 0.534529 3.45652 32 25 15 
0.643761 0.534072 3.4467 86 83 76 
0.599011 0.531958 3.38619 28 23 20 
0.605665 0.536555 3.39786 108 103 100 
0.391455 0.514984 3.1235 184 181 176 
0.548079 0.532623 3.32368 97 93 90 
0.619274 0.542788 3.40482 68 60 58 
0.566016 0.538391 3.34392 96 92 89 
0.577981 0.548615 3.36259 88 84 75 
0.571601 0.547924 3.34918 96 91 87 
0.547739 0.54966 3.3152 70 62 51 
0.558528 0.551788 3.3367 143 133 124 
0.511118 0.550319 3.27568 216 208 197 
0.50073 0.550072 3.26041 146 139 129 
0.533934 0.554096 3.30448 209 196 187 
0.579515 0.556815 3.34753 53 46 40 
0.0988489 0.507472 2.76896 123 114 107 
0.528002 0.55371 3.29422 195 185 175 
0.43764 0.54529 3.18191 124 122 110 
0.390233 0.541397 3.12247 164 164 156 
0.542492 0.559805 3.31546 173 160 151 
0.468669 0.551702 3.21751 142 134 121 
0.504221 0.560132 3.26277 212 203 188 
0.519341 0.561403 3.27574 172 156 143 
0.527865 0.563299 3.28777 145 133 121 
0.498049 0.560987 3.2425 76 67 58 
0.751823 0.526283 3.2383 130 120 111 
0.468667 0.560369 3.21233 152 142 130 
0.458309 0.561423 3.20406 231 219 207 
0.476239 0.565872 3.2228 111 101 89 
0.439758 0.562147 3.1735 62 54 43 
0.448879 0.563749 3.18789 122 113 98 
0.487762 0.568201 3.23633 51 39 25 
0.497465 0.5713 3.24528 110 97 91 
0.430628 0.568098 3.16185 143 135 122 
0.462536 0.57299 3.20483 76 72 60 
0.470289 0.574907 3.21116 50 41 32 
0.481455 0.575384 3.22679 112 102 92 
0.389173 0.566608 3.11701 150 140 131 
0.334977 0.562114 3.05028 125 122 115 
0.398118 0.5713 3.12293 89 81 68 
0.449566 0.577583 3.19048 71 61 51 
0.863948 0.556699 3.36271 150 133 126 
0.38289 0.569141 3.10338 108 98 89 
0.358644 0.569104 3.07278 218 216 204 
0.493923 0.578678 3.20537 8 0 0 
0.349265 0.57001 3.06544 134 131 126 
0.377146 0.573299 3.09219 219 209 199 
0.409943 0.57699 3.13137 126 116 104 
0.0686481 0.541616 2.73319 133 126 118 
0.700023 0.568514 3.26601 87 84 77 
0.605039 0.573466 3.22301 114 106 104 
0.323245 0.571722 3.02382 109 100 91 
0.340427 0.576568 3.05296 87 83 74 
0.38832 0.582536 3.11588 96 83 75 
0.354304 0.579723 3.07024 146 142 133 
0.360596 0.580384 3.07813 242 238 229 
0.383611 0.583492 3.10686 122 112 103 
0.329353 0.576962 3.03613 115 111 100 
0.367722 0.585236 3.0876 219 210 203 
0.115153 0.556095 2.77954 130 126 117 
0.713121 0.569521 3.23406 42 37 33 
0.821225 0.561687 3.25989 105 100 94 
0.347316 0.585124 3.0562 191 182 175 
0.782435 0.566487 3.23868 70 70 70 
0.332201 0.587028 3.04079 89 79 70 
0.922635 0.562935 3.29694 115 104 102 
0.869671 0.567089 3.27984 179 175 174 
0.80435 0.568347 3.23657 77 77 77 
0.379275 0.592248 3.06731 45 30 23 
0.336302 0.597165 3.05084 29 19 10 
0.516287 0.589914 3.11369 45 32 26 
0.121879 0.5868 2.78901 74 69 63 
0.0547814 0.586455 2.71404 129 129 119 
0.151181 0.600186 2.8222 44 37 29 
0.0194588 0.607862 2.67491 146 142 139 
0.0619275 0.61381 2.72024 112 103 96 
0.0682955 0.617979 2.72861 187 174 165 
0.0861068 0.620154 2.74607 149 139 130 
0.111466 0.62715 2.77501 15 4 0 
-0.166289 0.600475 2.48211 150 151 146 
-0.0518903 0.610755 2.59779 157 156 151 
0.0583159 0.628182 2.721 93 79 70 
0.0717067 0.629006 2.72758 125 112 104 
0.0806311 0.630358 2.73779 118 105 97 
0.0499659 0.632236 2.70547 157 147 138 
0.0268939 0.633506 2.67745 103 94 89 
-0.0261511 0.629978 2.62939 144 141 136 
-0.0358476 0.627382 2.60986 219 218 216 
0.0403675 0.636422 2.68794 213 203 194 
-0.0588386 0.631175 2.58987 128 127 123 
0.015534 0.63845 2.66582 81 71 62 
-0.0322242 0.636391 2.61778 137 132 126 
-0.0174774 0.643414 2.63687 95 87 74 
-0.0928181 0.634258 2.55023 149 148 143 
-0.0906961 0.63601 2.55967 138 137 132 
-0.0016379 0.64532 2.64258 147 134 126 
-0.0233346 0.645092 2.624 180 170 161 
-0.0621473 0.642141 2.58589 76 67 62 
-0.0404532 0.642648 2.5995 176 163 155 
-0.518377 0.686441 2.46611 162 146 131 
-0.495795 0.680714 2.45902 162 146 130 
-0.0485318 0.645521 2.59372 157 148 139 
-0.111202 0.645298 2.53586 145 140 137 
-0.0746528 0.648065 2.57068 76 65 59 
-0.0688053 0.649084 2.57998 155 144 140 
-0.0298275 0.648666 2.59983 37 20 4 
1.05831 0.5914 3.0338 203 180 174 
-0.130329 0.643174 2.51163 204 199 195 
-0.0860645 0.651326 2.55689 121 112 105 
-0.100334 0.653395 2.54279 121 112 105 
-0.111707 0.66004 2.5548 171 162 157 
-0.118221 0.655322 2.52683 119 110 105 
-0.462599 0.688573 2.43615 79 64 45 
-0.16855 0.657264 2.47896 138 134 133 
-0.0997216 0.660176 2.53103 153 139 136 
-0.153929 0.660693 2.49336 123 120 113 
-0.142545 0.66306 2.50722 184 175 166 
-0.111039 0.663059 2.52209 65 57 46 
-0.132343 0.666361 2.50179 131 118 110 
-0.182721 0.665715 2.46527 103 95 92 
-0.171795 0.667682 2.47521 145 138 132 
-0.192197 0.672531 2.45834 77 72 68 
-0.138964 0.671466 2.48578 128 121 113 
0.0230589 0.657839 2.53109 131 116 111 
-0.160429 0.675664 2.46907 120 107 99 
-0.0921231 0.678356 2.43091 214 195 188 
-0.064375 0.677254 2.43081 43 23 14 
0.826048 0.638752 2.59637 74 56 46 
0.0866585 0.690683 2.27944 164 144 137 
0.0316679 0.696717 2.24056 230 211 204 
0.117656 0.693689 2.25758 178 154 144 
0.376652 0.684465 2.27882 159 127 116 
0.669799 0.667424 2.37668 169 141 137 
0.760094 0.664134 2.3925 174 144 133 
0.554761 0.678801 2.30902 158 135 127 
0.395265 0.692287 2.19608 79 52 35 
0.540379 0.6879 2.20445 179 131 117 
0.0835063 -1.67105 3.00519 43 20 2 
0.122653 -1.05314 3.33304 202 189 172 
0.720879 -0.905916 3.68466 226 234 223 
0.840806 -0.885671 3.81719 173 207 182 
0.867833 -0.82486 3.86011 47 78 62 
0.820602 -0.810204 3.80136 216 232 221 
0.898359 -0.806473 3.89931 51 77 50 
0.868565 -0.778545 3.85559 205 243 206 
0.833914 -0.763392 3.80714 215 239 217 
0.855681 -0.770507 3.84566 188 226 201 
0.65212 -0.504305 3.5387 59 61 60 
0.267326 -0.452084 3.08049 45 45 45 
0.234857 -0.375471 3.02099 192 192 192 
0.603993 -0.386642 3.47273 191 191 191 
0.3187 -0.343625 3.12281 124 124 124 
-0.151287 -0.171487 2.84182 142 127 106 
0.238854 -0.17589 3.01175 223 221 224 
0.0897879 0.0689058 2.80842 49 40 31 
0.805537 0.0872972 3.18324 247 241 241 
0.917467 0.150759 3.83085 145 138 128 
0.35451 0.116519 2.60318 183 167 151 
0.00140581 0.304842 2.67986 141 137 126 
0.402318 0.369685 3.1492 151 148 141 
1.00661 0.485828 3.93319 236 227 220 
0.89258 0.515226 3.76548 212 205 197 
0.566843 0.510825 3.34568 191 186 180 
0.557833 0.512532 3.33656 118 113 107 
0.634119 0.526654 3.43746 108 103 99 
0.595856 0.522609 3.3784 159 154 151 
0.585894 0.538149 3.36239 61 56 53 
0.583721 0.564404 3.33277 6 0 0 
0.518678 0.570206 3.28078 179 166 158 
0.368063 0.568303 3.08613 209 202 192 
0.489425 0.581186 3.21765 8 0 0 
0.124037 0.598609 2.79147 98 89 82 
0.443129 0.605442 2.95029 133 116 108 
-0.159618 0.671614 2.481 139 130 123 
0.518472 0.646 2.59855 80 53 46 
0.801964 0.635356 2.66725 135 116 110 
0.183749 0.685116 2.29841 165 135 124 
0.28709 0.696837 2.18205 160 147 139 
0.613675 0.685597 2.23692 187 157 147 
0.545352 -1.62941 2.89871 52 28 16 
0.0978442 -1.65884 2.96616 61 35 22 
1.05426 -1.70405 3.39968 58 30 9 
-0.202547 -1.70653 3.09004 29 1 0 
0.190415 -1.70918 3.24553 16 2 1 
-0.229905 -1.71475 3.13939 168 141 122 
-0.0971461 -1.74412 3.47419 83 55 33 
0.763104 -1.49779 3.72378 12 2 0 
1.03214 -1.38218 4.18699 104 87 79 
0.975045 -0.883267 4.01715 95 86 69 
0.859261 -0.840131 3.85235 193 227 192 
0.901139 -0.826424 3.90105 29 52 32 
0.726399 -0.785451 3.67548 64 53 49 
0.743201 -0.786804 3.70049 208 229 210 
0.939141 -0.813537 3.95716 84 75 60 
0.837626 -0.738468 3.81228 200 230 204 
0.40885 -0.53815 3.25449 224 224 224 
0.275507 -0.505757 3.08617 213 212 217 
0.36324 -0.51048 3.19341 177 177 177 
0.676541 -0.508325 3.58134 209 209 209 
0.689258 -0.481059 3.59165 52 54 53 
0.276638 -0.408796 3.08066 212 212 212 
0.183802 -0.346642 2.96814 18 18 18 
0.337373 -0.35127 3.14787 54 54 54 
0.633062 -0.34883 3.5069 219 219 219 
0.641715 -0.347014 3.51454 219 223 222 
0.18927 -0.295673 2.9495 193 193 191 
0.282021 -0.246649 3.07248 79 78 83 
0.32052 -0.22126 3.1087 146 146 146 
0.379931 -0.20647 3.18338 211 211 213 
0.272171 -0.145168 3.03994 194 194 196 
0.398702 -0.134877 3.20487 132 132 132 
-0.0713786 0.00168785 2.67967 194 190 179 
0.865173 0.202174 3.75778 160 154 142 
0.325986 0.192054 2.58757 165 153 141 
0.912924 0.259785 3.82014 143 139 128 
0.62727 0.322149 3.4444 139 129 119 
-0.0117998 0.372163 2.65224 118 109 100 
0.490916 0.41543 3.25812 173 168 162 
0.894932 0.491556 3.7811 165 161 150 
1.0117 0.500084 3.89758 123 112 106 
0.978607 0.513298 3.84978 181 170 164 
0.513231 0.488295 3.2739 150 146 137 
0.640062 0.517414 3.43577 108 105 98 
0.551397 0.542496 3.3267 78 73 69 
0.530046 0.545198 3.29961 224 216 205 
0.509342 0.555219 3.24034 215 206 191 
0.410348 0.560315 3.13949 146 146 138 
0.399983 0.5724 3.13859 97 89 78 
0.421714 0.577294 3.1522 223 211 199 
0.752802 0.555246 3.24089 116 105 103 
0.773287 0.571355 3.21766 146 140 142 
0.350123 0.591537 3.02185 96 83 77 
0.121921 0.575943 2.79083 114 110 101 
0.115212 0.586921 2.77614 134 129 125 
0.102357 0.612024 2.7701 108 99 94 
0.122219 0.615991 2.77357 35 27 16 
0.0394679 0.637386 2.70203 61 50 44 
-0.00259094 0.641685 2.65889 184 174 165 
-0.0577146 0.642632 2.56045 157 146 142 
-0.0756789 0.645122 2.54083 170 161 154 
-0.478869 0.687433 2.41816 158 131 120 
-0.0734453 0.666396 2.51659 167 154 146 
-0.171056 0.652527 2.15164 114 100 87 
0.995702 -1.70689 3.22027 123 106 98 
0.782253 -1.65317 3.05795 22 3 0 
0.717247 -0.925611 3.68686 214 224 213 
1.00023 -0.831416 4.01403 134 125 110 
0.998904 -0.732209 4.01967 110 100 88 
0.349573 -0.49706 3.19308 43 41 42 
0.325613 -0.435553 3.13938 29 27 28 
0.184743 -0.414506 2.96882 141 141 141 
0.230439 -0.364633 3.01942 43 43 45 
0.62895 -0.342028 3.49057 24 24 26 
0.955874 -0.265739 3.91375 180 179 184 
0.34613 -0.189536 3.14326 223 223 225 
0.289947 0.0988213 2.60819 244 236 223 
0.844943 0.138407 3.74171 123 115 104 
0.779446 0.346205 3.20266 104 88 72 
0.907139 0.514618 3.78048 137 128 119 
0.950173 0.529917 3.72465 141 126 119 
0.56037 0.537351 3.36919 172 167 163 
-0.0556591 0.490588 2.60679 152 147 143 
0.555254 0.556883 3.32455 34 27 21 
0.641533 0.568536 3.26491 118 111 103 
0.235039 0.571883 2.70181 57 44 35 
-0.088873 0.650533 2.54498 46 35 29 
0.380927 0.62993 2.65731 60 43 35 
0.366767 0.633242 2.65572 174 156 152 
0.794001 0.638218 2.65456 131 121 112 
0.769016 -0.774802 3.67198 45 78 49 
0.5314 -0.589282 3.41039 35 36 38 
0.469613 -0.574266 3.33851 32 33 28 
0.298321 -0.500076 3.09439 13 13 13 
0.605455 -0.517519 3.51573 26 26 28 
0.323307 -0.473863 3.16422 32 30 31 
0.658428 -0.512552 3.55391 227 229 228 
0.200396 -0.398637 2.98542 22 22 22 
0.191845 -0.391085 2.98923 208 208 208 
0.332809 -0.373452 3.11855 223 223 223 
0.311267 -0.36464 3.11676 215 215 215 
0.349747 -0.357581 3.1564 211 211 211 
0.685368 -0.386409 3.57933 35 33 34 
0.215529 -0.333499 3.00091 214 214 214 
0.411235 -0.319172 3.22106 225 225 225 
0.185705 -0.292839 2.9634 209 209 211 
0.352994 -0.294274 3.16084 27 29 28 
0.38196 -0.159091 3.19073 224 224 226 
0.478731 -0.00667377 3.2627 55 53 54 
0.998808 0.476943 3.92951 122 112 110 
1.00583 0.497012 3.94504 196 185 179 
0.926838 0.529079 3.7144 145 133 121 
0.558859 0.518198 3.36198 114 109 103 
0.589334 0.517699 3.31771 160 155 152 
0.561515 0.536439 3.35877 163 158 154 
0.395816 0.578464 3.09734 134 121 113 
0.261758 0.616385 2.67367 143 120 106 
0.759622 -0.783483 3.70135 209 232 214 
0.922728 -0.707254 3.92002 60 118 70 
0.302855 -0.491366 3.10455 29 29 29 
0.686394 -0.494221 3.60289 33 35 34 
0.272671 -0.395948 3.09248 219 219 219 
0.517361 -0.36291 3.36892 24 24 24 
0.39704 -0.30282 3.24567 28 28 30 
0.632028 -0.261184 3.50466 232 232 232 
0.24897 -0.225698 3.00772 200 200 202 
0.309574 -0.192585 3.06327 23 23 23 
0.390129 -0.201145 3.19295 232 232 234 
0.414556 -0.204494 3.24462 20 20 20 
0.62295 -0.223452 3.48751 26 26 28 
0.28428 -0.173943 3.05245 32 32 34 
0.277278 -0.161697 3.03058 21 21 23 
0.332164 -0.0899871 3.11425 27 26 24 
0.417527 0.578033 3.14215 185 175 163 
-0.0492717 0.653563 2.57271 30 20 18 
-0.079277 0.701005 2.21875 162 151 147 
0.477462 -1.50886 3.30698 41 18 0 
0.453098 -1.50889 3.32224 36 17 0 
0.449018 -1.50172 3.32829 32 14 0 
0.747455 0.0916236 3.17374 161 143 129 
0.325425 0.305672 2.59327 88 76 62 
0.335081 0.385006 2.60481 138 124 113 
-0.0877841 0.574917 2.08394 97 85 73 
0.775568 0.306163 3.20477 116 99 79 
-0.0770343 0.593539 2.08986 102 92 80 
0.425185 -1.58792 3.26698 29 1 0 
0.488866 -1.51362 3.29665 76 54 33 
0.421388 -0.208343 3.22861 222 222 222 
0.401708 -0.548338 3.23795 220 220 220 
0.42369 -1.50968 3.33694 67 42 20 
0.320664 -1.62493 3.27478 57 35 14 
0.30715 -1.62342 3.28784 20 0 1 
0.109568 -1.54267 3.49438 119 99 74 
0.420963 -1.40258 3.35304 78 61 45 
0.415794 -1.36819 3.35298 88 72 56 
0.771727 0.0715218 3.16944 195 185 183 
0.749625 0.0843567 3.17384 157 139 125 
0.751796 0.0984891 3.17447 178 161 145 
0.738664 0.132029 3.18911 69 52 42 
0.764548 0.282171 3.20122 160 143 123 
0.763643 0.377098 3.21553 82 69 53 
0.288284 -1.41145 3.41318 27 10 2 
0.694882 -1.08417 3.67232 118 104 95 
0.0628331 -1.65818 3.40545 25 4 0 
0.752426 0.555422 3.2433 116 105 103 
0.331248 -1.58401 3.33195 44 19 0 
0.342557 -1.53021 3.36726 35 13 0 
0.724668 -0.936445 3.60879 161 156 152 
0.451097 -0.921833 3.34122 219 203 180 
0.786274 -0.931695 3.66578 49 65 52 
0.867151 -0.929985 3.74229 220 255 225 
0.729647 -0.924654 3.61151 236 242 238 
0.793477 -0.923701 3.67212 46 56 48 
0.725446 -0.911877 3.60727 10 2 0 
0.455987 -0.884831 3.34131 176 160 137 
0.822726 -0.871446 3.69717 216 241 219 
0.731539 -0.858645 3.61148 245 233 233 
0.826548 -0.861256 3.70084 206 238 214 
0.843583 -0.859046 3.7177 191 226 202 
0.806916 -0.855383 3.68376 129 140 132 
0.816292 -0.854257 3.6907 218 251 224 
0.800663 -0.852445 3.67596 220 231 223 
0.739239 -0.848652 3.61858 39 50 34 
0.733079 -0.845113 3.6113 234 225 220 
0.865992 -0.848941 3.73789 32 57 35 
0.988136 -0.850753 3.86517 97 85 69 
0.741016 -0.827489 3.61821 81 110 79 
0.95879 -0.834675 3.83392 76 64 50 
0.842903 -0.805767 3.71532 68 98 70 
0.761395 -0.788433 3.63715 48 65 55 
0.874296 -0.782619 3.74461 213 251 226 
0.796476 -0.779478 3.66825 207 243 215 
0.867295 -0.781856 3.73724 221 254 225 
0.840182 -0.778233 3.71143 192 234 198 
0.994785 -0.767033 3.86462 40 31 16 
0.844726 -0.757531 3.71615 216 255 222 
0.848754 -0.747565 3.7202 222 247 226 
0.970327 -0.751295 3.84411 100 90 80 
1.02051 -0.7275 3.89057 238 225 216 
1.03474 -0.72538 3.90244 90 78 66 
1.00289 -0.723585 3.87376 61 48 42 
1.03912 -0.698094 3.9065 255 248 239 
0.936652 -0.681655 3.80567 178 196 174 
0.941333 -0.673163 3.81157 100 94 82 
0.198244 -0.651934 3.05056 164 155 140 
0.529423 -0.60042 3.40581 144 140 141 
0.387829 -0.595869 3.25316 109 108 106 
0.421926 -0.565989 3.28485 148 146 147 
0.4602 -0.566814 3.32537 129 129 129 
0.246256 -0.56125 3.09779 170 168 171 
0.243244 -0.55732 3.0886 98 96 97 
0.200021 -0.512559 3.03993 162 161 159 
0.186078 -0.5046 3.02257 134 134 134 
0.180334 -0.497157 3.01436 116 114 115 
0.177961 -0.456856 3.00693 153 153 153 
0.374716 -0.409138 3.2189 72 72 72 
0.279498 -0.386588 3.11366 143 143 143 
0.303326 -0.337785 3.13227 182 180 181 
0.539291 -0.279184 3.38313 69 67 68 
0.505554 -0.271463 3.34401 128 126 127 
0.536614 -0.267732 3.37464 237 235 236 
0.558829 -0.259104 3.40088 20 16 15 
0.469301 -0.250045 3.3039 186 184 185 
0.560245 -0.221294 3.39898 50 46 47 
0.490057 -0.213205 3.32443 210 212 211 
0.563158 -0.205822 3.40049 205 201 200 
0.566146 -0.196294 3.40138 196 192 191 
0.555938 -0.184482 3.38962 106 106 106 
0.441751 -0.175755 3.26673 148 148 148 
0.797186 -0.0312402 5.98911 198 180 160 
0.45712 -0.128824 3.27724 81 83 82 
0.52866 -0.11747 3.35604 233 242 249 
0.60443 -0.0852127 3.42809 120 120 112 
0.594092 -0.0828625 3.42253 190 191 183 
0.571633 -0.0386209 3.38972 145 137 126 
0.54523 -0.0384986 3.3645 145 145 137 
0.505694 -0.0102473 3.31235 157 158 152 
0.534345 0.00455493 3.34294 134 134 126 
0.546899 0.0462085 3.3551 185 184 182 
0.797312 0.0862096 3.60892 132 124 113 
0.895943 0.0998702 3.7077 144 140 129 
0.803717 0.0447371 3.19965 191 181 171 
0.831925 0.105139 3.64139 228 222 210 
0.847395 0.109188 3.65595 137 133 121 
0.792225 0.059465 3.18462 102 105 110 
0.817681 0.122786 3.62626 128 124 112 
0.79175 0.122951 3.59856 138 129 120 
0.804472 0.124521 3.61477 224 215 206 
0.830266 0.132786 3.63842 248 240 229 
0.791236 0.081743 3.18705 84 74 65 
0.779106 0.0868731 3.18426 91 73 59 
0.791822 0.101865 3.19028 219 203 188 
0.88129 0.173871 3.68874 228 224 213 
0.792786 0.174723 3.59684 164 160 149 
0.835227 0.178391 3.64621 204 196 183 
0.796013 0.191257 3.60103 160 156 145 
0.813469 0.13757 3.21254 160 147 131 
0.80616 0.218789 3.6082 228 224 213 
0.764974 0.1725 3.18998 139 125 112 
0.829675 0.250362 3.63068 158 155 146 
0.813917 0.274676 3.61033 157 155 142 
0.806023 0.23707 3.21468 100 84 68 
0.791499 0.241444 3.20561 171 157 144 
0.784352 0.250371 3.2043 146 132 119 
0.792242 0.255841 3.20735 169 153 138 
0.806728 0.280467 3.22058 167 150 132 
0.782501 0.286034 3.20793 161 146 125 
0.592692 0.479329 3.36005 110 107 102 
0.452203 0.49709 3.20223 175 172 163 
0.518888 0.523337 3.27634 157 154 145 
0.494348 0.529976 3.24455 135 132 127 
0.457483 0.543689 3.20258 159 156 147 
0.492129 0.550224 3.24098 166 157 150 
0.377981 0.546213 3.11755 164 161 156 
0.454061 0.553325 3.19976 144 137 127 
0.484941 0.556185 3.23181 230 220 210 
0.46412 0.555899 3.20544 209 202 192 
0.394966 0.555082 3.1349 134 130 127 
0.349482 0.556096 3.08423 168 167 163 
0.43297 0.569299 3.18071 230 220 210 
0.452314 0.569969 3.19833 142 133 124 
0.37033 0.564002 3.10479 144 141 134 
0.319756 0.561325 3.05044 129 128 123 
0.412215 0.573254 3.152 151 142 133 
0.303355 0.566528 3.03172 118 114 111 
0.381039 0.579579 3.12194 159 149 139 
0.407355 0.581791 3.1486 176 168 157 
0.290829 0.571528 3.01768 135 134 130 
0.367069 0.586455 3.10355 211 204 198 
0.308319 0.582395 3.03482 132 129 120 
0.312746 0.586474 3.04207 154 147 139 
0.276789 0.587246 3.00214 116 112 109 
0.289311 0.58968 3.01388 143 140 133 
0.3061 0.592192 3.03505 226 222 213 
0.29894 0.591393 3.02725 113 103 93 
0.281574 0.598477 3.0082 175 170 166 
0.303834 0.52254 2.68123 129 116 100 
0.30798 0.531713 2.68429 101 89 75 
-0.0693474 0.620824 2.62734 166 165 161 
0.0111207 0.643194 2.71277 166 163 156 
-0.054726 0.638178 2.64221 207 208 202 
0.0226724 0.646976 2.72103 196 187 180 
0.00456776 0.648388 2.7034 61 50 44 
-0.00768463 0.650105 2.69157 141 132 123 
-0.0727635 0.649947 2.62425 117 113 110 
-0.0381272 0.652573 2.65787 100 90 81 
-0.0860205 0.649941 2.60768 207 206 202 
-0.0217654 0.656264 2.6732 153 142 136 
-0.107985 0.650359 2.58278 105 100 96 
-0.052171 0.653219 2.62859 29 11 0 
-0.0763149 0.657713 2.6184 54 49 45 
-0.128123 0.654299 2.56221 145 142 135 
-0.100828 0.660991 2.58982 121 112 107 
-0.136344 0.665151 2.55481 115 106 101 
-0.124355 0.667091 2.56535 43 36 26 
-0.146742 0.668054 2.54066 178 168 158 
-0.170447 0.669251 2.51776 117 112 108 
-0.147758 0.666931 2.52875 107 98 89 
-0.162515 0.672002 2.52578 59 52 44 
-0.125284 0.672072 2.54968 139 128 122 
0.815329 -0.943675 3.69292 217 240 220 
0.807474 -0.846052 3.68176 50 73 57 
0.858605 -0.844243 3.73361 89 110 95 
0.769808 -0.769722 3.64368 216 246 220 
0.832643 -0.747249 3.70728 181 213 190 
0.828722 -0.73721 3.70054 70 104 77 
0.80777 -0.735678 3.67972 48 82 58 
0.8718 -0.724462 3.74109 209 241 217 
0.746461 -0.653261 3.62886 110 99 95 
0.318189 -0.537974 3.16622 32 30 31 
0.303699 -0.458775 3.15116 34 32 35 
0.251952 -0.394651 3.08242 212 207 213 
0.354632 -0.369877 3.19678 38 36 37 
0.210198 -0.360845 3.03051 212 214 213 
0.410127 -0.306247 3.24879 97 97 97 
0.395393 -0.298928 3.23076 182 180 181 
0.440947 -0.226893 3.26954 58 56 59 
0.513827 -0.169456 3.34209 49 51 48 
0.440316 -0.160223 3.26412 174 174 174 
0.514713 -0.091924 3.33482 155 151 140 
0.495286 -0.0109452 3.30406 205 201 198 
0.476537 0.00408939 3.27726 224 223 218 
0.392543 0.58504 3.13184 153 144 135 
0.0605943 0.635395 2.76414 139 129 120 
0.782197 -1.04905 3.66357 63 96 69 
0.838914 -0.947794 3.71555 214 235 218 
0.866342 -0.943529 3.73404 211 235 211 
0.796535 -0.940739 3.67546 220 236 225 
0.77036 -0.918645 3.64979 85 115 91 
0.728411 -0.896131 3.60703 32 24 22 
0.724557 -0.86744 3.60688 120 113 107 
0.985638 -0.807757 3.85221 86 74 60 
0.858635 -0.798303 3.72865 80 116 90 
0.899451 -0.787318 3.77059 205 235 211 
0.952092 -0.787499 3.82374 54 41 32 
0.800101 -0.774446 3.67549 215 243 220 
0.911217 -0.777217 3.78053 220 245 224 
0.857167 -0.747917 3.727 216 244 219 
0.865533 -0.74238 3.7354 59 92 63 
0.832544 -0.725527 3.70041 52 84 61 
0.808037 -0.724245 3.68551 69 106 73 
0.849259 -0.722861 3.72177 220 245 224 
0.433631 -0.586856 3.29948 114 112 113 
0.430955 -0.578656 3.29079 173 171 174 
0.356325 -0.563473 3.22005 224 225 227 
0.258619 -0.545801 3.1009 189 187 188 
0.359642 -0.530065 3.21429 67 67 67 
0.285108 -0.523666 3.13237 205 205 205 
0.306351 -0.516357 3.15738 226 224 227 
0.356955 -0.500209 3.21267 208 208 208 
0.282087 -0.443691 3.12078 194 194 194 
0.265587 -0.424936 3.09997 198 198 198 
0.247647 -0.405167 3.07761 215 215 215 
0.321377 -0.384201 3.16005 219 219 219 
0.636266 -0.349094 3.48766 219 219 219 
0.655119 -0.308645 3.50378 118 116 117 
0.628023 -0.24082 3.46898 212 212 214 
0.446305 -0.209424 3.27293 201 201 201 
0.527378 -0.206674 3.36006 163 147 147 
0.314533 -0.204762 3.13297 224 224 226 
0.435874 -0.163172 3.25421 30 30 30 
0.403419 -0.136053 3.22082 91 91 91 
0.851726 -0.121278 3.68651 170 166 165 
0.583786 -0.10103 3.41021 143 143 143 
0.794599 0.112508 3.19142 197 184 168 
0.810496 0.178787 3.61863 160 156 144 
0.874323 0.194687 3.68329 168 165 156 
0.865803 0.235231 3.66837 171 169 157 
0.530069 0.537587 3.2877 165 158 148 
0.510673 0.537023 3.26318 159 156 147 
0.424634 0.576875 3.16873 75 66 59 
0.299883 0.578608 3.02623 97 93 92 
0.374517 0.584681 3.11012 195 191 182 
-0.0762012 0.641437 2.61883 140 140 138 
-0.146441 0.651112 2.54342 144 141 136 
-0.132658 0.669656 2.54281 91 81 71 
0.80813 -0.944029 3.68586 208 228 216 
0.872007 -0.816841 3.74192 207 235 210 
1.00198 -0.815899 3.88082 112 98 95 
1.0108 -0.789611 3.88492 156 144 130 
0.375336 -0.533658 3.22621 210 208 209 
0.665197 -0.47242 3.52587 234 234 234 
0.682919 -0.472314 3.54872 230 228 229 
0.696298 -0.374576 3.54743 64 64 64 
0.631093 -0.341556 3.48002 21 19 20 
0.402448 -0.31706 3.24027 224 222 223 
0.554335 0.0329905 3.3566 126 121 115 
0.804765 0.336075 3.22201 134 118 102 
0.720529 -1.00797 3.6091 222 228 216 
0.734676 -0.865849 3.61568 218 220 206 
0.823126 -0.802385 3.69859 216 234 218 
0.703785 -0.761576 3.58954 168 164 163 
0.866452 -0.74689 3.72424 217 238 223 
0.831192 -0.721009 3.71077 212 226 209 
0.199189 -0.501716 3.0362 26 24 27 
0.28541 -0.505426 3.13011 28 28 28 
0.175904 -0.401181 2.99828 17 19 18 
