ply                 
format ascii 1.0    
element vertex 1260
property float x    
property float y    
property float z    
property uchar red  
property uchar green
property uchar blue 
end_header          
-0.471642 0.673104 2.00148 125 115 113 
-0.413675 0.680663 1.97804 190 175 170 
-0.858442 0.65805 2.09345 88 70 60 
-1.01515 0.654916 2.14095 85 60 55 
-0.794938 0.662104 2.06782 100 51 47 
-0.879393 0.662447 2.08603 103 59 48 
-0.814855 0.664412 2.06312 207 189 177 
-1.01022 0.658731 2.11793 182 154 153 
-0.779253 0.667611 2.0458 149 123 110 
-0.75002 0.668581 2.03178 175 141 131 
-0.953384 0.66127 2.0931 132 93 76 
-0.93431 0.661295 2.08424 124 71 57 
-0.82035 0.668367 2.0378 119 105 96 
-0.980156 0.665203 2.07378 206 173 158 
-0.956226 0.668493 2.06287 197 181 166 
-0.922056 0.66791 2.04722 132 92 80 
-0.911162 0.669429 2.04285 199 157 143 
-0.889857 0.673093 2.04195 211 179 168 
-0.892463 0.671112 2.03335 38 19 5 
-1.0229 0.667295 2.07309 184 186 181 
-0.790877 0.674832 1.99361 190 165 158 
-0.921577 0.67256 2.03562 219 212 194 
-0.884514 0.67434 2.0186 84 78 64 
-0.761709 0.676615 1.97708 187 173 164 
-0.941434 0.672807 2.03355 64 72 74 
-0.918024 0.676128 2.02216 145 145 145 
-0.849881 0.683458 1.98136 108 112 113 
-0.892901 0.681695 1.95351 7 7 7 
-0.849774 0.688516 1.93172 133 129 128 
-1.00674 0.691604 1.86516 109 90 83 
1.07703 -2.91736 18.4257 1 1 0 
5.34238 -1.64239 11.3918 14 0 0 
5.08007 -1.56621 11.2874 93 84 77 
-0.238955 -2.59267 17.1514 0 4 0 
5.36742 -1.49198 11.1353 127 109 107 
4.84213 -1.39774 10.953 26 13 4 
4.92609 -1.35125 10.8462 101 88 80 
5.26139 -1.29866 10.7469 19 8 6 
-0.903019 -2.15813 16.5257 8 14 2 
5.11926 -1.10691 10.4703 102 88 79 
0.769064 -1.82951 15.2274 212 203 186 
0.889498 -1.78361 15.1976 51 39 27 
0.676174 -0.5081 3.63592 176 177 179 
0.437033 -1.97381 18.316 62 59 28 
4.88868 -0.821654 9.76576 125 108 101 
0.0279653 -1.37715 14.534 169 161 142 
4.46561 -0.689861 9.53828 43 26 10 
4.56327 -0.625457 9.4509 35 21 8 
4.01499 -0.621743 9.42073 24 11 3 
-0.25753 -1.23863 14.5818 120 104 78 
0.23078 -0.361153 3.01025 36 35 40 
3.95425 -0.57177 9.34612 134 124 114 
3.92992 -0.541787 9.2819 147 136 130 
0.482211 -0.870173 11.3494 42 9 0 
0.654056 -0.347398 3.58703 192 196 197 
3.74059 -0.453751 9.0243 118 109 102 
3.56158 -0.290756 8.71727 125 106 100 
0.308173 -0.540318 10.5838 147 119 105 
3.8696 -0.219862 8.61058 20 0 2 
0.263811 -0.224031 3.03995 46 47 51 
0.412335 -0.209545 3.23787 214 220 220 
-1.03847 -0.197865 8.65167 160 149 131 
-1.58807 -0.199444 9.54509 151 135 112 
-1.51595 -0.193298 9.36874 140 129 109 
-1.48563 -0.170038 9.31476 203 187 164 
-1.14339 -0.138075 8.76405 19 10 5 
-0.322061 -0.0554409 7.66138 69 50 33 
-1.45114 -0.119389 9.10403 107 69 56 
-1.13291 -0.100052 8.74924 193 187 173 
2.96299 0.180282 5.92853 27 22 16 
-0.898088 -0.0588855 8.42913 230 218 204 
-0.376072 -0.0322927 7.7518 97 83 70 
0.358831 -0.066514 3.14661 146 142 139 
2.59489 0.201692 6.01749 31 22 13 
-0.666954 0.00261965 8.09415 250 231 217 
-0.606912 0.0149588 8.04051 99 73 56 
-0.510598 0.0285352 7.95696 213 194 180 
-0.69151 0.0196907 8.00461 96 66 55 
-0.596595 0.0416579 7.84868 194 172 161 
0.475502 -0.00660676 3.29817 185 189 190 
0.516601 0.00319645 3.35406 4 5 7 
2.70276 0.306379 5.9929 75 62 54 
2.72333 0.364151 5.98238 218 205 197 
0.797086 0.0849048 3.22616 126 124 125 
0.762121 0.086719 3.21009 175 161 152 
-1.32728 0.118741 6.87584 61 40 35 
-1.31445 0.284821 5.30534 26 0 1 
1.69381 0.498126 4.39011 142 122 121 
1.47991 0.514915 4.15931 171 155 155 
-0.210323 0.143887 2.59975 47 38 23 
-0.803869 0.411285 4.31836 205 183 170 
-1.17569 0.387391 4.38345 38 0 0 
0.306135 0.362112 2.60371 134 127 117 
-0.951973 0.458252 3.81622 88 68 57 
-0.178395 0.407571 2.37307 179 181 178 
0.377656 0.636769 2.60416 221 214 208 
-0.22585 0.51252 2.30682 253 255 252 
0.138796 0.651794 2.39509 144 124 117 
-0.81217 0.59554 2.64778 57 39 29 
-0.148758 0.493296 2.04479 142 130 114 
-0.247453 0.575731 2.2767 253 252 247 
-0.158583 0.64244 2.32738 161 160 156 
-0.138061 0.544417 2.04435 199 187 171 
-0.163073 0.651828 2.2625 146 135 129 
-0.253056 0.631486 2.23446 163 154 145 
-0.181426 0.655104 2.23564 126 108 104 
-0.302675 0.64446 2.24284 68 54 41 
-0.22774 0.655586 2.22653 52 41 39 
-0.155024 0.607113 2.05745 153 145 126 
-0.730766 0.611693 2.30198 151 135 119 
-0.970456 0.62193 2.42077 62 32 24 
-0.605257 0.637653 2.29638 106 88 84 
-0.77331 0.627721 2.33329 66 41 34 
-0.594876 0.636948 2.27966 114 86 82 
-0.651514 0.637641 2.24944 55 40 35 
-0.228905 0.672859 2.10936 139 134 128 
-0.166074 0.674866 2.06943 110 98 86 
-0.334826 0.665339 2.10958 24 5 0 
-1.01539 0.634415 2.30453 38 3 0 
-0.939103 0.636127 2.26956 199 165 156 
-0.559725 0.657195 2.10461 57 42 37 
-0.58324 0.656618 2.10692 169 151 141 
-0.546843 0.663028 2.06171 223 193 183 
-0.469328 0.660686 1.99775 142 132 122 
-0.444396 0.677117 1.9919 108 97 95 
-0.810105 0.664144 2.07233 199 179 170 
-1.02405 0.660749 2.12428 89 71 61 
-0.748839 0.674532 2.02054 68 35 30 
-0.874956 0.670776 2.02483 199 172 155 
-1.01222 0.667105 1.98977 94 105 109 
-0.976775 0.680712 1.98697 139 141 140 
-0.922778 0.683409 1.9667 163 162 157 
1.1785 -3.41346 19.1576 55 72 53 
0.0748672 -2.83346 17.1831 252 255 246 
5.11119 -1.76107 11.6649 18 18 8 
0.274072 -2.55907 16.3982 252 254 253 
0.748762 -0.665266 3.76189 116 114 115 
5.02833 -1.54537 11.1461 32 19 11 
0.377227 -0.587888 3.23014 67 68 70 
5.21815 -1.42084 11.0038 22 7 2 
5.17106 -1.36768 10.8571 22 0 2 
5.02618 -1.28878 10.7089 30 13 6 
4.50145 -1.25391 10.6316 37 24 16 
1.20559 -1.46531 12.1011 64 27 9 
-0.62923 -2.19843 18.718 26 25 21 
4.2327 -0.984816 10.0693 20 10 1 
1.1115 -1.31917 11.8652 90 57 38 
4.21894 -0.866529 9.92302 16 0 0 
1.02024 -1.18433 11.5526 48 21 4 
-1.22944 -1.80973 16.8595 0 2 0 
4.30159 -0.812239 9.80635 23 14 0 
0.259984 -1.457 14.5191 88 72 56 
0.484017 -1.16219 12.0212 97 54 37 
4.20673 -0.722236 9.49662 29 17 3 
0.118659 -1.4132 14.8362 47 35 9 
4.59299 -0.678034 9.55646 40 24 9 
5.21564 -0.627325 9.54467 27 20 10 
4.05327 -0.6888 9.57614 6 0 2 
-0.596461 -1.68234 18.5803 92 91 73 
3.9184 -0.66241 9.54212 6 0 0 
-0.0503335 -0.382472 2.9045 25 18 2 
0.231848 -0.370736 3.01126 192 193 197 
0.662189 -0.952211 11.4177 85 50 30 
0.308867 -1.02538 12.1833 58 33 11 
3.92445 -0.575512 9.19061 136 124 110 
0.392293 -0.360189 3.23283 102 105 110 
0.344778 -0.356567 3.16513 214 215 220 
-0.78589 -1.38894 17.6669 169 162 134 
3.73828 -0.457433 9.03813 120 113 105 
3.70939 -0.434262 9.00907 43 30 22 
-0.174369 -0.869955 12.4111 89 57 34 
3.67989 -0.425967 9.06122 127 119 108 
0.330166 -0.669655 10.9952 86 45 25 
-0.496619 -0.816058 12.9663 132 100 79 
3.57947 -0.287584 8.72326 33 16 9 
4.0891 -0.218211 8.63904 34 15 1 
0.285778 -0.537213 10.5766 52 26 9 
3.54609 -0.178652 8.54987 36 8 4 
0.385383 -0.218044 3.2082 10 13 20 
3.50441 -0.0658752 8.18405 77 60 50 
-0.990084 -0.209442 8.52085 159 151 128 
-0.278448 -0.0969413 7.68278 130 114 99 
-1.13765 -0.128079 8.83707 18 13 7 
-1.55379 -0.148779 9.18155 119 82 64 
2.623 0.160714 6.10537 116 107 102 
-0.62225 0.0118899 8.05156 255 238 220 
-0.596758 0.0428417 7.81828 163 143 134 
-0.93115 0.28562 5.49614 52 24 13 
-0.910098 0.306354 5.25409 45 28 18 
-0.861477 0.32395 5.20518 34 14 5 
-0.963424 0.321806 5.08347 30 0 0 
0.768627 0.286645 3.24396 84 72 60 
0.292787 0.192712 2.58998 148 140 129 
-0.969779 0.355261 4.8215 70 37 22 
-0.936365 0.369347 4.61069 21 1 0 
0.285485 0.28427 2.6009 109 99 87 
-0.991002 0.415895 4.1959 127 99 85 
0.744051 0.530967 3.25812 112 105 99 
-0.444405 0.159011 1.96099 161 149 135 
0.29099 0.375953 2.60412 152 144 133 
0.779922 0.572348 3.26354 153 154 156 
0.770094 0.577789 3.2639 171 171 171 
-0.148319 0.312356 2.44214 154 153 149 
-0.919889 0.481007 3.62298 61 44 36 
-0.792407 0.49333 3.54536 99 68 65 
-1.04696 0.489689 3.55306 65 31 19 
-0.805639 0.502914 3.40846 254 245 236 
-1.17899 0.488116 3.53412 127 80 64 
0.276664 0.509473 2.64015 144 132 116 
-0.409638 0.548927 3.15537 185 178 170 
0.571652 0.614922 2.89263 120 102 98 
0.264907 0.524774 2.61631 141 129 113 
-0.46305 0.280216 1.96631 192 182 170 
-0.193044 0.468718 2.33655 168 172 175 
0.386805 0.636674 2.6232 178 168 167 
-0.808603 0.569613 2.87069 51 26 21 
-1.07255 0.559252 2.9199 92 44 32 
-0.913966 0.579072 2.79172 45 23 12 
-0.162838 0.558151 2.05942 110 98 82 
-0.0809212 0.567747 2.05164 125 124 122 
-0.176468 0.575532 2.07937 228 216 200 
-0.889319 0.615765 2.46948 177 141 129 
-0.114511 0.590636 2.04411 122 114 103 
-0.476344 0.509824 1.98017 180 165 142 
-0.169662 0.601274 2.07102 181 168 151 
-0.264807 0.651269 2.21124 94 57 49 
-0.715117 0.62074 2.29508 214 199 180 
-0.172836 0.655316 2.07643 161 145 130 
-0.663573 0.638825 2.22746 132 98 86 
-0.198777 0.670879 2.10353 81 76 72 
-0.666273 0.644334 2.20811 39 22 15 
-0.339689 0.664801 2.09755 143 119 115 
-0.45128 0.597914 1.98691 119 105 92 
-0.550006 0.65487 2.11528 179 172 164 
-0.473685 0.634241 1.99759 163 150 133 
-0.721484 0.663367 2.10112 41 22 16 
-0.801627 0.664086 2.05927 214 183 180 
-0.988982 0.667628 2.07011 117 108 91 
-1.01087 0.667403 2.07463 208 205 188 
-0.791226 0.673162 2.00287 226 196 188 
-0.97829 0.669659 2.05849 115 112 97 
-0.856598 0.677966 1.99582 97 101 104 
-0.531801 0.700306 1.87603 75 57 43 
-0.996472 0.680371 1.98217 116 106 94 
-0.821504 0.687931 1.91978 162 163 168 
-0.897617 0.68713 1.93715 146 129 119 
-0.992252 0.689484 1.90729 69 50 43 
0.916482 -0.704652 3.97838 65 108 78 
5.20128 -1.20782 10.5475 36 21 14 
0.311271 -0.488268 3.13447 26 30 31 
0.607626 -0.511715 3.54593 7 15 18 
4.68567 -0.892068 9.98368 37 24 15 
0.579369 -0.44143 3.5151 197 198 202 
0.162066 -1.06041 12.5265 123 91 68 
3.98077 -0.511349 9.22506 47 33 20 
3.74745 -0.461499 9.0618 133 127 115 
0.268858 -0.319166 3.06033 210 211 213 
3.69706 -0.432444 8.98444 47 34 26 
3.76681 -0.216154 8.60859 52 37 30 
0.240719 -0.178063 2.99869 6 9 14 
0.313987 -0.105877 3.08405 8 8 16 
-1.4833 -0.169914 9.30032 203 187 164 
-1.12697 -0.081968 8.75769 102 88 77 
-1.32501 -0.0345385 8.27399 91 66 61 
0.306267 0.121338 2.58512 133 127 115 
1.71774 0.478268 4.61755 35 26 21 
-1.24239 0.348853 4.64814 28 0 1 
-1.19164 0.393539 4.33486 35 1 0 
-1.06079 0.429682 3.88705 65 28 20 
0.785352 0.583205 3.28988 166 166 166 
-1.05486 0.48064 3.64004 233 215 203 
-1.06559 0.522487 3.25554 59 40 34 
-0.441273 0.604342 1.98566 119 107 93 
-0.366684 0.669181 2.08282 73 42 40 
-0.471531 0.675548 1.99214 189 183 183 
-0.647861 0.709063 1.8271 49 32 24 
1.2251 -3.22664 18.3639 248 254 250 
-0.72348 -1.83586 18.6454 217 221 207 
-0.551581 -1.89142 19.3417 93 89 64 
-0.354552 -1.63333 18.7695 87 88 54 
0.333572 -0.0829622 3.11667 11 11 9 
-0.402395 0.0320605 7.83302 203 190 174 
-0.979707 0.323241 4.99945 24 0 0 
-1.05321 0.464642 3.76066 62 42 31 
-0.817034 0.595358 2.63183 47 34 25 
-0.116314 0.497037 2.02882 144 134 124 
-0.743024 0.644401 2.21455 56 37 30 
-0.277521 0.681672 2.03661 77 58 52 
-0.703271 0.682251 1.9587 75 65 56 
-0.653953 -3.03726 19.3244 36 44 21 
-0.770285 0.628353 2.30202 215 165 164 
-0.726288 0.627325 2.26753 211 192 185 
-0.0685728 0.674486 2.05543 158 149 142 
-0.224829 0.68 2.02239 22 11 7 
-0.418146 0.674474 2.02104 86 74 74 
0.529537 -1.54507 3.22974 44 25 10 
0.467542 -1.5052 3.30085 57 35 22 
0.291103 -1.48745 3.40891 47 29 19 
0.457279 -1.40756 3.34168 98 85 69 
0.249938 -1.41389 3.44066 89 77 65 
0.24429 -1.36809 3.43277 196 185 167 
0.33291 -1.31373 3.36895 115 102 83 
0.226136 -1.30399 3.40903 168 156 142 
0.17255 -1.14325 3.31904 168 162 150 
0.237716 -0.437248 3.03018 213 217 220 
0.370806 -0.000114129 3.16543 121 120 116 
0.769086 0.0301103 3.20642 176 165 161 
1.78192 0.0727977 6.55889 166 156 147 
1.80187 0.0772205 6.55053 152 142 133 
1.81537 0.0828607 6.56835 43 33 24 
1.97659 0.0780599 6.51344 83 72 66 
1.87198 0.0843818 6.52106 126 116 107 
1.76054 0.0891297 6.57157 146 136 127 
1.77493 0.0916821 6.55988 167 157 148 
1.97983 0.0912186 6.49747 68 59 50 
1.85584 0.103588 6.53725 56 47 38 
1.86882 0.103433 6.52617 58 49 40 
1.84413 0.108172 6.53335 79 68 62 
1.94028 0.104446 6.51007 117 108 103 
1.80049 0.110194 6.55264 79 66 57 
1.8818 0.107886 6.52572 52 42 33 
1.89424 0.109655 6.5198 33 23 14 
1.86427 0.112684 6.5389 35 24 18 
1.82417 0.116631 6.55053 70 57 48 
1.97401 0.110609 6.5033 105 96 91 
1.76718 0.120184 6.56351 109 96 87 
1.93495 0.114745 6.5134 155 144 140 
1.96234 0.112762 6.49702 117 106 102 
1.87873 0.11843 6.53445 29 19 10 
1.90022 0.118218 6.52748 150 140 131 
1.98758 0.116095 6.4877 132 119 113 
1.78409 0.123361 6.56457 73 60 51 
1.91227 0.12017 6.52011 165 154 148 
1.84126 0.123276 6.54572 171 160 156 
1.96877 0.119174 6.48931 177 160 153 
1.8246 0.129469 6.54937 60 47 39 
1.7923 0.133703 6.55549 87 75 63 
1.85158 0.130295 6.54258 164 151 143 
1.92016 0.12918 6.52928 147 134 125 
1.95653 0.127829 6.50773 71 58 50 
1.86492 0.132952 6.54354 155 140 133 
1.89388 0.132379 6.52703 76 62 51 
1.96676 0.129077 6.49718 61 47 38 
1.88365 0.133493 6.5209 153 139 128 
1.75152 0.140295 6.57542 103 90 73 
1.86079 0.138561 6.53207 53 39 26 
1.92687 0.13541 6.51319 160 146 135 
1.94673 0.135489 6.50933 50 36 25 
1.90594 0.143714 6.52731 49 36 20 
1.92755 0.143046 6.52234 24 10 1 
1.98343 0.143137 6.49849 102 88 79 
1.96673 0.146429 6.51347 67 53 44 
1.84596 0.154087 6.54567 89 76 60 
1.87177 0.155726 6.5385 108 95 79 
1.97631 0.15405 6.50115 81 67 58 
1.78088 0.165344 6.57125 100 86 73 
1.93488 0.16057 6.52837 116 103 86 
1.83702 0.166967 6.55402 99 85 72 
0.744986 0.0807297 3.2066 149 137 123 
1.79729 0.17626 6.57303 80 66 53 
1.86967 0.174427 6.54726 86 73 57 
1.78164 0.18267 6.59337 175 159 146 
0.739566 0.0895849 3.21039 178 164 153 
1.89613 0.188674 6.54721 81 65 52 
1.91127 0.206759 6.54108 90 74 59 
0.743445 0.0997432 3.20756 151 137 126 
1.74524 0.242883 6.62317 99 86 69 
-0.220042 0.115548 2.62255 133 123 111 
1.89486 0.252224 6.56018 79 63 48 
0.756138 0.121325 3.2095 191 175 162 
1.79918 0.262439 6.57892 109 93 78 
1.9475 0.268019 6.55405 76 60 44 
0.737312 0.131169 3.21862 61 48 39 
1.93463 0.279569 6.54947 67 51 36 
0.7495 0.142928 3.21219 78 62 49 
0.325348 0.121559 2.57206 196 186 174 
0.746763 0.168539 3.22125 148 132 117 
0.755018 0.171752 3.21588 154 140 127 
0.745121 0.181478 3.2224 161 148 132 
0.774828 0.182243 3.21783 84 71 62 
0.324059 0.19474 2.58128 159 159 147 
-0.254364 0.224878 2.56029 163 157 141 
0.322746 0.207804 2.58248 143 133 121 
0.337172 0.21883 2.58999 240 230 220 
0.783625 0.276182 3.23649 91 75 62 
0.763272 0.288704 3.23563 172 159 143 
0.742848 0.310588 3.24611 159 146 130 
0.774621 0.312695 3.24056 122 106 91 
0.760971 0.315963 3.24179 103 90 74 
0.753068 0.327957 3.24419 114 100 87 
0.336982 0.271651 2.5956 101 93 82 
0.742685 0.33566 3.25145 94 80 69 
0.751811 0.339653 3.2494 103 89 76 
0.770846 0.347682 3.24535 94 82 68 
0.762557 0.395938 3.25204 49 35 24 
0.777043 0.431086 3.2584 82 70 58 
0.323347 0.361258 2.59916 123 114 105 
0.325236 0.371136 2.60142 111 102 95 
0.767454 0.485287 3.26948 66 55 49 
0.753037 0.534254 3.27381 135 126 119 
-0.0756632 0.354835 2.03654 148 147 142 
0.750994 0.565925 3.28118 112 107 101 
-0.0790853 0.403414 2.03822 133 130 121 
-0.0943792 0.421706 2.03128 140 138 126 
0.0537732 0.569626 2.65718 130 131 126 
-0.364907 0.535653 2.36887 182 175 167 
0.156428 0.608162 2.79329 133 129 120 
-0.0815807 0.459093 2.04268 87 77 68 
0.248871 -0.543419 3.05988 19 20 22 
0.354226 -0.499289 3.1939 42 43 45 
0.218577 -0.354818 2.99869 218 219 223 
0.547628 -0.405885 3.4529 209 208 213 
0.55554 -0.404383 3.4602 14 15 19 
0.30756 -0.33206 3.12197 158 159 161 
0.375575 -0.142489 3.19105 190 194 195 
0.341177 0.000663101 3.12185 94 93 91 
1.75313 0.102867 6.57001 145 132 123 
1.9081 0.0984592 6.52791 39 29 20 
1.81341 0.173274 6.57644 112 98 85 
1.74713 0.191494 6.59883 116 98 84 
-0.0782216 0.222806 2.02358 85 81 70 
-0.0723002 0.293792 2.03521 122 119 112 
0.564488 0.519528 3.37237 202 198 195 
0.657468 0.538024 3.50756 52 48 37 
0.596707 0.539904 3.41246 51 47 44 
0.620415 0.542408 3.44752 130 127 122 
0.0125082 0.626612 2.59053 119 112 106 
0.42703 -0.577438 3.30091 172 173 177 
0.584704 -0.442173 3.50757 195 196 198 
0.309369 -0.355375 3.12354 192 193 195 
0.221932 -0.321849 2.99881 169 168 173 
0.608626 -0.365642 3.53233 226 227 229 
1.79422 0.21542 6.58067 197 181 166 
0.752504 0.157829 3.21432 76 62 51 
0.00969737 0.362311 2.62649 152 150 138 
0.154234 0.584484 2.79536 89 83 83 
0.117234 0.624168 2.72095 132 122 120 
-0.00553288 0.608165 2.56485 154 156 153 
0.722686 -0.786256 3.72795 109 103 103 
0.408672 -0.583773 3.28429 216 217 222 
0.535864 -0.591971 3.46223 128 127 132 
0.339378 -0.485436 3.17896 38 39 43 
0.193068 -0.390761 2.96854 211 215 218 
0.196721 -0.328741 2.96546 202 206 209 
0.349055 -0.291561 3.16794 27 28 32 
0.268895 -0.228924 3.05331 215 216 220 
0.558958 -0.161819 3.44225 37 37 39 
0.407021 -0.105551 3.22761 17 18 20 
0.530643 0.55228 3.324 231 227 218 
0.00540572 0.62936 2.57798 109 96 88 
0.485538 -0.00272099 3.32418 59 59 59 
0.082105 0.111945 2.76354 156 157 152 
0.61964 -0.31236 3.5473 31 32 36 
0.447408 -1.50855 3.32047 113 99 86 
0.322604 -1.51155 3.38852 83 64 47 
0.242198 -1.42263 3.44491 198 185 169 
0.306102 0.184416 2.57763 142 134 123 
0.458486 -1.50511 3.31965 47 29 15 
0.442814 -1.49867 3.32911 24 7 0 
0.742565 0.326283 3.2469 80 66 55 
0.759622 0.325666 3.24184 92 78 65 
0.768694 0.375057 3.24932 116 102 89 
0.25807 -1.50749 3.4269 55 37 27 
0.247827 -1.2916 3.39004 68 56 44 
3.52475 -5.84906 27.315 79 81 78 
3.51452 -5.55448 27.3476 134 135 137 
0.733181 0.337388 3.25556 140 128 116 
0.193001 -1.5194 3.45994 85 66 52 
3.40479 -5.30509 27.6395 82 68 65 
0.78045 0.145622 3.21977 189 175 162 
0.0484993 -1.66455 3.42398 42 22 11 
0.717585 -1.64476 2.97274 131 97 59 
1.00648 -1.71639 3.213 87 74 68 
0.991535 -1.70658 3.2509 113 107 107 
0.614728 -1.64913 3.03932 68 44 20 
1.03148 -1.70139 3.37338 84 58 33 
0.040289 -1.66409 2.95635 67 40 21 
0.537849 -1.64345 3.12755 49 28 7 
-0.28465 -1.76335 3.4059 94 66 45 
-0.221049 -1.7551 3.44559 172 145 118 
1.05569 -1.37958 4.20518 126 110 94 
0.840076 -0.956479 3.83821 34 48 35 
0.793655 -0.862841 3.76375 29 54 35 
0.840395 -0.867313 3.82502 13 30 20 
0.964009 -0.848444 3.9812 112 102 90 
0.775503 -0.806594 3.73897 207 242 222 
0.756967 -0.781705 3.71469 196 231 199 
0.97605 -0.825446 4.0132 229 219 207 
0.988195 -0.824631 4.01748 238 228 216 
0.864258 -0.766878 3.84674 209 236 219 
0.929082 -0.775273 3.93505 27 14 6 
0.872773 -0.761916 3.85604 72 99 82 
0.957243 -0.773532 3.9761 66 57 42 
0.963954 -0.76865 3.98534 132 122 112 
0.794164 -0.725689 3.75539 54 67 57 
1.00843 -0.751284 4.04 232 222 213 
0.990105 -0.747024 4.02121 85 75 66 
1.01103 -0.720364 4.04394 232 222 210 
0.928341 -0.703557 3.9281 204 217 197 
0.746753 -0.669237 3.70059 115 140 118 
0.747183 -0.666349 3.68528 75 99 77 
0.739593 -0.661292 3.68025 230 212 208 
0.239322 -0.549594 3.06158 208 210 209 
0.45842 -0.560017 3.32297 78 78 76 
0.385284 -0.52407 3.2303 125 125 125 
0.356797 -0.502306 3.1921 74 74 72 
0.295884 -0.414446 3.1124 167 167 167 
0.291175 -0.383391 3.10514 90 90 90 
0.208378 -0.348375 3.00759 155 155 155 
0.199637 -0.328762 2.99164 104 104 104 
0.356673 -0.344223 3.17485 180 180 180 
0.288711 -0.31796 3.09535 144 144 146 
0.178132 -0.303439 2.95948 193 193 193 
0.392951 -0.309406 3.22003 210 210 210 
0.40955 -0.300735 3.23261 85 85 87 
0.283027 -0.214218 3.08305 56 56 56 
0.945701 -0.267922 3.90995 159 159 161 
-0.065209 -0.164475 2.79518 209 197 183 
0.564187 -0.186569 3.41296 67 63 62 
-0.174914 -0.127192 2.82142 63 51 35 
-0.174329 -0.10893 2.81399 146 129 103 
-0.0244171 -0.0438073 2.71225 181 176 170 
-0.0777597 0.0283393 2.67185 142 133 124 
0.776129 0.0189142 3.18213 204 187 169 
0.769819 0.0280823 3.17343 169 159 150 
0.796091 0.0334655 3.18016 127 114 105 
-0.0554953 0.0762903 2.65415 157 153 142 
0.799554 0.0458702 3.17493 124 119 115 
0.764109 0.0740088 3.17047 174 157 147 
0.759859 0.0832079 3.16878 197 179 165 
0.758388 0.0953962 3.17659 181 158 142 
0.780643 0.0977153 3.17294 115 96 82 
0.766622 0.101838 3.17407 66 48 36 
0.757223 0.107051 3.17342 224 202 189 
0.803267 0.106067 3.19103 255 252 235 
0.744096 0.11639 3.18264 191 178 162 
0.788385 0.112261 3.17572 195 178 162 
0.775517 0.117328 3.17946 231 215 199 
0.328302 0.113082 2.599 77 64 48 
0.763253 0.122447 3.17621 102 84 70 
0.789954 0.123644 3.18257 196 180 165 
0.75285 0.127459 3.17918 148 132 119 
0.775873 0.13038 3.17871 217 201 188 
0.760414 0.135507 3.17966 161 148 132 
0.750307 0.139948 3.18291 71 55 42 
0.777489 0.140192 3.18438 174 157 147 
0.786182 0.150188 3.18578 56 40 25 
0.342452 0.139206 2.60601 121 108 92 
0.905895 0.198113 3.81245 168 164 153 
0.737999 0.162034 3.19425 147 129 115 
0.785165 0.165399 3.18651 169 151 139 
0.804497 0.171633 3.20012 74 60 47 
0.757451 0.181529 3.18768 55 39 26 
0.775444 0.179525 3.1894 72 60 46 
0.788873 0.178611 3.19131 193 181 169 
0.313051 0.17362 2.60272 135 126 111 
0.34806 0.173071 2.61685 84 72 60 
0.787924 0.190538 3.19324 142 130 118 
0.802953 0.192281 3.19926 89 75 64 
0.339017 0.181948 2.60911 228 220 209 
0.34867 0.183773 2.61978 48 38 28 
0.00905851 0.225218 2.70977 176 176 166 
0.803152 0.207176 3.20745 157 143 132 
0.767017 0.210176 3.19178 68 52 39 
0.591054 0.249115 3.40617 136 126 114 
0.922532 0.264299 3.83406 229 225 214 
-0.303991 0.25735 2.6408 120 107 91 
0.803496 0.217391 3.20663 73 56 46 
0.350135 0.204729 2.62328 66 56 46 
0.798723 0.225379 3.20269 157 140 130 
0.341287 0.210786 2.61205 128 118 108 
0.814136 0.238575 3.22084 177 159 145 
0.796466 0.24984 3.20624 75 59 46 
0.356461 0.22769 2.63193 102 92 80 
0.810215 0.251048 3.22197 99 83 67 
0.807206 0.253006 3.21295 170 153 137 
0.338487 0.231318 2.61743 125 113 101 
0.800228 0.263862 3.2125 55 38 22 
0.354461 0.245835 2.62936 125 115 103 
0.784273 0.272461 3.20381 94 77 59 
0.809981 0.272262 3.22111 109 92 74 
0.339103 0.253233 2.61961 132 120 106 
0.764064 0.285379 3.20607 160 143 123 
0.79562 0.286732 3.21432 81 63 49 
0.125968 0.312511 2.84105 159 155 143 
0.806891 0.290977 3.21584 114 97 77 
0.355917 0.283174 2.6369 112 100 84 
-0.00578497 0.328745 2.67731 172 165 157 
0.775221 0.338416 3.21236 105 88 72 
0.769171 0.349332 3.21519 79 63 48 
-0.025854 0.356869 2.65712 225 218 210 
0.799942 0.352005 3.22248 224 208 192 
0.0661112 0.366036 2.75738 136 132 121 
0.108043 0.371252 2.81017 85 75 65 
0.353213 0.319668 2.63652 126 117 102 
0.798285 0.369449 3.22498 116 100 84 
0.343511 0.401961 3.08519 121 116 110 
0.808515 0.371547 3.22766 136 120 104 
0.763122 0.381097 3.22217 82 69 53 
0.763245 0.392174 3.22658 43 29 16 
-0.0102762 0.400245 2.66595 180 176 165 
0.800153 0.399247 3.23145 171 158 142 
1.08456 0.494432 4.01251 126 111 104 
0.646969 0.462511 3.46063 112 110 98 
1.00575 0.495593 3.91974 139 130 123 
0.992611 0.506138 3.89662 117 113 102 
1.01078 0.50723 3.91342 133 122 116 
-0.00907441 0.421044 2.66691 163 160 151 
0.972438 0.508603 3.87085 81 72 65 
0.777744 0.426379 3.2278 79 63 50 
0.963692 0.509599 3.85314 179 170 161 
0.945441 0.512874 3.84606 206 203 198 
0.961394 0.517921 3.86338 105 98 88 
0.925556 0.514779 3.81326 154 145 136 
0.402272 0.464438 3.14875 166 163 154 
0.880537 0.511871 3.76397 163 159 147 
0.640609 0.490727 3.45116 37 34 25 
0.867982 0.516835 3.74231 242 238 226 
0.610928 0.492872 3.41526 74 65 58 
0.908667 0.521614 3.79462 159 150 141 
0.970126 0.520255 3.83271 114 103 97 
0.359362 0.392058 2.65557 40 32 21 
0.876158 0.521957 3.75827 205 201 189 
0.624967 0.499584 3.43424 78 73 70 
0.868331 0.527112 3.73251 97 94 89 
0.886354 0.528526 3.74799 107 98 91 
0.595362 0.502131 3.39186 111 108 99 
0.612295 0.506247 3.41443 91 86 80 
0.822911 0.453999 3.25956 100 84 69 
0.627302 0.514115 3.43161 69 64 60 
0.442914 0.500287 3.19988 174 171 162 
0.647643 0.523897 3.45532 50 47 40 
0.0805409 0.470898 2.76418 136 127 120 
0.0953282 0.472328 2.77804 141 134 124 
0.655056 0.528872 3.46815 45 39 25 
0.395842 0.502741 3.14144 163 164 158 
0.620382 0.529782 3.41935 121 116 113 
0.587202 0.529539 3.37564 140 135 131 
0.608663 0.53221 3.40806 23 18 15 
0.529317 0.526351 3.30635 143 139 127 
0.649407 0.540208 3.4632 32 25 15 
0.643794 0.539743 3.45341 86 83 76 
0.598634 0.537658 3.39327 28 23 20 
0.605384 0.542262 3.40478 108 103 100 
0.389347 0.520587 3.131 184 181 176 
0.547296 0.538338 3.33089 97 93 90 
0.619099 0.548487 3.41166 68 60 58 
0.565382 0.544136 3.35112 96 92 89 
0.577493 0.55441 3.36968 88 84 75 
0.571037 0.55371 3.35635 96 91 87 
0.546964 0.555461 3.3225 70 62 51 
0.557881 0.557607 3.34388 143 133 124 
0.510063 0.556145 3.28305 216 208 197 
0.499581 0.555894 3.26782 146 139 129 
0.533085 0.559932 3.31174 209 196 187 
0.579002 0.562623 3.35473 53 46 40 
0.0948896 0.512703 2.77537 123 114 107 
0.527086 0.559547 3.30155 195 185 175 
0.435966 0.551086 3.18942 124 122 110 
0.388174 0.547156 3.12999 164 164 156 
0.541728 0.565672 3.32271 173 160 151 
0.467252 0.557529 3.225 142 134 121 
0.503119 0.566006 3.27018 212 203 188 
0.518351 0.567265 3.28312 172 156 143 
0.526949 0.56918 3.29515 145 133 121 
0.496852 0.566845 3.25001 76 67 58 
0.751692 0.531029 3.24585 130 120 111 
0.467261 0.566227 3.21981 152 142 130 
0.456827 0.567308 3.21159 231 219 207 
0.474907 0.571769 3.23028 111 101 89 
0.438108 0.568014 3.18105 62 54 43 
0.447312 0.569637 3.19543 122 113 98 
0.486528 0.574109 3.24379 51 39 25 
0.496313 0.577211 3.25271 110 97 91 
0.428918 0.573996 3.1694 143 135 122 
0.4611 0.578933 3.21237 76 72 60 
0.468902 0.580864 3.21874 50 41 32 
0.480181 0.58133 3.23427 112 102 92 
0.387152 0.572503 3.12455 150 140 131 
0.332539 0.567952 3.05775 125 122 115 
0.396157 0.577217 3.13051 89 81 68 
0.448043 0.583557 3.19803 71 61 51 
0.864773 0.561444 3.36949 150 133 126 
0.380809 0.575034 3.11094 108 98 89 
0.356382 0.574977 3.08029 218 216 204 
0.492647 0.584551 3.21294 8 0 0 
0.346952 0.57589 3.07291 134 131 126 
0.375014 0.579207 3.09978 219 209 199 
0.408075 0.582924 3.13895 126 116 104 
0.0646472 0.546957 2.73935 133 126 118 
0.69985 0.573757 3.2735 87 84 77 
0.6043 0.578991 3.23071 114 106 104 
0.320705 0.577578 3.03132 109 100 91 
0.338042 0.582492 3.06049 87 83 74 
0.38632 0.588534 3.12347 96 83 75 
0.352033 0.585672 3.07778 146 142 133 
0.358377 0.586338 3.08567 242 238 229 
0.381574 0.589478 3.11442 122 112 103 
0.32688 0.582869 3.04364 115 111 100 
0.365571 0.591223 3.09514 219 210 203 
0.111347 0.56159 2.78607 130 126 117 
0.712912 0.574653 3.2417 42 37 33 
0.821573 0.566408 3.26727 105 100 94 
0.345001 0.591075 3.0637 191 182 175 
0.782554 0.571345 3.24623 70 70 70 
0.329782 0.592993 3.04828 89 79 70 
0.923545 0.56732 3.3039 115 104 102 
0.870311 0.571685 3.28703 179 175 174 
0.804568 0.573127 3.24411 77 77 77 
0.377127 0.59819 3.07494 45 30 23 
0.333945 0.603211 3.05835 29 19 10 
0.514857 0.595559 3.12159 45 32 26 
0.118169 0.592483 2.79559 74 69 63 
0.050813 0.591989 2.72009 129 129 119 
0.147643 0.605993 2.82895 44 37 29 
0.0154282 0.613419 2.68065 146 142 139 
0.0580432 0.619496 2.72633 112 103 96 
0.0644267 0.623718 2.73479 187 174 165 
0.0823109 0.625934 2.75237 149 139 130 
0.107785 0.633031 2.78152 15 4 0 
-0.170442 0.605418 2.48593 150 151 146 
-0.0560522 0.616123 2.60285 157 156 151 
0.0544454 0.63396 2.72708 93 79 70 
0.0678686 0.634794 2.73377 125 112 104 
0.076832 0.636173 2.74404 118 105 97 
0.046072 0.637988 2.71146 157 147 138 
0.0229143 0.639204 2.68326 103 94 89 
-0.0302324 0.635534 2.6347 144 141 136 
-0.039976 0.63287 2.6151 219 218 216 
0.0364302 0.642153 2.69386 213 203 194 
-0.0629693 0.636618 2.59485 128 127 123 
0.0115517 0.644135 2.67149 81 71 62 
-0.0363145 0.641945 2.62303 137 132 126 
-0.0215304 0.649065 2.64228 95 87 74 
-0.0969815 0.639596 2.55488 149 148 143 
-0.0948281 0.641379 2.5643 138 137 132 
-0.00566724 0.650982 2.64812 147 134 126 
-0.0274051 0.650709 2.62935 180 170 161 
-0.0662646 0.647628 2.59084 76 67 62 
-0.044557 0.648172 2.60466 176 163 155 
-0.520414 0.691349 2.46525 162 146 131 
-0.498025 0.685608 2.45848 162 146 130 
-0.0526339 0.651042 2.5988 157 148 139 
-0.115332 0.650636 2.54029 145 140 137 
-0.0787803 0.653537 2.57551 76 65 59 
-0.0729156 0.654588 2.58486 155 144 140 
-0.0339316 0.65422 2.60511 37 20 4 
1.05916 0.594822 3.04183 203 180 174 
-0.134452 0.648409 2.51584 204 199 195 
-0.0901792 0.656757 2.56157 121 112 105 
-0.104459 0.658797 2.54734 121 112 105 
-0.115767 0.665508 2.5592 171 162 157 
-0.122321 0.660667 2.53115 119 110 105 
-0.465063 0.693429 2.43607 79 64 45 
-0.172596 0.662438 2.48272 138 134 133 
-0.103844 0.665561 2.53557 153 139 136 
-0.15799 0.665938 2.49728 123 120 113 
-0.146616 0.668373 2.51128 184 175 166 
-0.115174 0.668442 2.52655 65 57 46 
-0.136453 0.671679 2.506 131 118 110 
-0.186724 0.670868 2.46885 103 95 92 
-0.175813 0.672883 2.47892 145 138 132 
-0.19617 0.677686 2.46181 77 72 68 
-0.14306 0.67674 2.48988 128 121 113 
0.0188297 0.663178 2.53689 131 116 111 
-0.164488 0.68089 2.47294 120 107 99 
-0.0963782 0.683463 2.43552 214 195 188 
-0.0686833 0.682362 2.43573 43 23 14 
0.824652 0.642544 2.60652 74 56 46 
0.0819891 0.695317 2.28588 164 144 137 
0.0269731 0.701238 2.24645 230 211 204 
0.112945 0.698263 2.26432 178 154 144 
0.372408 0.688873 2.28767 159 127 116 
0.666997 0.671425 2.38702 169 141 137 
0.757798 0.667893 2.40309 174 144 133 
0.551244 0.682979 2.31895 158 135 127 
0.390859 0.696495 2.20513 79 52 35 
0.536507 0.691906 2.21443 179 131 117 
0.0758793 -1.6712 3.01066 43 20 2 
0.11732 -1.0517 3.3371 202 189 172 
0.718339 -0.904646 3.6864 226 234 223 
0.838969 -0.884032 3.81709 173 207 182 
0.866331 -0.823058 3.85963 47 78 62 
0.818881 -0.808544 3.80176 216 232 221 
0.897071 -0.804553 3.89831 51 77 50 
0.867175 -0.77674 3.85535 205 243 206 
0.832366 -0.761679 3.8075 215 239 217 
0.854265 -0.768699 3.84556 188 226 201 
0.649916 -0.502728 3.54291 59 61 60 
0.262646 -0.450601 3.08684 45 45 45 
0.230039 -0.373807 3.0276 192 192 192 
0.601705 -0.384818 3.47775 191 191 191 
0.314481 -0.341835 3.12937 124 124 124 
-0.156433 -0.168241 2.8461 142 127 106 
0.234423 -0.173522 3.01853 223 221 224 
0.0849672 0.0721917 2.81492 49 40 31 
0.804319 0.0894253 3.19032 247 241 241 
0.918705 0.154475 3.83345 145 138 128 
0.349803 0.118674 2.61174 183 167 151 
-0.00326353 0.308999 2.68562 141 137 126 
0.399991 0.374513 3.15662 151 148 141 
1.00938 0.490808 3.93546 236 227 220 
0.894567 0.520501 3.76972 212 205 197 
0.566152 0.51641 3.35283 191 186 180 
0.557075 0.518139 3.34377 118 113 107 
0.63406 0.532298 3.44421 108 103 99 
0.595424 0.528241 3.38546 159 154 151 
0.585416 0.543855 3.36947 61 56 53 
0.583217 0.570186 3.33994 6 0 0 
0.517717 0.57614 3.28818 179 166 158 
0.365876 0.57418 3.09365 209 202 192 
0.488179 0.587111 3.22515 8 0 0 
0.120361 0.604362 2.79806 98 89 82 
0.440903 0.61101 2.9585 133 116 108 
-0.163679 0.676872 2.48489 139 130 123 
0.515585 0.650766 2.60787 80 53 46 
0.800644 0.639361 2.67716 135 116 110 
0.179146 0.689762 2.30576 165 135 124 
0.282382 0.701131 2.1903 160 147 139 
0.610221 0.689529 2.24725 187 157 147 
0.538173 -1.63171 2.90582 52 28 16 
0.0900603 -1.65931 2.97211 61 35 22 
1.04913 -1.70369 3.39982 58 30 9 
-0.209837 -1.70471 3.0934 29 1 0 
0.18357 -1.7089 3.2499 16 2 1 
-0.237001 -1.71258 3.14224 168 141 122 
-0.103334 -1.7415 3.47569 83 55 33 
0.759241 -1.4964 3.72345 12 2 0 
1.03005 -1.37856 4.17954 104 87 79 
0.973963 -0.880985 4.01408 95 86 69 
0.857676 -0.838374 3.85204 193 227 192 
0.899803 -0.824517 3.89998 29 52 32 
0.724139 -0.784107 3.67767 64 53 49 
0.741057 -0.785395 3.70238 208 229 210 
0.938053 -0.811454 3.95529 84 75 60 
0.836155 -0.736751 3.81282 200 230 204 
0.404926 -0.53687 3.26033 224 224 224 
0.270753 -0.504457 3.09249 213 212 217 
0.359049 -0.509162 3.1995 177 177 177 
0.674546 -0.506669 3.5851 209 209 209 
0.687402 -0.479333 3.59535 52 54 53 
0.272065 -0.407205 3.0871 212 212 212 
0.178806 -0.34484 2.9746 18 18 18 
0.333302 -0.349484 3.15426 54 54 54 
0.63109 -0.346852 3.51158 219 219 219 
0.639781 -0.345044 3.5193 219 223 222 
0.18429 -0.293774 2.9562 193 193 191 
0.277735 -0.244528 3.07923 79 78 83 
0.316509 -0.219063 3.11547 146 146 146 
0.376364 -0.204193 3.19007 211 211 213 
0.267984 -0.142704 3.04677 194 194 196 
0.395448 -0.132307 3.21148 132 132 132 
-0.0766512 0.00480019 2.68496 194 190 179 
0.866171 0.206104 3.76137 160 154 142 
0.321313 0.194631 2.596 165 153 141 
0.914427 0.263918 3.82311 143 139 128 
0.626687 0.326739 3.45086 139 129 119 
-0.0163899 0.376562 2.65786 118 109 100 
0.489408 0.420504 3.26535 173 168 162 
0.896913 0.496721 3.78506 165 161 150 
1.01443 0.505011 3.90001 123 112 106 
0.981142 0.518335 3.85281 181 170 164 
0.512023 0.493761 3.28126 150 146 137 
0.639996 0.522988 3.44254 108 105 98 
0.550663 0.548262 3.33391 78 73 69 
0.529145 0.550982 3.30687 224 216 205 
0.508178 0.560998 3.24785 215 206 191 
0.408479 0.566159 3.147 146 146 138 
0.398106 0.578334 3.14603 97 89 78 
0.419947 0.583261 3.15981 223 211 199 
0.752758 0.560164 3.24848 116 105 103 
0.773309 0.576242 3.22537 146 140 142 
0.347715 0.597442 3.0295 96 83 77 
0.118181 0.58158 2.79744 114 110 101 
0.111465 0.59257 2.78265 134 129 125 
0.0985804 0.617845 2.77663 108 99 94 
0.118537 0.621783 2.78014 35 27 16 
0.0355636 0.643168 2.70793 61 50 44 
-0.0066111 0.647396 2.66445 184 174 165 
-0.0618752 0.648028 2.56544 157 146 142 
-0.0798452 0.650464 2.54562 170 161 154 
-0.481185 0.692177 2.41782 158 131 120 
-0.0776106 0.671752 2.52139 167 154 146 
-0.175333 0.656354 2.15523 114 100 87 
0.990073 -1.70765 3.22278 123 106 98 
0.776028 -1.65495 3.06322 22 3 0 
0.714663 -0.92433 3.68848 214 224 213 
0.999317 -0.829169 4.01092 134 125 110 
0.998294 -0.729938 4.01696 110 100 88 
0.345348 -0.495669 3.19925 43 41 42 
0.321295 -0.434044 3.14574 29 27 28 
0.179564 -0.412954 2.97541 141 141 141 
0.22564 -0.362916 3.02599 43 43 45 
0.62693 -0.340069 3.49537 24 24 26 
0.956259 -0.263162 3.91415 180 179 184 
0.342373 -0.187198 3.15 223 223 225 
0.285024 0.101096 2.6164 244 236 223 
0.845655 0.142108 3.74528 123 115 104 
0.778855 0.349766 3.21013 104 88 72 
0.90923 0.519834 3.7844 137 128 119 
0.95231 0.534893 3.72874 141 126 119 
0.559778 0.543179 3.37635 172 167 163 
-0.0600546 0.495431 2.6119 152 147 143 
0.554561 0.562721 3.33182 34 27 21 
0.641076 0.574006 3.27249 118 111 103 
0.231283 0.577059 2.70939 57 44 35 
-0.0930263 0.655933 2.54967 46 35 29 
0.377639 0.635041 2.66581 60 43 35 
0.363427 0.638403 2.66416 174 156 152 
0.792607 0.642251 2.66452 131 121 112 
0.766868 -0.773561 3.67413 45 78 49 
0.528227 -0.588009 3.41536 35 36 38 
0.466049 -0.573015 3.34397 32 33 28 
0.293623 -0.498835 3.10091 13 13 13 
0.603011 -0.515916 3.52011 26 26 28 
0.318942 -0.472413 3.17057 32 30 31 
0.656277 -0.510955 3.55793 227 229 228 
0.195369 -0.397026 2.99192 22 22 22 
0.186829 -0.389405 2.99566 208 208 208 
0.328558 -0.371828 3.12514 223 223 223 
0.306954 -0.362922 3.12335 215 215 215 
0.345698 -0.355843 3.1629 211 211 211 
0.683682 -0.384474 3.58347 35 33 34 
0.210714 -0.331671 3.00745 214 214 214 
0.407644 -0.317311 3.22754 225 225 225 
0.180765 -0.290876 2.97003 209 209 211 
0.349111 -0.292303 3.16736 27 29 28 
0.378536 -0.156607 3.19739 224 224 226 
0.476231 -0.00365284 3.26934 55 53 54 
1.00152 0.48189 3.9317 122 112 110 
1.00866 0.502063 3.94721 196 185 179 
0.928856 0.534139 3.71871 145 133 121 
0.558222 0.523868 3.36896 114 109 103 
0.588677 0.523177 3.32499 160 155 152 
0.560917 0.542205 3.36582 163 158 154 
0.393787 0.584363 3.10498 134 121 113 
0.258093 0.621695 2.68146 143 120 106 
0.757515 -0.782129 3.70331 209 232 214 
0.921807 -0.705258 3.91916 60 118 70 
0.298212 -0.490085 3.11107 29 29 29 
0.68453 -0.492483 3.6065 33 35 34 
0.268115 -0.394278 3.099 219 219 219 
0.514511 -0.361075 3.37462 24 24 24 
0.393571 -0.30076 3.25178 28 28 30 
0.630237 -0.258937 3.50967 232 232 232 
0.244446 -0.223573 3.01454 200 200 202 
0.30549 -0.190366 3.07004 23 23 23 
0.386648 -0.19885 3.19959 232 232 234 
0.41134 -0.202133 3.25095 20 20 20 
0.62119 -0.221091 3.49255 26 26 28 
0.280082 -0.171603 3.05935 32 32 34 
0.273027 -0.159346 3.03751 21 21 23 
0.328479 -0.0872762 3.12116 27 26 24 
0.415705 0.583998 3.14981 185 175 163 
-0.0534145 0.659064 2.57781 30 20 18 
-0.0837686 0.705397 2.22341 162 151 147 
0.470048 -1.51179 3.31752 41 18 0 
0.44554 -1.51192 3.33299 36 17 0 
0.441422 -1.50481 3.33922 32 14 0 
0.743198 0.0952799 3.19558 161 143 129 
0.320989 0.30895 2.60166 88 76 62 
0.330628 0.38879 2.61383 138 124 113 
-0.0897633 0.576863 2.08497 97 85 73 
0.771794 0.312053 3.22927 116 99 79 
-0.0790723 0.59556 2.09104 102 92 80 
0.417738 -1.59041 3.27591 29 1 0 
0.481529 -1.51647 3.30698 76 54 33 
0.414506 -0.206448 3.24712 222 222 222 
0.394566 -0.548539 3.25411 220 220 220 
0.415961 -1.51282 3.34789 67 42 20 
0.310489 -1.63161 3.29029 57 35 14 
0.296845 -1.63021 3.30358 20 0 1 
0.0969463 -1.55093 3.51482 119 99 74 
0.411195 -1.40917 3.372 78 61 45 
0.406035 -1.37462 3.37209 88 72 56 
0.766847 0.0750133 3.19525 195 185 183 
0.744582 0.0880314 3.1996 157 139 125 
0.746796 0.10231 3.20036 178 161 145 
0.7336 0.136278 3.21543 69 52 42 
0.75998 0.288108 3.22905 160 143 123 
0.759242 0.384244 3.24431 82 69 53 
0.277428 -1.41841 3.43292 27 10 2 
0.686582 -1.09133 3.70349 118 104 95 
0.0503872 -1.66522 3.42289 25 4 0 
0.748249 0.564998 3.27348 116 105 103 
0.320688 -1.59051 3.34996 44 19 0 
0.331948 -1.53685 3.38638 35 13 0 
0.711778 -0.950998 3.66753 161 156 152 
0.43611 -0.932576 3.38274 219 203 180 
0.774182 -0.946952 3.72879 49 65 52 
0.856241 -0.946341 3.81152 220 255 225 
0.716906 -0.938931 3.67027 236 242 238 
0.78154 -0.93882 3.73549 46 56 48 
0.71275 -0.925742 3.66548 10 2 0 
0.441349 -0.894779 3.38233 176 160 137 
0.81157 -0.885404 3.76151 216 241 219 
0.719298 -0.87113 3.66906 245 233 233 
0.815517 -0.874967 3.76527 206 238 214 
0.832801 -0.872922 3.78347 191 226 202 
0.795642 -0.868698 3.74673 129 140 132 
0.80516 -0.86764 3.75422 218 251 224 
0.789327 -0.865587 3.73829 220 231 223 
0.727164 -0.860954 3.67648 39 50 34 
0.720961 -0.857239 3.66864 234 225 220 
0.85562 -0.862791 3.80511 32 57 35 
0.979837 -0.866383 3.94357 97 85 69 
0.729116 -0.839231 3.67573 81 110 79 
0.950044 -0.84936 3.90912 76 64 50 
0.832486 -0.818072 3.77983 68 98 70 
0.750013 -0.799358 3.69535 48 65 55 
0.864501 -0.794611 3.81104 213 251 226 
0.785618 -0.790508 3.7286 207 243 215 
0.857404 -0.793739 3.80305 221 254 225 
0.829918 -0.789715 3.77509 192 234 198 
0.987164 -0.779967 3.94108 40 31 16 
0.834659 -0.768489 3.7798 216 255 222 
0.838807 -0.758291 3.78399 222 247 226 
0.962321 -0.763497 3.91839 100 90 80 
1.01363 -0.739485 3.96854 238 225 216 
1.02817 -0.737436 3.98149 90 78 66 
0.995678 -0.735265 3.95012 61 48 42 
1.0328 -0.709328 3.9853 255 248 239 
0.928497 -0.691385 3.87517 178 196 174 
0.933311 -0.682698 3.88137 100 94 82 
0.184619 -0.655524 3.07675 164 155 140 
0.517218 -0.605131 3.44676 144 140 141 
0.375021 -0.599645 3.28664 109 108 106 
0.409495 -0.569416 3.31938 148 146 147 
0.447933 -0.570455 3.36179 129 129 129 
0.233286 -0.563769 3.12493 170 168 171 
0.230378 -0.559741 3.1153 98 96 97 
0.187293 -0.514203 3.06482 162 161 159 
0.173396 -0.506083 3.04685 134 134 134 
0.167696 -0.498521 3.03834 116 114 115 
0.165588 -0.457692 3.03042 153 153 153 
0.363205 -0.409835 3.24911 72 72 72 
0.267797 -0.386756 3.13996 143 143 143 
0.292028 -0.33734 3.15879 182 180 181 
0.529448 -0.278124 3.41905 69 67 68 
0.495587 -0.27026 3.37804 128 126 127 
0.526885 -0.266485 3.40997 237 235 236 
0.549257 -0.257727 3.43739 20 16 15 
0.459272 -0.248506 3.33601 186 184 185 
0.550926 -0.219313 3.43498 50 46 47 
0.480353 -0.211122 3.35707 210 212 211 
0.553966 -0.203597 3.43637 205 201 200 
0.557042 -0.19392 3.4372 196 192 191 
0.546844 -0.181933 3.42476 106 106 106 
0.432052 -0.173176 3.29667 148 148 148 
0.774227 -0.0158242 6.31506 198 180 160 
0.447791 -0.125599 3.30717 81 83 82 
0.519786 -0.113965 3.38906 233 242 249 
0.596337 -0.0810992 3.46384 120 120 112 
0.585871 -0.0787206 3.45811 190 191 183 
0.563565 -0.0339207 3.4233 145 137 126 
0.536951 -0.033862 3.39708 145 145 137 
0.497428 -0.00538954 3.34242 157 158 152 
0.526321 0.00970247 3.3741 134 134 126 
0.539175 0.0519489 3.3864 185 184 182 
0.792003 0.0936706 3.65171 132 124 113 
0.891899 0.10812 3.75606 144 140 129 
0.801018 0.0492955 3.21774 191 181 171 
0.827125 0.113086 3.68571 228 222 210 
0.842803 0.117286 3.70106 137 133 121 
0.789562 0.0640863 3.20198 102 105 110 
0.812819 0.130928 3.66947 128 124 112 
0.786609 0.130932 3.64024 138 129 120 
0.799456 0.132625 3.65736 224 215 206 
0.825607 0.141161 3.68217 248 240 229 
0.78866 0.086573 3.20433 84 74 65 
0.776426 0.091749 3.20157 91 73 59 
0.789316 0.106892 3.20757 219 203 188 
0.877457 0.183251 3.73485 228 224 213 
0.787935 0.18349 3.63777 164 160 149 
0.830836 0.18755 3.68986 204 196 183 
0.79128 0.200301 3.64198 160 156 145 
0.811229 0.143027 3.23033 160 147 131 
0.801699 0.228291 3.64914 228 224 213 
0.762503 0.178157 3.20707 139 125 112 
0.825655 0.260496 3.67238 158 155 146 
0.809866 0.285001 3.65059 157 155 142 
0.804164 0.243373 3.2318 100 84 68 
0.789539 0.247736 3.2225 171 157 144 
0.782367 0.256732 3.22115 146 132 119 
0.790361 0.262253 3.22415 169 153 138 
0.805052 0.287154 3.23758 167 150 132 
0.780649 0.292699 3.22466 161 146 125 
0.587756 0.490016 3.38736 110 107 102 
0.446295 0.506779 3.22488 175 172 163 
0.513583 0.533791 3.30079 157 154 145 
0.48893 0.54023 3.26799 135 132 127 
0.451861 0.553755 3.22488 159 156 147 
0.486793 0.560622 3.26419 166 157 150 
0.371699 0.555788 3.13815 164 161 156 
0.448438 0.563462 3.22198 144 137 127 
0.479606 0.566549 3.25469 230 220 210 
0.458647 0.56606 3.22763 209 202 192 
0.388893 0.56481 3.15572 134 130 127 
0.34303 0.565545 3.10414 168 167 163 
0.427213 0.579461 3.20251 230 220 210 
0.446746 0.580235 3.22043 142 133 124 
0.364087 0.573625 3.125 144 141 134 
0.313066 0.570639 3.06979 129 128 123 
0.406358 0.58323 3.17306 151 142 133 
0.296547 0.575785 3.05077 118 114 111 
0.374887 0.589463 3.14254 159 149 139 
0.401485 0.591821 3.16958 176 168 157 
0.283918 0.580761 3.03653 135 134 130 
0.360863 0.596262 3.12371 211 204 198 
0.301607 0.591789 3.05385 132 129 120 
0.306081 0.595942 3.06122 154 147 139 
0.269789 0.596533 3.02077 116 112 109 
0.282471 0.599016 3.03257 143 140 133 
0.29939 0.601671 3.0541 226 222 213 
0.292147 0.600837 3.04622 113 103 93 
0.274646 0.607884 3.0269 175 170 166 
0.301055 0.527269 2.68742 129 116 100 
0.305257 0.536473 2.69045 101 89 75 
-0.0814097 0.629941 2.64517 166 165 161 
0.000638952 0.652376 2.73024 166 163 156 
-0.0665077 0.647423 2.66002 207 208 202 
0.0124492 0.656134 2.73835 196 187 180 
-0.00600644 0.657594 2.72084 61 50 44 
-0.0185171 0.659362 2.70913 141 132 123 
-0.0849637 0.659361 2.64227 117 113 110 
-0.0495598 0.661894 2.67558 100 90 81 
-0.0985037 0.659375 2.62575 207 206 202 
-0.0328532 0.665569 2.69077 153 142 136 
-0.120961 0.659852 2.601 105 100 96 
-0.063706 0.662408 2.64596 29 11 0 
-0.0885941 0.667195 2.63644 54 49 45 
-0.141611 0.663918 2.58067 145 142 135 
-0.11366 0.670563 2.60802 121 112 107 
-0.150102 0.67494 2.57347 115 106 101 
-0.137787 0.676824 2.58384 43 36 26 
-0.160764 0.677899 2.55939 178 168 158 
-0.18513 0.679245 2.53683 117 112 108 
-0.161658 0.676643 2.54718 107 98 89 
-0.176988 0.681982 2.54477 59 52 44 
-0.138599 0.681711 2.56784 139 128 122 
0.803557 -0.95969 3.75832 217 240 220 
0.796285 -0.859084 3.74441 50 73 57 
0.848142 -0.857888 3.80037 89 110 95 
0.758675 -0.780221 3.70201 216 246 220 
0.822447 -0.757829 3.77006 181 213 190 
0.818572 -0.747439 3.76256 70 104 77 
0.79734 -0.745659 3.74015 48 82 58 
0.862354 -0.734763 3.80609 209 241 217 
0.735726 -0.660685 3.68429 110 99 95 
0.305653 -0.540426 3.19552 32 30 31 
0.291545 -0.460022 3.17937 34 32 35 
0.240134 -0.394867 3.10776 212 207 213 
0.343228 -0.369967 3.22593 38 36 37 
0.198514 -0.360553 3.05404 212 214 213 
0.399416 -0.305493 3.27926 97 97 97 
0.384676 -0.298055 3.26046 182 180 181 
0.430949 -0.225021 3.30001 58 56 59 
0.504583 -0.166724 3.37497 49 51 48 
0.430697 -0.157435 3.29385 174 174 174 
0.505951 -0.0881001 3.36664 155 151 140 
0.486922 -0.00611656 3.33387 205 201 198 
0.468217 0.0090215 3.30585 224 223 218 
0.38655 0.595001 3.15251 153 144 135 
0.050973 0.644481 2.78144 139 129 120 
0.769225 -1.06775 3.72863 63 96 69 
0.827458 -0.964276 3.78287 214 235 218 
0.85538 -0.960184 3.80283 211 235 211 
0.784521 -0.956402 3.73941 220 236 225 
0.75817 -0.933287 3.71129 85 115 91 
0.71589 -0.909564 3.66492 32 24 22 
0.712151 -0.880104 3.6643 120 113 107 
0.977588 -0.821849 3.92853 86 74 60 
0.848511 -0.810554 3.79407 80 116 90 
0.89002 -0.799746 3.83925 205 235 211 
0.943538 -0.800581 3.89701 54 41 32 
0.789274 -0.785433 3.73637 215 243 220 
0.902045 -0.789471 3.84984 220 245 224 
0.847344 -0.75873 3.79134 216 244 219 
0.855861 -0.753132 3.80033 59 92 63 
0.82252 -0.735459 3.76228 52 84 61 
0.797651 -0.733973 3.74618 69 106 73 
0.839472 -0.73292 3.78521 220 245 224 
0.421096 -0.590716 3.33491 114 112 113 
0.418532 -0.582325 3.32566 173 171 174 
0.343587 -0.566559 3.25187 224 225 227 
0.245922 -0.548102 3.12785 189 187 188 
0.347237 -0.53259 3.24546 67 67 67 
0.272538 -0.525778 3.16036 205 205 205 
0.293857 -0.518455 3.18624 226 224 227 
0.344701 -0.502266 3.24354 208 208 208 
0.270048 -0.444642 3.14772 194 194 194 
0.253648 -0.425581 3.12603 198 198 198 
0.235782 -0.405506 3.10283 215 215 215 
0.3098 -0.384424 3.18794 219 219 219 
0.626672 -0.34936 3.52966 219 219 219 
0.645948 -0.308193 3.54614 118 116 117 
0.619096 -0.239152 3.50859 212 212 214 
0.436447 -0.207306 3.30337 201 201 201 
0.517971 -0.204482 3.3941 163 147 147 
0.304063 -0.202629 3.15858 224 224 226 
0.426296 -0.160437 3.28346 30 30 30 
0.393776 -0.132994 3.24876 91 91 91 
0.845804 -0.117199 3.73705 170 166 165 
0.575392 -0.0971872 3.44543 143 143 143 
0.79218 0.117627 3.20859 197 184 168 
0.805834 0.187764 3.66073 160 156 144 
0.870503 0.204367 3.7288 168 165 156 
0.862121 0.245433 3.71238 171 169 157 
0.524924 0.54825 3.31234 165 158 148 
0.505422 0.547468 3.28705 159 156 147 
0.418841 0.58702 3.19022 75 66 59 
0.293093 0.587925 3.04514 97 93 92 
0.368365 0.594512 3.13039 195 191 182 
-0.0884409 0.65076 2.63679 140 140 138 
-0.160414 0.660793 2.5621 144 141 136 
-0.146128 0.679293 2.56102 91 81 71 
0.796261 -0.959944 3.75069 208 228 216 
0.861956 -0.829795 3.80881 207 235 210 
0.99417 -0.830593 3.95985 112 98 95 
1.00334 -0.803512 3.96376 156 144 130 
0.36305 -0.53628 3.25777 210 208 209 
0.655009 -0.475183 3.57173 234 234 234 
0.672839 -0.475171 3.59602 230 228 229 
0.687067 -0.375452 3.59318 64 64 64 
0.621509 -0.341672 3.52153 21 19 20 
0.391664 -0.316453 3.27046 224 222 223 
0.546699 0.0385444 3.38786 126 121 115 
0.803309 0.343197 3.23865 134 118 102 
0.707065 -1.02452 3.66911 222 228 216 
0.722429 -0.878565 3.67364 218 220 206 
0.812436 -0.814392 3.76171 216 234 218 
0.691869 -0.771301 3.64394 168 164 163 
0.856843 -0.757658 3.78834 217 238 223 
0.821121 -0.7309 3.77332 212 226 209 
0.186542 -0.503207 3.06089 26 24 27 
0.272958 -0.507272 3.15788 28 28 28 
0.16385 -0.401324 3.02122 17 19 18 
0.607016 -0.36354 3.51226 225 225 225 
0.661335 -0.35569 3.56272 65 63 64 
0.345716 -0.18557 3.20905 21 21 21 
0.229217 -0.167061 3.06692 89 89 91 
0.378056 -0.14191 3.22689 128 130 129 
0.46493 -0.000431539 3.31155 25 24 22 
0.744826 -0.795989 3.7141 210 222 210 
0.223606 -0.546275 3.11184 31 33 32 
0.595923 -0.531542 3.5142 32 33 35 
0.361099 -0.509787 3.27043 222 220 221 
0.59785 -0.518406 3.51232 28 30 27 
0.642001 -0.496593 3.56517 40 38 41 
0.20658 -0.319139 3.05931 34 34 36 
0.60318 -0.269751 3.50329 217 215 216 
0.438762 -0.233852 3.30377 16 14 19 
0.368469 -0.212136 3.21191 21 21 21 
0.242264 -0.198563 3.09426 180 180 182 
0.274007 -0.191596 3.15809 27 27 29 
0.257164 -0.172836 3.1212 30 30 32 
0.299683 -0.142494 3.14561 128 128 130 
0.39645 -0.110665 3.25013 29 27 28 
0.307062 -0.103342 3.14554 25 25 27 
0.34835 -0.0626659 3.16653 25 21 18 
