ply                 
format ascii 1.0    
element vertex 1256
property float x    
property float y    
property float z    
property uchar red  
property uchar green
property uchar blue 
end_header          
-1.43586 -0.334316 9.26088 50 43 27 
-1.32918 -0.321278 9.12256 231 223 202 
-1.24447 -0.308219 8.92077 137 129 110 
-1.07389 -0.292738 8.66043 142 137 118 
-1.51463 -0.327585 9.34321 244 238 214 
-0.926331 -0.278761 8.43059 146 139 120 
-0.952763 -0.277474 8.49511 153 146 130 
-0.767521 -0.260842 8.2883 156 145 123 
-0.618763 -0.250828 8.11902 122 110 94 
-1.48256 -0.317814 9.31861 191 183 162 
-1.02671 -0.274565 8.57047 150 141 124 
-0.916984 -0.26537 8.45814 103 92 70 
-0.946558 -0.265084 8.47571 128 121 105 
-0.982617 -0.264604 8.54887 133 126 107 
-0.936998 -0.259068 8.47171 99 92 74 
-1.10989 -0.272099 8.73167 164 159 139 
-0.123778 -0.180046 2.786 235 223 207 
-1.03216 -0.25188 8.61028 150 139 121 
-0.433496 -0.201189 7.83567 215 210 191 
-0.39951 -0.20201 7.81179 138 131 113 
-0.948024 -0.243782 8.46465 151 142 127 
-0.905546 -0.236667 8.44654 166 153 136 
-0.979596 -0.241974 8.57284 131 123 104 
-0.702812 -0.221155 8.163 139 131 112 
-0.989932 -0.240366 8.56593 222 214 193 
-0.653475 -0.212465 8.06559 141 129 115 
-0.315632 -0.184712 7.66748 159 146 130 
-0.294045 -0.179947 7.74187 121 102 87 
-0.274555 -0.178896 7.65564 149 138 120 
-1.03195 -0.235449 8.60496 164 155 138 
-0.571814 -0.199615 7.97907 145 136 119 
-0.302353 -0.176489 7.6372 105 86 69 
-0.964703 -0.219974 8.49972 228 220 201 
-0.620654 -0.181137 8.05093 250 241 226 
-0.0708784 -0.14199 7.44367 132 123 108 
-1.62243 -0.245993 9.57362 224 215 200 
-0.295315 -0.147106 7.64046 145 129 113 
-0.129483 -0.134732 7.47825 208 194 183 
-0.121091 -0.160347 2.78073 91 77 64 
-1.47915 -0.221895 9.3461 174 163 145 
-1.48921 -0.215915 9.35724 245 234 216 
-0.0998024 -0.109017 7.47911 151 137 126 
-1.57341 -0.198729 9.50324 151 135 112 
-1.43444 -0.186185 9.24176 160 152 131 
-0.12634 -0.146882 2.77635 176 164 148 
-1.28712 -0.16532 8.99186 177 169 148 
-0.273014 -0.0992009 7.6477 104 88 73 
-0.344411 -0.0984789 7.73073 148 135 119 
-0.247731 -0.0933475 7.62958 125 108 90 
-1.14608 -0.14767 8.8166 228 221 205 
-1.13217 -0.143643 8.75285 23 14 7 
-0.986276 -0.137986 8.56782 181 169 145 
-1.08718 -0.135677 8.67567 178 169 152 
-0.351183 -0.0831527 7.74852 148 135 119 
3.01878 0.160203 5.92784 131 127 118 
-1.00371 -0.118802 8.58357 152 141 123 
-0.314048 -0.0765771 7.69421 138 122 97 
-1.15005 -0.126285 8.7814 206 197 180 
2.59878 0.132286 5.99994 193 188 184 
2.71261 0.143307 5.99712 58 47 43 
-1.27797 -0.126765 9.00265 136 126 101 
-0.738674 -0.0928243 8.19065 157 145 121 
-0.345026 -0.0684407 7.73619 117 104 85 
-0.13209 -0.0552032 7.514 158 143 124 
3.01543 0.170278 5.93015 101 97 88 
-1.32494 -0.123017 9.07981 133 113 89 
-0.117654 -0.129934 2.76203 64 49 28 
-1.20617 -0.110909 8.83862 129 123 99 
-0.365767 -0.0619321 7.7684 124 111 95 
-1.1089 -0.104507 8.71335 139 131 118 
-1.0286 -0.0993654 8.6092 149 142 123 
2.57126 0.146233 6.0157 47 38 33 
2.58535 0.146116 6.01163 40 31 24 
2.60957 0.149758 6.00828 24 19 13 
2.66428 0.152045 5.99174 40 31 22 
2.73681 0.158206 5.96582 123 114 107 
2.75593 0.163547 5.97177 116 107 98 
3.03106 0.184024 5.92746 55 52 43 
-1.25316 -0.105667 8.94112 74 57 39 
-1.10617 -0.096345 8.77627 220 213 197 
-0.207961 -0.133473 2.77802 181 168 159 
-0.93915 -0.0832922 8.48828 148 135 116 
-0.135378 -0.126781 2.7597 118 104 91 
-1.00656 -0.0861519 8.60322 210 205 176 
2.9247 0.182023 5.93805 59 55 44 
-0.986216 -0.0825082 8.56018 211 205 181 
2.56465 0.157144 6.03661 55 46 39 
-1.12009 -0.0821633 8.72314 88 74 63 
-1.00107 -0.0751701 8.57497 96 89 63 
-0.313928 -0.0337287 7.7176 122 101 84 
-0.939332 -0.067917 8.51159 110 98 76 
-0.930241 -0.064679 8.47985 222 209 190 
2.66966 0.176825 5.99846 83 70 62 
-1.04606 -0.0679965 8.571 130 115 96 
2.72486 0.182939 5.97481 137 128 119 
-1.02878 -0.0631909 8.61314 255 245 218 
-0.943524 -0.0571418 8.51861 203 191 169 
-0.363295 -0.0239651 7.74494 191 175 160 
-0.274288 -0.0166246 7.68746 166 151 130 
-0.311188 -0.0123269 7.75495 96 78 58 
-0.277934 -0.0160069 7.64217 159 143 120 
-0.156159 -0.116567 2.7501 175 166 157 
-0.420601 -0.0152943 7.82045 167 151 135 
-0.37495 -0.00873807 7.80145 186 170 155 
-0.637313 -0.0172459 8.10473 148 136 122 
-0.388028 -0.00384244 7.77658 101 84 68 
-0.664258 -0.0174852 8.11029 159 146 129 
-0.768354 -0.0120699 8.24248 96 79 71 
-0.75258 -0.00818198 8.22277 138 120 108 
-0.644862 -0.00182053 8.09748 123 107 92 
-0.128469 -0.105061 2.74821 152 137 116 
-0.735983 -0.00564579 8.20282 121 103 91 
-0.333715 0.016765 7.73857 161 144 124 
-0.6691 0.000224291 8.13857 98 79 64 
-0.375821 0.0220661 7.78838 191 178 162 
-0.598637 0.0148217 8.01916 98 75 57 
-0.456918 0.0208866 7.86698 123 115 96 
-0.316642 0.0337233 7.71886 118 102 87 
-0.809096 0.0059337 8.08964 80 53 42 
-0.492674 0.0282994 7.89074 93 74 60 
-0.479361 0.0362838 7.88995 81 62 48 
-0.520315 0.0364802 7.89596 211 185 172 
-0.424106 0.0432685 7.86081 47 29 17 
-0.406092 -0.0832202 3.83998 174 167 151 
-0.451428 0.0413629 7.83559 117 95 82 
-0.324206 0.0493243 7.7267 200 184 169 
-0.392862 0.048483 7.77883 71 53 39 
-0.341238 0.0530152 7.72548 182 164 150 
-0.309128 0.0556081 7.7047 179 163 148 
-0.287713 0.0548637 7.67617 136 119 103 
-0.343964 0.0601908 7.76427 80 62 48 
-0.447719 0.066171 7.69687 76 40 26 
0.783496 0.0138822 3.25018 126 117 108 
-0.42237 -0.0611019 3.83057 169 157 143 
-0.27027 -0.0814366 2.76219 183 176 170 
-0.175043 -0.0729939 2.72392 188 184 172 
-0.405697 -0.0448601 3.82624 239 230 215 
-1.2494 0.0482436 7.53777 223 193 182 
-0.403295 -0.0370292 3.81923 216 204 192 
0.787714 0.0448597 3.22171 119 116 111 
2.71818 0.363747 5.9927 164 149 142 
-0.159036 -0.0452815 2.71869 69 59 49 
0.780775 0.0769966 3.21934 179 173 173 
0.758787 0.0895576 3.22569 136 122 113 
-1.23388 0.125933 6.81817 60 23 15 
0.772486 0.0927221 3.22562 91 77 68 
-0.106011 -0.0132585 2.65695 161 158 151 
0.7609 0.104674 3.22528 170 157 148 
0.760765 0.113589 3.21847 85 72 63 
0.771609 0.114246 3.22286 95 85 75 
0.779688 0.115334 3.22947 97 87 77 
0.749215 0.115761 3.23549 132 119 110 
0.766803 0.12658 3.22949 92 82 72 
0.772295 0.128148 3.22073 175 165 156 
0.749227 0.129832 3.23137 146 134 120 
0.785873 0.134812 3.23237 189 179 170 
-0.164887 0.0132897 2.68246 175 162 143 
0.76207 0.154199 3.22898 167 154 146 
-1.06475 0.23743 5.8594 74 42 31 
-0.576368 0.0438453 3.02699 187 175 159 
-0.54361 0.0475936 3.0209 132 123 106 
-0.556838 0.049832 3.0247 103 92 74 
-0.535036 0.0561274 3.02571 141 125 109 
-0.558453 0.0597607 3.02606 77 65 51 
-0.1758 0.0634579 2.63819 174 168 152 
0.750869 0.21528 3.25164 136 123 114 
-1.08201 0.271924 5.51211 219 185 173 
-0.210511 0.0874532 2.63216 174 170 161 
-0.88559 0.308569 5.25623 190 168 155 
-0.338301 0.116896 2.64888 172 173 167 
-0.866925 0.357786 4.78376 116 82 72 
0.783981 0.354733 3.25912 91 81 71 
0.775988 0.36273 3.25539 118 108 98 
-1.11525 0.357646 4.65365 121 73 59 
0.7986 0.380667 3.26674 91 81 69 
-0.355166 0.169705 2.61767 153 154 156 
0.768526 0.38562 3.25993 86 76 67 
0.280067 0.246194 2.6198 161 152 143 
-0.958663 0.402067 4.32156 209 172 163 
-0.967805 0.41435 4.22344 121 87 78 
-0.689237 0.128803 2.25957 255 243 235 
-0.150197 0.161102 2.05441 185 181 169 
-0.104192 0.162728 2.02901 134 124 114 
-0.0953499 0.166775 2.02899 137 133 121 
-0.631954 0.148858 2.26364 127 129 118 
0.350262 0.341973 2.61778 134 130 121 
-0.118349 0.183426 2.03002 125 118 100 
0.310148 0.348087 2.60606 85 76 67 
-0.409512 0.148687 1.97847 189 183 183 
0.754929 0.531416 3.2752 33 26 20 
-0.121205 0.196239 2.03102 159 150 135 
0.803941 0.54775 3.28614 57 52 49 
-0.435706 0.152531 1.96875 156 144 132 
-0.47587 0.154022 1.99334 184 172 158 
0.751349 0.563702 3.27607 102 96 96 
0.828411 0.579206 3.29592 61 62 64 
0.815601 0.579698 3.2987 164 167 172 
-0.462183 0.162318 1.9752 166 156 146 
-0.887755 0.469407 3.76205 196 169 162 
-0.70657 0.194023 2.27384 111 106 103 
-0.423638 0.168634 1.96837 135 125 113 
-0.471566 0.167652 1.98343 78 70 59 
0.850157 0.585211 3.25311 132 128 129 
-0.144087 0.225498 2.0475 165 157 138 
-0.671411 0.203882 2.25367 158 156 143 
0.725852 0.581328 3.2438 41 40 38 
-0.419836 0.178007 1.967 83 77 65 
-0.460467 0.175647 1.97454 92 79 62 
-0.40486 0.183869 1.97769 201 196 190 
-0.45066 0.180197 1.96955 109 99 89 
-0.429313 0.183923 1.96582 130 120 111 
-0.43886 0.184778 1.9664 159 149 137 
0.309661 0.416231 2.61327 237 235 222 
-0.408924 0.193168 1.97586 45 40 34 
-0.420331 0.1922 1.96908 73 66 58 
-0.777133 0.490775 3.56362 148 124 120 
0.299749 0.422593 2.6162 140 134 122 
-0.451577 0.191206 1.97054 167 155 143 
-0.160168 0.331104 2.43518 173 172 168 
-0.45542 0.200314 1.97318 167 164 149 
-0.478339 0.202366 1.99065 181 177 168 
-0.400445 0.216126 1.98353 114 111 106 
-0.219029 0.346111 2.4448 155 152 147 
-0.453225 0.209879 1.96983 171 167 155 
-0.439491 0.21654 1.96782 58 50 39 
-0.167237 0.356367 2.41865 194 193 189 
-0.45515 0.222551 1.97236 174 165 150 
-0.430988 0.227873 1.96971 125 119 105 
0.277701 0.475088 2.63366 144 136 125 
-1.00592 0.502687 3.45316 173 142 137 
-0.467474 0.226488 1.97813 174 166 155 
-0.712254 0.26597 2.27505 119 116 111 
-0.447558 0.228648 1.96866 164 154 142 
-0.659109 0.271416 2.26075 148 144 135 
-0.414985 0.23678 1.97524 107 104 99 
-0.168695 0.375185 2.40631 168 168 166 
-0.433507 0.238884 1.96854 152 140 128 
-0.406055 0.246317 1.98172 88 85 80 
-0.467116 0.242461 1.9753 185 177 166 
-0.452778 0.244658 1.97078 157 147 135 
0.32775 0.506376 2.61851 127 118 109 
0.275971 0.506198 2.63611 137 125 111 
-0.464014 0.251565 1.97586 169 166 151 
0.262519 0.515406 2.64532 122 111 93 
-0.447597 0.255916 1.97015 105 93 81 
0.315567 0.520157 2.61822 243 234 219 
-1.09378 0.515597 3.3377 105 61 50 
-0.902892 0.525583 3.25473 210 172 163 
-0.237762 0.401986 2.40957 113 111 99 
-0.438945 0.264282 1.97024 156 146 134 
0.272327 0.532522 2.63099 109 100 83 
-0.45184 0.267981 1.97009 171 163 150 
-0.225071 0.412578 2.39481 158 156 144 
-0.467065 0.272665 1.97713 184 176 163 
-0.110577 0.336119 2.03682 128 120 107 
-1.07373 0.525639 3.2573 163 139 129 
-0.410697 0.283195 1.98011 103 102 97 
0.339074 0.566316 2.62362 116 110 98 
-1.07732 0.537658 3.18338 166 139 128 
-0.201304 0.437779 2.36846 142 144 139 
-0.18834 0.439465 2.36562 183 185 184 
0.304785 0.582665 2.62006 53 40 31 
-0.20614 0.459393 2.35462 174 176 173 
0.249421 0.606534 2.65051 59 45 34 
-0.987212 0.550305 3.05362 190 164 151 
-0.784337 0.561861 2.95849 253 229 217 
0.314575 0.624884 2.62395 14 7 1 
-0.226226 0.471388 2.34888 166 165 160 
-1.07973 0.550214 3.03174 217 175 161 
-0.647489 0.392213 2.26828 56 51 45 
0.332931 0.633899 2.61194 177 172 166 
-0.207543 0.480615 2.33504 184 188 189 
-0.446816 0.344598 1.97135 158 148 136 
-0.501641 0.588406 2.8069 52 32 23 
-0.484506 0.588976 2.80359 133 117 104 
-0.807599 0.570452 2.89381 163 143 134 
-0.666261 0.403017 2.25941 147 145 133 
-0.130394 0.417621 2.04039 120 113 97 
-0.50088 0.591883 2.78622 240 216 206 
-0.457236 0.357905 1.97213 176 169 151 
-0.886474 0.570885 2.86445 74 44 36 
-0.902602 0.57243 2.85457 165 155 146 
-0.224028 0.505719 2.32051 124 124 122 
-0.448183 0.371591 1.97225 163 157 143 
-0.251925 0.511194 2.32526 179 176 167 
-0.233459 0.526744 2.31006 199 199 199 
-0.914354 0.580114 2.78075 255 232 216 
-0.493544 0.604247 2.63921 248 235 219 
-0.231687 0.535337 2.30301 149 151 146 
-0.271578 0.533658 2.31225 142 139 130 
-1.1095 0.576213 2.80956 111 71 61 
-0.930084 0.587342 2.72978 170 132 123 
-0.143195 0.478205 2.04699 225 213 199 
-0.241641 0.546601 2.29481 152 153 147 
-0.695042 0.470644 2.26824 175 167 154 
-0.945048 0.586811 2.7194 104 65 58 
-0.129423 0.485097 2.04259 125 116 99 
-0.675926 0.482606 2.26806 136 124 108 
-0.125489 0.495591 2.04206 104 95 86 
-0.515473 0.616188 2.54551 215 203 189 
-0.235961 0.573693 2.27901 117 117 107 
-0.491508 0.565709 2.36879 143 135 124 
-0.975617 0.595609 2.66537 89 47 33 
-0.234196 0.58275 2.27548 132 128 117 
-0.123648 0.641136 2.38449 73 70 65 
-0.249705 0.586317 2.27491 164 162 150 
-0.533713 0.620033 2.48318 176 163 155 
-0.238847 0.593661 2.2697 227 220 210 
-0.16428 0.530598 2.06408 162 154 135 
-0.575447 0.618997 2.48454 134 117 109 
-0.251517 0.592206 2.26678 128 126 113 
-0.144527 0.53562 2.05215 135 123 109 
-0.243993 0.598648 2.26215 103 100 85 
-0.84342 0.605712 2.54093 82 59 51 
-0.247949 0.59914 2.25288 128 118 106 
-0.853819 0.607948 2.53795 72 54 44 
-0.917012 0.605215 2.54958 88 60 49 
-0.493323 0.596731 2.34103 115 112 97 
-0.154308 0.546012 2.05726 115 102 86 
-0.445315 0.472362 1.97778 88 75 58 
-0.798744 0.611334 2.5027 206 189 182 
-0.162116 0.55032 2.0653 200 186 173 
-0.22708 0.615003 2.25853 195 186 177 
-0.196267 0.633729 2.2891 102 99 92 
-0.261096 0.613352 2.25553 173 170 155 
-0.177229 0.64686 2.309 135 131 128 
-0.830454 0.612885 2.48363 116 69 63 
-0.252787 0.619499 2.25082 107 100 90 
-0.155299 0.562715 2.0591 187 178 161 
-0.79815 0.614433 2.45153 64 35 29 
-0.803065 0.618312 2.4605 185 156 152 
-0.244727 0.628943 2.24766 88 78 66 
-0.522939 0.626407 2.35433 135 125 115 
-1.01662 0.612409 2.51561 254 220 211 
-0.884545 0.618257 2.46866 191 157 147 
-0.12294 0.582455 2.05048 84 74 62 
-0.165261 0.583428 2.06913 112 100 84 
-0.484035 0.504067 1.99217 164 144 119 
-0.222275 0.646838 2.25215 133 124 115 
-0.259713 0.639994 2.23958 94 85 76 
-0.157817 0.590774 2.0646 82 75 59 
-0.148086 0.593732 2.05912 90 78 66 
-0.418026 0.52438 1.99233 99 95 84 
-0.667929 0.60085 2.28918 92 80 68 
-0.266991 0.645901 2.23491 218 204 195 
-0.497755 0.525077 2.0069 178 166 144 
-0.117938 0.609322 2.05373 94 84 72 
-0.666617 0.612931 2.29125 75 62 53 
-0.280555 0.651262 2.22518 140 96 83 
-0.675517 0.615869 2.28665 81 68 59 
-0.285442 0.653036 2.21619 214 167 157 
-0.686153 0.618055 2.29192 106 92 83 
-0.701384 0.618401 2.29501 143 129 118 
-0.891678 0.625213 2.39055 95 49 34 
-0.666748 0.626063 2.29194 109 94 87 
-0.988994 0.62506 2.40873 92 62 54 
-0.69627 0.62727 2.29238 166 148 134 
-0.450151 0.554 1.98553 120 107 90 
-0.908227 0.629516 2.35168 229 191 178 
-0.707292 0.635212 2.28226 132 109 103 
-0.594731 0.643198 2.25587 149 119 111 
-1.06983 0.62628 2.40594 37 3 1 
-0.473122 0.558962 1.99125 79 68 50 
-0.720392 0.638586 2.2818 114 96 94 
-0.424265 0.574411 1.99677 111 99 85 
-0.802594 0.634305 2.28951 108 79 71 
-0.487392 0.569175 2.00095 155 140 119 
-0.478557 0.569102 1.99595 130 114 98 
-0.442203 0.574 1.98998 65 53 41 
-0.136362 0.656624 2.05933 109 97 81 
-0.425842 0.590537 1.99949 103 89 76 
-0.418762 0.596252 2.00383 113 103 94 
-0.644542 0.648922 2.20776 79 59 48 
-0.773549 0.641085 2.22749 80 33 27 
-0.151286 0.680936 2.07013 181 174 156 
-0.803135 0.64185 2.22877 85 38 28 
-0.530791 0.654319 2.14961 47 40 34 
-0.206627 0.679062 2.07589 166 156 154 
-0.478872 0.600268 2.00022 155 142 126 
-0.813751 0.644991 2.22561 178 143 139 
-0.868557 0.643836 2.2425 66 36 26 
-0.465935 0.606288 1.99522 109 96 77 
-0.99565 0.641467 2.27802 78 29 14 
-0.432174 0.630181 2.00389 79 70 61 
-0.486448 0.62385 2.00822 169 154 131 
-0.476219 0.625316 2.00329 161 145 129 
-1.01743 0.643985 2.24657 122 72 63 
-0.529748 0.661436 2.09481 165 131 121 
-0.98595 0.645919 2.22947 159 112 106 
-0.418078 0.649698 2.01247 107 97 85 
-0.485948 0.637015 2.01083 158 141 121 
-1.04569 0.646836 2.25097 31 1 0 
-0.93704 0.648509 2.20556 142 94 84 
-0.911044 0.649895 2.19329 206 182 172 
-0.515208 0.661952 2.04718 204 186 164 
-0.752908 0.658446 2.12492 113 73 73 
-0.63098 0.664059 2.08978 172 159 153 
-0.511282 0.661607 2.03706 160 144 128 
-0.454015 0.656462 2.00416 131 115 102 
-0.787382 0.658719 2.13712 59 35 31 
-0.429654 0.664793 2.01004 85 72 66 
-0.512625 0.67077 2.04278 115 99 84 
-0.501298 0.669463 2.02801 79 59 48 
-0.461628 0.669833 2.00631 198 188 178 
-0.487374 0.670255 2.01577 132 112 103 
-0.564 0.671875 2.04023 182 163 156 
-0.472216 0.675744 2.00932 125 115 113 
-0.41406 0.683346 1.98572 190 175 170 
-0.860321 0.660527 2.10214 88 70 60 
-1.01749 0.657321 2.14995 85 60 55 
-0.796631 0.664619 2.07636 100 51 47 
-0.881362 0.664935 2.09473 103 59 48 
-0.816631 0.666931 2.07167 207 189 177 
-1.01259 0.661157 2.12688 182 154 153 
-0.780929 0.670157 2.05427 149 123 110 
-0.751613 0.671141 2.04016 175 141 131 
-0.955606 0.66373 2.10192 132 93 76 
-0.936481 0.663763 2.09301 124 71 57 
-0.822194 0.670905 2.04631 119 105 96 
-0.98251 0.667672 2.08259 206 173 158 
-0.958516 0.670984 2.07162 197 181 166 
-0.924253 0.670415 2.05589 132 92 80 
-0.913328 0.671943 2.0515 199 157 143 
-0.891947 0.675626 2.05056 211 179 168 
-0.89458 0.673641 2.04195 38 19 5 
-1.02541 0.669756 2.08195 184 186 181 
-0.792693 0.677414 2.00196 190 165 158 
-0.923794 0.675083 2.04426 219 212 194 
-0.88663 0.676885 2.02715 84 78 64 
-0.763446 0.679216 1.98535 187 173 164 
-0.943727 0.675325 2.04221 64 72 74 
-0.920255 0.678668 2.03077 145 145 145 
-0.85194 0.686056 1.98977 108 112 113 
-0.895171 0.68428 1.96191 7 7 7 
-0.851926 0.691145 1.94001 133 129 128 
-1.00959 0.694202 1.8735 109 90 83 
1.09844 -2.90677 18.3438 1 1 0 
5.34561 -1.63967 11.351 14 0 0 
5.08467 -1.56389 11.2494 93 84 77 
-0.214555 -2.58502 17.09 0 4 0 
5.37078 -1.48971 11.0963 127 109 107 
4.84803 -1.39605 10.9192 26 13 4 
4.9317 -1.34965 10.8124 101 88 80 
5.2656 -1.29702 10.7115 19 8 6 
-0.877766 -2.15236 16.4727 8 14 2 
5.12442 -1.10579 10.4379 102 88 79 
0.788107 -1.82561 15.1825 212 203 186 
0.908211 -1.77981 15.1525 51 39 27 
0.681765 -0.509702 3.64348 176 177 179 
0.460762 -1.96682 18.2373 62 59 28 
4.89522 -0.821251 9.7393 125 108 101 
0.0477196 -1.3747 14.498 169 161 142 
4.47377 -0.689757 9.51596 43 26 10 
4.5712 -0.625405 9.42849 35 21 8 
4.02448 -0.621799 9.40188 24 11 3 
-0.237154 -1.23639 14.5459 120 104 78 
0.234305 -0.362419 3.01853 36 35 40 
3.96393 -0.571878 9.32806 134 124 114 
3.93968 -0.541925 9.26432 147 136 130 
0.497084 -0.869905 11.3366 42 9 0 
0.659564 -0.348523 3.59468 192 196 197 
3.7508 -0.453987 9.00907 118 109 102 
3.5722 -0.291062 8.70454 125 106 100 
0.322117 -0.540363 10.5759 147 119 105 
3.8797 -0.220174 8.59664 20 0 2 
0.267495 -0.224821 3.0482 46 47 51 
0.416742 -0.210271 3.24594 214 220 220 
-1.02815 -0.198025 8.65565 160 149 131 
-1.57611 -0.199495 9.54571 151 135 112 
-1.50437 -0.193366 9.37014 140 129 109 
-1.47416 -0.170102 9.31636 203 187 164 
-1.13291 -0.138175 8.76763 19 10 5 
-0.312793 -0.0555364 7.66741 69 50 33 
-1.44011 -0.119443 9.10645 107 69 56 
-1.12245 -0.100125 8.75281 193 187 173 
2.97357 0.1803 5.92682 27 22 16 
-0.888079 -0.0589449 8.43358 230 218 204 
-0.366723 -0.0323551 7.75765 97 83 70 
0.36297 -0.0667636 3.15474 146 142 139 
2.60554 0.201798 6.01737 31 22 13 
-0.657345 0.00260937 8.09937 250 231 217 
-0.597335 0.0149602 8.04581 99 73 56 
-0.50106 0.0285494 7.96235 213 194 180 
-0.682086 0.0197011 8.01017 96 66 55 
-0.587343 0.0416935 7.85457 194 172 161 
0.480199 -0.00666187 3.30614 185 189 190 
0.521491 0.00317035 3.36197 4 5 7 
2.7135 0.306635 5.99244 75 62 54 
2.7341 0.364497 5.98191 218 205 197 
0.802618 0.0851232 3.23308 126 124 125 
0.767538 0.0869476 3.2171 175 161 152 
-1.32085 0.118944 6.88533 61 40 35 
-1.31127 0.285489 5.3171 26 0 1 
1.70264 0.499268 4.39493 142 122 121 
1.48814 0.516201 4.16485 171 155 155 
-0.208897 0.144437 2.6085 47 38 23 
-0.801405 0.412453 4.32973 205 183 170 
-1.17408 0.388459 4.39533 38 0 0 
0.309402 0.363419 2.61115 134 127 117 
-0.950878 0.459647 3.82758 88 68 57 
-0.177215 0.409131 2.38123 179 181 178 
0.38118 0.639069 2.6114 221 214 208 
-0.224958 0.514489 2.31492 253 255 252 
0.141182 0.65424 2.40252 144 124 117 
-0.812844 0.597664 2.65752 57 39 29 
-0.147979 0.495255 2.05216 142 130 114 
-0.246695 0.577942 2.28476 253 252 247 
-0.157411 0.644883 2.33533 161 160 156 
-0.137243 0.546574 2.05168 199 187 171 
-0.16202 0.654327 2.27032 146 135 129 
-0.252391 0.633916 2.24241 163 154 145 
-0.180485 0.657623 2.24345 126 108 104 
-0.302187 0.646933 2.25091 68 54 41 
-0.226991 0.658108 2.23441 52 41 39 
-0.154256 0.609507 2.06482 153 145 126 
-0.73179 0.613981 2.31095 151 135 119 
-0.972108 0.624168 2.43031 62 32 24 
-0.605826 0.640054 2.30512 106 88 84 
-0.774431 0.630047 2.34238 66 41 34 
-0.595436 0.639353 2.28834 114 86 82 
-0.65234 0.640049 2.25816 55 40 35 
-0.228348 0.675484 2.11699 139 134 128 
-0.165334 0.677514 2.07684 110 98 86 
-0.334682 0.667929 2.11741 24 5 0 
-1.01743 0.636712 2.31389 38 3 0 
-0.940937 0.63846 2.27876 199 165 156 
-0.560461 0.659731 2.11286 57 42 37 
-0.584062 0.659147 2.11521 169 151 141 
-0.547604 0.6656 2.06983 223 193 183 
-0.469898 0.663281 2.00559 142 132 122 
-0.444879 0.679778 1.99967 108 97 95 
-0.811846 0.666661 2.0809 199 179 170 
-1.02645 0.663175 2.13326 89 71 61 
-0.750448 0.677116 2.02889 68 35 30 
-0.877025 0.673311 2.03339 199 172 155 
-1.01485 0.66959 1.99843 94 105 109 
-0.979283 0.683256 1.99556 139 141 140 
-0.925131 0.685987 1.97518 163 162 157 
1.20018 -3.39989 19.0658 55 72 53 
0.0983423 -2.82505 17.1205 252 255 246 
5.11534 -1.75809 11.6238 18 18 8 
0.29587 -2.55236 16.3436 252 254 253 
0.754648 -0.66729 3.76924 116 114 115 
5.0332 -1.5432 11.1094 32 19 11 
0.381468 -0.58986 3.23823 67 68 70 
5.22236 -1.41887 10.9669 22 7 2 
5.17557 -1.36591 10.8215 22 0 2 
5.03146 -1.2873 10.6754 30 13 6 
4.50885 -1.25278 10.6023 37 24 16 
1.22064 -1.46422 12.0808 64 27 9 
-0.600883 -2.19029 18.6376 26 25 21 
4.24126 -0.984344 10.0453 20 10 1 
1.12644 -1.31836 11.8469 90 57 38 
4.22767 -0.866224 9.90008 16 0 0 
1.03496 -1.18379 11.5367 48 21 4 
-1.20257 -1.80453 16.8027 0 2 0 
4.31012 -0.811996 9.78356 23 14 0 
0.279263 -1.4544 14.4825 88 72 56 
0.499734 -1.16146 12.0041 97 54 37 
4.21561 -0.722173 9.47607 29 17 3 
0.13866 -1.41047 14.797 47 35 9 
4.60076 -0.677908 9.53327 40 24 9 
5.22121 -0.627121 9.5175 27 20 10 
4.06262 -0.688773 9.55624 6 0 2 
-0.568471 -1.67617 18.5007 92 91 73 
3.9281 -0.662431 9.52324 6 0 0 
-0.0478794 -0.383833 2.91344 25 18 2 
0.235377 -0.372034 3.01955 192 193 197 
0.677036 -0.951877 11.4039 85 50 30 
0.324944 -1.02466 12.1655 58 33 11 
3.93417 -0.575656 9.17341 136 124 110 
0.396616 -0.361414 3.24093 102 105 110 
0.348868 -0.357791 3.17329 214 215 220 
-0.758846 -1.38439 17.5987 169 162 134 
3.74849 -0.457665 9.02284 120 113 105 
3.71967 -0.434507 8.99411 43 30 22 
-0.157523 -0.869254 12.3929 89 57 34 
3.69025 -0.426208 9.04623 127 119 108 
0.344651 -0.669571 10.9849 86 45 25 
-0.478527 -0.815176 12.9444 132 100 79 
3.59007 -0.287889 8.71042 33 16 9 
4.09875 -0.218521 8.62374 34 15 1 
0.299716 -0.53726 10.5688 52 26 9 
3.55679 -0.178965 8.53803 36 8 4 
0.38967 -0.218801 3.21632 10 13 20 
3.51518 -0.0661779 8.1739 77 60 50 
-0.979983 -0.209626 8.52529 159 151 128 
-0.269088 -0.0970922 7.6887 130 114 99 
-1.12702 -0.128168 8.84031 18 13 7 
-1.54263 -0.148839 9.18377 119 82 64 
2.63368 0.160746 6.10495 116 107 102 
-0.612669 0.0118884 8.05686 255 238 220 
-0.58756 0.0428793 7.82426 163 143 134 
-0.926776 0.286275 5.50727 52 24 13 
-0.90614 0.307091 5.26539 45 28 18 
-0.857499 0.324736 5.21642 34 14 5 
-0.959916 0.322605 5.09495 30 0 0 
0.774141 0.287528 3.25104 84 72 60 
0.295979 0.193401 2.59743 148 140 129 
-0.966793 0.356183 4.83308 70 37 22 
-0.933701 0.370343 4.62227 21 1 0 
0.288673 0.285294 2.60839 109 99 87 
-0.989282 0.417088 4.20751 127 99 85 
0.749548 0.532661 3.26532 112 105 99 
-0.44492 0.159683 1.96891 161 149 135 
0.294205 0.377312 2.61159 152 144 133 
0.785534 0.574171 3.27064 153 154 156 
0.775679 0.579632 3.27104 171 171 171 
-0.146916 0.313547 2.4504 154 153 149 
-0.91907 0.482513 3.63416 61 44 36 
-0.791345 0.494903 3.55628 99 68 65 
-1.04666 0.491222 3.56434 65 31 19 
-0.804873 0.504547 3.41927 254 245 236 
-1.17911 0.48963 3.54554 127 80 64 
0.279883 0.511313 2.64771 144 132 116 
-0.408023 0.550796 3.1652 185 178 170 
0.57619 0.617029 2.89983 120 102 98 
0.268052 0.526677 2.62386 141 129 113 
-0.463633 0.281367 1.97424 192 182 170 
-0.191979 0.470515 2.34466 168 172 175 
0.390386 0.638967 2.63045 178 168 167 
-0.808849 0.571592 2.8808 51 26 21 
-1.07357 0.56114 2.93045 92 44 32 
-0.914715 0.581086 2.80185 45 23 12 
-0.162094 0.560357 2.06684 110 98 82 
-0.0798697 0.56999 2.05885 125 124 122 
-0.175747 0.577799 2.08685 228 216 200 
-0.890598 0.61799 2.47901 177 141 129 
-0.113604 0.59297 2.05138 122 114 103 
-0.476965 0.511858 1.98806 180 165 142 
-0.16893 0.603642 2.07846 181 168 151 
-0.264225 0.653779 2.21917 94 57 49 
-0.716096 0.623065 2.30401 214 199 180 
-0.172111 0.657887 2.08387 161 145 130 
-0.664483 0.641241 2.23616 132 98 86 
-0.198112 0.6735 2.11108 81 76 72 
-0.667229 0.646775 2.21676 39 22 15 
-0.339584 0.667393 2.10537 143 119 115 
-0.451794 0.60028 1.99472 119 105 92 
-0.550686 0.657395 2.12353 179 172 164 
-0.474271 0.636737 2.00545 163 150 133 
-0.722842 0.665895 2.10961 41 22 16 
-0.803361 0.666609 2.0678 214 183 180 
-0.991374 0.670102 2.07892 117 108 91 
-1.01333 0.669868 2.08348 208 205 188 
-0.793026 0.675735 2.01124 226 196 188 
-0.980667 0.672147 2.06726 115 112 97 
-0.858654 0.680539 2.00428 97 101 104 
-0.53283 0.703076 1.88367 75 57 43 
-0.999059 0.682907 1.99078 116 106 94 
-0.823572 0.690571 1.928 162 163 168 
-0.899934 0.689736 1.94552 146 129 119 
-0.994969 0.692071 1.91571 69 50 43 
0.92299 -0.706699 3.98525 65 108 78 
5.20592 -1.20646 10.5139 36 21 14 
0.315201 -0.489939 3.14266 26 30 31 
0.612929 -0.513353 3.55365 7 15 18 
4.69285 -0.891581 9.95735 37 24 15 
0.584573 -0.44286 3.5229 197 198 202 
0.178757 -1.0595 12.5067 123 91 68 
3.99043 -0.511505 9.20749 47 33 20 
3.75765 -0.461726 9.04637 133 127 115 
0.272577 -0.32028 3.06858 210 211 213 
3.70736 -0.432694 8.96966 47 34 26 
3.77711 -0.216467 8.59525 52 37 30 
0.244277 -0.178697 3.00694 6 9 14 
0.317899 -0.106261 3.09221 8 8 16 
-1.47186 -0.169979 9.30198 203 187 164 
-1.11649 -0.0820279 8.7612 102 88 77 
-1.31566 -0.0345605 8.27951 91 66 61 
0.309491 0.121765 2.59252 133 127 115 
1.72678 0.479308 4.62227 35 26 21 
-1.24042 0.349774 4.66011 28 0 1 
-1.19017 0.394631 4.34675 35 1 0 
-1.05987 0.430971 3.89863 65 28 20 
0.791011 0.585056 3.297 166 166 166 
-1.05441 0.482125 3.6514 233 215 203 
-1.06592 0.524182 3.26653 59 40 34 
-0.441751 0.606733 1.99345 119 107 93 
-0.366709 0.671791 2.09065 73 42 40 
-0.47212 0.6782 1.99997 189 183 183 
-0.649435 0.711854 1.83481 49 32 24 
1.24585 -3.21497 18.2822 248 254 250 
-0.694895 -1.82908 18.5655 217 221 207 
-0.522453 -1.88384 19.2522 93 89 64 
-0.327171 -1.62719 18.6867 87 88 54 
0.337592 -0.0832671 3.12482 11 11 9 
-0.392943 0.032077 7.8386 203 190 174 
-0.976401 0.324056 5.011 24 0 0 
-1.05251 0.466056 3.77212 62 42 31 
-0.817755 0.597485 2.64155 47 34 25 
-0.115432 0.499014 2.03608 144 134 124 
-0.744254 0.646825 2.22333 56 37 30 
-0.277273 0.684352 2.04416 77 58 52 
-0.70482 0.684892 1.96683 75 65 56 
-0.624457 -3.02534 19.2374 36 44 21 
-0.771453 0.630691 2.31105 215 165 164 
-0.727358 0.629679 2.27641 211 192 185 
-0.0674728 0.677138 2.0626 158 149 142 
-0.224396 0.682681 2.02981 22 11 7 
-0.418476 0.67712 2.02883 86 74 74 
0.530828 -1.54096 3.21872 44 25 10 
0.468953 -1.50083 3.28872 57 35 22 
0.293043 -1.48257 3.39491 47 29 19 
0.458684 -1.40323 3.32878 98 85 69 
0.252017 -1.40906 3.42599 89 77 65 
0.246381 -1.36344 3.41817 196 185 167 
0.334684 -1.30956 3.35542 115 102 83 
0.228274 -1.29965 3.39469 168 156 142 
0.174807 -1.13975 3.3058 168 162 150 
0.239564 -0.436405 3.02042 213 217 220 
0.372254 -0.000389056 3.15338 121 120 116 
0.769226 0.0297926 3.19344 176 165 161 
1.75892 0.071053 6.44453 166 156 147 
1.77851 0.0754021 6.43623 152 142 133 
1.79164 0.0809372 6.45314 43 33 24 
1.94982 0.0762344 6.39814 83 72 66 
1.84734 0.0824486 6.40695 126 116 107 
1.73788 0.0870988 6.45695 146 136 127 
1.75204 0.0896116 6.44553 167 157 148 
1.95307 0.0891685 6.38273 68 59 50 
1.83143 0.101315 6.42268 56 47 38 
1.8442 0.101167 6.41187 58 49 40 
1.81998 0.105823 6.41909 79 68 62 
1.91428 0.102163 6.39538 117 108 103 
1.77712 0.107806 6.4382 79 66 57 
1.85692 0.105542 6.41124 52 42 33 
1.86913 0.107282 6.40538 33 23 14 
1.83968 0.110252 6.42414 35 24 18 
1.80033 0.11413 6.43584 70 57 48 
1.94733 0.108218 6.38837 105 96 91 
1.74442 0.117621 6.44906 109 96 87 
1.90903 0.112281 6.39863 155 144 140 
1.93594 0.110337 6.38251 117 106 102 
1.85386 0.115899 6.41964 29 19 10 
1.87494 0.115691 6.41265 150 140 131 
1.9607 0.113613 6.37317 132 119 113 
1.76098 0.120741 6.44984 73 60 51 
1.88678 0.117611 6.40539 165 154 148 
1.81709 0.12066 6.43097 171 160 156 
1.94227 0.11664 6.37499 177 160 153 
1.80075 0.126745 6.4347 60 47 39 
1.76906 0.130907 6.441 87 75 63 
1.82722 0.127557 6.4278 164 151 143 
1.89445 0.126457 6.41407 147 134 125 
1.93018 0.125137 6.39285 71 58 50 
1.84028 0.130165 6.42853 155 140 133 
1.86873 0.129607 6.41227 76 62 51 
1.94025 0.126366 6.38256 61 47 38 
1.85874 0.130706 6.40653 153 139 128 
1.72899 0.13738 6.46065 103 90 73 
1.83629 0.135683 6.41756 53 39 26 
1.9011 0.132587 6.39851 160 146 135 
1.92057 0.132663 6.39451 50 36 25 
1.88053 0.140742 6.41235 49 36 20 
1.90172 0.140084 6.40727 24 10 1 
1.95655 0.140176 6.38354 102 88 79 
1.94012 0.143404 6.39817 67 53 44 
1.82168 0.150934 6.4308 89 76 60 
1.847 0.152543 6.42355 108 95 79 
1.94956 0.150897 6.38618 81 67 58 
1.75777 0.161992 6.4562 100 86 73 
1.90885 0.157296 6.41291 116 103 86 
1.81286 0.163586 6.43891 99 85 72 
0.745196 0.0802291 3.1936 149 137 123 
1.77384 0.172714 6.45767 80 66 53 
1.84488 0.170913 6.43194 86 73 57 
1.7584 0.179 6.47739 175 159 146 
0.739786 0.0890505 3.19733 178 164 153 
1.87079 0.184904 6.4315 81 65 52 
1.88563 0.202671 6.42536 90 74 59 
0.743653 0.0991741 3.19453 151 137 126 
1.72254 0.238148 6.50633 99 86 69 
-0.217517 0.114992 2.61531 133 123 111 
1.86943 0.247326 6.44383 79 63 48 
0.75629 0.120678 3.19638 191 175 162 
1.77561 0.257385 6.46311 109 93 78 
1.92099 0.262822 6.43715 76 60 44 
0.737515 0.13048 3.20539 61 48 39 
1.90841 0.274179 6.43292 67 51 36 
0.749665 0.1422 3.19902 78 62 49 
0.326866 0.121219 2.56741 196 186 174 
0.746916 0.167711 3.20791 148 132 117 
0.755148 0.170916 3.2026 154 140 127 
0.745274 0.180602 3.20904 161 148 132 
0.774879 0.181367 3.20447 84 71 62 
0.325568 0.194306 2.57646 159 159 147 
-0.251838 0.224118 2.55338 163 157 141 
0.324254 0.207352 2.57763 143 133 121 
0.338666 0.21836 2.58507 240 230 220 
0.78358 0.274932 3.2227 91 75 62 
0.763303 0.287408 3.22188 172 159 143 
0.742933 0.309197 3.23222 159 146 130 
0.774593 0.311299 3.22668 122 106 91 
0.760992 0.314554 3.22792 103 90 74 
0.753112 0.326499 3.23029 114 100 87 
0.338468 0.271105 2.59056 101 93 82 
0.742755 0.334164 3.23744 94 80 69 
0.751848 0.338143 3.2354 103 89 76 
0.770813 0.346143 3.23136 94 82 68 
0.76253 0.394199 3.23791 49 35 24 
0.776937 0.429192 3.24409 82 70 58 
0.324834 0.360576 2.59396 123 114 105 
0.32672 0.370437 2.59619 111 102 95 
0.767351 0.483154 3.25495 66 55 49 
0.752969 0.531913 3.25918 135 126 119 
-0.0743574 0.354637 2.03489 148 147 142 
0.750912 0.563437 3.26639 112 107 101 
-0.0777708 0.403201 2.0365 133 130 121 
-0.0930599 0.421479 2.0295 140 138 126 
0.0556847 0.568294 2.65035 130 131 126 
-0.362335 0.534353 2.36274 182 175 167 
0.158237 0.606532 2.78516 133 129 120 
-0.0802529 0.458857 2.04087 87 77 68 
0.250716 -0.542273 3.04985 19 20 22 
0.355804 -0.498021 3.18204 42 43 45 
0.220449 -0.354212 2.98921 218 219 223 
0.548427 -0.404494 3.43681 209 208 213 
0.556302 -0.402986 3.44397 14 15 19 
0.309239 -0.331371 3.1109 158 159 161 
0.377031 -0.142305 3.17879 190 194 195 
0.342713 0.00038606 3.11041 94 93 91 
1.73062 0.1006 6.45552 145 132 123 
1.88267 0.0962757 6.41299 39 29 20 
1.78962 0.169774 6.46073 112 98 85 
1.72455 0.187676 6.48307 116 98 84 
-0.0769413 0.222624 2.02212 85 81 70 
-0.071003 0.293604 2.03364 122 119 112 
0.565059 0.517077 3.35639 202 198 195 
0.657495 0.535197 3.48912 52 48 37 
0.597104 0.537276 3.39575 51 47 44 
0.620675 0.539691 3.43018 130 127 122 
0.0144308 0.625262 2.5842 119 112 106 
0.428381 -0.575722 3.28756 172 173 177 
0.585316 -0.440543 3.49055 195 196 198 
0.311047 -0.354619 3.11248 192 193 195 
0.223792 -0.321321 2.9893 169 168 173 
0.609092 -0.364293 3.51474 226 227 229 
1.77077 0.211187 6.46496 197 181 166 
0.75265 0.157046 3.20109 76 62 51 
0.011665 0.361412 2.62006 152 150 138 
0.156051 0.582907 2.78723 89 83 83 
0.119072 0.622633 2.71355 132 122 120 
-0.00360482 0.606888 2.55874 154 156 153 
0.722493 -0.78254 3.70716 109 103 103 
0.410088 -0.582074 3.2712 216 217 222 
0.536746 -0.589843 3.44624 128 127 132 
0.340997 -0.484235 3.16729 38 39 43 
0.194987 -0.390107 2.95945 211 215 218 
0.198624 -0.32823 2.95634 202 206 209 
0.350615 -0.290938 3.1562 27 28 32 
0.270647 -0.228578 3.04302 215 216 220 
0.559662 -0.16142 3.42599 37 37 39 
0.408366 -0.10547 3.21478 17 18 20 
0.531376 0.549789 3.3088 231 227 218 
0.00732799 0.628024 2.57175 109 96 88 
0.486562 -0.00298618 3.30971 59 59 59 
0.0840751 0.111445 2.75611 156 157 152 
0.620029 -0.311222 3.52935 31 32 36 
0.447709 -1.50856 3.31706 113 99 86 
0.322856 -1.51134 3.38446 83 64 47 
0.242417 -1.42226 3.44019 198 185 169 
0.306425 0.184179 2.57821 142 134 123 
0.458787 -1.50512 3.31624 47 29 15 
0.443104 -1.49864 3.32561 24 7 0 
0.742365 0.325534 3.24219 80 66 55 
0.759417 0.324921 3.23713 92 78 65 
0.768453 0.374258 3.24448 116 102 89 
0.258311 -1.50715 3.42242 55 37 27 
0.248036 -1.29145 3.38572 68 56 44 
3.3519 -5.56461 25.976 79 81 78 
3.34172 -5.28374 26.0039 134 135 137 
0.732873 0.337227 3.25231 140 128 116 
0.192917 -1.51939 3.45705 85 66 52 
3.23542 -5.04366 26.2663 82 68 65 
0.780259 0.145532 3.21679 189 175 162 
0.0484115 -1.66466 3.42137 42 22 11 
0.718463 -1.64511 2.97117 131 97 59 
1.00695 -1.7166 3.21191 87 74 68 
0.991927 -1.70678 3.24972 113 107 107 
0.615479 -1.6495 3.03742 68 44 20 
1.03163 -1.70152 3.37213 84 58 33 
0.0413269 -1.66443 2.95274 67 40 21 
0.538436 -1.6438 3.12535 49 28 7 
-0.284267 -1.76364 3.40086 94 66 45 
-0.220792 -1.75541 3.44074 172 145 118 
1.05412 -1.37932 4.2024 126 110 94 
0.839085 -0.956377 3.83524 34 48 35 
0.792782 -0.862772 3.76071 29 54 35 
0.839398 -0.867211 3.82198 13 30 20 
0.962674 -0.848252 3.97811 112 102 90 
0.774662 -0.806538 3.73589 207 242 222 
0.756168 -0.781661 3.71159 196 231 199 
0.974642 -0.825243 4.01006 229 219 207 
0.986775 -0.82442 4.01434 238 228 216 
0.863178 -0.766765 3.84362 209 236 219 
0.927818 -0.775112 3.93191 27 14 6 
0.871671 -0.761797 3.85292 72 99 82 
0.955892 -0.773349 3.97294 66 57 42 
0.962581 -0.768463 3.98216 132 122 112 
0.79326 -0.725625 3.75225 54 67 57 
1.00694 -0.751066 4.03678 232 222 213 
0.988646 -0.746821 4.01799 85 75 66 
1.00951 -0.720149 4.04069 232 222 210 
0.927064 -0.703405 3.92491 204 217 197 
0.745944 -0.669206 3.69739 115 140 118 
0.746403 -0.666319 3.6821 75 99 77 
0.738822 -0.661267 3.67706 230 212 208 
0.239829 -0.549806 3.05782 208 210 209 
0.458358 -0.560145 3.31953 78 78 76 
0.385409 -0.524232 3.22675 125 125 125 
0.356998 -0.502482 3.18851 74 74 72 
0.296236 -0.414657 3.10868 167 167 167 
0.291535 -0.383609 3.10139 90 90 90 
0.208953 -0.34863 3.00368 155 155 155 
0.200241 -0.329024 2.98772 104 104 104 
0.356863 -0.344424 3.17119 180 180 180 
0.289073 -0.318191 3.09157 144 144 146 
0.178804 -0.303714 2.9555 193 193 193 
0.393034 -0.309598 3.21639 210 210 210 
0.409601 -0.300922 3.229 85 85 87 
0.283388 -0.214475 3.07921 56 56 56 
0.944287 -0.267864 3.90642 159 159 161 
-0.0640706 -0.164875 2.79051 209 197 183 
0.563815 -0.186716 3.40942 67 63 62 
-0.173729 -0.127648 2.81632 63 51 35 
-0.173134 -0.109393 2.8089 146 129 103 
-0.0231782 -0.044239 2.70775 181 176 170 
-0.0764059 0.0278539 2.66718 142 133 124 
0.776054 0.0187897 3.17924 204 187 169 
0.769759 0.0279523 3.17054 169 159 150 
0.796008 0.0333438 3.1773 127 114 105 
-0.0541393 0.0757933 2.64955 157 153 142 
0.799475 0.0457457 3.17208 124 119 115 
0.764041 0.0738609 3.16753 174 157 147 
0.759792 0.0830552 3.16584 197 179 165 
0.758303 0.0952385 3.17362 181 158 142 
0.780556 0.0975651 3.17002 115 96 82 
0.766537 0.101681 3.17112 66 48 36 
0.75714 0.106889 3.17044 224 202 189 
0.803135 0.105922 3.18812 255 252 235 
0.743997 0.116219 3.17963 191 178 162 
0.788285 0.112109 3.1728 195 178 162 
0.775413 0.117169 3.17651 231 215 199 
0.32947 0.112744 2.59566 77 64 48 
0.763157 0.122281 3.17324 102 84 70 
0.789836 0.123488 3.17963 196 180 165 
0.752751 0.127287 3.17618 148 132 119 
0.775765 0.130216 3.17575 217 201 188 
0.760308 0.135335 3.17667 161 148 132 
0.750197 0.139771 3.17989 71 55 42 
0.777367 0.140025 3.18142 174 157 147 
0.78605 0.15002 3.18282 56 40 25 
0.343592 0.138866 2.6027 121 108 92 
0.904507 0.197948 3.80865 168 164 153 
0.737864 0.161843 3.19117 147 129 115 
0.785027 0.165225 3.18354 169 151 139 
0.804324 0.171463 3.19716 74 60 47 
0.757316 0.181338 3.18464 55 39 26 
0.775299 0.179341 3.1864 72 60 46 
0.78872 0.178432 3.18833 193 181 169 
0.314204 0.173255 2.5993 135 126 111 
0.349167 0.172723 2.61352 84 72 60 
0.787764 0.190354 3.19025 142 130 118 
0.802775 0.192102 3.19628 89 75 64 
0.340141 0.181591 2.60577 228 220 209 
0.349768 0.183421 2.61645 48 38 28 
0.010205 0.224686 2.70528 176 176 166 
0.802953 0.20699 3.20446 157 143 132 
0.76686 0.209977 3.18874 68 52 39 
0.590549 0.248829 3.40242 136 126 114 
0.92107 0.264102 3.83019 229 225 214 
-0.30236 0.256628 2.63527 120 107 91 
0.803295 0.217201 3.20363 73 56 46 
0.35122 0.20437 2.61994 66 56 46 
0.798528 0.225184 3.19968 157 140 130 
0.342396 0.21042 2.6087 128 118 108 
0.813896 0.23838 3.21783 177 159 145 
0.796257 0.249634 3.20321 75 59 46 
0.357519 0.227325 2.62859 102 92 80 
0.809971 0.250845 3.21894 99 83 67 
0.806979 0.252802 3.20993 170 153 137 
0.339582 0.230944 2.61405 125 113 101 
0.8 0.263651 3.20946 55 38 22 
0.35552 0.245463 2.62601 125 115 103 
0.784065 0.27224 3.20074 94 77 59 
0.80973 0.27205 3.21807 109 92 74 
0.340186 0.252851 2.61622 132 120 106 
0.763855 0.285146 3.20296 160 143 123 
0.795383 0.286509 3.21125 81 63 49 
0.126742 0.312002 2.83677 159 155 143 
0.806645 0.290756 3.21279 114 97 77 
0.35695 0.282788 2.63353 112 100 84 
-0.00458756 0.328155 2.67277 172 165 157 
0.774977 0.338162 3.20923 105 88 72 
0.76892 0.349071 3.21203 79 63 48 
-0.0246049 0.356253 2.65252 225 218 210 
0.799664 0.351752 3.21937 224 208 192 
0.0670789 0.36547 2.75298 136 132 121 
0.108874 0.370707 2.80584 85 75 65 
0.354238 0.319267 2.63313 126 117 102 
0.797996 0.369187 3.22185 116 100 84 
0.343669 0.401516 3.08121 121 116 110 
0.808217 0.371288 3.22455 136 120 104 
0.762849 0.380818 3.21897 82 69 53 
0.762961 0.39189 3.22337 43 29 16 
-0.00907091 0.399616 2.66138 180 176 165 
0.799841 0.39897 3.22829 171 158 142 
1.08256 0.494109 4.00831 126 111 104 
0.646269 0.46214 3.45679 112 110 98 
1.00398 0.495263 3.91564 139 130 123 
0.990895 0.5058 3.89254 117 113 102 
1.00902 0.506893 3.90933 133 122 116 
-0.00787771 0.420406 2.66234 163 160 151 
0.970782 0.508261 3.86679 81 72 65 
0.777439 0.426082 3.22459 79 63 50 
0.962075 0.509256 3.84911 179 170 161 
0.943847 0.512525 3.84201 206 203 198 
0.959755 0.517571 3.85932 105 98 88 
0.924035 0.514427 3.80925 154 145 136 
0.402263 0.463988 3.14481 166 163 154 
0.879137 0.511516 3.75998 163 159 147 
0.63992 0.490339 3.4473 37 34 25 
0.866627 0.516475 3.73835 242 238 226 
0.610318 0.492476 3.41139 74 65 58 
0.907189 0.521256 3.79061 159 150 141 
0.96854 0.519908 3.82871 114 103 97 
0.360326 0.39163 2.65215 40 32 21 
0.874767 0.521594 3.75429 205 201 189 
0.624314 0.499187 3.43037 78 73 70 
0.86699 0.526747 3.72855 97 94 89 
0.884974 0.528162 3.74403 107 98 91 
0.5948 0.501725 3.38799 111 108 99 
0.611682 0.505844 3.41056 91 86 80 
0.822517 0.453699 3.25637 100 84 69 
0.626648 0.513711 3.42774 69 64 60 
0.442779 0.499835 3.19595 174 171 162 
0.646932 0.523493 3.45145 50 47 40 
0.0814556 0.47029 2.75978 136 127 120 
0.0962041 0.471727 2.77367 141 134 124 
0.654316 0.528467 3.46427 45 39 25 
0.395838 0.50227 3.13747 163 164 158 
0.619749 0.529369 3.41548 121 116 113 
0.586665 0.529117 3.37177 140 135 131 
0.608056 0.531792 3.40418 23 18 15 
0.528937 0.525914 3.30246 143 139 127 
0.648675 0.539795 3.45931 32 25 15 
0.643083 0.539329 3.44952 86 83 76 
0.598057 0.537235 3.38939 28 23 20 
0.604781 0.541838 3.40089 108 103 100 
0.389361 0.520105 3.12702 184 181 176 
0.546858 0.5379 3.327 97 93 90 
0.618475 0.548063 3.40779 68 60 58 
0.564896 0.5437 3.34723 96 92 89 
0.576964 0.553971 3.36578 88 84 75 
0.570536 0.553271 3.35246 96 91 87 
0.546537 0.555014 3.3186 70 62 51 
0.557407 0.557161 3.33998 143 133 124 
0.509725 0.555687 3.27912 216 208 197 
0.499277 0.555433 3.2639 146 139 129 
0.532682 0.559478 3.30783 209 196 187 
0.578498 0.562182 3.35085 53 46 40 
0.0957598 0.512082 2.77099 123 114 107 
0.526705 0.559092 3.29764 195 185 175 
0.435839 0.550607 3.18546 124 122 110 
0.388183 0.546661 3.126 164 164 156 
0.541299 0.565218 3.31879 173 160 151 
0.467042 0.557057 3.22106 142 134 121 
0.502806 0.565541 3.26626 212 203 188 
0.518006 0.566804 3.27921 172 156 143 
0.526577 0.56872 3.29124 145 133 121 
0.496579 0.566378 3.2461 76 67 58 
0.751327 0.530667 3.24251 130 120 111 
0.467058 0.565751 3.21587 152 142 130 
0.456643 0.566827 3.20764 231 219 207 
0.474679 0.571292 3.22635 111 101 89 
0.43799 0.567527 3.1771 62 54 43 
0.447162 0.569152 3.19148 122 113 98 
0.486268 0.573635 3.23986 51 39 25 
0.496032 0.576739 3.24879 110 97 91 
0.428825 0.573503 3.16544 143 135 122 
0.46091 0.578448 3.20843 76 72 60 
0.468695 0.58038 3.2148 50 41 32 
0.479941 0.58085 3.23034 112 102 92 
0.387164 0.571995 3.12055 150 140 131 
0.332705 0.567424 3.0537 125 122 115 
0.396151 0.57671 3.12652 89 81 68 
0.447884 0.583065 3.19407 71 61 51 
0.864111 0.561086 3.36613 150 133 126 
0.380848 0.574522 3.10693 108 98 89 
0.356492 0.574456 3.07627 218 216 204 
0.492439 0.584076 3.20907 8 0 0 
0.34708 0.575364 3.06887 134 131 126 
0.375076 0.578691 3.09578 219 209 199 
0.408046 0.582418 3.13497 126 116 104 
0.0656021 0.546299 2.7349 133 126 118 
0.699441 0.573355 3.26999 87 84 77 
0.604011 0.578558 3.22706 114 106 104 
0.320924 0.577041 3.02726 109 100 91 
0.338195 0.581959 3.05644 87 83 74 
0.386329 0.588017 3.11946 96 83 75 
0.352146 0.585143 3.07374 146 142 133 
0.358472 0.585811 3.08164 242 238 229 
0.381602 0.588959 3.11041 122 112 103 
0.327071 0.582331 3.03958 115 111 100 
0.365643 0.590697 3.09111 219 210 203 
0.11217 0.560953 2.78171 130 126 117 
0.712556 0.574257 3.23826 42 37 33 
0.821123 0.566045 3.264 105 100 94 
0.345143 0.590541 3.05966 191 182 175 
0.782161 0.57097 3.24292 70 70 70 
0.32996 0.592452 3.04422 89 79 70 
0.922977 0.566978 3.30073 115 104 102 
0.869799 0.57133 3.2838 179 175 174 
0.804168 0.572758 3.24084 77 77 77 
0.377229 0.597667 3.07096 45 30 23 
0.334098 0.602666 3.05429 29 19 10 
0.514806 0.595092 3.11789 45 32 26 
0.11896 0.591834 2.79123 74 69 63 
0.0518045 0.591299 2.7156 129 129 119 
0.148345 0.605355 2.82463 44 37 29 
0.0165222 0.612694 2.67608 146 142 139 
0.0590087 0.618796 2.72185 112 103 96 
0.065369 0.62302 2.73032 187 174 165 
0.083204 0.625246 2.74794 149 139 130 
0.108599 0.632355 2.77713 15 4 0 
-0.16875 0.604553 2.48093 150 151 146 
-0.0547347 0.615344 2.59813 157 156 151 
0.0554083 0.63325 2.72258 93 79 70 
0.068807 0.634092 2.72931 125 112 104 
0.0777428 0.635476 2.73959 118 105 97 
0.0470715 0.63727 2.70695 157 147 138 
0.0239891 0.638469 2.67871 103 94 89 
-0.0290104 0.634763 2.63003 144 141 136 
-0.0387043 0.632094 2.61042 219 218 216 
0.0374714 0.641426 2.68934 213 203 194 
-0.0616343 0.635821 2.59012 128 127 123 
0.0126587 0.643389 2.66692 81 71 62 
-0.0350649 0.641166 2.61835 137 132 126 
-0.0203359 0.648293 2.63763 95 87 74 
-0.0955293 0.638771 2.55006 149 148 143 
-0.0933981 0.640555 2.55948 138 137 132 
-0.00449994 0.650221 2.64351 147 134 126 
-0.0261795 0.649931 2.62469 180 170 161 
-0.0649211 0.646822 2.58609 76 67 62 
-0.0432639 0.647382 2.59997 176 163 155 
-0.518147 0.690125 2.45897 162 146 131 
-0.495783 0.684409 2.4523 162 146 130 
-0.0513216 0.650244 2.59409 157 148 139 
-0.113832 0.649789 2.53543 145 140 137 
-0.0773942 0.652718 2.57074 76 65 59 
-0.0715551 0.653773 2.5801 155 144 140 
-0.0326518 0.653435 2.60046 37 20 4 
1.05901 0.594514 3.0393 203 180 174 
-0.132879 0.647547 2.51093 204 199 195 
-0.0887531 0.655927 2.55676 121 112 105 
-0.102989 0.657954 2.54251 121 112 105 
-0.11431 0.664653 2.55431 171 162 157 
-0.120797 0.659808 2.52627 119 110 105 
-0.462832 0.692248 2.43002 79 64 45 
-0.170911 0.661534 2.47771 138 134 133 
-0.102352 0.664714 2.53074 153 139 136 
-0.156354 0.665046 2.49231 123 120 113 
-0.145024 0.667488 2.50633 184 175 166 
-0.113652 0.667583 2.5217 65 57 46 
-0.134864 0.6708 2.50109 131 118 110 
-0.184993 0.669946 2.4638 103 95 92 
-0.174118 0.67197 2.4739 145 138 132 
-0.194415 0.676751 2.45674 77 72 68 
-0.141431 0.675851 2.48497 128 121 113 
0.0201928 0.662418 2.53247 131 116 111 
-0.162797 0.679979 2.46796 120 107 99 
-0.0946924 0.6826 2.43081 214 195 188 
-0.0670294 0.68152 2.43112 43 23 14 
0.825424 0.642196 2.6042 74 56 46 
0.0837882 0.694564 2.28191 164 144 137 
0.0289075 0.700436 2.24233 230 211 204 
0.114757 0.69753 2.26047 178 154 144 
0.373978 0.688317 2.28459 159 127 116 
0.668238 0.671023 2.38462 169 141 137 
0.758973 0.667526 2.40089 174 144 133 
0.55266 0.682522 2.31633 158 135 127 
0.392575 0.695945 2.20219 79 52 35 
0.538126 0.691441 2.21189 179 131 117 
0.0767958 -1.67155 3.00714 43 20 2 
0.117474 -1.05192 3.333 202 189 172 
0.717641 -0.904627 3.68337 226 234 223 
0.837993 -0.883932 3.81408 173 207 182 
0.865246 -0.822938 3.85655 47 78 62 
0.817913 -0.808458 3.79867 216 232 221 
0.895897 -0.804413 3.89521 51 77 50 
0.866081 -0.776623 3.85223 205 243 206 
0.831366 -0.761587 3.80438 215 239 217 
0.85319 -0.76859 3.84242 188 226 201 
0.649374 -0.502772 3.53961 59 61 60 
0.26307 -0.450817 3.08307 45 45 45 
0.230571 -0.37405 3.02375 192 192 192 
0.601261 -0.384904 3.47434 191 191 191 
0.314774 -0.342052 3.12564 124 124 124 
-0.155309 -0.168673 2.84106 142 127 106 
0.234919 -0.173808 3.0146 223 221 224 
0.0858844 0.0717632 2.81063 49 40 31 
0.804194 0.0892868 3.18742 247 241 241 
0.917287 0.154338 3.82967 145 138 128 
0.350934 0.118344 2.60845 183 167 151 
-0.00207976 0.308421 2.68109 141 137 126 
0.399995 0.374104 3.1527 151 148 141 
1.00758 0.490481 3.93134 236 227 220 
0.893145 0.520143 3.76574 212 205 197 
0.565672 0.515989 3.34896 191 186 180 
0.556615 0.517715 3.33989 118 113 107 
0.633374 0.531886 3.44033 108 103 99 
0.594866 0.527822 3.38159 159 154 151 
0.584887 0.543425 3.3656 61 56 53 
0.582736 0.569743 3.33609 6 0 0 
0.517359 0.575674 3.28426 179 166 158 
0.365956 0.573663 3.08963 209 202 192 
0.48795 0.586632 3.22125 8 0 0 
0.121142 0.603708 2.7937 98 89 82 
0.441187 0.610512 2.95484 133 116 108 
-0.162014 0.675967 2.4799 139 130 123 
0.516481 0.650297 2.60483 80 53 46 
0.801294 0.639001 2.67469 135 116 110 
0.180819 0.689084 2.30208 165 135 124 
0.284199 0.700509 2.18706 160 147 139 
0.611744 0.6891 2.24487 187 157 147 
0.53917 -1.6321 2.90381 52 28 16 
0.0910401 -1.65966 2.96866 61 35 22 
1.04924 -1.7038 3.39857 58 30 9 
-0.208896 -1.70498 3.08881 29 1 0 
0.183997 -1.70928 3.24657 16 2 1 
-0.236135 -1.71284 3.13752 168 141 122 
-0.103211 -1.74183 3.47123 83 55 33 
0.758662 -1.49648 3.72099 12 2 0 
1.02853 -1.37832 4.17677 104 87 79 
0.972575 -0.88078 4.01098 95 86 69 
0.856613 -0.83826 3.84897 193 227 192 
0.898633 -0.824374 3.8969 29 52 32 
0.723417 -0.784084 3.67456 64 53 49 
0.740285 -0.785361 3.69926 208 229 210 
0.936762 -0.811283 3.95217 84 75 60 
0.835136 -0.736658 3.80969 200 230 204 
0.404992 -0.537022 3.25682 224 224 224 
0.271176 -0.504664 3.08877 213 212 217 
0.359237 -0.509336 3.19592 177 177 177 
0.673919 -0.506698 3.58179 209 209 209 
0.686744 -0.47936 3.59203 52 54 53 
0.272473 -0.407426 3.08333 212 212 212 
0.179459 -0.345105 2.97063 18 18 18 
0.333543 -0.349692 3.15056 54 54 54 
0.630563 -0.346931 3.50816 219 219 219 
0.639236 -0.345119 3.51589 219 223 222 
0.184962 -0.294049 2.95224 193 193 191 
0.278113 -0.24478 3.07539 79 78 83 
0.316795 -0.219305 3.11169 146 146 146 
0.37648 -0.204414 3.18636 211 211 213 
