ply                 
format ascii 1.0    
element vertex 1235
property float x    
property float y    
property float z    
property uchar red  
property uchar green
property uchar blue 
end_header          
-0.298551 -0.379035 1.17967 74 56 68 
-0.297807 -0.246033 1.16584 136 114 127 
-0.295181 -0.188524 1.15878 130 108 129 
-0.287187 -0.386502 1.17545 79 65 78 
-0.286077 -0.247911 1.1624 77 55 67 
-0.28107 -0.41098 1.17509 79 61 75 
-0.273807 -0.398688 1.17343 128 111 130 
-0.226207 -0.18161 1.05896 77 27 36 
-0.256616 -0.372078 1.16284 74 60 83 
-0.255322 -0.38241 1.16399 76 55 70 
-0.24458 -0.326297 1.15459 70 47 67 
-0.0985716 0.21606 0.731196 115 76 97 
-0.234727 -0.402836 1.15586 72 57 78 
-0.187869 -0.264638 1.01822 85 41 56 
-0.234091 -0.347631 1.15154 130 112 134 
-0.225192 -0.384142 1.15135 70 55 74 
-0.222549 -0.357548 1.14996 90 66 80 
-0.21299 -0.357947 1.14628 63 45 57 
-0.20474 -0.40585 1.14817 81 66 89 
-0.203576 -0.384135 1.14323 86 70 97 
-0.1824 0.0179477 1.06126 50 23 30 
-0.188153 -0.382466 1.13961 78 63 86 
-0.184871 -0.360934 1.13482 76 55 74 
-0.146589 -0.270293 1.01557 59 16 25 
-0.178141 -0.385482 1.13299 76 55 74 
-0.171175 -0.409177 1.1336 75 59 85 
-0.151452 -0.00674463 1.0286 56 25 31 
-0.139348 -0.326183 1.03226 142 91 110 
-0.0533949 0.235974 0.70572 71 55 68 
-0.136861 -0.186959 1.01462 69 36 43 
-0.131002 -0.334591 1.02941 54 31 39 
-0.160283 -0.407714 1.12875 53 35 49 
-0.155523 -0.391018 1.12713 55 41 67 
-0.129376 -0.13196 1.02277 28 13 16 
-0.124974 -0.156411 1.0278 59 23 27 
-0.122828 -0.0929834 1.02253 122 65 72 
-0.141348 -0.386213 1.1215 67 50 69 
-0.107785 0.147086 0.948883 141 103 118 
-0.105171 -0.148227 1.02113 61 31 41 
-0.0865144 -0.29959 0.988533 40 21 23 
-0.119254 -0.386605 1.11287 71 54 72 
-0.0863116 -0.274688 0.998809 86 44 54 
-0.0853435 0.0508378 0.978939 83 71 55 
-0.102748 -0.387704 1.10719 84 68 94 
-0.0626313 -0.251468 0.978941 44 24 25 
-0.0896156 -0.385421 1.10006 83 48 68 
-0.0777087 -0.02756 1.00555 139 117 80 
-0.0637872 0.152102 0.931983 62 49 56 
-0.0773772 -0.385699 1.09552 59 38 57 
-0.00871729 0.175379 0.742843 110 58 81 
-0.0722424 0.00132063 1.01812 60 33 16 
-0.0583766 -0.330462 1.02159 141 110 125 
-0.05436 -0.335849 1.00915 71 24 30 
-0.0654206 0.0139928 1.00767 174 158 133 
-0.0617112 -0.0794902 1.00858 35 16 18 
-0.00480219 0.19833 0.741253 99 61 84 
-0.00319247 0.217174 0.737083 123 81 101 
-0.0609526 -0.387 1.08292 36 25 29 
-0.0449969 -0.311901 1.00803 80 32 46 
-0.0487427 0.0466538 0.97498 102 76 77 
-0.0420744 -0.324079 1.01239 144 89 108 
-0.027938 -0.308618 0.998369 83 41 55 
-0.0290109 -0.0883168 0.987373 125 74 83 
-0.0164024 -0.310897 0.995356 153 102 121 
-0.0224147 -0.385889 1.074 68 44 57 
-0.00496585 -0.179789 0.962759 64 32 37 
0.000472177 -0.206612 0.966826 67 27 36 
-0.00545859 -0.387296 1.06959 77 57 82 
0.00454991 -0.0950883 0.965626 130 74 87 
0.00945092 -0.183812 0.976689 58 23 30 
0.0377834 0.222316 0.754639 167 119 141 
0.00748295 -0.362388 1.06123 138 123 144 
0.0160645 0.126157 0.916541 135 89 102 
0.0183021 -0.0831369 0.956002 70 35 33 
0.0149237 0.0871448 0.946306 160 106 120 
0.0187551 -0.360686 1.0587 91 57 84 
0.0199248 -0.0699682 0.985509 47 19 18 
0.0224961 -0.336433 1.05373 65 39 66 
0.0301427 -0.0887359 0.990918 58 28 38 
0.0399431 -0.200204 0.971335 72 32 43 
0.0386645 -0.367459 1.05045 94 71 91 
0.0388877 -0.332289 1.04662 90 60 72 
0.0541909 -0.333187 1.04148 95 63 78 
0.0490248 0.0604132 0.97181 70 33 40 
0.057964 -0.372069 1.04415 81 63 87 
0.0637434 -0.257821 0.973853 108 70 81 
0.0656991 0.207705 0.854752 88 49 68 
0.0640443 -0.333585 1.03741 97 65 86 
0.0716292 -0.362014 1.03843 86 62 78 
0.0762395 -0.174956 0.944411 50 24 23 
0.0757237 -0.296377 1.02943 97 68 90 
0.0767579 0.231919 0.859635 152 109 129 
0.081252 -0.274371 1.02292 104 82 103 
0.0848648 -0.335594 1.03075 65 46 65 
0.0854686 -0.358747 1.03388 94 74 102 
0.0803972 0.229696 0.876676 66 49 57 
0.0857043 0.24638 0.855819 53 42 50 
0.0936169 -0.362947 1.02894 94 64 88 
0.0957645 -0.331619 1.02641 130 120 145 
0.102652 0.105347 0.886553 66 38 50 
0.0997565 0.236231 0.861964 70 39 47 
0.108513 -0.330743 1.01914 93 79 104 
0.112485 0.250101 0.737945 128 133 153 
0.11659 -0.366254 1.0204 74 52 65 
0.105883 0.227171 0.867018 154 107 127 
0.126306 -0.364504 1.0169 90 60 84 
0.128575 -0.334352 1.01276 96 65 83 
0.136606 -0.35947 1.01229 77 57 84 
0.144002 -0.33585 1.0088 94 69 91 
0.152813 -0.336649 1.00351 124 106 122 
0.153651 -0.287203 0.997213 97 70 87 
0.142543 0.172172 0.860875 61 31 41 
0.166849 -0.3456 0.999336 121 104 123 
0.156575 0.0378615 0.912091 72 35 42 
0.174122 -0.334796 0.99528 98 67 83 
0.177704 -0.352259 0.994836 92 63 83 
0.159079 0.227677 0.847565 125 82 102 
0.182305 -0.327059 0.99051 103 78 97 
0.189769 -0.335318 0.991072 86 54 75 
0.200345 -0.336185 0.986222 91 59 80 
0.18689 0.0306253 0.958178 64 41 59 
0.192204 0.126347 0.919273 73 37 47 
0.206264 -0.144168 0.967244 87 72 101 
0.215342 -0.336789 0.981296 83 52 68 
0.203445 -0.0453726 0.957734 72 48 61 
0.198531 0.0889553 0.948717 128 120 144 
0.205146 0.122899 0.940773 134 126 149 
0.203783 0.210386 0.933989 57 41 52 
0.203936 0.2267 0.931793 54 48 60 
0.211161 0.0818576 0.941342 74 52 65 
0.211745 0.0998633 0.939765 72 54 76 
0.208895 0.17771 0.934366 108 100 123 
0.232015 -0.337978 0.973668 120 107 125 
0.215669 0.24291 0.908938 56 52 66 
0.246202 -0.337236 0.968627 74 55 74 
0.259488 -0.32175 0.961137 80 56 78 
0.261371 -0.332883 0.961164 72 58 84 
0.248235 0.0798447 0.92807 129 108 125 
0.243623 0.211657 0.919648 46 30 41 
0.257877 0.0914034 0.923514 132 111 128 
0.249365 0.264196 0.88778 107 119 133 
0.282483 -0.302912 0.952804 129 115 140 
0.305805 -0.319306 0.94339 78 59 79 
0.299817 0.120168 0.908533 133 116 135 
0.373699 -0.010939 0.888857 119 99 111 
0.36591 0.143984 0.87631 62 45 61 
0.387589 -0.195283 0.899566 84 66 82 
0.390159 -0.0443122 0.883968 144 121 139 
0.393312 0.0641505 0.876016 137 114 122 
0.402496 0.0509464 0.87247 77 53 69 
0.451984 -0.196885 0.939434 71 62 67 
0.468526 -0.298466 0.976133 162 178 211 
0.485336 -0.124399 0.969067 159 174 213 
0.470474 0.17573 0.930543 53 62 95 
0.47372 0.180789 0.922306 61 85 121 
-0.547085 -0.0242567 1.23456 68 71 106 
-0.544196 -0.194326 1.24724 117 115 154 
-0.524574 0.259444 1.19078 87 75 95 
-0.529763 0.195614 1.20678 110 100 124 
-0.44359 -0.233629 1.2122 126 100 113 
-0.444594 -0.175971 1.21066 125 102 120 
-0.453553 0.112089 1.21389 21 28 47 
-0.20224 0.217878 0.768103 104 71 90 
-0.156714 0.216735 0.750716 107 72 92 
-0.320238 -0.165124 1.16459 47 33 48 
-0.307172 -0.192241 1.1625 73 52 67 
-0.272888 -0.248843 1.15531 69 48 65 
-0.118002 0.215799 0.736052 111 78 97 
-0.157316 0.102533 0.848904 81 40 56 
-0.134749 -0.150799 1.00189 141 87 103 
-0.141497 0.069898 1.01568 64 24 33 
-0.114136 -0.0814112 1.0272 56 24 27 
-0.245349 0.178817 1.49068 82 48 65 
-0.122307 0.138908 1.15801 82 56 69 
-0.0507831 -0.255532 0.963944 115 75 86 
-0.026607 -0.271331 0.952632 50 23 28 
-0.125588 0.177247 1.46498 64 38 51 
0.0541941 0.108603 0.758811 59 33 42 
0.07608 0.130201 1.0959 72 51 58 
0.155382 0.15159 0.848081 41 30 28 
0.177189 -0.109509 0.97232 79 54 75 
0.224044 -0.0591618 0.948619 63 45 57 
0.23496 0.0974994 0.929437 82 64 80 
0.267121 -0.302605 0.955249 78 60 74 
0.257244 -0.0235403 0.931338 135 112 128 
0.274498 -0.287547 0.948842 75 55 80 
0.293404 0.0283954 0.913614 85 61 85 
0.315591 -0.31059 0.935372 78 56 79 
0.31537 0.0764248 0.898415 146 118 130 
0.332473 -0.226457 0.922757 81 62 81 
0.35032 -0.305419 0.922145 81 64 80 
0.347276 0.0522447 0.890009 92 67 88 
0.384312 -0.12053 0.891255 95 71 85 
0.403996 -0.276296 0.897037 90 63 82 
0.400389 0.211041 0.85354 116 103 120 
0.625993 -0.267799 1.47905 65 85 122 
-0.52184 -0.279811 1.24733 91 72 94 
-0.483217 -0.056674 1.21311 77 65 85 
-0.457689 -0.276743 1.22295 140 123 142 
-0.393459 -0.19213 1.19216 80 57 67 
-0.279274 0.112937 1.02352 127 85 99 
-0.325622 -0.066969 1.15621 84 60 76 
-0.244647 -0.250015 1.1414 79 57 70 
-0.141216 0.0229878 1.01913 68 35 46 
-0.110781 -0.0805016 1.01586 56 24 27 
-0.0733043 -0.161914 0.997733 136 89 107 
0.0291841 -0.257433 0.95048 99 59 68 
0.0630048 0.0206688 0.950155 74 29 34 
0.105447 -0.2695 1.00959 110 72 97 
0.10636 0.106764 0.879555 134 90 105 
0.128068 0.213661 0.859474 79 43 55 
0.151849 -0.221688 0.988817 87 64 84 
0.16863 -0.185394 0.981202 96 78 104 
0.198817 -0.0766967 0.956799 153 134 156 
0.234658 -0.113618 0.951456 123 120 137 
0.24906 -0.248515 0.95432 66 51 58 
0.252543 -0.185801 0.947836 69 52 70 
0.277942 -0.0801139 0.927954 83 59 75 
0.272899 0.0655201 0.914273 155 131 145 
0.278673 0.224056 0.897271 103 77 90 
0.309592 -0.275009 0.932994 130 108 129 
0.321141 -0.0826513 0.912486 78 50 64 
0.327879 0.0972586 0.890645 85 59 68 
0.342441 -0.0475435 0.900286 60 43 53 
0.339869 0.118635 0.886116 89 69 96 
0.338267 0.148471 0.882767 129 115 130 
0.40185 -0.234075 0.892939 153 130 150 
0.385513 0.209861 0.85862 57 44 61 
-0.488772 0.249258 1.18279 70 59 76 
-0.485657 -0.220859 1.20751 135 114 131 
-0.485454 -0.0907034 1.21394 72 55 74 
-0.464286 0.0577938 1.19356 73 66 82 
-0.413388 0.194195 1.1603 39 35 49 
-0.408129 0.108415 1.16585 121 109 129 
-0.295912 0.128239 1.02803 44 38 42 
-0.331376 -0.167242 1.16461 69 51 73 
-0.321084 -0.190909 1.16088 68 51 61 
-0.314949 -0.246007 1.16412 72 47 66 
-0.295421 -0.24404 1.15632 133 115 129 
-0.274479 -0.129774 1.13912 64 43 50 
-0.229169 0.0711832 1.06939 53 22 37 
-0.220917 -0.0976097 1.05688 126 72 85 
-0.179505 0.0677352 1.05054 60 27 36 
-0.147972 0.245714 0.984482 76 45 61 
-0.109625 0.214819 0.729888 103 70 89 
-0.14251 -0.0228791 1.01948 61 33 47 
-0.112124 -0.260137 1.03687 43 22 21 
-0.104251 -0.146584 1.01188 58 31 38 
-0.0497645 -0.153065 0.993494 58 29 34 
-0.0483782 -0.270761 0.978144 137 81 92 
-0.0330538 -0.120318 0.984152 48 28 30 
-0.0279582 0.15003 0.911182 64 49 54 
-0.0115271 0.142507 0.90537 150 108 122 
0.00538053 0.108569 0.77119 77 40 57 
0.0159217 0.12532 0.910118 134 88 101 
0.0251407 0.112562 0.758142 70 40 48 
0.152612 -0.285272 0.990596 91 68 88 
0.157837 0.225937 0.841078 120 81 99 
0.204487 -0.142879 0.959032 78 62 89 
0.246437 0.0793256 0.921421 129 107 120 
0.259487 -0.330442 0.954282 67 54 80 
0.255973 0.0906493 0.916756 131 113 129 
0.303565 -0.316968 0.936534 78 59 79 
0.368938 -0.333054 0.913534 73 54 74 
0.363142 0.142948 0.869716 62 46 59 
0.384852 -0.193903 0.893245 81 62 82 
0.38236 0.115363 0.865656 124 97 106 
0.398962 -0.305234 0.899185 78 64 89 
0.503642 0.0626086 0.889991 148 168 201 
-0.43922 0.248062 0.812659 144 161 177 
-0.490761 0.276287 1.14535 83 93 85 
-0.510786 -0.159777 1.22694 99 75 99 
-0.508995 -0.171725 1.22746 84 67 86 
-0.501503 -0.220302 1.23053 90 67 83 
-0.440607 0.265838 1.00029 43 58 51 
-0.490813 -0.161089 1.22083 90 67 83 
-0.481678 0.110022 1.19124 76 62 79 
-0.472805 -0.226251 1.21979 138 117 132 
-0.46606 -0.15188 1.20833 80 61 83 
-0.465924 -0.168817 1.21192 132 117 136 
-0.45363 -0.014352 1.19403 88 69 88 
-0.45285 -0.096111 1.19856 124 106 130 
-0.441467 0.230255 1.16578 113 109 132 
-0.445088 -0.188267 1.20562 77 54 70 
-0.445762 -0.244688 1.21161 79 55 69 
-0.425174 0.0176346 1.1782 73 63 88 
-0.426056 -0.098473 1.1896 121 102 122 
-0.411606 0.250345 1.15211 47 46 60 
-0.414351 -0.0399412 1.18112 70 54 83 
-0.398747 -0.11681 1.18193 66 58 82 
-0.388782 0.26212 1.12701 91 84 92 
-0.395374 -0.257831 1.19611 75 63 87 
-0.388406 0.0830647 1.16005 64 49 68 
-0.385085 -0.0138658 1.17098 77 60 79 
-0.379359 0.227937 1.14253 48 37 51 
-0.38033 0.0305182 1.16202 65 51 66 
-0.348744 0.242295 1.02345 136 93 113 
-0.369272 -0.296713 1.18905 77 59 73 
-0.361809 0.103669 1.14982 45 36 41 
-0.364103 -0.10424 1.1698 72 57 76 
-0.359163 -0.226559 1.17819 71 54 73 
-0.354601 0.0102857 1.15807 56 43 61 
-0.356315 -0.25838 1.17921 92 61 76 
-0.347591 0.107772 1.1446 37 29 40 
-0.346478 0.0932038 1.14292 30 22 33 
-0.347648 -0.0362953 1.15632 121 94 109 
-0.338077 -0.28289 1.17603 85 58 73 
-0.325631 0.0444891 1.13948 59 42 50 
-0.313763 0.0895482 1.06706 149 95 111 
-0.30292 -0.228192 1.15697 91 68 88 
-0.261359 0.247554 0.775717 49 35 48 
-0.284302 0.0632513 1.0693 139 87 109 
-0.291045 -0.175503 1.14818 89 64 86 
-0.282063 -0.0657349 1.13484 79 60 79 
-0.269221 0.106504 1.04987 70 51 55 
-0.241962 -0.288988 1.14036 78 58 70 
-0.236797 -0.207551 1.13096 78 56 69 
-0.233177 -0.0326134 1.07371 78 31 39 
-0.232713 -0.0460227 1.07377 119 68 77 
-0.23413 -0.268079 1.13513 57 34 42 
-0.224122 -0.252715 1.13226 132 117 136 
-0.219048 -0.0700185 1.07024 102 55 61 
-0.209802 0.163909 0.775936 74 34 45 
-0.214535 -0.250963 1.12698 86 62 78 
-0.213506 -0.288082 1.12989 76 59 77 
-0.195163 -0.237053 1.11671 50 38 58 
-0.194125 -0.0793729 1.06192 109 64 71 
-0.191778 -0.290535 1.12187 87 61 90 
-0.192493 -0.253273 1.00121 127 111 137 
-0.18833 -0.0293276 1.06111 55 28 35 
-0.181335 -0.252079 1.01176 115 65 68 
-0.175377 -0.306714 1.1168 74 58 85 
-0.168702 0.0346141 1.04788 47 20 27 
-0.149886 -0.00776777 1.01981 57 24 33 
-0.14577 -0.267788 1.00794 54 16 27 
-0.136827 -0.177926 1.0071 107 70 78 
-0.136213 0.129239 0.966484 83 46 63 
-0.135371 0.116 0.967513 82 48 64 
-0.130954 0.215113 0.737063 116 82 99 
-0.105243 0.052282 0.985549 113 87 72 
-0.125688 0.221962 0.727416 79 46 57 
-0.0998601 -0.268464 0.99504 140 87 103 
-0.109531 -0.234111 0.868711 82 30 52 
-0.0912942 0.0214558 0.967241 96 83 77 
-0.0908811 -0.268002 0.988354 143 89 102 
-0.11172 0.165132 0.73818 98 48 60 
-0.0740427 -0.132197 1.00013 129 76 86 
-0.0767853 -0.272214 0.988095 80 34 44 
-0.0731546 -0.079665 0.991944 130 113 97 
-0.0713681 -0.0504986 0.990688 184 171 152 
-0.101535 0.200635 0.730996 101 52 71 
-0.0632332 -0.0314502 0.994671 133 105 84 
-0.0713672 0.141685 0.909408 141 107 121 
-0.0600357 -0.119004 0.996434 50 21 23 
-0.0451957 -0.28228 1.09125 49 24 27 
-0.0641102 0.150814 0.922865 63 47 57 
-0.042607 0.054046 0.962064 52 30 33 
-0.0259461 -0.0094413 0.973823 67 30 38 
-0.0235989 0.100996 0.942537 104 62 74 
-0.0648062 0.160571 0.720749 83 47 61 
-0.0158851 0.00634724 0.967033 62 35 44 
-0.0136046 0.0518162 0.963935 64 32 43 
-0.0549254 0.128507 0.710353 116 63 71 
-0.00517773 -0.178022 0.954196 69 30 33 
0.375749 -0.404044 2.70431 54 23 21 
0.00495314 -0.0403208 0.963881 56 25 33 
0.00493206 0.0183167 0.959272 54 18 30 
-0.0389391 0.213986 0.71507 129 97 118 
0.0238288 0.0984196 0.933948 70 49 58 
0.0358727 -0.154107 0.980664 99 59 67 
0.0584883 -0.32328 1.0282 104 69 91 
0.050855 0.0184521 0.956087 123 70 78 
0.0557282 0.101162 0.937579 100 59 67 
0.102018 0.00876938 0.94945 72 40 55 
0.100419 0.0385551 0.932817 139 85 101 
0.109481 -0.00280647 0.940603 110 63 71 
0.150486 -0.313766 0.99473 92 74 98 
0.179345 -0.224358 0.975533 86 71 92 
0.156954 0.0501793 0.901701 81 50 65 
0.143332 0.183118 0.854093 62 34 46 
0.21984 0.0880756 0.929297 146 122 138 
0.260364 -0.26333 0.948507 89 66 82 
0.265641 -0.0460342 0.927488 67 43 59 
0.280808 0.0144485 0.915022 89 65 79 
0.289138 0.192202 0.893345 84 65 85 
0.292047 0.0375504 0.905982 145 122 132 
0.307461 -0.238677 0.928959 61 49 73 
0.308659 0.132807 0.892033 62 48 63 
0.319302 0.160243 0.88682 78 63 82 
0.368775 -0.279921 0.965542 46 31 54 
0.360228 -0.245302 0.907776 85 73 93 
0.363223 -0.0262149 0.885636 138 117 134 
0.366478 0.207795 0.873891 143 121 134 
0.386139 0.125728 0.862797 90 67 83 
-0.468154 0.187077 1.18005 124 116 139 
-0.463802 0.249835 1.17041 71 64 82 
-0.468062 -0.0899341 1.20524 128 113 136 
-0.416228 0.0550344 1.1752 64 49 68 
-0.40943 -0.16662 1.19085 71 53 65 
-0.40509 -0.00971689 1.1754 127 113 136 
-0.383474 0.196692 1.15012 43 38 45 
-0.384083 -0.154424 1.17828 81 59 72 
-0.370793 0.120517 1.15071 46 32 45 
-0.366738 0.172337 1.14301 51 39 53 
-0.360182 0.249785 1.13274 41 39 52 
-0.357119 0.0579356 1.15075 111 97 114 
-0.341916 0.134816 1.13832 100 79 86 
-0.335519 0.00947858 1.14835 56 43 53 
-0.334704 -0.0123368 1.14936 117 103 129 
-0.328655 0.200044 1.02826 38 26 30 
-0.321882 0.00725795 1.14444 105 94 110 
-0.317211 0.239454 1.01798 50 39 47 
-0.301149 -0.154482 1.15067 86 63 79 
-0.301271 -0.191316 1.15388 66 48 62 
-0.300649 0.226274 1.017 25 21 22 
-0.298241 0.104487 1.02932 79 53 54 
-0.297046 0.239199 1.01056 54 35 41 
-0.284836 -0.165426 1.14544 125 107 123 
-0.289953 0.200518 1.01504 43 21 23 
-0.268315 -0.189726 1.14163 94 61 80 
-0.301692 0.251034 0.802658 102 103 123 
-0.273736 0.143434 1.01798 67 35 46 
-0.260344 -0.0674193 1.12802 71 54 70 
-0.25074 -0.19217 1.13463 82 56 67 
-0.236768 -0.223311 1.13205 97 66 82 
-0.216899 -0.239276 1.12545 91 62 80 
-0.163711 -0.0738572 1.01248 107 68 86 
-0.148216 -0.0476451 1.0203 103 72 90 
0.348485 0.0450751 1.46719 40 20 22 
0.276915 0.0828943 0.913541 56 38 50 
0.311289 -0.332038 0.938244 74 60 85 
-0.224986 0.217013 0.826547 91 52 71 
0.0423166 0.117086 0.824799 59 33 42 
0.355034 0.140279 0.875376 133 112 127 
-0.200922 -0.129382 0.635169 98 85 95 
-0.169366 0.230875 0.669633 44 35 54 
-0.28383 -0.245958 1.15307 75 51 64 
-0.138235 -0.0746605 1.00297 108 66 80 
-0.0329409 -0.230758 1.2497 59 23 27 
0.164019 -0.301679 1.91755 53 23 21 
0.34642 -0.333901 0.922099 134 116 140 
0.390365 -0.323901 0.903905 88 66 87 
-0.47155 0.0165162 1.1968 66 53 73 
-0.469103 -0.0600566 1.20137 122 103 123 
-0.451476 -0.0782776 1.19651 79 63 90 
-0.432692 0.249241 1.16065 63 53 62 
-0.434055 -0.207855 1.20446 62 47 66 
-0.384862 -0.191675 1.18121 72 49 59 
-0.337897 0.146421 1.03981 128 81 97 
-0.328872 0.217588 1.02598 35 25 26 
-0.220871 0.131033 0.772965 106 58 70 
-0.161499 -0.251686 1.00173 122 69 77 
-0.155396 0.247992 0.720028 227 233 255 
-0.131143 0.0235897 1.01157 69 39 49 
-0.0506787 0.141933 0.933426 89 62 67 
-0.0288618 -0.218259 0.973796 113 81 104 
0.0774649 -0.0356269 1.42939 74 44 56 
0.0974938 -0.0633179 1.42268 129 73 86 
0.164595 -0.220625 0.981824 96 71 92 
0.184645 -0.305818 0.980931 113 82 98 
0.264262 0.0832962 0.916096 38 30 41 
0.289565 -0.135806 0.92487 83 71 91 
-0.491569 0.11228 1.1951 127 119 143 
-0.49325 -0.242046 1.22771 90 65 86 
-0.489265 -0.199466 1.22358 85 62 80 
-0.482482 0.181332 1.18492 114 108 136 
-0.473212 -0.0241698 1.20248 65 55 79 
-0.459564 0.0823642 1.18717 61 53 68 
-0.460351 -0.0542563 1.1989 89 73 102 
-0.442025 -0.126254 1.1987 98 90 114 
-0.411725 -0.191537 1.19328 80 53 60 
-0.385768 -0.244949 1.19175 84 56 71 
-0.372045 0.16299 1.14783 45 39 51 
-0.371154 0.0767056 1.15708 69 56 74 
-0.363474 0.190947 1.14497 35 26 31 
-0.359202 0.163823 1.14434 26 20 24 
-0.355042 0.189305 1.13686 42 29 36 
-0.349512 0.0471286 1.15058 40 28 32 
-0.348832 0.116832 1.1414 95 87 100 
-0.344847 -0.204413 1.17114 87 64 82 
-0.340911 0.238165 1.03052 138 95 115 
-0.331742 -0.252599 1.17131 78 63 82 
-0.315519 0.221222 1.02326 40 31 32 
-0.301813 0.154944 1.01278 69 42 49 
-0.292838 0.0112111 1.12521 82 39 46 
-0.296217 0.106778 1.04911 79 53 54 
-0.299755 0.267106 0.988657 90 98 119 
-0.294944 0.149794 1.02403 79 54 57 
-0.276849 0.0278744 1.08297 66 28 27 
-0.260828 0.0265732 1.07842 109 60 66 
-0.251241 -0.0330639 1.06703 81 38 55 
-0.274877 0.209371 0.828487 53 32 37 
-0.226962 -0.0591689 1.07498 66 24 28 
-0.221385 -0.14658 1.0606 97 57 65 
-0.21125 0.0270036 1.0632 58 23 27 
-0.199347 -0.251452 1.12381 75 51 77 
-0.194132 -0.157313 1.05274 120 66 79 
-0.180124 -0.180104 1.04909 118 70 86 
-0.173399 -0.0781651 1.05995 46 23 31 
-0.167198 -0.0908355 1.05916 69 33 33 
-0.165421 0.00385683 1.04984 56 29 38 
-0.165874 0.0631836 1.04252 48 25 31 
-0.162523 -0.0283659 1.05046 48 27 34 
-0.14789 -0.0830434 1.02132 126 83 102 
-0.141771 0.00998073 1.01551 58 30 42 
-0.143628 -0.1556 1.00648 79 34 41 
-0.137462 0.103216 0.984648 82 50 55 
-0.119326 0.110672 0.963875 70 42 57 
-0.102965 -0.216223 1.00257 112 80 103 
-0.0966176 0.0408765 0.967866 133 113 89 
-0.0759902 -0.0729976 1.01437 106 86 62 
-0.101566 0.144352 0.892164 79 56 66 
-0.0128926 -0.0883687 1.12833 57 27 27 
-0.0445792 -0.17993 0.974289 66 31 35 
-0.125778 0.203712 0.741705 93 58 80 
-0.123012 0.163289 0.744417 78 42 54 
-0.0173562 -0.219597 0.970333 136 85 104 
-0.0187151 -0.176714 0.962005 62 31 36 
-0.0255569 0.140431 0.9252 145 94 111 
-0.0234318 -0.261588 0.949293 62 30 33 
0.00612404 0.0697651 0.956563 85 48 66 
0.0572122 -0.116605 0.971589 117 81 95 
0.0613081 -0.0601665 0.960101 131 79 92 
-0.062726 0.232619 0.707891 103 61 73 
0.171877 -0.161572 0.971739 99 72 89 
0.119861 0.128354 0.871589 91 57 71 
0.143921 0.0835384 0.892013 156 102 116 
0.173342 0.151242 0.843017 65 35 35 
0.276529 -0.304225 0.94465 123 110 127 
0.286229 0.0533272 0.909453 85 61 74 
0.285144 0.175456 0.899044 59 45 62 
0.299206 -0.054733 0.913798 99 72 87 
0.370818 -0.318771 0.911573 89 71 97 
0.367066 -0.115188 0.893429 91 67 81 
0.359723 0.190692 0.868457 93 68 90 
0.373005 0.156415 0.866552 83 62 79 
0.409875 0.227505 0.837768 135 128 146 
-0.474427 0.267554 1.15724 56 54 59 
-0.465414 0.230257 1.17972 117 113 130 
-0.435225 -0.102324 1.19398 86 75 105 
-0.433754 0.276411 1.14071 46 40 52 
-0.428639 0.255413 1.15072 83 74 95 
-0.423445 0.165079 1.1643 79 67 87 
-0.42241 -0.1467 1.19273 86 67 95 
-0.405648 0.231974 1.15237 118 99 118 
-0.388376 -0.0838006 1.17544 95 67 92 
-0.38285 0.216741 1.14641 61 45 56 
-0.3797 0.124838 1.15366 120 101 120 
-0.380032 0.00883182 1.16384 134 119 138 
-0.364514 0.259781 1.12111 115 99 112 
-0.358543 0.0763443 1.15153 71 55 66 
-0.349085 0.165064 1.13959 83 79 93 
-0.348562 0.261282 1.1128 90 80 89 
-0.345049 -0.0840287 1.15975 96 66 78 
-0.341012 0.251 1.12253 54 43 60 
-0.331725 0.132304 1.13388 56 35 44 
-0.33218 -0.0343387 1.14943 138 114 128 
-0.325897 0.0256227 1.14407 50 34 44 
-0.323239 -0.00943198 1.14607 78 54 78 
-0.321651 -0.0325283 1.14665 141 123 137 
-0.335944 0.248453 1.01702 107 84 90 
-0.307287 0.0471071 1.13397 86 70 83 
-0.322959 0.150663 1.03423 71 50 57 
-0.287133 -0.150842 1.14371 95 62 79 
-0.277474 -0.0989202 1.13618 93 64 84 
-0.243671 -0.0672579 1.12152 127 120 138 
-0.238056 -0.190679 1.12874 87 64 74 
-0.234933 -0.163533 1.12743 85 60 81 
-0.23307 -0.10096 1.12049 50 37 46 
-0.228278 -0.131362 1.12215 58 38 49 
-0.227751 -0.187006 1.12584 81 66 89 
-0.232184 0.13791 1.00281 107 62 83 
-0.288928 0.223949 0.846353 71 52 58 
-0.268063 0.197483 0.812821 122 78 91 
-0.117483 0.0799908 0.997986 95 44 51 
-0.16003 0.165726 0.758246 85 52 63 
0.804676 0.0976851 1.85188 64 31 42 
0.0496782 0.130109 0.899531 99 60 81 
0.0878448 -0.0841491 0.949671 79 39 40 
0.101184 -0.0341304 0.951037 76 35 49 
0.105066 -0.0170492 0.946918 130 79 88 
0.0837749 0.117857 0.888261 147 94 114 
0.200752 -0.328613 0.980103 89 61 86 
0.310242 0.0206705 0.907751 134 113 132 
0.342435 0.0212857 0.89374 157 134 152 
0.355035 0.0990178 0.882369 105 78 95 
0.41356 -0.340499 0.902417 81 65 101 
0.294799 -0.0138581 0.773318 85 85 135 
0.327281 -0.0138781 0.758438 192 211 253 
-0.420884 0.2417 0.791368 120 137 145 
-0.732684 -0.407994 1.25171 135 116 136 
-0.728819 -0.46545 1.26024 111 122 168 
-0.726996 -0.407228 1.26083 164 172 219 
-0.60801 0.0628126 1.20083 33 48 77 
-0.600527 0.222969 1.19435 76 86 113 
-0.598672 0.13858 1.20007 93 108 141 
-0.599084 0.122592 1.20161 97 108 138 
-0.597645 0.0937798 1.20363 96 102 134 
-0.599693 0.0360888 1.20823 32 42 69 
-0.597316 0.0592503 1.20743 90 98 135 
-0.594873 -0.121025 1.22232 99 108 149 
-0.591786 -0.107768 1.22361 126 134 173 
-0.596384 -0.277314 1.23325 41 48 77 
-0.591923 -0.267313 1.23362 47 53 89 
-0.592171 -0.373651 1.24259 109 121 159 
-0.589947 -0.487589 1.2512 96 101 139 
-0.526209 0.152246 1.18269 102 93 114 
-0.221091 0.185072 0.759984 65 36 54 
-0.525356 0.0620705 1.18809 94 97 132 
-0.524496 0.0774201 1.18835 103 89 112 
-0.523802 -0.0232419 1.19546 69 72 113 
-0.522041 0.0113062 1.19256 114 95 114 
-0.518934 -0.101455 1.20014 109 86 112 
-0.519128 -0.127182 1.20393 100 83 102 
-0.508806 -0.12566 1.20089 100 79 96 
-0.517858 -0.337957 1.22177 79 77 116 
-0.513809 -0.349162 1.22039 111 93 119 
-0.516566 -0.400901 1.22599 93 98 140 
-0.512102 -0.316658 1.21797 105 85 112 
-0.499288 -0.120781 1.19667 66 53 70 
-0.182272 0.217079 0.732179 63 37 50 
-0.511979 -0.438529 1.22766 104 86 112 
-0.515602 -0.51505 1.23601 116 125 168 
-0.511624 -0.477228 1.23146 118 95 123 
-0.475127 0.085001 1.16596 81 64 83 
-0.18293 0.181914 0.744754 77 54 72 
-0.183482 0.170633 0.747013 62 31 46 
-0.166352 0.217114 0.725746 68 44 57 
-0.462908 -0.0318601 1.17297 67 57 84 
-0.474147 -0.398862 1.21028 91 65 78 
-0.162418 0.180614 0.735336 73 45 60 
-0.136586 0.235745 0.697983 66 74 113 
-0.431573 0.0806121 1.15209 60 51 70 
-0.446595 -0.34212 1.19489 80 65 88 
-0.420475 0.0539584 1.14812 73 59 82 
-0.433405 -0.306331 1.18651 82 64 86 
-0.409832 0.10825 1.1388 96 95 129 
-0.439996 -0.368249 1.1991 126 108 124 
-0.435425 -0.361509 1.19321 59 38 57 
-0.436074 -0.399377 1.19609 70 53 72 
-0.417052 -0.183078 1.16853 66 46 58 
-0.429952 -0.489488 1.20247 84 69 88 
-0.140124 0.192428 0.7296 81 47 64 
-0.418043 -0.401624 1.18887 88 64 88 
-0.385554 -0.0118164 1.13747 64 50 65 
-0.398559 -0.360003 1.17727 64 50 65 
-0.297797 0.12959 1.00305 55 29 40 
-0.392888 -0.334776 1.17443 76 62 75 
-0.395132 -0.43246 1.18407 130 116 129 
-0.394812 -0.462548 1.18637 82 58 80 
-0.379084 -0.239765 1.16103 77 56 71 
-0.382068 -0.361819 1.1713 72 51 70 
-0.385164 -0.464886 1.1851 84 62 83 
-0.347251 0.0391399 1.11252 109 90 109 
-0.232426 0.151235 0.923807 89 57 68 
-0.287703 -0.0139392 1.02689 61 21 29 
-0.364748 -0.386328 1.16862 69 54 73 
-0.365498 -0.462872 1.17379 87 62 81 
-0.259185 0.116096 0.979135 63 46 52 
-0.261922 0.10899 0.985587 120 77 94 
-0.35635 -0.362116 1.1618 84 57 76 
-0.357487 -0.423335 1.16794 134 117 136 
-0.351183 -0.33652 1.15804 77 50 67 
-0.280745 -0.0251061 1.02992 144 90 113 
-0.0936717 0.171563 0.712314 74 42 63 
-0.26522 0.091207 1.017 140 92 104 
-0.33007 -0.238301 1.14313 80 61 81 
-0.33175 -0.36165 1.15099 86 59 76 
-0.273899 0.00190248 1.04003 40 19 18 
-0.268411 0.0775949 1.03169 138 94 107 
-0.332299 -0.458522 1.16126 128 113 132 
-0.222749 0.157257 0.950964 47 69 116 
-0.328778 -0.384451 1.1546 86 61 82 
-0.308602 -0.0646241 1.11798 78 55 71 
-0.229275 0.128267 0.97771 66 32 46 
-0.261458 0.0904981 1.03739 79 35 50 
-0.311945 -0.383164 1.14526 84 61 81 
-0.313942 -0.366718 1.14954 70 52 64 
-0.312589 -0.412812 1.1501 73 52 67 
-0.210725 0.107942 0.96707 130 82 104 
-0.297506 -0.364183 1.14094 78 59 78 
-0.297488 -0.412952 1.14496 82 61 80 
-0.298112 -0.436492 1.14869 80 58 71 
-0.289081 -0.337322 1.1339 78 56 69 
-0.0475534 0.212908 0.679533 73 42 50 
-0.287095 -0.437319 1.14413 75 51 67 
-0.0545252 0.167199 0.69726 80 38 52 
-0.281852 -0.404597 1.1387 86 61 82 
-0.279016 -0.363673 1.13244 71 55 68 
-0.187975 0.136079 0.960624 94 50 67 
-0.222702 0.0498431 1.03007 65 26 31 
-0.211189 -0.174767 1.0207 78 29 35 
-0.26256 -0.394648 1.12886 78 60 76 
-0.222101 0.0550823 1.03952 46 20 23 
-0.19759 -0.246468 1.00766 67 32 36 
-0.254401 -0.436797 1.1307 76 48 71 
-0.0372346 0.205839 0.69208 170 122 148 
-0.217618 0.0181365 1.04328 70 29 43 
-0.2079 -0.0760645 1.03117 82 43 46 
-0.185781 -0.235801 0.999425 50 31 35 
-0.211854 0.0639852 1.03732 67 27 35 
-0.172652 -0.253852 0.97717 83 39 52 
-0.238864 -0.357022 1.11658 80 66 89 
-0.153668 0.149988 0.931012 82 52 64 
-0.237167 -0.366727 1.11647 78 56 69 
-0.229928 -0.434683 1.11666 82 58 71 
-0.227521 -0.313349 1.10922 70 47 63 
-0.213739 -0.396712 1.10011 120 106 131 
-0.173621 -0.200245 1.01294 60 29 34 
-0.217949 -0.386687 1.11017 72 57 78 
-0.177928 0.00629647 1.02492 84 42 52 
-0.205506 -0.407329 1.11 84 59 81 
-0.0172039 0.182168 0.703 86 53 74 
-0.199564 -0.369022 1.10274 70 53 71 
-0.197314 -0.343859 1.10166 63 46 64 
-0.198012 -0.434052 1.10922 79 57 78 
-0.195734 -0.410833 1.10615 135 118 137 
-0.130937 -0.171007 0.971179 100 64 76 
-0.186625 -0.403816 1.10064 129 114 135 
-0.0104305 0.190619 0.706869 88 53 75 
-0.182959 -0.386928 1.09808 130 116 139 
-0.00973886 0.171641 0.708541 105 54 73 
-0.115089 0.128306 0.933677 75 43 56 
-0.134122 -0.00628662 0.987421 111 66 73 
-0.12622 -0.313254 0.991075 141 90 107 
-0.172923 -0.366933 1.0937 74 60 85 
-0.167924 -0.408397 1.0947 78 58 69 
-0.163366 -0.369794 1.08753 71 52 71 
-0.118509 -0.321538 0.98933 55 32 42 
0.000445006 0.195678 0.71087 78 51 66 
-0.116743 -0.126267 0.982331 26 14 14 
-0.000258356 0.154855 0.714849 82 49 68 
-0.115715 -0.00683882 0.98027 110 64 74 
0.00279198 0.17211 0.713816 105 54 73 
-0.0926341 0.124276 0.925845 79 43 57 
-0.111466 -0.0894658 0.985393 119 63 72 
-0.148639 -0.407849 1.0862 84 61 77 
0.00710411 0.20897 0.709213 118 79 100 
-0.146151 -0.391136 1.08321 53 39 56 
-0.0988637 -0.307563 0.974899 131 73 88 
-0.081969 0.109503 0.920274 73 41 54 
-0.141523 -0.375037 1.08148 58 46 68 
-0.0955398 -0.0761846 0.964415 53 25 24 
0.0144598 0.215942 0.705002 100 59 75 
-0.0763616 -0.296803 0.944145 74 35 38 
0.00532786 0.124374 0.736895 73 53 65 
0.0144714 0.191217 0.718353 92 58 75 
-0.128013 -0.370572 1.07637 66 52 67 
-0.0842267 -0.324841 0.974979 148 98 110 
-0.0774266 0.0471945 0.942159 31 20 18 
-0.0678017 -0.288999 0.942155 117 66 75 
-0.0758657 0.013351 0.946998 78 39 40 
-0.118531 -0.391109 1.076 120 111 132 
-0.118999 -0.409663 1.07886 80 62 76 
-0.0589537 0.0428698 0.924138 36 22 22 
-0.109784 -0.407347 1.07139 80 59 74 
-0.0762079 -0.0509547 0.97253 117 100 92 
-0.106464 -0.392618 1.06832 76 53 69 
-0.0522819 0.0383019 0.929965 174 162 148 
-0.0616251 -0.0672327 0.962512 134 116 92 
-0.0582067 0.0118945 0.959884 171 154 124 
-0.0868777 -0.392214 1.06113 71 48 68 
-0.0506686 -0.0166131 0.952359 188 177 155 
-0.0432074 0.0530113 0.930038 32 17 24 
-0.0548018 -0.0538262 0.966091 61 33 32 
-0.038421 -0.173929 0.933775 61 31 31 
-0.0460159 -0.325601 0.967032 143 92 109 
-0.0496375 -0.0755437 0.960291 21 10 14 
-0.072399 -0.3871 1.04372 52 28 44 
-0.045743 -0.0241075 0.958418 139 123 110 
-0.0674136 -0.395515 1.03809 192 195 202 
-0.0324684 0.0447302 0.928611 206 202 191 
0.041801 0.146702 0.737896 66 34 35 
-0.0660915 -0.36938 1.04935 56 34 55 
-0.0570685 -0.375108 1.03311 155 143 121 
-0.0319084 -0.300602 0.966154 78 35 42 
-0.0327176 -0.107751 0.956511 54 22 33 
-0.0323827 -0.310382 0.970254 142 88 111 
0.0434216 0.158658 0.746855 77 44 61 
-0.0258248 0.0471573 0.935674 167 156 136 
-0.0478248 -0.391507 1.03078 60 63 68 
0.0445546 0.169389 0.751485 79 47 68 
-0.0221991 0.0584451 0.935175 73 33 34 
-0.00930463 -0.242534 0.92356 45 20 23 
-0.0183253 -0.329485 0.95403 154 111 128 
-0.0193524 -0.296505 0.959126 80 39 53 
-0.0382291 -0.38651 1.0253 55 97 113 
-0.0389848 -0.371142 1.02992 38 24 24 
-0.0068884 -0.113113 0.926737 67 31 31 
0.00122161 0.107741 0.891705 63 37 50 
0.00108556 -0.148249 0.916604 148 94 110 
-0.00942864 -0.293779 0.956444 103 48 54 
0.000448035 -0.215648 0.924035 114 68 78 
-0.0284555 -0.387368 1.02322 147 134 125 
0.00781944 -0.200458 0.921041 110 66 79 
0.00746112 -0.144414 0.923947 133 81 94 
0.0530773 0.188677 0.772919 76 45 61 
0.00685667 -0.128912 0.93106 27 13 12 
0.00689557 0.0480176 0.928287 131 78 88 
0.0554112 0.197102 0.780999 77 44 63 
0.0115565 -0.0913966 0.929318 125 69 82 
0.0106259 -0.152998 0.938208 61 25 29 
0.0175557 -0.079288 0.918214 54 22 23 
-0.0125372 -0.372465 1.02805 117 95 108 
0.0135449 -0.168321 0.93897 54 24 26 
0.0645475 0.232541 0.770777 80 64 75 
0.0220317 0.0838014 0.908105 154 101 117 
0.0601122 0.176258 0.791884 95 48 66 
0.0609456 0.162229 0.794941 73 42 58 
0.0375565 0.129563 0.874076 79 48 64 
0.00101471 -0.366847 1.0257 136 117 139 
0.0355747 -0.24706 0.912998 96 55 63 
0.0309742 -0.280732 0.942033 147 92 111 
0.0270241 -0.0664615 0.944629 47 18 20 
0.0190376 -0.371808 1.01693 82 59 77 
0.0702788 0.165266 0.821296 72 41 57 
0.0367475 -0.0848628 0.95026 59 29 39 
0.0462043 -0.191747 0.931121 67 29 40 
0.0709336 0.176977 0.822922 69 37 52 
0.0400254 0.0264694 0.939223 68 36 47 
-0.140913 0.182761 1.50487 133 85 101 
0.0287973 -0.373611 1.01533 127 112 131 
0.0290529 -0.334892 1.01165 93 69 93 
0.0405718 -0.00324393 0.944785 56 25 31 
0.0294745 -0.3224 1.01012 78 52 77 
0.0487744 -0.214909 0.943274 72 30 42 
0.0556581 -0.171032 0.925409 134 83 98 
0.0801652 0.226125 0.81486 73 50 58 
0.0761245 0.181775 0.834068 71 38 49 
0.0786181 0.219511 0.826516 95 70 89 
0.0546964 0.0582939 0.933042 67 32 38 
0.0454982 -0.31777 1.00118 93 63 75 
0.0449385 -0.35227 1.00723 93 71 92 
0.0648577 0.01639 0.916005 88 41 57 
0.069154 -0.246753 0.932543 105 64 78 
-1.1813 0.681813 5.11606 95 52 71 
0.0902477 0.236065 0.819062 48 47 53 
0.0534378 -0.372622 1.00623 80 55 77 
0.0641592 0.0486256 0.929263 70 37 46 
0.0627526 -0.285053 0.994515 79 55 77 
0.086055 -0.142385 0.905191 58 24 25 
0.0974333 0.226832 0.828628 57 34 42 
0.0759462 -0.0187954 0.932748 58 31 38 
0.0687978 -0.296529 0.992616 102 71 86 
0.0764074 -0.347464 0.997009 80 58 71 
0.105543 0.180137 0.841019 51 42 45 
0.0802506 -0.284662 0.989165 93 65 88 
0.0838397 -0.24038 0.975654 37 20 26 
0.107332 0.127954 0.846699 75 44 59 
0.107889 0.200076 0.838008 56 33 39 
0.0934565 -0.0153817 0.923422 57 31 40 
0.0909079 -0.347444 0.99005 86 59 74 
0.100265 0.0218899 0.919477 52 19 28 
0.122337 0.219832 0.826484 105 69 83 
0.119246 0.0906653 0.854411 85 58 67 
0.0996788 -0.317953 0.98446 125 117 140 
0.130311 0.206411 0.829188 74 40 54 
0.131369 0.16581 0.83306 65 34 49 
0.111976 -0.316848 0.976692 85 76 93 
0.112136 -0.200777 0.966342 87 59 71 
0.121174 0.0550617 0.909006 58 26 31 
0.129705 -0.0290434 0.887732 133 82 99 
0.119549 -0.351716 0.980202 77 55 68 
0.128992 -0.34945 0.975188 88 59 81 
0.13119 -0.320429 0.970854 94 65 85 
0.138883 -0.344557 0.970599 76 57 85 
0.137877 -0.202627 0.957228 88 57 73 
0.159946 0.151344 0.814875 82 46 46 
0.145997 -0.321766 0.966796 95 72 92 
0.162785 0.0256295 0.869774 138 89 108 
0.175087 0.219155 0.798797 169 121 145 
0.167786 0.00285444 0.875167 62 27 31 
0.162204 -0.32076 0.960448 59 42 58 
0.174622 0.117155 0.832893 54 28 37 
0.168454 -0.337647 0.958339 127 111 137 
0.179112 0.244191 0.803635 56 53 60 
0.1772 0.100807 0.841271 41 30 34 
0.174863 -0.320917 0.95435 102 70 85 
0.178295 -0.337699 0.953863 97 65 86 
0.177763 -0.10511 0.935234 83 60 78 
0.187679 -0.319167 0.951294 131 119 143 
0.187033 -0.135354 0.933247 132 120 144 
0.192207 0.121475 0.881764 71 35 45 
0.198839 -0.207534 0.934003 89 65 79 
0.198158 -0.0438211 0.919519 75 48 63 
0.19827 0.0855008 0.908879 128 115 141 
0.200171 0.0958611 0.905611 85 55 67 
0.223499 0.243336 0.728208 166 178 202 
0.209934 -0.214383 0.930839 88 63 84 
0.214357 -0.322189 0.939111 82 54 68 
0.203455 0.217361 0.892493 52 48 63 
0.205617 0.233101 0.874913 61 58 69 
0.207246 0.152694 0.895152 65 34 39 
0.210247 0.0304862 0.909615 78 60 76 
0.210394 0.0787287 0.90272 72 50 62 
0.210957 0.0960306 0.901373 69 50 70 
0.216547 -0.0459145 0.912373 136 106 116 
0.224082 -0.324734 0.937678 126 118 139 
0.222568 0.196555 0.888006 93 78 97 
0.236027 -0.323969 0.930984 78 57 76 
0.226682 0.085922 0.895596 148 120 135 
0.226664 0.12585 0.893088 110 103 119 
0.232387 0.187541 0.884992 83 58 80 
0.244251 -0.205217 0.912638 85 64 73 
0.247927 -0.287989 0.923741 81 57 79 
0.241135 0.0881028 0.890554 139 115 128 
0.240257 0.205988 0.882065 101 92 109 
0.246288 0.0278849 0.89517 86 65 84 
0.248756 -0.0264846 0.898028 136 113 129 
0.251071 -0.0731594 0.90276 130 112 138 
0.247026 0.253443 0.850938 107 121 134 
0.24986 0.19121 0.877458 118 95 115 
0.261649 -0.215072 0.910729 124 105 124 
0.265337 -0.0940929 0.898949 76 55 72 
0.2581 0.198633 0.872393 120 101 121 
0.272972 -0.255605 0.912145 79 62 81 
0.279801 -0.26404 0.908292 101 73 88 
0.268946 0.161128 0.873123 129 114 133 
0.2867 -0.203624 0.898036 59 47 61 
0.278557 0.200736 0.863013 49 33 46 
0.28765 -0.0706902 0.889016 71 56 77 
0.289093 -0.109184 0.889822 75 57 73 
0.284195 0.0845457 0.874649 126 105 122 
0.28955 0.0275145 0.878513 84 60 84 
0.289336 0.155801 0.865772 142 121 138 
0.292667 0.211205 0.858943 127 112 135 
0.309259 -0.108883 0.884395 59 36 56 
0.305871 0.121828 0.862216 66 53 70 
0.304436 0.202508 0.854223 48 34 49 
0.310707 0.0737886 0.864103 139 113 124 
0.306697 0.231763 0.833468 72 66 80 
0.325329 0.0756063 0.859747 83 60 68 
0.33201 -0.1046 0.873194 120 97 117 
0.327798 0.194342 0.845951 92 67 86 
0.351846 -0.264171 0.880002 88 61 76 
0.34135 0.0504231 0.855693 89 66 86 
0.347433 0.0894909 0.849148 87 63 77 
0.354997 -0.045916 0.860746 34 29 36 
0.353721 0.0454866 0.848963 85 69 82 
0.358207 0.0285528 0.851626 136 119 135 
0.361471 -0.0080909 0.85405 64 48 61 
0.36639 0.113156 0.839983 71 57 74 
0.381956 -0.0422421 0.84702 140 117 133 
0.386729 -0.0112834 0.843328 134 111 129 
0.377135 0.233026 0.802217 17 19 42 
0.389593 0.13524 0.827937 125 101 114 
0.39365 0.0490599 0.835447 79 53 66 
0.396601 0.16814 0.82147 123 99 113 
0.392543 0.254637 0.795946 59 60 64 
0.394557 0.231807 0.798061 164 183 252 
0.436386 -0.244597 0.925848 24 19 23 
0.432739 -0.156803 0.909359 88 84 107 
0.446989 -0.280535 0.927709 56 43 60 
0.413167 0.229139 0.794456 61 61 73 
0.423914 0.217108 0.866655 41 37 51 
0.461454 -0.293952 0.932919 57 62 94 
0.458262 -0.210514 0.927142 98 118 143 
0.439647 0.215448 0.860984 16 15 23 
0.45971 0.00969968 0.905243 64 68 103 
0.473143 -0.178437 0.934517 110 122 164 
0.472612 -0.118604 0.926668 150 170 207 
0.460697 0.217395 0.883695 78 99 130 
0.464591 0.187839 0.879042 144 168 202 
0.48348 -0.112156 0.917601 164 183 223 
0.481286 -0.0179118 0.920488 106 114 163 
0.47811 0.0644064 0.908354 117 131 180 
0.482123 0.0097187 0.917001 115 119 166 
0.486454 -0.102123 0.913875 119 131 179 
0.489642 0.0657354 0.908973 106 116 165 
0.60383 -0.307017 1.15422 39 43 68 
-0.621071 0.224195 1.21478 23 28 48 
-0.618465 0.23922 1.21672 72 79 107 
-0.611035 0.268125 1.20734 119 107 127 
-0.62368 0.0994256 1.22723 32 35 54 
-0.618066 0.14128 1.22525 93 108 141 
-0.617533 0.124749 1.22559 97 108 138 
-0.542849 0.155017 1.20577 102 93 114 
-0.541729 0.0787614 1.2124 103 89 112 
-0.53705 -0.233567 1.23951 118 103 126 
-0.52462 -0.187763 1.23656 113 90 118 
-0.00467251 0.140107 0.518766 81 47 64 
-0.428199 -0.311604 1.20542 76 61 82 
-0.401685 -0.414146 1.20458 74 47 62 
-0.129119 0.100759 0.829903 76 39 56 
-0.282911 -0.394426 1.15833 73 55 77 
-0.186436 -0.212682 1.04586 125 99 112 
0.0198326 0.193107 0.739309 82 50 65 
-0.0593717 0.0251981 0.959941 169 155 146 
-0.227882 0.178575 1.49169 64 40 54 
-0.00980722 -0.166401 0.953402 70 31 36 
0.0420846 -0.205854 0.951726 123 69 83 
-0.0128001 0.176926 1.44485 61 31 39 
0.182243 -0.353516 0.97511 100 75 97 
0.228748 -0.350148 0.958041 80 54 79 
0.237855 -0.347889 0.953154 171 161 188 
0.264098 -0.34082 0.942001 93 67 94 
0.267532 -0.3313 0.941506 74 56 72 
0.275281 -0.339874 0.939102 119 115 140 
0.277424 -0.235625 0.927062 79 54 75 
0.309831 -0.338567 0.924363 67 55 77 
0.330229 -0.329593 0.916043 132 113 132 
-0.542195 0.04668 1.21584 111 93 115 
0.0558139 0.120882 1.01813 71 52 56 
-0.106667 0.221739 1.83239 61 31 39 
0.0592107 0.120982 0.810427 79 48 64 
-0.159165 0.206206 0.825986 80 55 74 
0.0485706 0.11812 0.831039 61 34 43 
0.353498 -0.340727 0.914447 87 63 77 
0.344413 0.117722 0.877346 89 67 88 
-0.0604553 -0.261324 0.992818 45 22 28 
-0.0823313 -0.0960433 0.952353 53 23 21 
0.0720203 -0.0196817 0.964476 60 31 36 
-0.0410622 -0.257064 0.988018 44 22 25 
0.106906 -0.00161261 1.46078 86 40 50 
-0.2932 -0.187075 1.15137 134 111 131 
-0.034596 -0.252839 0.95824 46 26 28 
-0.0319022 0.146761 0.890437 64 52 54 
0.0415951 0.0552191 1.21523 163 111 123 
-0.476358 0.230029 1.18163 124 115 134 
-0.356367 -0.097031 1.16944 117 103 126 
-0.173099 -0.186721 1.05059 34 18 19 
-0.0367952 0.0689015 0.971086 64 31 38 
0.162199 0.0052272 1.36925 65 35 43 
-0.013736 -0.0858758 0.963206 132 85 101 
-0.00351702 0.00612262 0.967737 60 33 40 
0.110318 -0.0624349 0.935319 67 28 33 
0.165488 0.0973374 0.878978 103 61 65 
0.435062 -0.16655 0.820914 165 175 187 
0.441101 -0.1504 0.816185 110 107 150 
-0.489963 -0.104382 1.22152 65 56 83 
-0.488557 -0.184335 1.22655 92 73 92 
-0.481721 0.267001 1.1686 118 111 118 
-0.481323 -0.0332101 1.213 36 35 53 
-0.475521 -0.174086 1.22255 92 66 79 
-0.466465 -0.140703 1.21445 125 112 132 
-0.463933 -0.0436766 1.20547 137 124 144 
-0.459598 0.25897 1.16697 107 100 107 
-0.461551 -0.0803896 1.20799 94 70 94 
-0.446629 0.00545113 1.19686 60 53 71 
-0.43822 -0.170185 1.20692 116 87 105 
-0.418028 0.0256548 1.18195 134 114 126 
-0.412698 -0.0290013 1.18793 40 31 48 
-0.398814 -0.177391 1.19489 81 57 71 
-0.391862 0.233902 1.15402 114 93 112 
-0.385584 -0.0278831 1.1792 52 42 51 
-0.386253 -0.138243 1.18514 78 64 89 
-0.374931 0.150618 1.15451 49 36 46 
-0.37313 0.174761 1.15393 115 93 106 
-0.352912 0.122479 1.15089 48 36 46 
-0.34443 0.142543 1.14865 99 95 110 
-0.342844 0.00810017 1.15854 79 58 73 
-0.338834 0.0318016 1.15385 115 98 117 
-0.338172 0.122325 1.14492 105 97 118 
-0.333439 0.236887 1.13288 19 18 23 
-0.323102 0.10412 1.14061 54 40 53 
-0.300433 -0.216725 1.16298 90 67 85 
-0.327278 0.169985 1.02724 58 40 36 
-0.298548 0.0367906 1.08606 111 78 99 
-0.303789 0.180074 1.02752 96 55 63 
-0.302801 0.257802 1.01118 40 35 32 
-0.280073 0.055644 1.08928 93 45 61 
-0.281566 0.0804097 1.07152 157 109 123 
-0.262809 -0.0864562 1.13634 95 70 92 
-0.290089 0.227303 1.01837 26 25 30 
-0.254525 -0.230489 1.14771 82 67 90 
-0.279408 0.213474 1.0152 27 21 21 
-0.278429 0.267873 0.998734 43 37 51 
-0.248208 0.0183918 1.08182 75 30 37 
-0.246716 -0.0525144 1.07442 70 34 44 
-0.2391 0.000265385 1.0783 82 38 53 
-0.233229 -0.0174446 1.07859 81 40 54 
-0.29506 0.226747 0.867909 76 51 57 
-0.208103 0.0185796 1.06962 66 35 43 
-0.194146 -0.214656 1.12202 66 49 65 
-0.252165 0.117982 0.937939 118 83 107 
-0.185757 -0.131291 1.07073 102 62 71 
-0.272007 0.135166 0.810823 90 45 50 
-0.269463 0.239113 0.792328 82 47 53 
-0.268597 0.227763 0.794924 56 31 35 
-0.153705 -0.0660671 1.04812 41 19 21 
-0.150437 0.0817778 1.04032 81 36 41 
-0.266586 0.134428 0.794577 93 48 53 
-0.260282 0.147865 0.793908 114 66 78 
-0.111451 0.068239 1.00022 124 68 77 
-0.230139 0.132853 0.780329 114 64 75 
-0.0936204 -0.123425 1.02378 134 81 99 
-0.219872 0.20713 0.781181 87 53 70 
-0.0864125 0.00563463 1.01904 37 16 15 
-0.0900305 -0.0274131 1.00311 154 136 112 
-0.0916785 0.024286 0.995088 93 59 47 
-0.0710888 -0.0901818 1.02346 117 75 87 
-0.093183 0.0321437 0.977995 145 128 118 
-0.206941 0.224997 0.763545 87 45 49 
-0.0819666 0.120639 0.955285 78 47 65 
-0.0659684 -0.21982 0.995117 139 86 102 
-0.0456491 -0.0617247 0.986996 64 35 39 
-0.0410176 -0.0773969 0.978185 106 68 81 
0.918747 0.11179 2.23874 58 25 36 
-0.158266 0.201118 0.758418 76 45 63 
-0.00893943 -0.0413886 0.976254 66 37 42 
-0.00301639 -0.0874694 0.97246 140 96 111 
0.0020759 -0.0592523 0.969542 69 38 46 
0.00786464 0.0497208 0.963194 59 32 41 
0.0397052 0.0113831 0.979591 85 44 62 
0.0607056 0.0685234 0.967058 91 46 66 
0.0606942 -0.106455 0.977062 74 38 52 
0.0505094 -0.213906 0.967583 127 104 120 
0.0567071 -0.265865 0.947292 41 27 27 
0.0416699 0.15119 0.898163 106 69 77 
0.102186 -0.062343 0.958257 63 30 39 
0.137629 -0.152781 0.992287 110 77 96 
0.181305 -0.152723 0.976108 111 78 97 
0.20117 -0.0983633 0.963837 95 76 95 
0.165972 0.131017 0.860963 103 61 75 
0.174729 0.138975 0.857959 110 72 83 
0.26268 -0.0819608 0.943937 82 58 80 
0.277002 -0.249576 0.951394 94 68 95 
0.273559 -0.0942261 0.936674 86 63 81 
0.284026 -0.265956 0.948153 82 59 85 
0.297722 -0.204349 0.936976 84 71 97 
0.299105 -0.114612 0.929964 72 54 70 
0.305697 -0.337213 0.946693 89 66 94 
0.304351 0.0378029 0.91702 153 129 145 
0.313634 -0.015117 0.915342 100 69 85 
0.319414 -0.114288 0.921772 60 34 59 
0.324119 -0.338997 0.939675 76 60 86 
0.326911 -0.267234 0.935395 46 39 55 
0.324321 -0.0453094 0.914189 144 127 146 
0.32783 0.152648 0.896975 145 133 157 
0.338169 -0.338612 0.93482 85 61 85 
0.355979 -0.0475944 0.902789 52 35 53 
0.36388 -0.0368235 0.897525 90 67 95 
0.367444 -0.173117 0.908726 154 132 153 
0.367907 0.035727 0.889188 79 57 80 
0.379094 -0.321789 0.917688 95 74 105 
0.375857 -0.116415 0.899776 96 67 87 
0.381055 -0.339859 0.917753 89 71 97 
0.399123 -0.089652 0.887053 146 121 140 
0.415394 -0.0850416 0.882162 81 67 102 
0.402321 0.2251 0.851613 142 137 157 
0.414471 0.251028 0.828084 116 99 131 
0.960731 0.307055 1.06283 142 151 168 
-0.497973 0.272229 1.11195 105 112 118 
-0.465609 0.0671502 1.18537 67 57 81 
-0.462566 0.103516 1.18068 134 122 142 
-0.460169 0.153464 1.17527 74 65 84 
-0.45857 0.226832 1.16882 58 50 65 
-0.452318 -0.0599399 1.19231 85 73 97 
-0.439585 -0.0503291 1.18571 135 120 141 
-0.435325 0.0555517 1.17744 72 58 83 
-0.431915 0.0322849 1.17549 136 119 129 
-0.416601 0.178897 1.15615 120 106 131 
-0.446707 0.268583 1.04943 37 53 43 
-0.408832 0.215433 1.15018 59 52 68 
-0.407634 0.0568553 1.16722 132 117 136 
-0.393039 0.204033 1.14839 49 42 60 
-0.387372 0.142148 1.15057 96 82 97 
-0.36256 0.2084 1.13424 60 41 47 
-0.353454 -0.0636568 1.14246 56 40 53 
-0.346353 -0.128451 1.16065 84 57 74 
-0.345378 -0.0259919 1.15091 128 109 128 
-0.342355 -0.17312 1.16241 102 69 86 
-0.341003 0.165188 1.13191 93 81 103 
-0.342046 -0.0487413 1.15003 97 67 77 
-0.334278 -0.181607 1.16098 72 57 76 
-0.328269 0.141841 1.12965 100 95 117 
-0.319267 -0.0711098 1.14569 86 59 74 
-0.315702 -0.0241542 1.13906 139 118 137 
-0.314122 0.0746518 1.1312 37 27 35 
-0.308057 -0.0327159 1.13698 94 66 88 
-0.292475 -0.140702 1.1405 102 64 85 
-0.323602 0.138466 1.03158 129 78 85 
-0.285222 0.0434489 1.08202 72 32 41 
-0.305296 0.13939 1.02558 67 41 50 
-0.299536 0.17078 1.01585 36 20 20 
-0.289329 0.23963 0.996959 112 71 89 
-0.228313 0.0190214 1.06991 80 38 52 
-0.212121 -0.083424 1.06238 76 37 38 
-0.310302 0.139738 0.875216 93 48 55 
-0.191499 -0.200314 1.04381 118 71 91 
-0.187562 -0.188155 1.04493 116 71 92 
-0.166992 -0.0743173 1.05233 45 20 23 
-0.173702 0.10534 1.01983 50 34 37 
-0.16556 -0.181399 1.04584 31 16 19 
-0.181564 0.111699 0.983204 84 43 61 
-0.154674 0.0755631 1.01346 95 47 63 
-0.283335 0.18436 0.838486 69 30 35 
-0.164938 0.135433 0.974813 111 63 79 
-0.283408 0.2211 0.828022 60 47 56 
-0.0829788 -0.0564066 1.00131 70 41 46 
-0.0797833 0.0138831 0.994446 156 136 109 
-0.0942242 0.133816 0.949138 108 65 85 
-0.0547672 -0.027535 0.988045 90 45 48 
-0.0553389 -0.0116702 0.982379 90 44 47 
-0.0676767 0.118326 0.94088 101 57 74 
-0.0357537 -0.144218 0.969885 116 75 89 
0.0494775 -0.249191 0.95651 53 27 38 
0.0819558 -0.0332885 0.958654 90 49 67 
0.110612 -0.116894 0.957227 136 107 127 
0.0544879 0.135925 0.888802 158 104 127 
0.137407 -0.0403249 0.895114 156 107 126 
0.268194 -0.334866 0.953004 82 66 93 
0.350338 0.0765193 0.88001 166 142 158 
0.367447 0.116668 0.871971 83 61 84 
0.394689 -0.189961 0.891092 94 69 99 
0.404018 0.0226173 0.869336 118 98 125 
0.406358 -0.00970789 0.872235 109 85 111 
0.409007 0.00681298 0.865824 182 199 242 
1.81154 -0.13521 1.19259 111 119 158 
1.818 -0.179892 1.19631 179 201 242 
1.84728 -0.402506 1.22085 144 139 179 
1.82705 -0.462233 1.21771 124 133 174 
1.82554 -0.144191 1.19213 152 171 204 
1.83011 -0.493916 1.21126 186 209 250 
-0.440617 0.107443 1.16469 21 28 47 
-0.0791076 0.0307309 0.968169 126 116 117 
-0.46466 -0.0431707 1.19795 137 124 144 
-0.462326 -0.0796424 1.2002 94 70 94 
-0.418962 0.025497 1.17565 134 114 126 
-0.409505 0.124713 1.16222 76 62 85 
-0.400052 -0.176201 1.18763 81 57 71 
-0.336962 0.119712 1.13708 55 42 52 
-0.322184 0.106166 1.13376 100 91 110 
-0.305543 0.17908 1.02203 96 55 63 
-0.484731 0.263692 1.15773 121 114 122 
-0.473333 -0.108811 1.20428 84 74 99 
-0.45347 0.110455 1.17658 56 50 96 
-0.449832 0.0559632 1.18235 70 57 83 
-0.447204 0.0023333 1.18633 115 101 127 
-0.446877 0.159071 1.16948 81 77 102 
-0.444717 0.189961 1.16572 123 113 138 
-0.445302 0.0179762 1.18273 126 114 134 
-0.441464 -0.0902125 1.19035 125 105 132 
-0.42945 -0.0578932 1.18358 134 120 145 
-0.428716 0.116863 1.16673 73 63 98 
