ply                 
format ascii 1.0    
element vertex 964
property float x    
property float y    
property float z    
property uchar red  
property uchar green
property uchar blue 
end_header          
-0.468013 0.146975 1.18316 86 76 100 
-0.456047 -0.0269015 1.19442 118 104 130 
-0.449462 0.0924255 1.18059 19 24 43 
-0.451367 -0.166511 1.20411 133 125 140 
-0.438601 0.119362 1.17238 154 171 240 
-0.438601 0.119362 1.17238 154 171 240 
-0.438621 0.0980122 1.17522 162 179 248 
-0.433231 0.108584 1.17142 17 24 43 
-0.432723 0.0842888 1.17473 108 95 113 
-0.437724 -0.0600055 1.19096 56 44 64 
-0.425232 0.226572 1.16035 56 46 55 
-0.428864 0.0911449 1.17259 17 23 47 
-0.426554 0.128996 1.1674 100 95 115 
-0.425556 0.0849521 1.17303 101 90 107 
-0.433374 -0.126406 1.19332 115 102 130 
-0.435717 -0.160253 1.19981 48 30 52 
-0.42833 -0.0103691 1.18396 72 53 73 
-0.399786 0.267369 1.12883 35 36 40 
-0.399786 0.267369 1.12883 35 36 40 
-0.421874 -0.125289 1.19003 42 33 52 
-0.405258 -0.0290209 1.1772 45 33 47 
-0.405258 -0.0290209 1.1772 45 33 47 
-0.398059 0.142537 1.15906 46 40 54 
-0.398089 0.0855674 1.16217 55 52 71 
-0.402561 -0.126657 1.1838 50 42 55 
-0.398423 -0.161347 1.18686 82 61 80 
-0.262008 0.225033 0.77816 64 34 44 
-0.383222 0.0201031 1.16257 119 105 128 
-0.380255 -0.0223389 1.16568 122 101 120 
-0.380391 -0.0981888 1.17518 54 38 49 
-0.379438 -0.094523 1.17341 126 107 129 
-0.370549 0.0405032 1.15615 110 89 108 
-0.370549 0.0405032 1.15615 110 89 108 
-0.248229 0.224604 0.773393 67 36 42 
-0.365915 0.0535646 1.15347 104 86 98 
-0.247264 0.191954 0.786526 85 46 64 
-0.319477 0.116134 1.03518 52 31 36 
-0.310704 0.120895 1.03144 33 32 37 
-0.345922 -0.0997076 1.16128 69 48 63 
-0.338242 0.0471845 1.14495 115 85 97 
-0.335428 0.0509978 1.14328 66 46 58 
-0.342258 -0.19023 1.16802 71 50 59 
-0.335392 -0.0637438 1.15256 130 109 126 
-0.337125 -0.0995851 1.15881 61 44 60 
-0.331873 -0.202954 1.16531 74 53 70 
-0.217357 0.224203 0.762662 71 39 50 
-0.306462 -0.0662107 1.14331 70 51 70 
-0.272392 0.118636 1.01816 125 81 98 
-0.306772 -0.163862 1.1532 53 34 53 
-0.302238 -0.0664054 1.14058 77 59 73 
-0.302452 -0.142127 1.14843 72 56 67 
-0.195005 0.223713 0.753918 53 33 44 
-0.292942 -0.129691 1.1447 80 61 81 
-0.288262 -0.0454295 1.13315 134 103 118 
-0.286241 -0.0404371 1.13323 69 37 52 
-0.254462 0.136251 1.00909 60 35 41 
-0.249221 0.141829 1.00782 75 43 56 
-0.249221 0.141829 1.00782 75 43 56 
-0.274409 -0.204953 1.14481 60 43 53 
-0.178867 0.224094 0.748282 67 45 57 
-0.264798 -0.161813 1.13655 78 52 65 
-0.232745 0.117776 1.00356 53 26 31 
-0.261286 -0.130473 1.13158 68 54 67 
-0.258174 -0.130706 1.13305 64 50 65 
-0.253826 -0.130128 1.13162 66 49 67 
-0.246802 -0.211707 1.13469 97 66 84 
-0.209943 -0.143626 1.05484 51 26 30 
-0.21806 -0.206959 1.12388 67 42 63 
-0.199663 0.0244739 1.0472 78 35 45 
-0.19933 0.0220723 1.04661 120 73 83 
-0.19933 0.0220723 1.04661 120 73 83 
-0.199167 0.0266018 1.04689 125 74 81 
-0.184306 0.134069 0.983591 79 42 59 
-0.195592 -0.0159335 1.0631 82 40 42 
-0.146167 0.149765 0.954489 67 47 56 
-0.15165 -0.0367308 1.02363 51 20 26 
-0.131272 0.0704725 1.00671 56 29 36 
-0.0925344 0.113558 0.952004 74 42 55 
-0.0879388 0.10619 0.950207 52 55 100 
-0.0809403 0.107761 0.947496 125 141 192 
-0.0764087 0.148659 0.928477 49 42 50 
-0.0805114 -0.0732508 0.997898 162 150 128 
-0.0715702 -0.121345 1.0012 51 21 23 
-0.0599695 0.109178 0.941111 70 36 50 
-0.04927 -0.113041 0.991827 45 21 19 
-0.0399441 0.10875 0.933356 67 41 54 
-0.0365192 0.13639 0.929488 81 48 59 
0.0480168 0.109724 0.899839 65 38 47 
0.177295 -0.24167 0.978196 99 77 89 
0.190924 -0.147232 0.966191 133 118 141 
0.196062 -0.143594 0.964464 126 122 147 
0.225726 -0.190655 0.955389 65 53 65 
0.226937 -0.186995 0.95551 72 67 74 
0.226937 -0.186995 0.95551 72 67 74 
0.246243 -0.214177 0.950922 80 59 66 
0.251986 0.0684424 0.920948 89 61 73 
0.270367 -0.233494 0.941212 134 120 146 
0.282424 -0.249064 0.940139 79 49 59 
0.290012 -0.335786 0.945045 66 48 70 
0.293144 -0.264964 0.937757 45 39 51 
0.298161 -0.0834189 0.919051 96 67 72 
0.309917 -0.264995 0.931284 50 35 56 
0.328761 -0.0484481 0.903827 68 39 44 
0.339324 -0.113082 0.906777 57 38 44 
0.391523 0.0194525 0.872882 135 110 131 
0.392888 0.146052 0.861099 136 113 123 
-0.555527 0.275744 1.18405 23 30 48 
-0.555421 0.220114 1.20177 143 161 199 
-0.550469 0.259019 1.19361 78 73 103 
-0.552751 0.249697 1.19923 141 159 195 
-0.542385 0.277635 1.1784 37 37 47 
-0.553379 0.23339 1.20397 79 85 117 
-0.541448 0.266751 1.17989 119 111 124 
-0.448624 0.264508 0.982115 107 119 109 
-0.549271 0.198832 1.20572 144 163 205 
-0.549631 0.172301 1.20912 137 162 202 
-0.549641 0.0586688 1.21809 158 177 220 
-0.545904 0.146676 1.213 102 87 110 
-0.539183 0.254715 1.19906 78 69 86 
-0.544522 0.130074 1.21224 101 84 103 
-0.542645 0.104737 1.21496 97 84 102 
-0.521271 0.268286 1.17278 65 58 76 
-0.531053 0.224358 1.19907 42 35 53 
-0.545614 -0.0566244 1.23074 88 96 135 
-0.540986 -0.0457027 1.22854 99 85 118 
-0.544142 -0.180789 1.23995 107 116 155 
-0.511035 0.259694 1.17629 112 103 120 
-0.542742 -0.279496 1.24937 93 100 142 
-0.525058 0.0595312 1.21154 68 62 88 
-0.539036 -0.234488 1.24265 125 103 124 
-0.541804 -0.311844 1.25292 61 68 112 
-0.53937 -0.33901 1.25417 104 88 115 
-0.53685 -0.287819 1.24942 118 96 119 
-0.534423 -0.24776 1.24421 101 82 114 
-0.537187 -0.249792 1.25408 98 81 113 
-0.528484 -0.222716 1.23896 71 53 75 
-0.506398 0.194179 1.19042 114 104 129 
-0.504099 0.249259 1.18709 72 63 82 
-0.507608 0.146413 1.19767 126 114 138 
-0.506081 0.102127 1.19958 89 71 93 
-0.523843 -0.310865 1.24545 127 109 131 
-0.4973 0.189275 1.18877 129 123 151 
-0.512727 -0.227563 1.23487 92 65 82 
-0.496563 0.0876513 1.19998 75 58 76 
-0.493042 0.144199 1.19277 130 120 145 
-0.48786 0.195554 1.18661 120 112 135 
-0.499836 -0.0902424 1.21516 84 60 76 
-0.50558 -0.199719 1.22957 81 62 81 
-0.512238 -0.348745 1.24716 82 59 87 
-0.496508 -0.0298781 1.21105 112 99 125 
-0.500381 -0.231111 1.2315 138 116 128 
-0.493303 -0.123628 1.21596 126 113 133 
-0.477204 0.195491 1.18063 116 109 125 
-0.501547 -0.314746 1.23789 123 109 134 
-0.474838 0.249934 1.1758 67 56 73 
-0.486694 -0.0254971 1.2043 113 103 127 
-0.485681 -0.0549329 1.20249 123 108 131 
-0.496871 -0.278255 1.23294 70 53 71 
-0.478393 0.0849849 1.19401 61 52 69 
-0.490837 -0.220478 1.2271 83 61 73 
-0.49057 -0.232348 1.22651 131 107 121 
-0.494741 -0.341013 1.23825 59 48 65 
-0.482877 -0.125577 1.21352 75 59 69 
-0.488978 -0.349456 1.23578 70 44 69 
-0.476099 -0.119227 1.20914 134 116 138 
-0.460514 0.199849 1.17518 110 101 122 
-0.481599 -0.281147 1.22762 139 115 129 
-0.475823 -0.199785 1.21796 96 65 81 
-0.478656 -0.34157 1.2303 69 55 68 
-0.473865 -0.275974 1.22364 133 112 131 
-0.453103 0.142294 1.17685 120 107 127 
-0.464908 -0.125338 1.2057 42 37 57 
-0.448225 0.12595 1.17551 15 17 38 
-0.4432 0.250606 1.16383 57 55 69 
-0.453519 0.0161509 1.19087 70 55 78 
-0.461807 -0.198247 1.21292 63 49 62 
-0.461653 -0.22951 1.21491 80 59 74 
-0.445484 0.10908 1.17686 21 28 47 
-0.459926 -0.244107 1.21676 77 54 72 
-0.448581 0.0564542 1.18982 76 62 87 
-0.457659 -0.187215 1.21259 52 38 53 
-0.444437 -0.0107254 1.18825 63 50 68 
-0.433902 0.193514 1.16423 116 104 126 
-0.451868 -0.217307 1.21143 133 114 134 
-0.452419 -0.282255 1.21587 119 102 118 
-0.434871 0.0148091 1.18259 60 53 69 
-0.436404 -0.0249756 1.18685 45 32 49 
-0.428948 0.144185 1.16845 45 37 52 
-0.44382 -0.221626 1.20745 83 59 72 
-0.423405 0.19463 1.16085 56 50 64 
-0.412123 0.277421 1.13086 35 26 31 
-0.418629 0.139862 1.166 108 95 105 
-0.436436 -0.284633 1.2157 81 60 75 
-0.433364 -0.25007 1.20822 70 47 57 
-0.423769 -0.0262787 1.18485 79 61 87 
-0.416281 0.0792745 1.17086 53 39 54 
-0.4189 -0.057617 1.18092 125 106 126 
-0.421213 -0.160249 1.19049 76 58 82 
-0.429026 -0.311028 1.21198 137 118 138 
-0.413644 0.0144783 1.17547 61 47 64 
-0.414235 -0.0109789 1.17866 76 59 78 
-0.420548 -0.191431 1.19757 69 47 59 
-0.406618 0.0277013 1.17038 115 102 120 
-0.402264 0.166387 1.16 40 36 51 
-0.404384 0.0132145 1.16931 62 46 59 
-0.41055 -0.125302 1.18712 62 49 69 
-0.402492 0.0471143 1.16858 77 62 83 
-0.397577 0.0310909 1.16717 52 36 46 
-0.411483 -0.321579 1.20947 66 58 71 
-0.405662 -0.246638 1.19629 79 55 68 
-0.391094 0.102997 1.16006 46 35 51 
-0.397853 -0.0934454 1.1793 129 107 130 
-0.394683 -0.0230774 1.17059 116 98 122 
-0.384575 0.163928 1.15134 51 37 52 
-0.398791 -0.314314 1.20047 128 109 131 
-0.384821 0.0543634 1.16184 51 44 52 
-0.390209 -0.128748 1.18039 61 48 65 
-0.394462 -0.268085 1.19468 56 42 59 
-0.383978 -0.0640013 1.16997 62 46 72 
-0.391556 -0.283554 1.19438 76 55 64 
-0.385591 -0.313919 1.19598 133 108 127 
-0.370828 -0.0646366 1.16827 58 43 64 
-0.36971 -0.0292673 1.16605 65 51 68 
-0.375584 -0.204547 1.18406 52 39 57 
-0.372079 -0.126827 1.17421 69 54 75 
-0.363858 -0.014086 1.16009 67 50 60 
-0.246401 0.203371 0.784956 73 42 60 
-0.369034 -0.241955 1.18241 98 85 95 
-0.371704 -0.285852 1.19148 68 40 54 
-0.367486 -0.212793 1.17862 66 47 66 
-0.354948 0.0991675 1.14241 91 71 83 
-0.365347 -0.199793 1.1779 124 104 116 
-0.368114 -0.318 1.18972 52 41 49 
-0.356478 0.0277762 1.15549 35 24 32 
-0.356804 -0.00250814 1.15643 63 44 63 
-0.317742 0.128956 1.03305 113 71 83 
-0.356522 -0.030813 1.16052 48 38 49 
-0.355258 -0.0608088 1.16103 118 99 119 
-0.354946 -0.125159 1.16693 122 103 122 
-0.236805 0.217753 0.77601 100 73 88 
-0.356696 -0.20614 1.1753 122 114 129 
-0.321504 0.101437 1.06298 153 99 115 
-0.234702 0.190409 0.781651 65 39 52 
-0.344682 -0.0652898 1.15604 51 34 50 
-0.313676 0.107161 1.0521 74 53 52 
-0.352195 -0.317698 1.18541 67 44 50 
-0.348073 -0.273656 1.17674 67 48 70 
-0.307356 -0.0189469 1.05596 96 43 53 
-0.191799 0.239301 0.662639 108 116 139 
-0.221769 0.161542 0.776914 65 39 52 
-0.333719 -0.318353 1.17715 58 38 49 
-0.327026 -0.130786 1.15826 58 41 59 
-0.21418 0.247175 0.755431 127 134 152 
-0.287873 0.118994 1.02446 52 32 41 
-0.329902 -0.337955 1.17794 83 59 75 
-0.29557 0.0749682 1.06795 108 74 88 
-0.323803 -0.316684 1.174 74 52 65 
-0.316556 -0.0992614 1.14995 73 50 60 
-0.295147 0.0225619 1.07583 47 21 20 
-0.315648 -0.131077 1.15183 51 39 53 
-0.316445 -0.201517 1.15842 125 107 129 
-0.282769 0.106083 1.03678 70 49 48 
-0.276782 0.13328 1.01677 62 35 44 
-0.20998 0.202505 0.770926 90 47 64 
-0.28674 0.0721594 1.06185 63 27 39 
-0.281461 0.0941579 1.04887 145 93 106 
-0.206956 0.179323 0.771663 69 38 53 
-0.30288 -0.131195 1.1478 64 55 74 
-0.308528 -0.316307 1.16774 76 50 63 
-0.305258 -0.243361 1.15768 132 117 136 
-0.266479 0.136526 1.01369 55 32 38 
-0.304518 -0.286685 1.16273 78 66 86 
-0.265486 0.110255 1.01504 127 82 102 
-0.199412 0.187196 0.768516 68 37 52 
-0.199727 0.161384 0.770978 77 37 48 
-0.296386 -0.206315 1.1527 58 42 55 
-0.291816 -0.0686919 1.13651 126 102 116 
-0.196436 0.202029 0.765506 80 39 55 
-0.296665 -0.317845 1.16246 81 53 65 
-0.288387 -0.100157 1.14044 58 40 56 
-0.255442 0.109944 1.01241 128 83 103 
-0.178489 0.243853 0.707224 44 35 54 
-0.281211 -0.120491 1.13902 77 58 78 
-0.279781 -0.187864 1.14549 124 106 120 
-0.244652 0.119947 1.00936 53 38 43 
-0.243603 0.132389 1.00676 60 28 39 
-0.260916 0.0465343 1.0791 57 25 36 
-0.183909 0.161008 0.764867 66 32 46 
-0.273093 -0.29144 1.15017 90 55 75 
-0.232753 0.156879 0.985234 84 52 57 
-0.272129 -0.319516 1.15362 107 86 101 
-0.265839 -0.0980252 1.13245 61 39 51 
-0.175086 0.18623 0.757495 71 43 58 
-0.242223 0.0717069 1.0706 62 29 40 
-0.26025 -0.321433 1.15053 46 30 40 
-0.257192 -0.219335 1.13907 73 55 81 
-0.256645 -0.207726 1.13855 63 50 78 
-0.257402 -0.242932 1.14229 127 118 139 
-0.241611 0.03266 1.0761 49 24 30 
-0.159032 0.244959 0.707374 48 36 86 
-0.168681 0.130547 0.751521 101 54 64 
-0.254359 -0.286936 1.14434 89 65 81 
-0.237067 0.0575271 1.07351 49 21 20 
-0.220376 0.119902 0.998698 74 38 52 
-0.23435 0.0450632 1.06395 83 33 44 
-0.252119 -0.316649 1.14507 124 106 128 
-0.226925 -0.175489 1.03989 77 26 35 
-0.248457 -0.300421 1.14171 68 51 69 
-0.242467 -0.130009 1.12595 54 40 55 
-0.159916 0.222784 0.739432 73 43 53 
-0.227327 0.031946 1.06685 51 28 34 
-0.159966 0.189731 0.752775 98 51 71 
-0.205737 0.155386 0.975248 74 53 60 
-0.160005 0.175728 0.754176 83 38 58 
-0.220662 -0.158864 1.052 99 56 63 
-0.234903 -0.250423 1.13329 74 51 61 
-0.214439 -0.0908123 1.04977 49 23 24 
-0.201296 0.140518 0.98982 102 51 70 
-0.148739 0.222423 0.735439 82 46 58 
-0.213239 -0.0110504 1.06984 50 23 32 
-0.148643 0.185101 0.749753 88 44 59 
-0.218254 -0.322876 1.13395 78 54 76 
-0.200793 0.0580059 1.05705 64 29 36 
-0.199394 0.00689872 1.0563 93 44 50 
-0.20087 -0.0289865 1.06426 56 30 39 
-0.1984 -0.0553849 1.05694 69 29 30 
-0.196913 0.0382592 1.05918 58 22 22 
-0.208736 -0.322185 1.12971 75 53 74 
-0.193937 -0.045035 1.05597 121 69 81 
-0.136475 0.185246 0.744903 83 46 63 
-0.179832 0.10416 0.99882 99 57 69 
-0.189912 -0.108703 1.06195 57 29 41 
-0.200467 -0.326441 1.12623 129 114 135 
-0.188477 -0.0882802 1.06121 67 26 40 
-0.173644 0.13007 0.980636 80 38 50 
-0.197949 -0.316631 1.12277 86 62 84 
-0.184383 0.0534939 1.05414 51 24 33 
-0.16728 0.158946 0.959816 86 58 73 
-0.183222 0.0347662 1.05222 43 23 25 
-0.182878 -0.0120265 1.05511 56 27 32 
-0.188933 -0.322788 1.12314 134 122 142 
-0.162341 0.115253 0.975423 70 40 52 
-0.171768 -0.119405 1.06191 45 22 30 
-0.160274 0.0865428 1.00928 153 100 118 
-0.165079 -0.0902148 1.04446 59 28 26 
-0.157372 -0.260642 0.996263 139 93 104 
-0.158703 -0.179053 1.011 113 65 77 
-0.157856 -0.204614 1.01741 114 66 80 
-0.154853 -0.247486 1.00728 42 22 24 
-0.152862 -0.269935 0.99765 118 65 71 
-0.157551 -0.299245 1.03339 99 42 49 
-0.147055 0.114817 0.970979 73 39 55 
-0.153308 -0.159503 1.01279 128 78 90 
-0.111434 0.176939 0.736043 81 44 62 
-0.110817 0.196488 0.734266 87 43 56 
-0.151127 0.0234273 1.01723 62 30 41 
-0.149282 0.0529825 1.01355 63 22 30 
-0.149631 -0.215157 1.01584 121 67 83 
-0.105 0.243282 0.716728 63 49 66 
-0.146349 -0.184891 1.00643 136 84 97 
-0.134951 0.153517 0.95271 73 50 58 
-0.141759 -0.275577 0.994769 119 70 76 
-0.14241 0.0365041 1.01275 65 37 51 
-0.103789 0.184609 0.732874 80 47 64 
-0.140834 -0.114524 1.00452 63 29 30 
-0.137505 -0.167475 1.00325 133 86 104 
-0.137771 -0.0433016 1.01426 105 80 101 
-0.130381 0.137895 0.962534 88 50 65 
-0.136796 0.0508278 1.01016 98 47 56 
-0.132494 0.0386854 1.01024 66 30 40 
-0.131157 0.00979212 1.00996 53 27 36 
-0.130286 -0.248126 0.998818 43 22 21 
-0.130665 -0.00823949 1.01171 54 21 28 
-0.130172 -0.0233666 1.01517 64 37 46 
-0.129578 -0.215175 1.00986 108 75 96 
-0.128501 -0.155831 1.00322 57 22 28 
-0.128405 -0.270303 1.00356 61 28 37 
-0.128288 -0.0475674 1.01036 99 74 95 
-0.124603 0.0881067 0.989128 93 41 53 
-0.126235 -0.17938 0.997929 57 25 30 
-0.123975 -0.190055 0.997298 118 71 87 
-0.123306 -0.142901 1.00346 128 80 92 
-0.122916 0.0520265 1.00446 57 21 33 
-0.121281 0.0225963 1.00517 57 27 35 
-0.121126 -0.0363008 1.0097 55 29 40 
-0.120804 -0.0677963 1.01003 50 21 23 
-0.118352 -0.187503 1.0071 35 17 15 
-0.116264 -0.0786613 0.995909 53 23 25 
-0.111698 0.0547554 1.00035 40 21 27 
-0.10611 0.131399 0.95503 83 44 63 
-0.112373 -0.157625 1.01674 63 31 42 
-0.11061 -0.180732 1.0005 51 25 28 
-0.11145 -0.118627 1.01275 63 36 45 
-0.109868 -0.272982 0.998613 66 36 44 
-0.0793371 0.183826 0.722084 78 45 62 
-0.107264 -0.248517 0.989183 43 22 21 
-0.108919 -0.0962448 1.01065 53 20 27 
-0.0988549 0.152058 0.935194 66 49 55 
-0.10322 -0.0300124 1.00138 85 43 45 
-0.101919 -0.0674837 1.00257 44 20 18 
-0.102135 -0.109782 1.00833 66 30 40 
-0.0998053 -0.0392665 1.00133 145 126 112 
-0.0707022 0.220318 0.706704 76 44 49 
-0.0985573 -0.018944 0.99965 137 114 98 
-0.0938108 0.0475568 0.973112 27 18 19 
-0.0949407 -0.152161 1.00931 61 30 38 
-0.0677607 0.176336 0.719673 91 45 58 
-0.0926337 -0.0494204 1.001 135 117 95 
-0.0867576 0.034639 0.953134 20 15 12 
-0.091266 -0.0674413 1.00856 87 66 47 
-0.0883375 -0.0291085 0.980918 155 132 116 
-0.0644762 0.199242 0.716058 80 46 63 
-0.0884717 -0.21714 0.994526 132 79 95 
-0.0890518 -0.115467 1.00498 114 62 74 
-0.0643677 0.187062 0.717262 93 46 64 
-0.0848381 -0.248748 0.978563 44 22 25 
-0.0810417 0.0433387 0.95322 61 39 28 
-0.0599424 0.214994 0.703356 159 115 140 
-0.0803068 0.0236336 0.957712 107 101 105 
-0.0806912 -0.0155567 0.977527 195 185 160 
-0.079257 -0.0411255 0.986386 198 191 172 
-0.0807223 -0.138562 1.00315 64 37 46 
-0.0791053 -0.216202 0.990811 111 78 97 
-0.0778643 -0.0297496 0.984945 107 73 46 
-0.0742449 0.059338 0.970023 60 28 29 
-0.0745624 -0.0068115 0.97636 146 126 99 
-0.0724915 0.0329464 0.953905 106 97 102 
-0.0733127 -0.149329 1.00145 64 29 27 
-0.0697713 0.0477179 0.9581 75 65 74 
-0.0518743 0.211009 0.709294 178 129 159 
-0.0693465 0.00596336 0.989522 119 99 74 
-0.0697275 -0.0389339 0.996291 137 113 87 
-0.0651107 0.128802 0.938234 93 61 76 
-0.0501599 0.14198 0.710746 125 73 85 
-0.09942 0.178734 1.48548 77 49 64 
-0.0662188 0.0242121 0.960038 194 185 178 
-0.0658617 -0.271303 0.982613 86 33 49 
-0.0630375 -0.00925282 0.978704 177 163 137 
-0.0643915 -0.138407 0.997504 67 30 38 
-0.0624899 -0.0652584 0.994294 41 20 17 
-0.0597592 -0.0209041 0.987519 199 188 160 
-0.0431443 0.220446 0.704458 82 50 61 
-0.0553674 0.130169 0.934912 77 41 55 
-0.0588846 0.00305922 0.994719 111 96 77 
-0.0562559 0.0376395 0.96634 105 87 85 
-0.0555405 0.0483421 0.958264 131 118 136 
-0.0550061 -0.221286 0.980698 71 39 52 
-0.0395309 0.142773 0.717284 127 79 95 
-0.0391542 0.194916 0.717557 116 82 107 
-0.0486036 0.150513 0.916575 52 41 45 
-0.0493643 0.108491 0.934604 67 41 54 
-0.0459363 -0.218118 0.976606 128 80 96 
-0.0337194 0.170669 0.724575 86 49 66 
-0.042954 0.0406811 0.957952 177 162 155 
-0.041298 -0.103603 0.987886 48 20 19 
-0.0309428 0.184123 0.723899 81 50 65 
-0.0402275 -0.186871 0.964199 38 24 23 
-0.0401066 -0.250822 0.963474 44 22 25 
-0.0274579 0.21431 0.71833 125 85 109 
-0.032549 0.126477 0.928498 71 45 56 
-0.0346072 -0.0980007 0.983131 37 12 16 
-0.0315537 0.113404 0.92794 59 48 54 
-0.0323762 0.0542402 0.968414 56 24 27 
-0.0323192 -0.17699 0.962233 102 68 82 
-0.0309776 -0.19016 0.96194 132 78 92 
-0.0300376 0.0873208 0.949215 163 110 128 
-0.0254197 0.0189897 0.969461 63 23 32 
-0.0254333 -0.0398074 0.974352 59 22 30 
-0.0246628 -0.273334 0.959437 46 21 25 
-0.0231326 0.0487176 0.966033 58 20 31 
-0.0183224 0.183488 0.729749 100 49 66 
-0.0220449 0.111755 0.923562 50 34 45 
-0.0221284 -0.166946 0.963732 73 30 37 
-0.0152908 0.20188 0.729415 82 53 71 
-0.0153214 0.159441 0.733664 92 53 72 
-0.0184686 -0.0474491 0.96749 56 24 27 
-0.0177269 -0.0915931 0.976473 122 69 77 
-0.0163322 0.0328598 0.963819 68 38 48 
-0.0162732 -0.0257999 0.968692 67 39 51 
-0.0157485 -0.150102 0.954231 142 89 105 
-0.0155212 0.0201968 0.967307 76 40 50 
-0.0149028 0.0659414 0.961059 62 32 42 
-0.0148357 -0.186455 0.953511 135 85 97 
-0.0107814 -0.0129846 0.966929 86 41 48 
-0.00956831 0.113977 0.919626 64 36 50 
-0.00805979 0.184861 0.734903 113 62 81 
-0.00897207 -0.218452 0.961959 133 82 99 
-0.0054539 0.222056 0.721654 88 55 66 
-0.00619415 -0.297521 0.984804 70 33 41 
-0.00478351 0.0658429 0.957067 61 30 36 
-0.00474383 -0.0475783 0.963554 57 22 28 
-0.00439635 0.0204086 0.960853 75 45 57 
-0.00428196 0.0483329 0.9589 51 20 26 
-0.00423235 0.0326061 0.961658 68 30 41 
-0.00427125 -0.0264881 0.965915 66 33 44 
-0.00364284 -0.16334 0.955037 125 71 85 
-0.000383372 -0.186387 0.948678 136 88 104 
0.00306034 -0.0117408 0.961006 55 22 29 
0.00478539 0.125044 0.912819 77 43 57 
0.00357929 0.188859 0.73946 78 40 61 
0.00557774 -0.0784309 0.94851 109 71 86 
0.00820062 -0.21169 0.968159 51 22 24 
0.00914398 0.134862 0.910618 93 50 67 
0.00998842 0.11023 0.912981 138 91 107 
0.0106713 -0.299404 0.968782 148 101 111 
0.0116198 -0.258784 0.940245 111 64 70 
0.0109075 0.215897 0.736009 125 87 108 
0.0167054 0.102342 0.925119 153 109 126 
0.013311 0.179983 0.745626 83 50 67 
0.0195429 -0.260929 0.946012 39 20 24 
0.0240446 -0.185766 0.975185 37 17 16 
0.0194462 0.223365 0.732756 94 53 67 
0.0271798 0.0996224 0.944018 69 48 57 
0.0263523 0.12811 0.903655 57 37 46 
0.0177842 0.093704 0.653137 57 37 46 
0.0297541 0.000748628 0.975143 62 27 34 
0.0276311 0.108008 0.906714 56 43 50 
0.0301635 -0.035936 0.976887 63 38 44 
0.0303248 0.0282567 0.972264 57 24 31 
0.0305607 -0.138982 0.985469 59 28 34 
0.0319459 -0.191197 0.966296 39 18 23 
0.0335769 0.0577496 0.963017 63 33 43 
0.0350916 -0.0968361 0.981438 82 43 44 
0.0365768 0.124389 0.901401 65 35 47 
0.037778 0.111435 0.901429 61 44 52 
0.0441721 -0.127319 0.9791 57 30 37 
0.0442505 -0.0877117 0.975736 54 25 30 
0.0519524 -0.0192583 0.968127 57 30 39 
0.05339 0.00378085 0.96095 97 52 59 
0.053629 0.0276346 0.960178 44 18 19 
0.0575263 -0.308486 1.02738 135 114 133 
0.0541552 0.0462794 0.958587 61 30 36 
0.0560585 -0.0812682 0.971215 65 30 36 
0.0557946 0.0144517 0.946699 145 99 110 
0.0572069 -0.0919865 0.96714 122 81 95 
0.0585103 -0.0370177 0.966548 62 32 42 
0.0637247 -0.0497496 0.969959 63 29 30 
0.063532 -0.0230558 0.963784 82 36 38 
0.0596905 0.111914 0.89319 69 37 48 
0.0640272 -0.149821 0.952784 61 29 30 
0.0647906 0.00241575 0.957966 148 94 110 
0.0707969 -0.0373941 0.962818 57 28 33 
0.0713674 0.0495666 0.955874 59 26 33 
0.0720468 -0.101359 0.946428 48 24 24 
0.0710008 -0.182066 0.928706 136 86 98 
0.0751469 0.00432113 0.953845 90 44 55 
0.0757096 0.027603 0.952796 50 21 25 
0.0814191 -0.257689 1.00545 66 31 37 
0.0787591 0.0173328 0.951944 132 76 85 
0.0741228 0.123273 0.886293 85 41 54 
0.0831579 -0.0199359 0.954292 56 33 43 
0.0789358 0.105039 0.887273 69 35 51 
0.0913715 -0.308824 1.01416 91 63 78 
0.0912739 -0.234309 1.00785 135 117 139 
0.0801596 0.131942 0.883254 92 54 69 
0.0918719 0.0268462 0.949491 58 26 31 
0.0988087 -0.259824 1.00719 91 68 84 
0.0865254 0.229827 0.85838 145 102 122 
0.102534 -0.237728 1.00457 98 65 82 
0.0884009 0.147807 0.864292 120 68 80 
0.0905731 0.123244 0.87937 59 37 40 
0.0919586 0.0982844 0.880023 153 118 138 
0.0992336 0.0614112 0.943178 61 31 41 
0.0920522 0.188152 0.869892 50 27 33 
0.102632 0.0465748 0.944303 62 32 34 
0.110037 -0.308176 1.00859 81 58 76 
0.0937029 0.249491 0.853389 46 39 46 
0.0951498 0.157595 0.865714 94 58 60 
0.111016 -0.25973 1.00247 133 116 135 
0.11339 -0.29826 1.00589 100 68 81 
0.0993367 0.206315 0.865797 116 64 77 
0.114985 -0.242918 0.998022 149 125 141 
0.11595 -0.318446 1.00522 106 73 90 
0.104425 0.12533 0.875314 74 38 50 
0.103986 0.197485 0.8655 36 24 28 
0.113418 0.0609228 0.938684 57 26 34 
0.121125 -0.258379 1.00011 61 46 65 
0.122375 -0.281729 1.00029 91 59 80 
0.124304 -0.313693 1.00079 101 66 72 
0.125409 -0.297171 1.00137 96 68 83 
0.109418 0.152229 0.860258 59 31 30 
0.114066 0.0945794 0.889967 79 52 61 
0.128644 -0.182388 0.991315 96 72 88 
0.13 -0.27308 0.997038 79 56 76 
0.13194 -0.28284 0.99602 95 68 85 
0.131126 -0.14227 0.985463 73 51 72 
0.132499 -0.242149 0.993626 98 67 82 
0.132615 -0.166504 0.985124 110 74 88 
0.11794 0.107431 0.869991 46 31 36 
0.116847 0.189009 0.861124 78 36 50 
0.134607 -0.21888 0.99001 129 117 137 
0.137378 -0.297061 0.996864 92 72 100 
0.135354 -0.108831 0.978745 99 68 83 
0.118641 0.213596 0.857941 62 42 44 
0.119346 0.171313 0.861257 56 33 39 
0.12021 0.200317 0.85866 85 38 54 
0.139073 -0.260053 0.992885 96 64 79 
0.138832 -0.184174 0.985625 96 64 75 
0.131414 0.0354322 0.931851 51 24 31 
0.125442 0.0959223 0.887493 84 55 59 
0.138207 -0.0747084 0.974622 70 49 68 
0.141103 -0.272037 0.991544 94 66 88 
0.140065 -0.141695 0.97977 82 53 71 
0.141884 -0.243505 0.990604 76 50 59 
0.12947 0.0833757 0.896032 158 104 120 
0.145314 -0.293514 0.992304 134 117 136 
0.126795 0.185574 0.857822 75 33 47 
0.135604 0.0729399 0.907453 95 45 54 
0.148717 -0.261745 0.989047 97 66 84 
0.130366 0.110042 0.866413 62 32 42 
0.148028 -0.214047 0.983525 59 44 65 
0.148013 -0.170579 0.980681 101 76 97 
0.130218 0.135552 0.86221 143 88 109 
0.149156 -0.151809 0.979923 99 74 95 
0.100745 0.242342 0.652566 107 109 132 
0.15399 -0.271592 0.986877 91 62 80 
0.154102 -0.245229 0.985549 79 53 62 
0.133471 0.226268 0.847581 129 85 108 
0.14349 0.0556132 0.905181 65 39 52 
0.15815 -0.258929 0.985456 81 61 86 
0.156257 -0.0988717 0.970023 146 125 144 
0.137932 0.199986 0.852525 68 34 48 
0.159231 -0.180747 0.977646 85 57 71 
0.146771 -0.0132158 0.894925 109 58 65 
0.159557 -0.108019 0.971087 89 61 75 
0.149945 -0.0101087 0.912876 41 20 17 
0.162373 -0.299911 0.98678 101 71 81 
0.14601 -0.0302344 0.886928 135 82 98 
0.163952 -0.202874 0.978175 130 108 129 
0.165278 -0.283476 0.984562 100 73 92 
0.145068 0.121245 0.859416 80 42 55 
0.143016 0.223963 0.845383 156 112 135 
0.153621 0.00947666 0.905488 51 21 21 
0.143154 0.249327 0.83439 56 43 50 
0.165915 -0.0774393 0.964123 102 60 74 
0.167211 -0.140468 0.972008 133 117 128 
0.155815 0.0646059 0.897804 69 35 36 
0.171491 -0.295942 0.98471 77 58 78 
0.15034 0.103174 0.860624 58 30 42 
0.169434 -0.127995 0.968896 88 70 92 
0.150173 0.130609 0.857947 82 50 61 
0.172529 -0.208337 0.97428 86 62 78 
0.174077 -0.263211 0.981432 63 41 64 
0.176924 -0.17355 0.969083 94 63 79 
0.177757 -0.18999 0.970854 101 60 76 
0.156469 0.16118 0.848182 38 24 21 
0.158361 0.120871 0.854836 64 37 44 
0.156565 0.20416 0.843627 52 32 41 
0.179807 -0.141824 0.965376 130 122 143 
0.180684 -0.0779282 0.95927 75 49 60 
0.161815 0.103514 0.854863 128 85 95 
0.187927 -0.211173 0.968879 96 68 83 
0.188714 -0.242216 0.970991 75 50 69 
0.190554 -0.169514 0.963828 90 66 88 
0.189343 -0.0761142 0.954809 148 125 145 
0.190021 0.0741844 0.940527 77 48 66 
0.195568 -0.222099 0.96775 91 67 83 
0.195208 -0.109285 0.956962 68 47 52 
0.194117 0.0552383 0.941805 71 51 63 
0.20102 -0.312019 0.974733 95 67 90 
0.203652 -0.302506 0.97366 130 115 136 
0.203083 -0.244438 0.966068 84 60 74 
0.20561 -0.262537 0.968578 80 58 70 
0.200808 0.0319168 0.942963 76 50 59 
0.204601 -0.110346 0.953514 80 54 65 
0.204049 0.0567793 0.939704 118 105 125 
0.210739 -0.288092 0.966863 101 72 92 
0.208632 -0.0760442 0.948475 139 117 140 
0.210281 -0.00954429 0.941702 117 98 128 
0.214199 -0.181594 0.958851 127 113 136 
0.21232 -0.0476933 0.945004 130 107 123 
0.216643 -0.262326 0.964753 88 61 76 
0.216655 -0.244668 0.962063 85 61 75 
0.218385 -0.307046 0.965551 95 64 79 
0.217923 -0.14429 0.9526 120 111 132 
0.21565 0.000353432 0.93921 131 116 137 
0.212477 0.223877 0.918492 104 103 119 
0.211291 0.211998 0.913527 111 95 121 
0.217858 -0.0205277 0.939111 90 63 80 
0.216071 0.117328 0.925888 72 44 56 
0.224743 -0.27894 0.962698 71 52 74 
0.219981 -0.0109113 0.936978 127 103 125 
0.225414 -0.265177 0.961049 132 110 131 
0.221496 -0.0399945 0.941817 144 125 144 
0.222735 -0.0779344 0.94504 54 41 51 
0.227466 -0.292949 0.960806 80 59 74 
0.2188 0.201173 0.918332 102 85 104 
0.220603 0.129035 0.924688 120 97 115 
0.222993 0.0579192 0.932878 127 112 133 
0.223999 0.0291586 0.933616 97 67 77 
0.222548 0.0993887 0.926947 125 116 135 
0.230784 -0.211365 0.952994 86 59 74 
0.226989 0.00116609 0.935018 134 116 140 
0.223757 0.17632 0.920099 121 116 136 
0.228256 -0.047972 0.938995 69 42 57 
0.230556 -0.14336 0.948572 126 119 137 
0.233275 -0.245979 0.954369 75 57 71 
0.2312 -0.124286 0.945168 79 60 79 
0.226056 0.146659 0.921206 59 47 67 
0.235045 -0.283808 0.957648 103 74 96 
0.235239 -0.224798 0.952575 89 67 80 
0.229226 0.0829659 0.92682 86 63 81 
0.235934 -0.182724 0.948685 86 59 78 
0.236098 -0.194857 0.948622 107 73 87 
0.230035 0.121763 0.92273 65 50 69 
0.228101 0.225868 0.911594 59 58 76 
0.229633 0.186333 0.91675 124 119 142 
0.23366 0.0236169 0.930495 77 63 80 
0.240512 -0.300135 0.957291 141 114 129 
0.242323 -0.240896 0.952995 84 72 96 
0.238218 -0.0454368 0.935571 69 43 54 
0.172006 0.245545 0.678096 109 125 141 
0.242491 -0.27521 0.95312 92 63 85 
0.241514 -0.113785 0.942383 60 44 57 
0.235556 0.144257 0.918266 69 46 64 
0.237958 0.0536762 0.926296 78 62 75 
0.243388 -0.18849 0.945783 53 30 46 
0.236444 0.176054 0.917068 129 126 147 
0.244778 -0.224062 0.949715 64 46 62 
0.239105 0.0870954 0.922881 125 111 134 
0.238358 0.130448 0.918035 143 124 144 
0.240425 0.031057 0.925861 135 121 138 
0.244691 -0.143542 0.941903 133 124 145 
0.24193 -0.00260909 0.928287 131 114 133 
0.240818 0.118329 0.919935 82 64 86 
0.239406 0.219811 0.911482 108 102 136 
0.248158 -0.157171 0.942587 60 43 59 
0.251245 -0.306671 0.954755 71 54 72 
0.245076 -0.024637 0.929404 67 47 59 
0.245928 -0.0386422 0.932327 147 122 144 
0.249783 -0.234606 0.947367 91 62 80 
0.246536 -0.0653645 0.933314 83 58 77 
0.247869 -0.0805498 0.936922 66 45 54 
0.250939 -0.270678 0.948824 134 116 130 
0.246189 0.102761 0.918177 74 59 80 
0.247522 0.0521709 0.92165 79 54 75 
0.254024 -0.210678 0.945045 141 125 151 
0.250339 -0.0121829 0.927902 64 49 72 
0.246613 0.143717 0.912987 134 110 124 
0.255746 -0.243751 0.946395 129 105 127 
0.246816 0.154871 0.911593 137 122 143 
0.246101 0.193819 0.907931 74 55 75 
0.250142 0.113585 0.916508 130 125 145 
0.25563 -0.144076 0.937376 131 112 132 
0.257754 -0.223542 0.944903 71 58 68 
0.248513 0.217562 0.908152 59 43 53 
0.254916 -0.0474909 0.931101 53 36 42 
0.250536 0.173637 0.910485 75 60 83 
0.262966 -0.288022 0.946395 83 60 86 
0.257656 -0.00589897 0.924854 73 55 77 
0.263789 -0.27724 0.945217 127 108 127 
0.258067 0.0545194 0.91765 68 53 76 
0.262258 -0.0885496 0.928639 121 96 117 
0.26048 0.0320617 0.918669 130 124 138 
0.267898 -0.256046 0.942635 81 67 84 
0.265881 -0.146759 0.934194 116 111 131 
0.25925 0.153763 0.908789 129 125 148 
0.267889 -0.212854 0.939902 67 43 59 
0.257462 0.224217 0.900371 64 58 68 
0.259029 0.210535 0.904252 48 36 46 
0.262105 0.0660994 0.913169 90 67 75 
0.268911 -0.189372 0.937295 78 58 70 
0.263597 0.0464019 0.916227 132 110 123 
0.268612 -0.113067 0.931643 63 42 47 
0.262667 0.175009 0.907372 76 63 89 
0.268199 -0.0802508 0.926753 76 53 69 
0.266217 -0.012577 0.91958 139 122 132 
0.273663 -0.272101 0.942052 86 63 83 
0.266225 0.113968 0.907715 73 48 51 
0.271169 0.028654 0.916521 66 47 67 
0.267318 0.159257 0.903103 127 110 129 
0.270796 0.0539943 0.914903 75 52 68 
0.275117 -0.0457555 0.921429 60 41 45 
0.279784 -0.228794 0.935014 88 57 75 
0.273003 0.140542 0.904293 104 83 90 
0.280503 -0.149897 0.929628 66 46 58 
0.282206 -0.185439 0.933581 134 120 137 
0.278004 -0.00803595 0.919081 76 59 75 
0.273648 0.175176 0.901377 84 63 80 
0.28368 -0.208891 0.931911 136 122 147 
0.275064 0.151528 0.901593 140 125 148 
0.273954 0.20149 0.897102 127 108 127 
0.283667 -0.11451 0.92522 67 46 61 
0.275228 0.212797 0.89507 137 114 134 
0.28074 0.0286281 0.912394 82 61 80 
0.277655 0.0889091 0.901832 22 62 175 
0.284386 -0.0456694 0.917884 62 39 45 
0.285634 -0.0781339 0.919555 129 110 130 
0.289409 -0.225317 0.931531 69 52 68 
0.28191 0.0690481 0.90614 83 61 82 
0.28059 0.108998 0.899967 82 121 212 
0.288997 -0.148697 0.924057 127 107 119 
0.291049 -0.190564 0.927716 66 55 72 
0.293147 -0.244244 0.931975 129 107 130 
0.285813 0.0789957 0.902976 129 103 114 
0.290667 -0.0567892 0.917608 67 58 75 
0.286259 0.118864 0.901611 125 107 119 
0.289307 -0.00178539 0.910998 68 45 63 
0.286022 0.16359 0.89563 102 79 99 
0.285631 0.209046 0.892147 64 48 59 
0.287413 0.150602 0.897634 130 114 127 
0.293722 -0.0422648 0.912541 131 114 133 
0.300726 -0.260272 0.929561 95 70 92 
0.292162 0.0951319 0.90028 109 81 95 
0.30243 -0.218967 0.926741 126 121 144 
0.301279 -0.185833 0.921213 72 60 74 
0.305719 -0.300864 0.933463 82 63 85 
0.293296 0.178434 0.891193 130 113 132 
0.29231 0.223464 0.887498 93 70 86 
0.299344 -0.00974789 0.909135 140 116 130 
0.306137 -0.249643 0.927358 124 103 120 
0.301977 -0.0671857 0.912302 77 56 63 
0.303559 -0.112616 0.915772 71 48 68 
0.308363 -0.291582 0.92896 90 63 80 
0.299239 0.0792132 0.897123 89 63 76 
0.30286 0.0305582 0.904053 125 112 129 
0.307355 -0.148864 0.917656 95 65 77 
0.29876 0.210454 0.88766 81 64 83 
0.311457 -0.224768 0.925257 102 93 112 
0.302909 0.124991 0.893507 127 103 117 
0.303203 0.14718 0.892104 79 61 75 
0.306121 0.0495173 0.899882 139 116 132 
0.309508 -0.0494789 0.908846 60 44 55 
0.315711 -0.259034 0.924321 118 100 124 
0.311796 -0.082781 0.912152 65 42 58 
0.315195 -0.185477 0.918044 64 46 62 
0.310806 -0.00352803 0.903138 114 93 110 
0.305841 0.17253 0.888386 68 54 69 
0.307735 0.116163 0.893014 118 94 107 
0.308953 0.0860297 0.895627 120 101 120 
0.299474 0.238054 0.866894 66 57 76 
0.313382 0.0375429 0.89682 103 80 100 
0.315055 0.0522425 0.894004 82 64 86 
0.324868 -0.275282 0.921047 143 122 137 
0.317022 0.0281497 0.898046 53 37 47 
0.311509 0.217839 0.881409 147 124 140 
0.311789 0.18423 0.882075 134 116 132 
0.326568 -0.302772 0.923906 52 35 51 
0.3254 -0.152251 0.912468 119 110 127 
0.317577 0.145436 0.885952 64 51 61 
0.327558 -0.186147 0.914268 54 42 54 
0.329446 -0.26475 0.919367 58 43 62 
0.31887 0.0946286 0.888979 90 60 70 
0.330356 -0.174306 0.911796 89 65 78 
0.324131 0.0850978 0.89023 139 127 141 
0.323553 0.119548 0.887186 121 106 129 
0.325551 0.0524777 0.891594 82 58 80 
0.326038 0.0417606 0.891518 140 117 135 
0.322394 0.172534 0.881015 83 65 87 
0.323165 0.205299 0.877316 111 93 117 
0.338995 -0.303114 0.920838 61 43 67 
0.324305 0.192114 0.877765 135 118 134 
0.324261 0.215853 0.87725 134 116 132 
0.330349 0.0300587 0.890986 130 113 131 
0.331998 -0.00769624 0.895156 83 62 69 
0.340019 -0.265314 0.916567 41 26 47 
0.336821 -0.159156 0.907244 87 60 79 
0.328496 0.145547 0.881699 70 57 67 
0.338407 -0.148611 0.905709 62 41 58 
0.332977 0.12576 0.881593 87 61 70 
0.341279 -0.083235 0.899051 73 50 58 
0.337139 0.0858258 0.88654 125 110 129 
0.334483 0.168542 0.877345 126 104 117 
0.348501 -0.289144 0.913415 137 114 130 
0.334124 0.214691 0.872837 123 107 120 
0.346294 -0.184303 0.904836 139 121 143 
0.339939 0.0302449 0.885035 141 117 133 
0.348775 -0.157494 0.901801 82 58 82 
0.341735 0.0772453 0.882047 143 124 130 
0.345469 -0.0100017 0.889639 87 66 73 
0.338663 0.20511 0.871391 138 115 131 
0.355234 -0.262717 0.911317 123 111 135 
0.350352 -0.110001 0.897333 127 104 120 
0.351671 -0.0826452 0.896243 77 54 72 
0.349984 -0.0385934 0.891019 129 107 120 
0.354387 -0.149318 0.900142 88 64 80 
0.345589 0.143514 0.87514 77 55 68 
0.359825 -0.306592 0.911303 116 99 118 
0.357647 -0.208228 0.902048 88 64 80 
0.349055 0.0846048 0.879374 132 114 130 
0.354491 -0.063708 0.890657 88 61 78 
0.345946 0.217047 0.868282 131 110 127 
0.358661 -0.158689 0.898685 96 70 99 
0.359801 -0.187559 0.901423 60 44 70 
0.353343 0.0346591 0.884094 116 103 123 
0.355129 -0.0188843 0.887196 124 111 128 
0.354921 0.0472741 0.882355 122 100 113 
0.349509 0.204243 0.866953 140 122 138 
0.365557 -0.225033 0.90292 54 36 52 
0.367189 -0.265262 0.904087 64 47 63 
0.360654 -0.0089359 0.886514 72 55 73 
0.359783 0.0218865 0.880415 131 107 121 
0.355189 0.167984 0.868594 127 107 118 
0.37208 -0.304169 0.907553 68 58 83 
0.363191 0.0518897 0.878241 64 45 65 
0.358724 0.217119 0.863307 141 129 153 
0.363197 0.115541 0.870494 138 112 121 
0.372566 -0.154923 0.892429 94 69 91 
0.360814 0.20583 0.86345 140 119 134 
0.365321 0.0746673 0.873461 149 118 134 
0.366668 0.0428798 0.875639 98 74 90 
0.383473 -0.303499 0.902231 74 57 76 
0.375087 0.0203596 0.873835 134 111 129 
0.378994 -0.049761 0.880254 112 99 117 
0.373197 0.143427 0.864934 66 50 63 
0.37212 0.208785 0.858839 45 31 44 
0.374272 0.168886 0.861259 64 52 66 
0.378987 0.0490829 0.870669 149 129 141 
0.383623 -0.0891161 0.880862 138 114 128 
0.385352 -0.00856956 0.874812 77 54 72 
0.369202 0.261353 0.837157 98 81 91 
0.394107 -0.226506 0.891298 73 50 76 
0.370285 0.243959 0.83694 115 106 123 
0.385311 0.0285626 0.870526 131 108 128 
0.379014 0.201794 0.856113 123 104 124 
0.40214 -0.253564 0.889326 92 68 92 
0.377846 0.238129 0.83448 88 82 116 
0.396076 -0.0564739 0.873696 136 111 132 
0.387051 0.221102 0.849088 69 64 87 
0.380322 0.251763 0.834161 154 172 244 
0.394376 0.0742219 0.861792 144 118 127 
0.393202 0.159379 0.853689 93 66 71 
0.400948 0.0174773 0.864692 130 105 124 
0.403189 -0.0244499 0.86837 129 106 124 
0.396665 0.170909 0.850904 63 42 51 
0.389006 0.243176 0.830066 16 23 41 
0.388792 0.256281 0.827019 14 20 34 
0.400814 0.147221 0.851802 84 58 69 
0.398485 0.248453 0.823964 156 174 248 
0.40364 0.232804 0.826291 131 117 130 
0.471246 -0.171407 0.951221 68 84 120 
0.406637 0.259709 0.82062 11 16 20 
0.465311 0.189533 0.908633 20 34 63 
-0.469422 0.110106 1.18685 66 58 81 
-0.444541 0.268667 1.14521 52 50 53 
-0.443398 0.151985 1.17287 124 112 136 
-0.43795 0.171901 1.16726 118 114 141 
-0.423222 0.277474 1.13602 37 33 32 
-0.422185 0.250916 1.15558 52 50 63 
-0.420364 0.121167 1.16898 60 53 71 
-0.414723 0.23129 1.15547 108 92 105 
-0.406097 0.0794549 1.1667 47 36 44 
-0.405158 -0.060245 1.17842 134 119 140 
-0.393123 0.194295 1.15216 111 97 112 
-0.393006 0.119185 1.15958 57 45 59 
-0.389847 0.0414441 1.16376 87 62 81 
-0.381293 0.105442 1.15509 59 45 60 
-0.373423 0.195656 1.14521 35 25 34 
-0.373665 0.140637 1.14899 43 31 41 
-0.364263 0.230868 1.13733 96 92 107 
-0.360948 0.139963 1.144 42 32 43 
-0.363024 -0.145053 1.17023 130 106 119 
-0.363743 -0.191311 1.17593 64 53 67 
-0.350024 -0.0096718 1.15451 132 115 131 
-0.331544 0.117753 1.03955 109 73 83 
-0.32873 0.131598 1.03714 113 72 78 
-0.34639 -0.166482 1.16727 80 56 69 
-0.318967 -0.152226 1.15615 76 59 77 
-0.301174 -0.0994295 1.14417 88 57 73 
-0.246811 0.176964 0.788267 88 42 53 
-0.267641 -0.0743086 1.12914 139 112 129 
-0.202894 -0.208752 1.11993 57 43 58 
-0.185725 -0.0731854 1.06325 73 32 38 
-0.0912182 0.145624 0.935091 139 103 115 
