ply                 
format ascii 1.0    
element vertex 1233
property float x    
property float y    
property float z    
property uchar red  
property uchar green
property uchar blue 
end_header          
-0.260427 -0.12988 1.12916 68 54 67 
-0.257326 -0.13011 1.13061 64 50 65 
-0.252994 -0.129534 1.12918 66 49 67 
-0.245994 -0.210772 1.13223 97 66 84 
-0.209314 -0.143014 1.05273 51 26 30 
-0.217364 -0.206037 1.12142 67 42 63 
-0.199074 0.0244302 1.0451 78 35 45 
-0.198742 0.0220379 1.04451 120 73 83 
-0.198742 0.0220379 1.04451 120 73 83 
-0.19858 0.0265498 1.04479 125 74 81 
-0.183799 0.133615 0.981765 79 42 59 
-0.19501 -0.015815 1.0609 82 40 42 
-0.145801 0.149255 0.952724 67 47 56 
-0.151243 -0.0365331 1.02156 51 20 26 
-0.130946 0.0702495 1.00467 56 29 36 
-0.0923616 0.113175 0.95015 74 42 55 
-0.087783 0.105834 0.948353 52 55 100 
-0.0808109 0.107399 0.945641 125 141 192 
-0.0762978 0.148147 0.926697 49 42 50 
-0.0803786 -0.0729005 0.995814 162 150 128 
-0.0714721 -0.120797 0.999091 51 21 23 
-0.0599196 0.108809 0.939246 70 36 50 
-0.0492608 -0.112524 0.989715 45 21 19 
-0.0399712 0.108381 0.931489 67 41 54 
-0.0365601 0.135915 0.92763 81 48 59 
0.0476423 0.109346 0.897965 65 38 47 
0.17629 -0.240496 0.975721 99 77 89 
0.189857 -0.146487 0.963744 133 118 141 
0.19497 -0.142864 0.962017 126 122 147 
0.224493 -0.189704 0.952938 65 53 65 
0.225698 -0.18606 0.953056 72 67 74 
0.225698 -0.18606 0.953056 72 67 74 
0.244909 -0.21311 0.948459 80 59 66 
0.250642 0.0682114 0.918604 89 61 73 
0.268917 -0.232333 0.938758 134 120 146 
0.280912 -0.247825 0.93767 79 49 59 
0.288457 -0.334134 0.942545 66 48 70 
0.291578 -0.263647 0.935283 45 39 51 
0.296582 -0.0829514 0.916647 96 67 72 
0.308268 -0.263672 0.928813 50 35 56 
0.327033 -0.0481403 0.901444 68 39 44 
0.337538 -0.11247 0.904365 57 38 44 
0.389485 0.0194454 0.870541 135 110 131 
0.390852 0.145454 0.858806 136 113 123 
-0.554041 0.274933 1.18268 23 30 48 
-0.55391 0.219468 1.20033 143 161 199 
-0.548981 0.258253 1.19219 78 73 103 
-0.551247 0.248956 1.19779 141 159 195 
-0.540948 0.276824 1.17706 37 37 47 
-0.551866 0.232698 1.2025 79 85 117 
-0.540013 0.265974 1.17855 119 111 124 
-0.447782 0.263943 0.981708 107 119 109 
-0.547773 0.198252 1.20427 144 163 205 
-0.548131 0.171805 1.20766 137 162 202 
-0.548144 0.058536 1.21664 158 177 220 
-0.544411 0.146261 1.21153 102 87 110 
-0.537718 0.253956 1.19762 78 69 86 
-0.543038 0.129713 1.21079 101 84 103 
-0.541165 0.104457 1.2135 97 84 102 
-0.519907 0.26751 1.17147 65 58 76 
-0.529617 0.223699 1.19764 42 35 53 
-0.544124 -0.056392 1.22927 88 96 135 
-0.539511 -0.0455048 1.22708 99 85 118 
-0.54266 -0.180167 1.23849 107 116 155 
-0.509695 0.25894 1.17496 112 103 120 
-0.541261 -0.278564 1.24791 93 100 142 
-0.523644 0.059397 1.21012 68 62 88 
-0.537572 -0.233699 1.2412 125 103 124 
-0.540325 -0.31081 1.25145 61 68 112 
-0.537898 -0.337892 1.2527 104 88 115 
-0.535387 -0.28686 1.24795 118 96 119 
-0.532971 -0.246928 1.24275 101 82 114 
-0.535707 -0.248944 1.25256 98 81 113 
-0.527055 -0.221964 1.23751 71 53 75 
-0.505055 0.193623 1.18905 114 104 129 
-0.502761 0.248527 1.1857 72 63 82 
-0.506257 0.146006 1.19628 126 114 138 
-0.504737 0.10186 1.1982 89 71 93 
-0.522427 -0.309838 1.24401 127 109 131 
-0.495988 0.188736 1.18741 129 123 151 
-0.511349 -0.226797 1.23344 92 65 82 
-0.495248 0.0874307 1.19859 75 58 76 
-0.491742 0.143801 1.1914 130 120 145 
-0.486578 0.194996 1.18525 120 112 135 
-0.498511 -0.0899071 1.21377 84 60 76 
-0.504228 -0.199041 1.22816 81 62 81 
-0.510856 -0.347599 1.24571 82 59 87 
-0.495191 -0.0297303 1.20966 112 99 125 
-0.499044 -0.230335 1.23009 138 116 128 
-0.491999 -0.12319 1.21458 126 113 133 
-0.475964 0.194937 1.1793 116 109 125 
-0.500207 -0.313711 1.23648 123 109 134 
-0.473606 0.249209 1.17447 67 56 73 
-0.485415 -0.0253635 1.20294 113 103 127 
-0.484414 -0.054709 1.20116 123 108 131 
-0.495548 -0.277334 1.23154 70 53 71 
-0.477141 0.0847744 1.19265 61 52 69 
-0.489533 -0.219736 1.2257 83 61 73 
-0.48927 -0.231571 1.22512 131 107 121 
-0.493422 -0.339898 1.23684 59 48 65 
-0.481607 -0.125132 1.21215 75 59 69 
-0.487681 -0.348317 1.23438 70 44 69 
-0.474855 -0.118803 1.20779 134 116 138 
-0.459331 0.199285 1.17388 110 101 122 
-0.480328 -0.28022 1.22624 139 115 129 
-0.474574 -0.199111 1.21659 96 65 81 
-0.477395 -0.340459 1.22892 69 55 68 
-0.472622 -0.275065 1.22227 133 112 131 
-0.451945 0.14191 1.17556 120 107 127 
-0.463701 -0.124896 1.20437 42 37 57 
-0.447086 0.125617 1.17423 15 17 38 
-0.442079 0.24989 1.16256 57 55 69 
-0.452352 0.0161562 1.18956 70 55 78 
-0.460606 -0.197579 1.21158 63 49 62 
-0.460453 -0.228747 1.21356 80 59 74 
-0.444352 0.1088 1.17558 21 28 47 
-0.458729 -0.243298 1.21541 77 54 72 
-0.447425 0.0563343 1.18849 76 62 87 
-0.456469 -0.18658 1.21124 52 38 53 
-0.443303 -0.0106371 1.18696 63 50 68 
-0.432814 0.192977 1.16298 116 104 126 
-0.450699 -0.216582 1.21009 133 114 134 
-0.451249 -0.281331 1.21453 119 102 118 
-0.43377 0.0148193 1.18131 60 53 69 
-0.435297 -0.0248434 1.18557 45 32 49 
-0.427872 0.143799 1.16719 45 37 52 
-0.44268 -0.22089 1.20613 83 59 72 
-0.422352 0.194091 1.15962 56 50 64 
-0.411139 0.276653 1.12975 35 26 31 
-0.417587 0.139491 1.16476 108 95 105 
-0.43531 -0.283698 1.21436 81 60 75 
-0.432255 -0.249246 1.2069 70 47 57 
-0.422701 -0.0261422 1.18358 79 61 87 
-0.415244 0.0790884 1.16962 53 39 54 
-0.417854 -0.0573859 1.17968 125 106 126 
-0.420156 -0.159706 1.18924 76 58 82 
-0.427929 -0.310017 1.21066 137 118 138 
-0.412615 0.0144902 1.17423 61 47 64 
-0.413201 -0.0108893 1.17741 76 59 78 
-0.419485 -0.190789 1.19628 69 47 59 
-0.405615 0.0276733 1.16916 115 102 120 
-0.401275 0.165936 1.15878 40 36 51 
-0.403389 0.0132306 1.1681 62 46 59 
-0.409524 -0.124864 1.18587 62 49 69 
-0.401501 0.0470274 1.16735 77 62 83 
-0.396603 0.0310531 1.16596 52 36 46 
-0.410439 -0.320536 1.20816 66 58 71 
-0.404647 -0.245831 1.19503 79 55 68 
-0.390142 0.102741 1.15886 46 35 51 
-0.396872 -0.0931053 1.17807 129 107 130 
-0.393717 -0.0229511 1.16938 116 98 122 
-0.383649 0.163489 1.15016 51 37 52 
-0.397795 -0.3133 1.1992 128 109 131 
-0.383889 0.0542557 1.16065 51 44 52 
-0.38925 -0.128301 1.17917 61 48 65 
-0.393482 -0.267214 1.19343 56 42 59 
-0.383046 -0.0637516 1.16877 62 46 72 
-0.390586 -0.282636 1.19313 76 55 64 
-0.384637 -0.312908 1.19472 133 108 127 
-0.369935 -0.0643845 1.16707 58 43 64 
-0.368821 -0.0291218 1.16485 65 51 68 
-0.374666 -0.203869 1.18282 52 39 57 
-0.37118 -0.126387 1.173 69 54 75 
-0.362992 -0.0139865 1.15892 67 50 60 
-0.246159 0.203099 0.785166 73 42 60 
-0.368139 -0.241168 1.1812 98 85 95 
-0.370793 -0.284926 1.19023 68 40 54 
-0.366599 -0.212095 1.17742 66 47 66 
-0.354122 0.0989296 1.1413 91 71 83 
-0.364466 -0.199134 1.1767 124 104 116 
-0.367217 -0.316981 1.18849 52 41 49 
-0.355636 0.0277501 1.15433 35 24 32 
-0.355961 -0.00244329 1.15527 63 44 63 
-0.317137 0.128682 1.03244 113 71 83 
-0.355677 -0.030663 1.15935 48 38 49 
-0.354418 -0.0605691 1.15987 118 99 119 
-0.354103 -0.124726 1.16576 122 103 122 
-0.236584 0.217464 0.776239 100 73 88 
-0.355843 -0.205462 1.17411 122 114 129 
-0.320858 0.101222 1.06225 153 99 115 
-0.23448 0.19016 0.781871 65 39 52 
-0.343878 -0.0650375 1.1549 51 34 50 
-0.313061 0.106935 1.05142 74 53 52 
-0.351347 -0.316681 1.18419 67 44 50 
-0.347246 -0.272778 1.17556 67 48 70 
-0.306758 -0.0188426 1.05529 96 43 53 
-0.191705 0.239083 0.663071 108 116 139 
-0.221569 0.161342 0.777148 65 39 52 
-0.332932 -0.31734 1.17597 58 38 49 
-0.326271 -0.130338 1.15712 58 41 59 
-0.214005 0.246858 0.7557 127 134 152 
-0.287348 0.118748 1.02389 52 32 41 
-0.329126 -0.336883 1.17675 83 59 75 
-0.294986 0.0748231 1.0672 108 74 88 
-0.323048 -0.315677 1.17283 74 52 65 
-0.315838 -0.098909 1.14885 73 50 60 
-0.294558 0.0225573 1.07505 47 21 20 
-0.314932 -0.13063 1.15072 51 39 53 
-0.315722 -0.20086 1.15729 125 107 129 
-0.282246 0.105866 1.03616 70 49 48 
-0.276291 0.133002 1.01623 62 35 44 
-0.209801 0.202244 0.771166 90 47 64 
-0.286184 0.0720235 1.06113 63 27 39 
-0.28093 0.0939674 1.04819 145 93 106 
-0.206781 0.179098 0.771904 69 38 53 
-0.302203 -0.130749 1.14671 64 55 74 
-0.307822 -0.315305 1.16659 76 50 63 
-0.304569 -0.242582 1.15656 132 117 136 
-0.266015 0.136241 1.01316 55 32 38 
-0.303827 -0.285774 1.1616 78 66 86 
-0.265023 0.110035 1.01451 127 82 102 
-0.199249 0.18696 0.768763 68 37 52 
-0.199562 0.161186 0.771223 77 37 48 
-0.295725 -0.205646 1.15159 58 42 55 
-0.29118 -0.0684318 1.13546 126 102 116 
-0.19628 0.201772 0.765758 80 39 55 
-0.295997 -0.316843 1.16133 81 53 65 
-0.287758 -0.0998033 1.13937 58 40 56 
-0.255006 0.109727 1.01189 128 83 103 
-0.178387 0.243585 0.707587 44 35 54 
-0.280604 -0.120078 1.13796 77 58 78 
-0.279172 -0.187252 1.14442 124 106 120 
-0.244243 0.119706 1.00885 53 38 43 
-0.243199 0.132118 1.00626 60 28 39 
-0.260412 0.0464646 1.07829 57 25 36 
-0.18377 0.160814 0.765124 66 32 46 
-0.272501 -0.290524 1.14909 90 55 75 
-0.23239 0.156558 0.984812 84 52 57 
-0.271537 -0.318514 1.15253 107 86 101 
-0.26528 -0.0976794 1.13141 61 39 51 
-0.174964 0.186002 0.757765 71 43 58 
-0.241775 0.07157 1.06983 62 29 40 
-0.259694 -0.320426 1.14944 46 30 40 
-0.256653 -0.218634 1.13803 73 55 81 
-0.256108 -0.207059 1.1375 63 50 78 
-0.25686 -0.24216 1.14123 127 118 139 
-0.241161 0.0326291 1.07531 49 24 30 
-0.158954 0.244689 0.707736 48 36 86 
-0.168569 0.130406 0.751808 101 54 64 
-0.253824 -0.286035 1.14328 89 65 81 
-0.23663 0.0574284 1.07272 49 21 20 
-0.220032 0.119665 0.998227 74 38 52 
-0.233927 0.0450002 1.06321 83 33 44 
-0.25159 -0.315661 1.14401 124 106 128 
-0.226538 -0.174986 1.0393 77 26 35 
-0.24794 -0.299484 1.14066 68 51 69 
-0.241979 -0.129572 1.12495 54 40 55 
-0.159823 0.222515 0.739735 73 43 53 
-0.226921 0.0319182 1.0661 51 28 34 
-0.159867 0.1895 0.753054 98 51 71 
-0.205442 0.155075 0.974863 74 53 60 
-0.159906 0.175517 0.754453 83 38 58 
-0.220283 -0.158393 1.05135 99 56 63 
-0.23443 -0.249634 1.13227 74 51 61 
-0.214077 -0.0905172 1.04912 49 23 24 
-0.201003 0.140234 0.98938 102 51 70 
-0.148663 0.222157 0.735751 82 46 58 
-0.212867 -0.0109614 1.06908 50 23 32 
-0.148561 0.184879 0.750039 88 44 59 
-0.217827 -0.321877 1.13293 78 54 76 
-0.200461 0.0579095 1.05633 64 29 36 
-0.199066 0.0069394 1.0556 93 44 50 
-0.200533 -0.0288492 1.06352 56 30 39 
-0.198074 -0.0551786 1.05624 69 29 30 
-0.19659 0.0382157 1.05846 58 22 22 
-0.208338 -0.32119 1.12871 75 53 74 
-0.193623 -0.0448561 1.05527 121 69 81 
-0.136412 0.185026 0.745198 83 46 63 
-0.179585 0.103961 0.998346 99 57 69 
-0.189605 -0.108353 1.06123 57 29 41 
-0.200094 -0.325437 1.12524 129 114 135 
-0.188174 -0.0879846 1.06049 67 26 40 
-0.173419 0.129816 0.980232 80 38 50 
-0.197586 -0.315658 1.12179 86 62 84 
-0.184096 0.0534103 1.05344 51 24 33 
-0.16708 0.158634 0.959488 86 58 73 
-0.182938 0.0347331 1.05153 43 23 25 
-0.182593 -0.0119348 1.05441 56 27 32 
-0.188594 -0.321796 1.12216 134 122 142 
-0.162145 0.115037 0.975039 70 40 52 
-0.171508 -0.119024 1.0612 45 22 30 
-0.160069 0.0863845 1.00876 153 100 118 
-0.164844 -0.089919 1.04382 59 28 26 
-0.157173 -0.25996 0.995837 139 93 104 
-0.158497 -0.178553 1.01051 113 65 77 
-0.157648 -0.204045 1.01689 114 66 80 
-0.154656 -0.246822 1.0068 42 22 24 
-0.152673 -0.269228 0.997218 118 65 71 
-0.157336 -0.298425 1.03281 99 42 49 
-0.146896 0.114604 0.970612 73 39 55 
-0.153113 -0.159048 1.01228 128 78 90 
-0.111408 0.176737 0.736355 81 44 62 
-0.110792 0.196259 0.734581 87 43 56 
-0.15094 0.0234273 1.01668 62 30 41 
-0.149101 0.0529081 1.01302 63 22 30 
-0.149443 -0.214563 1.01533 121 67 83 
-0.104988 0.243001 0.717075 63 49 66 
-0.146173 -0.184378 1.00595 136 84 97 
-0.134826 0.153222 0.952407 73 50 58 
-0.141597 -0.274858 0.994344 119 70 76 
-0.142246 0.0364716 1.01222 65 37 51 
-0.103773 0.184398 0.733192 80 47 64 
-0.140674 -0.114183 1.00405 63 29 30 
-0.137352 -0.167005 1.00278 133 86 104 
-0.137616 -0.043133 1.01373 105 80 101 
-0.130264 0.137631 0.962197 88 50 65 
-0.136647 0.0507595 1.00964 98 47 56 
-0.132356 0.0386478 1.00972 66 30 40 
-0.131021 0.00982727 1.00945 53 27 36 
-0.13015 -0.247464 0.99837 43 22 21 
-0.130529 -0.00815897 1.01118 54 21 28 
-0.130037 -0.0232476 1.01463 64 37 46 
-0.12944 -0.214582 1.00936 108 75 96 
-0.12837 -0.155388 1.00275 57 22 28 
-0.128271 -0.269583 1.00309 61 28 37 
-0.128158 -0.0473884 1.00984 99 74 95 
-0.12449 0.0879509 0.98869 93 41 53 
-0.12611 -0.178884 0.997478 57 25 30 
-0.123855 -0.189533 0.99685 118 71 87 
-0.123187 -0.14249 1.00298 128 80 92 
-0.122803 0.0519564 1.00396 57 21 33 
-0.121171 0.0225998 1.00467 57 27 35 
-0.121013 -0.0361498 1.00919 55 29 40 
-0.120692 -0.0675664 1.00952 50 21 23 
-0.118244 -0.186979 1.00661 35 17 15 
-0.116166 -0.0784092 0.995456 53 23 25 
-0.111613 0.0546794 0.999872 40 21 27 
-0.106049 0.131153 0.95472 83 44 63 
-0.112278 -0.157167 1.01621 63 31 42 
-0.110522 -0.180228 1.00004 51 25 28 
-0.111359 -0.118268 1.01223 63 36 45 
-0.109779 -0.272256 0.998159 66 36 44 
-0.0793567 0.183623 0.722423 78 45 62 
-0.107184 -0.24786 0.988766 43 22 21 
-0.108835 -0.0959428 1.01014 53 20 27 
-0.0988144 0.151775 0.934956 66 49 55 
-0.103153 -0.0298775 1.0009 85 43 45 
-0.101855 -0.0672557 1.00209 44 20 18 
-0.102068 -0.109447 1.00783 66 30 40 
-0.099747 -0.0391085 1.00085 145 126 112 
-0.0707353 0.220076 0.707072 76 44 49 
-0.0985028 -0.0188365 0.999174 137 114 98 
-0.0937733 0.0475032 0.972738 27 18 19 
-0.09489 -0.151719 1.0088 61 30 38 
-0.0677958 0.176144 0.720017 91 45 58 
-0.0925926 -0.049237 1.00052 135 117 95 
-0.0867384 0.0346183 0.952836 20 15 12 
-0.0912269 -0.0672107 1.00805 87 66 47 
-0.0883099 -0.0289783 0.980517 155 132 116 
-0.0645166 0.199021 0.71641 80 46 63 
-0.088437 -0.216549 0.994079 132 79 95 
-0.0890173 -0.115118 1.00448 114 62 74 
-0.0644078 0.186857 0.717611 93 46 64 
-0.0848129 -0.248097 0.978179 44 22 25 
-0.0810358 0.0432981 0.95292 61 39 28 
-0.0599893 0.214762 0.70373 159 115 140 
-0.0803017 0.0236382 0.957396 107 101 105 
-0.0806824 -0.0154592 0.977137 195 185 160 
-0.0792502 -0.0409648 0.985962 198 191 172 
-0.0807078 -0.138156 1.00266 64 37 46 
-0.0790935 -0.215616 0.990376 111 78 97 
-0.0778613 -0.0296167 0.984526 107 73 46 
-0.074254 0.0592571 0.969658 60 28 29 
-0.0745684 -0.00673474 0.975974 146 126 99 
-0.0725048 0.0329299 0.953602 106 97 102 
-0.0733162 -0.148897 1.00097 64 29 27 
-0.0697911 0.0476666 0.957781 75 65 74 
-0.0519317 0.210777 0.709658 178 129 159 
-0.0693649 0.00600987 0.989083 119 99 74 
-0.0697433 -0.0387761 0.995826 137 113 87 
-0.065144 0.12857 0.937985 93 61 76 
-0.0502174 0.14184 0.711106 125 73 85 
-0.0992914 0.178013 1.48204 77 49 64 
-0.066246 0.0242156 0.959712 194 185 178 
-0.0658806 -0.27059 0.982207 86 33 49 
-0.0630709 -0.00916957 0.978308 177 163 137 
-0.0644175 -0.138003 0.997037 67 30 38 
-0.0625228 -0.0650356 0.993837 41 20 17 
-0.0598001 -0.0207915 0.987087 199 188 160 
-0.0432132 0.220205 0.704831 82 50 61 
-0.0554226 0.129936 0.934676 77 41 55 
-0.0589284 0.00311336 0.994258 111 96 77 
-0.0563067 0.037611 0.965989 105 87 85 
-0.0555932 0.0482896 0.957943 131 118 136 
-0.0550524 -0.220692 0.980296 71 39 52 
-0.0396032 0.142629 0.717632 127 79 95 
-0.0392286 0.194699 0.717907 116 82 107 
-0.0486735 0.150244 0.916402 52 41 45 
-0.0494321 0.108307 0.934369 67 41 54 
-0.0460042 -0.217534 0.976217 128 80 96 
-0.0338013 0.170481 0.724912 86 49 66 
-0.0430356 0.0406468 0.957632 177 162 155 
-0.0413813 -0.103287 0.987451 48 20 19 
-0.0310289 0.183916 0.724237 81 50 65 
-0.0403089 -0.18637 0.963856 38 24 23 
-0.0401865 -0.250173 0.963134 44 22 25 
-0.027549 0.214065 0.71868 125 85 109 
-0.0326542 0.126255 0.928284 71 45 56 
-0.0347065 -0.0976999 0.982714 37 12 16 
-0.0316606 0.113211 0.927729 59 48 54 
-0.0324841 0.0541724 0.968054 56 24 27 
-0.0324193 -0.176513 0.961895 102 68 82 
-0.0310805 -0.189652 0.961603 132 78 92 
-0.0301497 0.0871799 0.948927 163 110 128 
-0.0255432 0.0190062 0.969096 63 23 32 
-0.0255556 -0.0396494 0.973968 59 22 30 
-0.0247779 -0.272634 0.959107 46 21 25 
-0.023262 0.0486635 0.965682 58 20 31 
-0.0184271 0.183278 0.730077 100 49 66 
-0.0221722 0.111568 0.923366 50 34 45 
-0.0222531 -0.16649 0.963387 73 30 37 
-0.0154003 0.201643 0.729745 82 53 71 
-0.0154304 0.159263 0.733984 92 53 72 
-0.0186063 -0.0472739 0.967132 56 24 27 
-0.0178665 -0.0913092 0.97608 122 69 77 
-0.0164767 0.0328438 0.963476 68 38 48 
-0.0164169 -0.025676 0.968329 67 39 51 
-0.015887 -0.149691 0.953921 142 89 105 
-0.0156679 0.0202108 0.96695 76 40 50 
-0.0150513 0.0658474 0.960726 62 32 42 
-0.0149753 -0.185961 0.953202 135 85 97 
-0.0109383 -0.0128912 0.966572 86 41 48 
-0.00972237 0.113787 0.919443 64 36 50 
-0.00818029 0.184645 0.735222 113 62 81 
-0.00912619 -0.217874 0.961616 133 82 99 
-0.00557628 0.221797 0.722 88 55 66 
-0.00635766 -0.296729 0.98437 70 33 41 
-0.00495497 0.0657503 0.95675 61 30 36 
-0.00491335 -0.0474029 0.963209 57 22 28 
-0.00456818 0.0204227 0.96052 75 45 57 
-0.00445447 0.0482811 0.958575 51 20 26 
-0.00440511 0.0325913 0.961322 68 30 41 
-0.00444307 -0.0263624 0.965562 66 33 44 
-0.00380963 -0.162896 0.954721 125 71 85 
-0.000555662 -0.185894 0.948384 136 88 104 
0.00287181 -0.0116504 0.960672 55 22 29 
0.00460128 0.124832 0.912661 77 43 57 
0.00344059 0.188634 0.739771 78 40 61 
0.00538853 -0.0781869 0.94822 109 71 86 
0.00800367 -0.21112 0.96779 51 22 24 
0.00895074 0.13463 0.910468 93 50 67 
0.0097934 0.110051 0.912822 138 91 107 
0.0104703 -0.298623 0.968404 148 101 111 
0.0114237 -0.258131 0.939974 111 64 70 
0.0107583 0.215635 0.73633 125 87 108 
0.0164922 0.102175 0.924918 153 109 126 
0.0131564 0.179767 0.745926 83 50 67 
0.0193267 -0.260263 0.945718 39 20 24 
0.0238062 -0.185251 0.974787 37 17 16 
0.0192854 0.223094 0.733085 94 53 67 
0.0269367 0.0994551 0.94375 69 48 57 
0.0261244 0.127897 0.903529 57 37 46 
0.017654 0.0936482 0.653583 57 37 46 
0.0294966 0.000810934 0.974754 62 27 34 
0.0273999 0.107836 0.906577 56 43 50 
0.0299054 -0.035784 0.976489 63 38 44 
0.0300662 0.0282522 0.971887 57 24 31 
0.0303013 -0.138574 0.985031 59 28 34 
0.0316914 -0.190675 0.96593 39 18 23 
0.0333131 0.0576755 0.962677 63 33 43 
0.0348214 -0.0965332 0.981018 82 43 44 
0.036328 0.124184 0.901284 65 35 47 
0.0375268 0.111258 0.901311 61 44 52 
0.0438809 -0.126942 0.978687 57 30 37 
0.0439596 -0.0874328 0.975339 54 25 30 
0.0516442 -0.0191471 0.967762 57 30 39 
0.0530809 0.00383624 0.960614 97 52 59 
0.0533192 0.0276332 0.959847 44 18 19 
0.0571832 -0.307599 1.02675 135 114 133 
0.0538443 0.0462338 0.958263 61 30 36 
0.0557403 -0.0810058 0.970834 65 30 36 
0.0554861 0.014482 0.946417 145 99 110 
0.0568881 -0.0916997 0.966774 122 81 95 
0.0581872 -0.0368637 0.966188 62 32 42 
0.0633876 -0.0495637 0.969585 63 29 30 
0.0631978 -0.0229355 0.963435 82 36 38 
0.0593962 0.111739 0.893099 69 37 48 
0.0637 -0.149403 0.952465 61 29 30 
0.0644557 0.00247471 0.957641 148 94 110 
0.0704459 -0.0372393 0.962471 57 28 33 
0.0710168 0.049514 0.955561 59 26 33 
0.0717027 -0.101058 0.946137 48 24 24 
0.0706698 -0.181589 0.92847 136 86 98 
0.0747892 0.00437583 0.953536 90 44 55 
0.0753508 0.0276027 0.952492 50 21 25 
0.0810225 -0.256956 1.00491 66 31 37 
0.0783937 0.0173569 0.951643 132 76 85 
0.0738014 0.123077 0.886227 85 41 54 
0.0827813 -0.0198234 0.953978 56 33 43 
0.0786041 0.104881 0.887202 69 35 51 
0.090944 -0.307946 1.01358 91 63 78 
0.0908495 -0.233633 1.00731 135 117 139 
0.0798271 0.13173 0.8832 92 54 69 
0.0914766 0.0268484 0.949201 58 26 31 
0.098365 -0.259081 1.00664 91 68 84 
0.086193 0.229435 0.858414 145 102 122 
0.102082 -0.237045 1.00404 98 65 82 
0.0880623 0.147573 0.864298 120 68 80 
0.0902214 0.123052 0.879328 59 37 40 
0.091604 0.0981435 0.879976 153 118 138 
0.0988243 0.0613337 0.942914 61 31 41 
0.0917023 0.187834 0.869887 50 27 33 
0.102214 0.0465317 0.944033 62 32 34 
0.109562 -0.307303 1.00803 81 58 76 
0.0933593 0.249065 0.853441 46 39 46 
0.0947966 0.15734 0.865717 94 58 60 
0.110543 -0.25899 1.00194 133 116 135 
0.112908 -0.297415 1.00534 100 68 81 
0.0989746 0.205963 0.865807 116 64 77 
0.114504 -0.242226 0.997512 149 125 141 
0.115462 -0.317548 1.00467 106 73 90 
0.104047 0.125135 0.875286 74 38 50 
0.103615 0.197152 0.865511 36 24 28 
0.112978 0.0608475 0.938438 57 26 34 
0.120627 -0.257643 0.999588 61 46 65 
0.121873 -0.280932 0.99976 91 59 80 
0.123797 -0.312812 1.00026 101 66 72 
0.124899 -0.296332 1.00084 96 68 83 
0.10904 0.151989 0.860279 59 31 30 
0.113658 0.094443 0.88989 79 52 61 
0.128132 -0.181856 0.990839 96 72 88 
0.12948 -0.272309 0.996526 79 56 76 
0.131416 -0.282043 0.99551 95 68 85 
0.130612 -0.141844 0.985015 73 51 72 
0.131975 -0.241461 0.993131 98 67 82 
0.132097 -0.166016 0.984674 110 74 88 
0.117538 0.107276 0.869978 46 31 36 
0.116454 0.188695 0.861149 78 36 50 
0.13408 -0.218254 0.989532 129 117 137 
0.136839 -0.296225 0.996346 92 72 100 
0.134834 -0.108492 0.978327 99 68 83 
0.118246 0.213237 0.85798 62 42 44 
0.118947 0.171034 0.861279 56 33 39 
0.119811 0.199983 0.858694 85 38 54 
0.138533 -0.259318 0.992389 96 64 79 
0.138297 -0.18364 0.98517 96 64 75 
0.130938 0.035417 0.931627 51 24 31 
0.125012 0.0957842 0.887425 84 55 59 
0.137682 -0.0744557 0.974225 70 49 68 
0.140559 -0.271272 0.991052 94 66 88 
0.139532 -0.141272 0.979343 82 53 71 
0.141338 -0.242815 0.990119 76 50 59 
0.129025 0.0832614 0.895935 158 104 120 
0.144758 -0.292691 0.991804 134 117 136 
0.126384 0.185269 0.857858 75 33 47 
0.135137 0.0728452 0.907318 95 45 54 
0.148154 -0.261008 0.988565 97 66 84 
0.129941 0.109882 0.866413 62 32 42 
0.147472 -0.213438 0.983072 59 44 65 
0.147459 -0.170082 0.980246 101 76 97 
0.129797 0.135344 0.862226 143 88 109 
0.1486 -0.15136 0.979494 99 74 95 
0.100517 0.242118 0.65304 107 109 132 
0.153415 -0.270832 0.9864 91 62 80 
0.153528 -0.244537 0.985082 79 53 62 
0.133054 0.225893 0.847655 129 85 108 
0.143007 0.055557 0.905052 65 39 52 
0.157565 -0.258202 0.984987 81 61 86 
0.15569 -0.0985597 0.96964 146 125 144 
0.137503 0.199657 0.852581 68 34 48 
0.15865 -0.180226 0.97722 85 57 71 
0.146289 -0.0131222 0.894819 109 58 65 
0.158982 -0.107684 0.970698 89 61 75 
0.149441 -0.0100202 0.912712 41 20 17 
0.161776 -0.299076 0.986298 101 71 81 
0.145537 -0.0301053 0.886845 135 82 98 
0.163359 -0.202296 0.977743 130 108 129 
0.164675 -0.282685 0.984091 100 73 92 
0.144619 0.121067 0.85944 80 42 55 
0.142583 0.223594 0.845465 156 112 135 
0.153116 0.00952166 0.905352 51 21 21 
0.14273 0.248921 0.834507 56 43 50 
0.16533 -0.0771817 0.963766 102 60 74 
0.166615 -0.140051 0.97161 133 117 128 
0.155312 0.064532 0.897702 69 35 36 
0.170871 -0.295118 0.984235 77 58 78 
0.149879 0.103031 0.860643 58 30 42 
0.168835 -0.127611 0.968512 88 70 92 
0.149715 0.130412 0.857978 82 50 61 
0.171917 -0.207747 0.973862 86 62 78 
0.173454 -0.262475 0.980976 63 41 64 
0.176306 -0.173051 0.968691 94 63 79 
0.177136 -0.189449 0.970451 101 60 76 
0.156007 0.160929 0.848248 38 24 21 
0.15789 0.120695 0.854876 64 37 44 
0.156107 0.20383 0.843713 52 32 41 
0.179186 -0.141407 0.965003 130 122 143 
0.180066 -0.0776703 0.958931 75 49 60 
0.161337 0.103373 0.8549 128 85 95 
0.18728 -0.210579 0.968479 96 68 83 
0.188063 -0.241541 0.970577 75 50 69 
0.189907 -0.169028 0.963455 90 66 88 
0.188709 -0.0758617 0.954487 148 125 145 
0.189401 0.0740796 0.940284 77 48 66 
0.194903 -0.221478 0.967352 91 67 83 
0.194557 -0.108951 0.956626 68 47 52 
0.193486 0.0551775 0.941554 71 51 63 
0.200332 -0.31116 0.97429 95 67 90 
0.202958 -0.301672 0.973222 130 115 136 
0.2024 -0.243761 0.965672 84 60 74 
0.204918 -0.261811 0.968168 80 58 70 
0.200159 0.0319107 0.942705 76 50 59 
0.203929 -0.11001 0.953191 80 54 65 
0.203396 0.0567155 0.939462 118 105 125 
0.210035 -0.287302 0.966453 101 72 92 
0.207956 -0.0757928 0.948177 139 117 140 
0.20961 -0.00945261 0.941441 117 98 128 
0.213497 -0.181079 0.958493 127 113 136 
0.21164 -0.0475106 0.944725 130 107 123 
0.215925 -0.261603 0.964356 88 61 76 
0.215941 -0.243992 0.96168 85 61 75 
0.217661 -0.306207 0.96514 95 64 79 
0.217219 -0.143871 0.952274 120 111 132 
0.214969 0.000421885 0.938961 131 116 137 
0.211831 0.223447 0.918361 104 103 119 
0.210653 0.211597 0.91341 111 95 121 
0.217172 -0.0204101 0.938858 90 63 80 
0.215407 0.11713 0.92571 72 44 56 
0.224007 -0.278176 0.962305 71 52 74 
0.219292 -0.0108164 0.936735 127 103 125 
0.224679 -0.26445 0.960664 132 110 131 
0.220797 -0.0398303 0.941551 144 125 144 
0.222029 -0.0776789 0.944754 54 41 51 
0.226724 -0.292151 0.960416 80 59 74 
0.21814 0.200793 0.918198 102 85 104 
0.21993 0.128811 0.924517 120 97 115 
0.222303 0.0578545 0.932664 127 112 133 
0.223306 0.0291603 0.933394 97 67 77 
0.221868 0.0992309 0.926762 125 116 135 
0.230045 -0.210779 0.952651 86 59 74 
0.226286 0.00123289 0.934785 134 116 140 
0.223083 0.175994 0.919955 121 116 136 
0.227544 -0.0477893 0.938738 69 42 57 
0.229825 -0.142944 0.948261 126 119 137 
0.232527 -0.245305 0.954013 75 57 71 
0.230471 -0.123918 0.944873 79 60 79 
0.225375 0.146397 0.921052 59 47 67 
0.234287 -0.283036 0.957271 103 74 96 
0.234489 -0.224178 0.95223 89 67 80 
0.228529 0.0828455 0.926634 86 63 81 
0.235188 -0.182212 0.948364 86 59 78 
0.235351 -0.194315 0.948298 107 73 87 
0.229342 0.121557 0.922566 65 50 69 
0.227429 0.22544 0.911491 59 58 76 
0.22895 0.185987 0.916621 124 119 142 
0.232947 0.0236318 0.930284 77 63 80 
0.23974 -0.29932 0.956911 141 114 129 
0.241554 -0.240236 0.952644 84 72 96 
0.237487 -0.0452603 0.935327 69 43 54 
0.171673 0.245293 0.678551 109 125 141 
0.24172 -0.274463 0.952761 92 63 85 
0.240764 -0.113443 0.942101 60 44 57 
0.234857 0.144002 0.918124 69 46 64 
0.237241 0.0536228 0.926107 78 62 75 
0.242627 -0.187965 0.945471 53 30 46 
0.235745 0.175731 0.916937 129 126 147 
0.244007 -0.223445 0.94938 64 46 62 
0.238391 0.086967 0.922711 125 111 134 
0.237653 0.130225 0.917891 143 124 144 
0.239702 0.0310554 0.925668 135 121 138 
0.243932 -0.143129 0.941615 133 124 145 
0.241199 -0.00253328 0.928078 131 114 133 
0.240104 0.118132 0.919782 82 64 86 
0.23871 0.219397 0.911381 108 102 136 
0.24739 -0.156724 0.942294 60 43 59 
0.250448 -0.305841 0.954382 71 54 72 
0.244336 -0.02451 0.929187 67 47 59 
0.245182 -0.0384819 0.932097 147 122 144 
0.249001 -0.233965 0.947038 91 62 80 
0.245786 -0.0651412 0.933075 83 58 77 
0.247111 -0.0802894 0.936666 66 45 54 
0.250151 -0.269946 0.948481 134 116 130 
0.245465 0.102599 0.918028 74 59 80 
0.246789 0.0521219 0.921478 79 54 75 
0.253236 -0.210097 0.94473 141 125 151 
0.249589 -0.0120847 0.927694 64 49 72 
0.245895 0.143467 0.912865 134 110 124 
0.25495 -0.243088 0.946067 129 105 127 
0.2461 0.154597 0.911479 137 122 143 
0.245393 0.193463 0.907838 74 55 75 
0.249411 0.1134 0.916368 130 125 145 
0.254851 -0.143663 0.937104 131 112 132 
0.256956 -0.222929 0.944586 71 58 68 
0.247801 0.217155 0.908064 59 43 53 
0.25415 -0.0473098 0.930874 53 36 42 
0.249814 0.173324 0.910379 75 60 83 
0.26215 -0.287248 0.946055 83 60 86 
0.256893 -0.00581521 0.924659 73 55 77 
0.262973 -0.276494 0.944885 127 108 127 
0.257314 0.0544662 0.917494 68 53 76 
0.261475 -0.0882726 0.928412 121 96 117 
0.25972 0.032059 0.918504 130 124 138 
0.267075 -0.255354 0.942317 81 67 84 
0.26508 -0.146341 0.933933 116 111 131 
0.258511 0.153494 0.908687 129 125 148 
0.267073 -0.212271 0.939605 67 43 59 
0.256741 0.223803 0.900313 64 58 68 
0.258298 0.210146 0.904179 48 36 46 
0.26135 0.0660212 0.913032 90 67 75 
0.268096 -0.188849 0.937013 78 58 70 
0.262833 0.0463672 0.916075 132 110 123 
0.267809 -0.112731 0.9314 63 42 47 
0.261923 0.174694 0.907281 76 63 89 
0.267405 -0.0799936 0.926535 76 53 69 
0.26544 -0.012478 0.919402 139 122 132 
0.272826 -0.271369 0.941732 86 63 83 
0.26547 0.113786 0.907608 73 48 51 
0.270386 0.0286595 0.916364 66 47 67 
0.266569 0.158979 0.903023 127 110 129 
0.270017 0.053943 0.914758 75 52 68 
0.274315 -0.0455796 0.921238 60 41 45 
0.278943 -0.228175 0.93473 88 57 75 
0.272239 0.140304 0.904206 104 83 90 
0.279672 -0.149473 0.929383 66 46 58 
0.281363 -0.184927 0.933313 134 120 137 
0.277201 -0.00794693 0.918908 76 59 75 
0.272888 0.174865 0.901308 84 63 80 
0.282835 -0.208323 0.931642 136 122 147 
0.274299 0.151268 0.901518 140 125 148 
0.273201 0.201127 0.897055 127 108 127 
0.282836 -0.114172 0.925 67 46 61 
0.274476 0.212412 0.895032 137 114 134 
0.279942 0.0286342 0.912254 82 61 80 
0.276881 0.0887841 0.901741 22 62 175 
0.283567 -0.0454941 0.917706 62 39 45 
0.284808 -0.0778831 0.919363 129 110 130 
0.288549 -0.224709 0.931259 69 52 68 
0.281119 0.0689655 0.90603 83 61 82 
0.279813 0.10883 0.899888 82 121 212 
0.288153 -0.148278 0.923832 127 107 119 
0.290192 -0.190043 0.927468 66 55 72 
0.292276 -0.243589 0.931697 129 107 130 
0.285019 0.0788922 0.90288 129 103 114 
0.289833 -0.0565881 0.917429 67 58 75 
0.285468 0.118675 0.90153 125 107 119 
0.288489 -0.00171061 0.910856 68 45 63 
0.285243 0.163309 0.895581 102 79 99 
0.28486 0.208672 0.892121 64 48 59 
0.286627 0.150346 0.897575 130 114 127 
0.292889 -0.042098 0.912383 131 114 133 
0.299838 -0.259578 0.929286 95 70 92 
0.291358 0.0949943 0.900199 109 81 95 
0.301545 -0.218377 0.926488 126 121 144 
0.300406 -0.185328 0.920988 72 60 74 
0.30481 -0.300065 0.933163 82 63 85 
0.292509 0.178124 0.891163 130 113 132 
0.291533 0.223064 0.887493 93 70 86 
0.298505 -0.00965495 0.908998 140 116 130 
0.305239 -0.248978 0.927094 124 103 120 
0.301123 -0.0669617 0.912139 77 56 63 
0.302693 -0.112285 0.915585 71 48 68 
0.307454 -0.290812 0.928679 90 63 80 
0.298423 0.0791112 0.897049 89 63 76 
0.302023 0.0305614 0.903944 125 112 129 
0.306476 -0.148448 0.917454 95 65 77 
0.297968 0.210081 0.887652 81 64 83 
0.310551 -0.224164 0.925007 102 93 112 
0.302094 0.124792 0.893458 127 103 117 
0.302391 0.146935 0.892066 79 61 75 
0.305284 0.0494794 0.899792 139 116 132 
0.308644 -0.0492958 0.908701 60 44 55 
0.314793 -0.258347 0.924064 118 100 124 
0.310919 -0.0825207 0.911986 65 42 58 
0.314294 -0.184973 0.917831 64 46 62 
0.30995 -0.00344898 0.903024 114 93 110 
0.30503 0.172234 0.888367 68 54 69 
0.30691 0.115983 0.892966 118 94 107 
0.308118 0.0859137 0.895562 120 101 120 
0.298713 0.237643 0.866959 66 57 76 
0.312533 0.0375318 0.896739 103 80 100 
0.314207 0.0521999 0.893936 82 64 86 
0.32393 -0.274558 0.920796 143 122 137 
0.316162 0.0281591 0.897959 53 37 47 
0.310701 0.217456 0.881428 147 124 140 
0.310977 0.183915 0.882081 134 116 132 
0.32562 -0.301977 0.923638 52 35 51 
0.324485 -0.151829 0.912283 119 110 127 
0.316743 0.145198 0.885937 64 51 61 
0.326632 -0.185644 0.914068 54 42 54 
0.328501 -0.264053 0.919126 58 43 62 
0.318025 0.0944966 0.88894 90 60 70 
0.329428 -0.173832 0.911607 89 65 78 
0.323272 0.0849858 0.890186 139 127 141 
0.322702 0.119365 0.887161 121 106 129 
0.324684 0.0524353 0.891536 82 58 80 
0.325169 0.0417413 0.891457 140 117 135 
0.32156 0.172244 0.881025 83 65 87 
0.322338 0.204946 0.877347 111 93 117 
0.338021 -0.30232 0.92058 61 43 67 
0.323474 0.191787 0.877791 135 118 134 
0.323434 0.215478 0.877285 134 116 132 
0.32947 0.0300648 0.890925 130 113 131 
0.331106 -0.00760769 0.895071 83 62 69 
0.339052 -0.264617 0.916334 41 26 47 
0.335886 -0.15872 0.907075 87 60 79 
0.327646 0.145312 0.8817 70 57 67 
0.337472 -0.1482 0.905549 62 41 58 
0.332116 0.125566 0.88159 87 61 70 
0.340353 -0.0829769 0.898932 73 50 58 
0.336258 0.0857137 0.886511 125 110 129 
0.33363 0.168262 0.877369 126 104 117 
0.347515 -0.288391 0.913186 137 114 130 
0.333283 0.214322 0.872888 123 107 120 
0.345337 -0.183809 0.904668 139 121 143 
0.339048 0.0302515 0.884995 141 117 133 
0.34782 -0.157064 0.901651 82 58 82 
0.34085 0.0771527 0.882031 143 124 130 
0.344555 -0.00990799 0.889573 87 66 73 
0.337814 0.204762 0.871445 138 115 131 
0.354238 -0.26203 0.911103 123 111 135 
0.349405 -0.109683 0.897213 127 104 120 
0.350725 -0.0823888 0.896135 77 54 72 
0.349055 -0.0384366 0.890941 129 107 120 
0.353422 -0.148907 0.900001 88 64 80 
0.344714 0.143288 0.875166 77 55 68 
0.358813 -0.305798 0.911075 116 99 118 
0.356665 -0.207679 0.901882 88 64 80 
0.34816 0.0844978 0.879369 132 114 130 
0.35355 -0.0634956 0.890573 88 61 78 
0.345089 0.216678 0.868352 131 110 127 
0.357688 -0.158258 0.898546 96 70 99 
0.358817 -0.187059 0.901266 60 44 70 
0.352426 0.0346566 0.884061 116 103 123 
0.354197 -0.0187711 0.887137 124 111 128 
0.354004 0.0472451 0.882331 122 100 113 
0.348646 0.2039 0.867024 140 122 138 
0.364553 -0.224443 0.902746 54 36 52 
0.366175 -0.264575 0.903897 64 47 63 
0.359712 -0.00884422 0.886461 72 55 73 
0.358857 0.0219118 0.880391 131 107 121 
0.354308 0.167712 0.868651 127 107 118 
0.371044 -0.303383 0.907338 68 58 83 
0.362264 0.0518518 0.878234 64 45 65 
0.35785 0.216754 0.863397 141 129 153 
0.36229 0.115374 0.87053 138 112 121 
0.371571 -0.154503 0.892313 94 69 91 
0.359934 0.205487 0.863536 140 119 134 
0.3644 0.074583 0.873476 149 118 134 
0.365737 0.0428614 0.875637 98 74 90 
0.382417 -0.30272 0.902033 74 57 76 
0.374138 0.0203889 0.873833 134 111 129 
0.378017 -0.0495809 0.880211 112 99 117 
0.372282 0.143207 0.864999 66 50 63 
0.371227 0.208441 0.858943 45 31 44 
0.373365 0.168618 0.861344 64 52 66 
0.378039 0.0490526 0.870688 149 129 141 
0.38263 -0.0888494 0.880805 138 114 128 
0.384377 -0.00847864 0.8748 77 54 72 
0.368358 0.26093 0.83734 98 81 91 
0.393054 -0.22592 0.891163 73 50 76 
0.369437 0.243568 0.837118 115 106 123 
0.384348 0.0285752 0.870539 131 108 128 
0.378111 0.201466 0.856225 123 104 124 
0.401067 -0.252916 0.889187 92 68 92 
0.376988 0.237751 0.834666 88 82 116 
0.395073 -0.05628 0.873674 136 111 132 
0.386148 0.220743 0.84923 69 64 87 
0.379462 0.251362 0.834353 154 172 244 
0.393415 0.0741423 0.861849 144 118 127 
0.39227 0.159134 0.853798 93 66 71 
0.39996 0.0175138 0.864723 130 105 124 
0.402184 -0.0243253 0.868376 129 106 124 
0.395733 0.170644 0.851027 63 42 51 
0.388136 0.242794 0.83027 16 23 41 
0.38793 0.255879 0.827235 14 20 34 
0.399869 0.147001 0.851915 84 58 69 
0.39761 0.248068 0.82419 156 174 248 
0.40275 0.232445 0.826507 131 117 130 
0.469901 -0.170902 0.950909 68 84 120 
0.405756 0.259308 0.820862 11 16 20 
0.464131 0.189194 0.908608 20 34 63 
-0.467939 0.10971 1.18439 66 58 81 
-0.443198 0.267643 1.14293 52 50 53 
-0.442021 0.151416 1.17043 124 112 136 
-0.4366 0.171251 1.16483 118 114 141 
-0.421963 0.27641 1.13374 37 33 32 
-0.420902 0.249943 1.15319 52 50 63 
-0.419074 0.120721 1.1665 60 53 71 
-0.413467 0.230394 1.15306 108 92 105 
-0.404861 0.0791815 1.1642 47 36 44 
-0.403914 -0.0599294 1.17586 134 119 140 
-0.391949 0.193544 1.14971 111 97 112 
-0.391825 0.118745 1.15709 57 45 59 
-0.388674 0.0413299 1.16124 87 62 81 
-0.380161 0.105059 1.15259 59 45 60 
-0.372328 0.194896 1.14275 35 25 34 
-0.372567 0.140106 1.14651 43 31 41 
-0.363211 0.229962 1.13489 96 92 107 
-0.359902 0.139434 1.14152 42 32 43 
-0.361947 -0.144365 1.16761 130 106 119 
-0.362657 -0.19042 1.17329 64 53 67 
-0.349011 -0.00956673 1.15194 132 115 131 
-0.33072 0.117339 1.03758 109 73 83 
-0.327918 0.131131 1.03517 113 72 78 
-0.345379 -0.165696 1.16463 80 56 69 
-0.318074 -0.151495 1.15351 76 59 77 
-0.300363 -0.0989285 1.14156 88 57 73 
-0.246482 0.176415 0.787207 88 42 53 
-0.266978 -0.0739134 1.12653 139 112 129 
-0.202511 -0.207737 1.11723 57 43 58 
-0.18545 -0.0727999 1.06083 73 32 38 
-0.0914002 0.14508 0.933131 139 103 115 
-0.385684 0.241632 0.712399 124 132 151 
-0.441871 0.250015 0.819007 134 150 163 
-0.624754 0.249558 1.23171 70 75 97 
-0.626088 0.0646524 1.24575 25 30 50 
-0.630187 -0.278656 1.27913 40 50 75 
-0.621669 0.153193 1.24052 39 51 93 
-0.620486 0.101266 1.24349 29 30 60 
-0.6197 0.0342638 1.25078 32 44 84 
-0.622081 -0.125034 1.26472 103 115 153 
-0.621775 -0.243125 1.27605 108 120 160 
-0.619074 -0.111351 1.26635 128 137 178 
-0.619253 0.136363 1.25152 142 157 200 
-0.616393 -0.389427 1.28801 29 40 96 
-0.560888 0.279897 1.17532 82 88 122 
-0.546364 -0.395045 1.26262 176 189 241 
-0.54498 -0.0783626 1.24552 117 96 115 
-0.545937 -0.0298504 1.2451 100 85 118 
-0.544893 -0.381052 1.26911 99 108 149 
-0.543341 -0.415824 1.27217 90 97 139 
-0.533541 -0.382422 1.26328 123 99 112 
-0.524781 -0.280533 1.2522 91 72 94 
-0.50483 -0.385025 1.25479 131 124 142 
-0.487595 -0.0908584 1.22002 78 60 84 
-0.486603 -0.416014 1.25082 95 66 86 
-0.480846 -0.221544 1.23121 81 59 72 
-0.25507 0.219506 0.78886 105 73 96 
-0.478031 -0.401171 1.24895 94 66 80 
-0.465303 -0.412863 1.24041 93 68 89 
-0.466555 -0.383586 1.24124 78 57 74 
-0.461421 -0.160652 1.21868 62 46 72 
-0.462657 -0.36812 1.23843 98 74 98 
-0.454729 -0.417347 1.24002 88 63 92 
-0.447114 -0.383284 1.23326 100 76 98 
-0.444015 -0.246227 1.22143 77 54 72 
-0.440895 -0.416383 1.23315 86 62 88 
-0.436365 -0.37802 1.22382 125 111 126 
-0.430637 -0.0945376 1.20247 57 38 60 
-0.431961 -0.423773 1.23166 83 64 84 
-0.422641 -0.31664 1.21858 79 58 77 
-0.41524 -0.347367 1.21909 78 64 77 
-0.411262 0.109315 1.17584 127 115 137 
-0.405048 -0.376041 1.21794 76 52 74 
-0.40125 -0.399994 1.21847 83 64 84 
-0.396476 -0.192712 1.198 80 57 67 
-0.386171 -0.400885 1.21328 73 58 77 
-0.379351 -0.443013 1.21328 89 60 82 
-0.372068 -0.349215 1.20229 78 51 68 
-0.366489 -0.399444 1.20354 84 63 82 
-0.360609 -0.413187 1.20411 132 119 139 
-0.352545 -0.375816 1.19634 87 59 74 
-0.349793 -0.247088 1.18609 85 62 82 
-0.349497 -0.399378 1.20018 82 61 78 
-0.169503 0.21758 0.757227 113 75 96 
-0.29798 -0.0256452 1.06743 148 95 113 
-0.339805 -0.346903 1.19011 89 68 85 
-0.339184 -0.282124 1.18425 130 116 131 
-0.3353 -0.188071 1.17244 122 110 132 
-0.333639 -0.383461 1.19129 137 119 131 
-0.333629 -0.399411 1.19416 84 61 81 
-0.332873 -0.42901 1.19593 76 58 74 
-0.291415 0.00228182 1.0791 43 19 19 
-0.323076 -0.191906 1.16871 76 56 68 
-0.316769 -0.428793 1.18962 79 57 78 
-0.316992 -0.378328 1.18596 79 58 77 
-0.132364 0.246038 0.718208 113 115 136 
-0.307833 -0.206358 1.16682 76 55 72 
-0.278844 0.0939522 1.07721 82 39 49 
-0.139308 0.216857 0.74576 106 73 94 
-0.300108 -0.41979 1.18209 87 60 79 
-0.297997 -0.378043 1.17764 74 56 68 
-0.29721 -0.245304 1.16386 136 114 127 
-0.294571 -0.187911 1.15682 130 108 129 
-0.286661 -0.385498 1.17342 79 65 78 
-0.285508 -0.247182 1.16042 77 55 67 
-0.280566 -0.409931 1.17306 79 61 75 
-0.273316 -0.397666 1.17142 128 111 130 
-0.225764 -0.180999 1.05724 77 27 36 
-0.256155 -0.371113 1.16085 74 60 83 
-0.254867 -0.381426 1.162 76 55 70 
-0.244132 -0.325425 1.15264 70 47 67 
-0.0983597 0.215853 0.73039 115 76 97 
-0.234325 -0.401816 1.1539 72 57 78 
-0.187547 -0.263855 1.01659 85 41 56 
-0.233673 -0.34672 1.14959 130 112 134 
-0.224806 -0.383162 1.1494 70 55 74 
-0.22216 -0.356622 1.14802 90 66 80 
-0.212622 -0.357023 1.14435 63 45 57 
-0.204405 -0.404835 1.14623 81 66 89 
-0.203238 -0.383161 1.14131 86 70 97 
-0.181992 0.0181242 1.0596 50 23 30 
-0.187848 -0.381501 1.1377 78 63 86 
-0.184567 -0.360011 1.13293 76 55 74 
-0.146362 -0.269515 1.01396 59 16 25 
-0.177859 -0.384512 1.13109 76 55 74 
-0.170915 -0.408164 1.1317 75 59 85 
-0.151127 -0.00651661 1.02701 56 25 31 
-0.139151 -0.325301 1.03061 142 91 110 
-0.0532907 0.23572 0.705001 71 55 68 
-0.136628 -0.186356 1.01303 69 36 43 
-0.130826 -0.333694 1.02776 54 31 39 
-0.160047 -0.406706 1.12686 53 35 49 
-0.155292 -0.390044 1.12525 55 41 67 
-0.12914 -0.131477 1.02117 28 13 16 
-0.124755 -0.155881 1.0262 59 23 27 
-0.122595 -0.0925835 1.02095 122 65 72 
-0.141147 -0.385253 1.11963 67 50 69 
-0.107526 0.146997 0.947534 141 103 118 
-0.104993 -0.147719 1.01954 61 31 41 
-0.0864312 -0.298765 0.986991 40 21 23 
-0.1191 -0.385649 1.11103 71 54 72 
-0.086219 -0.273919 0.997251 86 44 54 
-0.0851572 0.0509393 0.977503 83 71 55 
-0.10263 -0.38675 1.10536 84 68 94 
-0.0625866 -0.250747 0.977435 44 24 25 
-0.0895258 -0.384473 1.09825 83 48 68 
-0.0775566 -0.0273051 1.00403 139 117 80 
-0.0636285 0.151995 0.930689 62 49 56 
-0.0773138 -0.384753 1.09372 59 38 57 
-0.00872429 0.175245 0.742025 110 58 81 
-0.0720902 0.00151055 1.01659 60 33 16 
-0.0583542 -0.3296 1.01997 141 110 125 
-0.0543509 -0.334972 1.00756 71 24 30 
-0.0652816 0.0141575 1.00617 174 158 133 
-0.0616083 -0.0791344 1.00705 35 16 18 
-0.00481153 0.198146 0.740446 99 61 84 
-0.00320098 0.21695 0.736292 123 81 101 
-0.0609266 -0.386053 1.08114 36 25 29 
-0.045 -0.311076 1.00644 80 32 46 
-0.0486377 0.0467546 0.973561 102 76 77 
-0.0420862 -0.323232 1.0108 144 89 108 
-0.0279784 -0.307801 0.996807 83 41 55 
-0.0289852 -0.0879468 0.985892 125 74 83 
-0.0164682 -0.310079 0.9938 153 102 121 
-0.0224688 -0.384953 1.07224 68 44 57 
-0.00502503 -0.17923 0.961313 64 32 37 
0.000394697 -0.206002 0.965364 67 27 36 
-0.00554874 -0.386361 1.06784 77 57 82 
0.00449714 -0.0947084 0.964198 130 74 87 
0.00936452 -0.183256 0.97521 58 23 30 
0.037691 0.22207 0.753814 167 119 141 
0.00737171 -0.361504 1.05951 138 123 144 
0.0160395 0.126088 0.915291 135 89 102 
0.0182215 -0.082783 0.954599 70 35 33 
0.0148984 0.0871509 0.944974 160 106 120 
0.0186209 -0.359808 1.05698 91 57 84 
0.0198537 -0.0696513 0.984041 47 19 18 
0.0223601 -0.335603 1.05203 65 39 66 
0.0300464 -0.0883857 0.989433 58 28 38 
0.0397872 -0.199623 0.969863 72 32 43 
0.0384855 -0.366571 1.04875 94 71 91 
0.0387177 -0.33147 1.04494 90 60 72 
0.0539881 -0.332368 1.0398 95 63 78 
0.0489285 0.0604583 0.970413 70 33 40 
0.0577427 -0.371175 1.04245 81 63 87 
0.0635221 -0.257131 0.972355 108 70 81 
0.0655745 0.207466 0.853678 88 49 68 
0.0638202 -0.332767 1.03574 97 65 86 
0.0713816 -0.361142 1.03675 86 62 78 
0.0760077 -0.174428 0.943007 50 24 23 
0.0754846 -0.295635 1.02779 97 68 90 
0.076619 0.231627 0.858558 152 109 129 
0.0810062 -0.273671 1.0213 104 82 103 
0.0845959 -0.334776 1.02909 65 46 65 
0.0851925 -0.357883 1.03221 94 74 102 
0.0802557 0.229404 0.875558 66 49 57 
0.0855497 0.246056 0.854757 53 42 50 
0.0933214 -0.362075 1.02728 94 64 88 
0.0954733 -0.33081 1.02477 130 120 145 
0.102431 0.105304 0.885371 66 38 50 
0.0995717 0.235923 0.860884 70 39 47 
0.108193 -0.329936 1.01751 93 79 104 
0.112234 0.249782 0.737177 128 133 153 
0.116244 -0.365378 1.01874 74 52 65 
0.105685 0.22688 0.865922 154 107 127 
0.125939 -0.363632 1.01525 90 60 84 
0.128212 -0.333541 1.01113 96 65 83 
0.136219 -0.358609 1.01066 77 57 84 
0.143605 -0.335038 1.00718 94 69 91 
0.152397 -0.335836 1.0019 124 106 122 
0.153246 -0.286489 0.995631 97 70 87 
0.14225 0.171986 0.859774 61 31 41 
0.166399 -0.34477 0.997724 121 104 123 
0.15623 0.0379362 0.910817 72 35 42 
0.173659 -0.333988 0.993678 98 67 83 
0.177228 -0.351416 0.993229 92 63 83 
0.158763 0.227374 0.846514 125 82 102 
0.181826 -0.326267 0.988919 103 78 97 
0.189272 -0.334511 0.989475 86 54 75 
0.199824 -0.335377 0.98463 91 59 80 
0.186498 0.0306933 0.956787 64 41 59 
0.191816 0.126228 0.918007 73 37 47 
0.205782 -0.14375 0.965764 87 72 101 
0.214787 -0.33598 0.979709 83 52 68 
0.202996 -0.0451542 0.956313 72 48 61 
0.19813 0.0889034 0.947366 128 120 144 
0.204739 0.122778 0.939452 134 126 149 
0.203403 0.210089 0.932716 57 41 52 
0.20356 0.226371 0.930531 54 48 60 
0.210729 0.0818181 0.940003 74 52 65 
0.211316 0.0997873 0.938437 72 54 76 
0.208495 0.177478 0.933079 108 100 123 
0.231422 -0.337167 0.972091 120 107 125 
0.215265 0.242549 0.907735 56 52 66 
0.245578 -0.336428 0.967056 74 55 74 
0.258837 -0.320973 0.959583 80 56 78 
0.260713 -0.332083 0.959605 72 58 84 
0.247721 0.079801 0.92675 129 108 125 
0.243157 0.211349 0.9184 46 30 41 
0.257344 0.0913341 0.922206 132 111 128 
0.24889 0.263785 0.886628 107 119 133 
0.281784 -0.302177 0.951264 129 115 140 
0.305047 -0.318536 0.941853 78 59 79 
0.299199 0.120029 0.907256 133 116 135 
0.372868 -0.0108227 0.887538 119 99 111 
0.365143 0.143781 0.875091 62 45 61 
0.386668 -0.194778 0.898133 84 66 82 
0.389277 -0.0441281 0.882637 144 121 139 
0.392457 0.0641051 0.874748 137 114 122 
0.401613 0.0509268 0.8712 77 53 69 
0.450931 -0.196403 0.937853 71 62 67 
0.467415 -0.297775 0.974402 162 178 211 
0.484244 -0.124092 0.967418 159 174 213 
0.469509 0.17541 0.92914 53 62 95 
0.472744 0.180458 0.920922 61 85 121 
-0.545336 -0.0239155 1.23156 68 71 106 
-0.542503 -0.193511 1.24415 117 115 154 
-0.522807 0.25899 1.18798 87 75 95 
-0.528003 0.195339 1.20392 110 100 124 
-0.442196 -0.232723 1.20919 126 100 113 
-0.443182 -0.175227 1.20768 125 102 120 
-0.452042 0.112028 1.211 21 28 47 
-0.201407 0.217485 0.76646 104 71 90 
-0.156028 0.216335 0.749127 107 72 92 
-0.319179 -0.164432 1.16173 47 33 48 
-0.306157 -0.191476 1.15964 73 52 67 
-0.271987 -0.247924 1.15245 69 48 65 
-0.117442 0.215393 0.734508 111 78 97 
-0.156657 0.10248 0.846979 81 40 56 
-0.134224 -0.150138 0.99945 141 87 103 
-0.140889 0.0699079 1.01328 64 24 33 
-0.11365 -0.0809706 1.02471 56 24 27 
-0.24443 0.178496 1.4873 82 48 65 
-0.121725 0.138694 1.15527 82 56 69 
-0.0505427 -0.254566 0.961568 115 75 86 
-0.0264456 -0.270319 0.950279 50 23 28 
-0.124966 0.176899 1.46164 64 38 51 
0.0541776 0.108486 0.757141 59 33 42 
0.0760917 0.129961 1.09327 72 51 58 
0.155089 0.151296 0.846126 41 30 28 
0.176794 -0.109051 0.969919 79 54 75 
0.223514 -0.0588599 0.946286 63 45 57 
0.234437 0.0973326 0.927203 82 64 80 
0.266386 -0.301583 0.952806 78 60 74 
0.256616 -0.0233499 0.929053 135 112 128 
0.273742 -0.286568 0.94642 75 55 80 
0.292672 0.0284226 0.911383 85 61 85 
0.314694 -0.309543 0.932965 78 56 79 
0.314577 0.0763023 0.896234 146 118 130 
0.331543 -0.225666 0.920406 81 62 81 
0.349309 -0.304388 0.919764 81 64 80 
0.34637 0.0521879 0.887832 92 67 88 
0.383234 -0.120065 0.889006 95 71 85 
0.402808 -0.275353 0.894715 90 63 82 
0.399342 0.21048 0.851495 116 103 120 
0.624219 -0.266883 1.47402 65 85 122 
-0.520451 -0.27883 1.24459 91 72 94 
-0.481888 -0.0562721 1.21056 77 65 85 
-0.456472 -0.275787 1.22029 140 123 142 
-0.392394 -0.191406 1.18962 80 57 67 
-0.278423 0.112891 1.0215 127 85 99 
-0.324702 -0.0665724 1.15382 84 60 76 
-0.243979 -0.249175 1.13898 79 57 70 
-0.140747 0.0231376 1.01709 68 35 46 
-0.110419 -0.0800951 1.01379 56 24 27 
-0.0730651 -0.161302 0.995673 136 89 107 
0.0291189 -0.256582 0.948495 99 59 68 
0.0629358 0.0207836 0.94824 74 29 34 
0.105196 -0.268665 1.00744 110 72 97 
0.106183 0.106652 0.877826 134 90 105 
0.127859 0.213262 0.857814 79 43 55 
0.151486 -0.220981 0.98672 87 64 84 
0.168231 -0.184782 0.979127 96 78 104 
0.198363 -0.0763669 0.9548 153 134 156 
0.234096 -0.113199 0.949449 123 120 137 
0.248419 -0.247748 0.95227 66 51 58 
0.251908 -0.185196 0.945815 69 52 70 
0.277262 -0.0797874 0.925995 83 59 75 
0.27227 0.065466 0.91238 155 131 145 
0.278067 0.223581 0.89545 103 77 90 
0.308768 -0.274175 0.930969 130 108 129 
0.320334 -0.0823246 0.910546 78 50 64 
0.327095 0.0971064 0.888791 85 59 68 
0.341578 -0.0473129 0.898373 60 43 53 
0.339054 0.118422 0.884272 89 69 96 
0.337464 0.148178 0.880938 129 115 130 
0.400759 -0.233353 0.890984 153 130 150 
0.384576 0.209384 0.856837 57 44 61 
-0.487357 0.248865 1.18034 70 59 76 
-0.48433 -0.219989 1.20468 135 114 131 
-0.484109 -0.0902055 1.21118 72 55 74 
-0.462971 0.0578886 1.19095 73 66 82 
-0.412182 0.193924 1.15784 39 35 49 
-0.406956 0.108366 1.16333 121 109 129 
-0.295034 0.128122 1.02581 44 38 42 
-0.330478 -0.16656 1.16193 69 51 73 
-0.32022 -0.190162 1.15819 68 51 61 
-0.314117 -0.245107 1.16139 72 47 66 
-0.294644 -0.243149 1.15361 133 115 129 
-0.273731 -0.129204 1.13652 64 43 50 
-0.228496 0.0712029 1.06703 53 22 37 
-0.220314 -0.0971172 1.05448 126 72 85 
-0.178975 0.0677547 1.04822 60 27 36 
-0.147486 0.245237 0.982382 76 45 61 
-0.109298 0.214413 0.728464 103 70 89 
-0.142114 -0.0226092 1.01719 61 33 47 
-0.111882 -0.259202 1.03444 43 22 21 
-0.104002 -0.145969 1.00955 58 31 38 
-0.0496784 -0.152439 0.991204 58 29 34 
-0.0483352 -0.269786 0.975854 137 81 92 
-0.0330081 -0.119789 0.981893 48 28 30 
-0.0278643 0.149793 0.909193 64 49 54 
-0.0114857 0.142288 0.903389 150 108 122 
0.00532146 0.108459 0.769568 77 40 57 
0.0158777 0.125143 0.908109 134 88 101 
0.0250166 0.112435 0.756552 70 40 48 
0.152083 -0.28433 0.988246 91 68 88 
0.157363 0.225423 0.839218 120 81 99 
0.203834 -0.142341 0.956778 78 62 89 
0.245698 0.0792197 0.919285 129 107 120 
0.258626 -0.329384 0.951997 67 54 80 
0.255205 0.0905082 0.91463 131 113 129 
