ply                 
format ascii 1.0    
element vertex 1235
property float x    
property float y    
property float z    
property uchar red  
property uchar green
property uchar blue 
end_header          
0.399299 0.248754 0.826668 156 174 248 
0.404453 0.233068 0.828996 131 117 130 
0.471644 -0.171804 0.953855 68 84 120 
0.407482 0.26004 0.82333 11 16 20 
0.465968 0.189633 0.911391 20 34 63 
-0.469645 0.109995 1.18781 66 58 81 
-0.444792 0.268452 1.14615 52 50 53 
-0.443628 0.151835 1.17379 124 112 136 
-0.438185 0.171735 1.16817 118 114 141 
-0.42348 0.277237 1.13693 37 33 32 
-0.42242 0.250682 1.15646 52 50 63 
-0.420601 0.121024 1.16986 60 53 71 
-0.41496 0.231065 1.15634 108 92 105 
-0.406342 0.0793348 1.16756 47 36 44 
-0.405407 -0.0602781 1.1793 134 119 140 
-0.39337 0.194084 1.153 111 97 112 
-0.393255 0.119031 1.16042 57 45 59 
-0.3901 0.0413445 1.1646 87 62 81 
-0.38155 0.105294 1.15591 59 45 60 
-0.373679 0.195432 1.14602 35 25 34 
-0.373925 0.140458 1.14981 43 31 41 
-0.364524 0.230611 1.13814 96 92 107 
-0.361215 0.139779 1.14481 42 32 43 
-0.363298 -0.145034 1.17104 130 106 119 
-0.364018 -0.191262 1.17674 64 53 67 
-0.3503 -0.00974457 1.15529 132 115 131 
-0.331927 0.117614 1.04047 109 73 83 
-0.329114 0.131451 1.03806 113 72 78 
-0.346673 -0.166446 1.16805 80 56 69 
-0.319267 -0.152195 1.15689 76 59 77 
-0.301486 -0.0994383 1.1449 88 57 73 
-0.247371 0.1769 0.789286 88 42 53 
-0.267978 -0.0743399 1.12983 139 112 129 
-0.203292 -0.208658 1.12054 57 43 58 
-0.186146 -0.0732359 1.06394 73 32 38 
-0.0916854 0.145396 0.935921 139 103 115 
-0.386825 0.242163 0.71354 124 132 151 
-0.44322 0.250589 0.82052 134 150 163 
-0.626726 0.250181 1.23454 70 75 97 
-0.628044 0.0647264 1.2486 25 30 50 
-0.632111 -0.279536 1.28202 40 50 75 
-0.623618 0.153526 1.24336 39 51 93 
-0.622425 0.101446 1.24633 29 30 60 
-0.621627 0.0342494 1.25363 32 44 84 
-0.623997 -0.125497 1.26759 103 115 153 
-0.623674 -0.243908 1.27893 108 120 160 
-0.620981 -0.111776 1.26922 128 137 178 
-0.621188 0.136646 1.25438 142 157 200 
-0.618254 -0.390591 1.29089 29 40 96 
-0.562628 0.280587 1.17792 82 88 122 
-0.547991 -0.396216 1.26537 176 189 241 
-0.546628 -0.0786998 1.24826 117 96 115 
-0.547592 -0.0300538 1.24785 100 85 118 
-0.546516 -0.382183 1.27187 99 108 149 
-0.544956 -0.417042 1.27494 90 97 139 
-0.535127 -0.383557 1.26602 123 99 112 
-0.526347 -0.281407 1.25492 91 72 94 
-0.506323 -0.386163 1.25749 131 124 142 
-0.489049 -0.0912368 1.22264 78 60 84 
-0.488038 -0.417228 1.25349 95 66 86 
-0.482272 -0.222266 1.23385 81 59 72 
-0.255725 0.219905 0.790122 105 73 96 
-0.47944 -0.402346 1.25161 94 66 80 
-0.466671 -0.414069 1.24304 93 68 89 
-0.467928 -0.384717 1.24388 78 57 74 
-0.462787 -0.161217 1.22127 62 46 72 
-0.464019 -0.369213 1.24106 98 74 98 
-0.456065 -0.418561 1.24264 88 63 92 
-0.448427 -0.384414 1.23586 100 76 98 
-0.445323 -0.247013 1.22401 77 54 72 
-0.442189 -0.417595 1.23575 86 62 88 
-0.437645 -0.379139 1.2264 125 111 126 
-0.431906 -0.0949306 1.205 57 38 60 
-0.433227 -0.425002 1.23425 83 64 84 
-0.423881 -0.317604 1.22114 79 58 77 
-0.416457 -0.348408 1.22164 78 64 77 
-0.412471 0.109466 1.17829 127 115 137 
-0.406234 -0.377152 1.22048 76 52 74 
-0.402423 -0.401163 1.221 83 64 84 
-0.397637 -0.193363 1.20048 80 57 67 
-0.3873 -0.402056 1.21579 73 58 77 
-0.380459 -0.444287 1.21579 89 60 82 
-0.373155 -0.35026 1.20477 78 51 68 
-0.367559 -0.400613 1.20602 84 63 82 
-0.361663 -0.414388 1.20659 132 119 139 
-0.353574 -0.376927 1.1988 87 59 74 
-0.350812 -0.247879 1.18852 85 62 82 
-0.350519 -0.400545 1.20265 82 61 78 
-0.169874 0.217943 0.758343 113 75 96 
-0.298822 -0.0258938 1.06951 148 95 113 
-0.340797 -0.347943 1.19254 89 68 85 
-0.340172 -0.283003 1.18666 130 116 131 
-0.336274 -0.188715 1.17483 122 110 132 
-0.334613 -0.38459 1.19373 137 119 131 
-0.334604 -0.400577 1.1966 84 61 81 
-0.333846 -0.430249 1.19837 76 58 74 
-0.29224 0.00211021 1.08122 43 19 19 
-0.324014 -0.19256 1.17108 76 56 68 
-0.317696 -0.430031 1.19204 79 57 78 
-0.317918 -0.379444 1.18838 79 58 77 
-0.132606 0.24647 0.719184 113 115 136 
-0.308727 -0.207049 1.16918 76 55 72 
-0.279628 0.094025 1.07931 82 39 49 
-0.139581 0.217208 0.746828 106 73 94 
-0.300987 -0.421007 1.18449 87 60 79 
-0.298868 -0.379159 1.18002 74 56 68 
-0.298073 -0.246094 1.1662 136 114 127 
-0.295425 -0.188558 1.15915 130 108 129 
-0.287501 -0.386633 1.17579 79 65 78 
-0.286338 -0.247977 1.16276 77 55 67 
-0.28139 -0.411125 1.17543 79 61 75 
-0.274118 -0.39883 1.17378 128 111 130 
-0.226399 -0.18166 1.05927 77 27 36 
-0.256907 -0.372214 1.16318 74 60 83 
-0.255617 -0.382551 1.16433 76 55 70 
-0.244847 -0.326416 1.15494 70 47 67 
-0.0985045 0.216188 0.731394 115 76 97 
-0.235018 -0.402993 1.1562 72 57 78 
-0.188067 -0.264741 1.01851 85 41 56 
-0.234361 -0.347763 1.15188 130 112 134 
-0.225471 -0.384294 1.15168 70 55 74 
-0.222817 -0.357689 1.1503 90 66 80 
-0.213252 -0.358092 1.14662 63 45 57 
-0.205016 -0.40602 1.14851 81 66 89 
-0.203843 -0.384295 1.14357 86 70 97 
-0.182495 0.0179805 1.06161 50 23 30 
-0.188411 -0.382631 1.13995 78 63 86 
-0.185119 -0.36109 1.13516 76 55 74 
-0.146768 -0.270414 1.01586 59 16 25 
-0.178394 -0.385652 1.13333 76 55 74 
-0.171434 -0.409361 1.13393 75 59 85 
-0.151536 -0.00673426 1.02893 56 25 31 
-0.139547 -0.326334 1.03255 142 91 110 
-0.0532921 0.236097 0.705908 71 55 68 
-0.137003 -0.187043 1.01492 69 36 43 
-0.1312 -0.334749 1.0297 54 31 39 
-0.160536 -0.4079 1.12908 53 35 49 
-0.155767 -0.391198 1.12746 55 41 67 
-0.129495 -0.13202 1.02308 28 13 16 
-0.125101 -0.156485 1.02812 59 23 27 
-0.12293 -0.0930271 1.02285 122 65 72 
-0.141583 -0.386397 1.12183 67 50 69 
-0.107777 0.147165 0.949192 141 103 118 
-0.105284 -0.148305 1.02144 61 31 41 
-0.0866713 -0.299746 0.988812 40 21 23 
-0.119477 -0.386797 1.1132 71 54 72 
-0.0864603 -0.274833 0.999096 86 44 54 
-0.0853648 0.0508552 0.979254 83 71 55 
-0.102962 -0.387902 1.10751 84 68 94 
-0.0627566 -0.251609 0.979223 44 24 25 
-0.0898216 -0.385623 1.10039 83 48 68 
-0.0777595 -0.0275873 1.00587 139 117 80 
-0.0637522 0.152166 0.932287 62 49 56 
-0.0775768 -0.385905 1.09585 59 38 57 
-0.00861901 0.175448 0.743049 110 58 81 
-0.0722809 0.00130494 1.01846 60 33 16 
-0.0585358 -0.330645 1.02189 141 110 125 
-0.0545177 -0.336036 1.00944 71 24 30 
-0.0654495 0.0139816 1.008 174 158 133 
-0.0617741 -0.0795499 1.0089 35 16 18 
-0.00469276 0.19841 0.74146 99 61 84 
-0.00307433 0.217264 0.73729 123 81 101 
-0.061143 -0.387213 1.08324 36 25 29 
-0.0451407 -0.312081 1.00832 80 32 46 
-0.0487461 0.0466549 0.975296 102 76 77 
-0.0422219 -0.324265 1.01269 144 89 108 
-0.0280708 -0.308801 0.998658 83 41 55 
-0.0290579 -0.0883921 0.987682 125 74 83 
-0.0165301 -0.311085 0.995645 153 102 121 
-0.0225848 -0.386115 1.07432 68 44 57 
-0.00503274 -0.179917 0.963047 64 32 37 
0.000397062 -0.206756 0.967114 67 27 36 
-0.00562042 -0.387529 1.06991 77 57 82 
0.00452017 -0.0951785 0.965926 130 74 87 
0.00938776 -0.183949 0.976986 58 23 30 
0.0379227 0.22239 0.75486 167 119 141 
0.00733817 -0.362615 1.06155 138 123 144 
0.016133 0.126177 0.91684 135 89 102 
0.0182852 -0.0832259 0.956299 70 35 33 
0.0149725 0.0871437 0.946617 160 106 120 
0.0186168 -0.360916 1.05902 91 57 84 
0.0199098 -0.0700533 0.985825 47 19 18 
0.0223697 -0.336653 1.05405 65 39 66 
0.0301248 -0.0888346 0.991235 58 28 38 
0.0398895 -0.20036 0.971631 72 32 43 
0.0385344 -0.3677 1.05077 94 71 91 
0.0387718 -0.332513 1.04694 90 60 72 
0.0540829 -0.333417 1.0418 95 63 78 
0.049077 0.0603833 0.972135 70 33 40 
0.0578423 -0.372319 1.04446 81 63 87 
0.0636787 -0.258015 0.974147 108 70 81 
0.0658333 0.207753 0.855029 88 49 68 
0.0639415 -0.333819 1.03773 97 65 86 
0.0715189 -0.362264 1.03875 86 62 78 
0.0762173 -0.175112 0.944699 50 24 23 
0.0756423 -0.296597 1.02975 97 68 90 
0.0769067 0.231975 0.859918 152 109 129 
0.0811828 -0.274582 1.02324 104 82 103 
0.0847723 -0.335837 1.03107 65 46 65 
0.0853669 -0.359001 1.0342 94 74 102 
0.0805446 0.229747 0.876969 66 49 57 
0.0858638 0.24644 0.856103 53 42 50 
0.0935183 -0.363206 1.02926 94 64 88 
0.0956795 -0.331864 1.02673 130 120 145 
0.102761 0.105325 0.886841 66 38 50 
0.0999184 0.236279 0.862251 70 39 47 
0.108435 -0.330992 1.01946 93 79 104 
0.112676 0.250161 0.738165 128 133 153 
0.116502 -0.366523 1.02071 74 52 65 
0.106044 0.227212 0.867307 154 107 127 
0.126224 -0.364776 1.01721 90 60 84 
0.128507 -0.334611 1.01307 96 65 83 
0.136532 -0.359744 1.01261 77 57 84 
0.143941 -0.336115 1.00912 94 69 91 
0.152758 -0.336918 1.00383 124 106 122 
0.153616 -0.287448 0.997529 97 70 87 
0.142702 0.17217 0.86116 61 31 41 
0.166797 -0.345879 0.99965 121 104 123 
0.156681 0.0377823 0.912393 72 35 42 
0.174079 -0.335072 0.995593 98 67 83 
0.177655 -0.352545 0.995149 92 63 83 
0.15927 0.227698 0.847849 125 82 102 
0.18227 -0.327334 0.990823 103 78 97 
0.189734 -0.3356 0.991386 86 54 75 
0.200315 -0.336472 0.986535 91 59 80 
0.187002 0.0305273 0.958509 64 41 59 
0.192362 0.126299 0.919591 73 37 47 
0.206315 -0.144361 0.967565 87 72 101 
0.21532 -0.337081 0.981609 83 52 68 
0.203535 -0.0455151 0.958059 72 48 61 
0.198673 0.088883 0.949049 128 120 144 
0.205306 0.122842 0.941105 134 126 149 
0.203978 0.210374 0.934324 57 41 52 
0.204138 0.226697 0.932129 54 48 60 
0.211308 0.0817773 0.941671 74 52 65 
0.211899 0.099792 0.940095 72 54 76 
0.209079 0.17768 0.934699 108 100 123 
0.232002 -0.338277 0.973979 120 107 125 
0.215886 0.242913 0.909264 56 52 66 
0.246198 -0.337541 0.968939 74 55 74 
0.259498 -0.322052 0.961448 80 56 78 
0.261377 -0.333191 0.961475 72 58 84 
0.248402 0.0797499 0.928396 129 108 125 
0.243841 0.211632 0.91998 46 30 41 
0.258054 0.091311 0.92384 132 111 128 
0.249611 0.264198 0.8881 107 119 133 
0.282512 -0.303214 0.953116 129 115 140 
0.305841 -0.319625 0.943701 78 59 79 
0.300028 0.120074 0.908859 133 116 135 
0.373899 -0.011126 0.889174 119 99 111 
0.366169 0.14388 0.87663 62 45 61 
0.387723 -0.19557 0.899877 84 66 82 
0.390356 -0.0445223 0.884283 144 121 139 
0.393555 0.063995 0.876335 137 114 122 
0.402738 0.0507808 0.872787 77 53 69 
0.452146 -0.197202 0.939779 71 62 67 
0.468652 -0.298843 0.976495 162 178 211 
0.48554 -0.124693 0.969441 159 174 213 
0.470793 0.175598 0.930912 53 62 95 
0.474043 0.180658 0.922672 61 85 121 
-0.547155 -0.0241072 1.23454 68 71 106 
-0.54433 -0.194208 1.2472 117 115 154 
-0.52453 0.259641 1.19078 87 75 95 
-0.529746 0.195799 1.20678 110 100 124 
-0.443717 -0.233553 1.21216 126 100 113 
-0.444699 -0.175885 1.21063 125 102 120 
-0.453551 0.112228 1.21388 21 28 47 
-0.202103 0.217977 0.768059 104 71 90 
-0.156566 0.216817 0.75067 107 72 92 
-0.320312 -0.165082 1.16456 47 33 48 
-0.307254 -0.192208 1.16247 73 52 67 
-0.272984 -0.248831 1.15527 69 48 65 
-0.117844 0.215866 0.736006 111 78 97 
-0.157223 0.102583 0.848866 81 40 56 
-0.134767 -0.150816 1.00185 141 87 103 
-0.141432 0.0699219 1.01567 64 24 33 
-0.114126 -0.0814254 1.02717 56 24 27 
-0.245309 0.17886 1.49072 82 48 65 
-0.122227 0.138925 1.15802 82 56 69 
-0.0508225 -0.255596 0.9639 115 75 86 
-0.026647 -0.271406 0.952586 50 23 28 
-0.125529 0.177245 1.46503 64 38 51 
0.0543423 0.108577 0.758772 59 33 42 
0.0761964 0.130143 1.09592 72 51 58 
0.155554 0.151525 0.848071 41 30 28 
0.177244 -0.109636 0.97231 79 54 75 
0.22413 -0.0592977 0.948614 63 45 57 
0.235112 0.0973869 0.929444 82 64 80 
0.267117 -0.302797 0.955229 78 60 74 
0.257352 -0.0236821 0.931336 135 112 128 
0.274502 -0.287739 0.948823 75 55 80 
0.29354 0.0282496 0.913617 85 61 85 
0.315594 -0.310801 0.935354 78 56 79 
0.315531 0.0762796 0.898422 146 118 130 
0.332514 -0.226661 0.922745 81 62 81 
0.350333 -0.305642 0.922128 81 64 80 
0.347434 0.0520835 0.890015 92 67 88 
0.384408 -0.120734 0.891251 95 71 85 
0.404032 -0.276534 0.897025 90 63 82 
0.400623 0.210889 0.853558 116 103 120 
0.62601 -0.268216 1.47929 65 85 122 
-0.522086 -0.279744 1.24743 91 72 94 
-0.483365 -0.0565611 1.21323 77 65 85 
-0.457916 -0.276701 1.22306 140 123 142 
-0.393634 -0.192089 1.19228 80 57 67 
-0.279285 0.113035 1.02365 127 85 99 
-0.325726 -0.0669168 1.15635 84 60 76 
-0.244797 -0.250046 1.14152 79 57 70 
-0.141218 0.0230048 1.01927 68 35 46 
-0.110813 -0.0805284 1.01599 56 24 27 
-0.0733548 -0.16198 0.997851 136 89 107 
0.0291343 -0.257566 0.950588 99 59 68 
0.0630754 0.0206109 0.95029 74 29 34 
0.10541 -0.269668 1.00971 110 72 97 
0.106488 0.106723 0.879682 134 90 105 
0.128247 0.213649 0.859606 79 43 55 
0.151847 -0.221859 0.988948 87 64 84 
0.168649 -0.185559 0.981336 96 78 104 
0.198892 -0.0768385 0.956939 153 134 156 
0.23473 -0.113785 0.951594 123 120 137 
0.249083 -0.24873 0.954448 66 51 58 
0.252592 -0.185997 0.947969 69 52 70 
0.278044 -0.0802856 0.928092 83 59 75 
0.273059 0.0653975 0.914419 155 131 145 
0.2789 0.223984 0.897425 103 77 90 
0.309626 -0.275253 0.93312 130 108 129 
0.321258 -0.0828395 0.912623 78 50 64 
0.328072 0.0971265 0.890791 85 59 68 
0.34258 -0.0477281 0.900424 60 43 53 
0.340075 0.118506 0.886264 89 69 96 
0.338485 0.148352 0.882916 129 115 130 
0.401934 -0.23434 0.893065 153 130 150 
0.385773 0.209745 0.85877 57 44 61 
-0.48879 0.24943 1.18279 70 59 76 
-0.485857 -0.220762 1.20747 135 114 131 
-0.485604 -0.0905869 1.21391 72 55 74 
-0.464374 0.0579263 1.19355 73 66 82 
-0.413414 0.194333 1.16031 39 35 49 
-0.408188 0.108537 1.16585 121 109 129 
-0.295934 0.128334 1.02805 44 38 42 
-0.331529 -0.167198 1.16461 69 51 73 
-0.321243 -0.190873 1.16088 68 51 61 
-0.315129 -0.245983 1.16412 72 47 66 
-0.295596 -0.244024 1.15632 133 115 129 
-0.274604 -0.129744 1.13914 64 43 50 
-0.229202 0.0712384 1.06942 53 22 37 
-0.221012 -0.0975916 1.05691 126 72 85 
-0.179528 0.0677721 1.05058 60 27 36 
-0.147911 0.245784 0.984534 76 45 61 
-0.109539 0.214896 0.729908 103 70 89 
-0.142556 -0.0228737 1.01952 61 33 47 
-0.112255 -0.260195 1.0369 43 22 21 
-0.104334 -0.146621 1.01191 58 31 38 
-0.0498355 -0.153123 0.993532 58 29 34 
-0.0484923 -0.270847 0.978173 137 81 92 
-0.033107 -0.120375 0.984193 48 28 30 
-0.0278962 0.15004 0.911236 64 49 54 
-0.0114631 0.142509 0.905425 150 108 122 
0.00545427 0.108568 0.771224 77 40 57 
0.0159855 0.125307 0.910175 134 88 101 
0.0252235 0.112555 0.758176 70 40 48 
0.152537 -0.285437 0.990644 91 68 88 
0.157988 0.225901 0.841148 120 81 99 
0.204484 -0.143031 0.959092 78 62 89 
0.246537 0.0792111 0.921497 129 107 120 
0.259422 -0.330656 0.95433 67 54 80 
0.25608 0.0905342 0.916833 131 113 129 
0.303518 -0.317196 0.936584 78 59 79 
0.368902 -0.333309 0.913583 73 54 74 
0.363302 0.142807 0.869798 62 46 59 
0.384878 -0.194132 0.893304 81 62 82 
0.382515 0.115209 0.865736 124 97 106 
0.398946 -0.305493 0.899236 78 64 89 
0.503793 0.0623921 0.890076 148 168 201 
-0.439236 0.24836 0.812938 144 161 177 
-0.490807 0.276575 1.14576 83 93 85 
-0.511013 -0.159726 1.22734 99 75 99 
-0.509226 -0.171681 1.22785 84 67 86 
-0.501748 -0.220287 1.23093 90 67 83 
-0.440625 0.266122 1.00066 43 58 51 
-0.49103 -0.161047 1.22124 90 67 83 
-0.481784 0.110209 1.19165 76 62 79 
-0.473037 -0.226251 1.22019 138 117 132 
-0.46626 -0.151843 1.20874 80 61 83 
-0.46613 -0.168789 1.21232 132 117 136 
-0.45377 -0.0142438 1.19444 88 69 88 
-0.453021 -0.0960481 1.19897 124 106 130 
-0.441504 0.230497 1.1662 113 109 132 
-0.445291 -0.188258 1.20602 77 54 70 
-0.445987 -0.244709 1.21202 79 55 69 
-0.425285 0.0177505 1.17861 73 63 88 
-0.426213 -0.0984216 1.19001 121 102 122 
-0.411618 0.250589 1.15253 47 46 60 
-0.414479 -0.0398615 1.18153 70 54 83 
-0.398895 -0.116779 1.18234 66 58 82 
-0.388776 0.262366 1.12743 91 84 92 
-0.395576 -0.25788 1.19652 75 63 87 
-0.38847 0.0832046 1.16047 64 49 68 
-0.385186 -0.0137825 1.1714 77 60 79 
-0.379361 0.228157 1.14296 48 37 51 
-0.38041 0.0306252 1.16244 65 51 66 
-0.348715 0.242528 1.02384 136 93 113 
-0.369474 -0.296794 1.18946 77 59 73 
-0.361849 0.103812 1.15025 45 36 41 
-0.364226 -0.104215 1.17022 72 57 76 
-0.359332 -0.226604 1.1786 71 54 73 
-0.354674 0.0103717 1.15849 56 43 61 
-0.356494 -0.258444 1.17962 92 61 76 
-0.347621 0.107912 1.14503 37 29 40 
-0.346513 0.0933349 1.14335 30 22 33 
-0.347735 -0.0362382 1.15674 121 94 109 
-0.338255 -0.282976 1.17644 85 58 73 
-0.325673 0.0445848 1.1399 59 42 50 
-0.313775 0.0896716 1.06745 149 95 111 
-0.303055 -0.228261 1.15738 91 68 88 
-0.261254 0.24779 0.776002 49 35 48 
-0.284307 0.0633476 1.06971 139 87 109 
-0.291153 -0.175546 1.1486 89 64 86 
-0.282122 -0.0657188 1.13525 79 60 79 
-0.269199 0.106621 1.05027 70 51 55 
-0.242084 -0.289115 1.14077 78 58 70 
-0.236884 -0.207633 1.13136 78 56 69 
-0.233189 -0.0325938 1.07411 78 31 39 
-0.23273 -0.0460112 1.07418 119 68 77 
-0.234239 -0.268197 1.13554 57 34 42 
-0.22422 -0.252828 1.13267 132 117 136 
-0.219066 -0.0700263 1.07064 102 55 61 
-0.209694 0.164068 0.776219 74 34 45 
-0.214625 -0.251079 1.12739 86 62 78 
-0.213611 -0.28822 1.1303 76 59 77 
-0.195236 -0.237168 1.11712 50 38 58 
-0.19413 -0.0793954 1.06231 109 64 71 
-0.19187 -0.290683 1.12227 87 61 90 
-0.192558 -0.253399 1.00157 127 111 137 
-0.188313 -0.0293226 1.06151 55 28 35 
-0.181394 -0.252209 1.01213 115 65 68 
-0.175466 -0.306877 1.11721 74 58 85 
-0.168647 0.0346504 1.04829 47 20 27 
-0.149833 -0.00776223 1.0202 57 24 33 
-0.145813 -0.267941 1.00831 54 16 27 
-0.13683 -0.178028 1.00747 107 70 78 
-0.136091 0.129327 0.966864 83 46 63 
-0.135254 0.116079 0.967893 82 48 64 
-0.130768 0.215281 0.737335 116 82 99 
-0.105134 0.0523092 0.985934 113 87 72 
-0.125495 0.222133 0.727683 79 46 57 
-0.0998743 -0.268634 0.995404 140 87 103 
-0.109521 -0.234256 0.86902 82 30 52 
-0.0911871 0.02146 0.967616 96 83 77 
-0.0908888 -0.268176 0.988717 143 89 102 
-0.111541 0.165257 0.73845 98 48 60 
-0.0739892 -0.132294 1.00051 129 76 86 
-0.0767861 -0.272395 0.988458 80 34 44 
-0.073079 -0.0797309 0.992324 130 113 97 
-0.0712799 -0.0505475 0.991069 184 171 152 
-0.101334 0.200781 0.731265 101 52 71 
-0.0631333 -0.0314908 0.995056 133 105 84 
-0.0711932 0.141761 0.909768 141 107 121 
-0.0599681 -0.119099 0.996813 50 21 23 
-0.0451964 -0.282478 1.09166 49 24 27 
-0.06393 0.150892 0.923232 63 47 57 
-0.0424569 0.0540518 0.962443 52 30 33 
-0.0258124 -0.00948159 0.974203 67 30 38 
-0.0234161 0.101025 0.942911 104 62 74 
-0.0645949 0.160677 0.721011 83 47 61 
-0.0157382 0.00631315 0.967412 62 35 44 
-0.0134382 0.0518093 0.964315 64 32 43 
-0.0547185 0.128588 0.710607 116 63 71 
-0.00509425 -0.178172 0.954554 69 30 33 
0.375518 -0.404394 2.70459 54 23 21 
0.00509476 -0.0403911 0.964255 56 25 33 
0.00509721 0.0182825 0.959649 54 18 30 
-0.0386891 0.214118 0.715334 129 97 118 
0.0240403 0.0984292 0.93432 70 49 58 
0.0359854 -0.154258 0.981038 99 59 67 
0.0585401 -0.32354 1.02858 104 69 91 
0.0510477 0.0184004 0.956464 123 70 78 
0.0559591 0.10116 0.937954 100 59 67 
0.102237 0.00869247 0.949824 72 40 55 
0.100652 0.0384981 0.933186 139 85 101 
0.109702 -0.00289267 0.940972 110 63 71 
0.150598 -0.314053 0.995099 92 74 98 
0.179511 -0.224603 0.975901 86 71 92 
0.157229 0.0501097 0.902057 81 50 65 
0.143661 0.18314 0.854435 62 34 46 
0.220159 0.0880018 0.929669 146 122 138 
0.260562 -0.263626 0.948858 89 66 82 
0.265931 -0.0462049 0.927847 67 43 59 
0.281133 0.0143082 0.915381 89 65 79 
0.289542 0.192166 0.893708 84 65 85 
0.292389 0.03742 0.906338 145 122 132 
0.307696 -0.238975 0.929303 61 49 73 
0.309049 0.132728 0.89239 62 48 63 
0.319709 0.160176 0.887176 78 63 82 
0.369015 -0.280264 0.965897 46 31 54 
0.36049 -0.245622 0.908108 85 73 93 
0.363578 -0.0264086 0.885976 138 117 134 
0.36693 0.207737 0.874244 143 121 134 
0.38657 0.125615 0.863137 90 67 83 
-0.468186 0.187214 1.17994 124 116 139 
-0.463809 0.249972 1.17031 71 64 82 
-0.468202 -0.0898194 1.20512 128 113 136 
-0.416307 0.0551433 1.17509 64 49 68 
-0.409596 -0.166534 1.19072 71 53 65 
-0.405194 -0.00961675 1.17529 127 113 136 
-0.383495 0.196795 1.15002 43 38 45 
-0.384242 -0.154344 1.17815 81 59 72 
-0.370843 0.120613 1.15061 46 32 45 
-0.366767 0.172434 1.14292 51 39 53 
-0.36018 0.249883 1.13265 41 39 52 
-0.357192 0.0580228 1.15065 111 97 114 
-0.341958 0.134901 1.13822 100 79 86 
-0.33561 0.00955456 1.14825 56 43 53 
-0.334803 -0.0122626 1.14925 117 103 129 
-0.328666 0.200138 1.02816 38 26 30 
-0.321972 0.00732864 1.14433 105 94 110 
-0.317205 0.239545 1.01789 50 39 47 
-0.301302 -0.154431 1.15055 86 63 79 
-0.301438 -0.191268 1.15375 66 48 62 
-0.300646 0.226359 1.0169 25 21 22 
-0.298286 0.104567 1.02921 79 53 54 
-0.297038 0.239282 1.01047 54 35 41 
-0.284992 -0.165381 1.14533 125 107 123 
-0.289959 0.200598 1.01494 43 21 23 
-0.268479 -0.189689 1.14151 94 61 80 
-0.301668 0.251143 0.802553 102 103 123 
-0.273763 0.143506 1.01788 67 35 46 
-0.260458 -0.0673761 1.12791 71 54 70 
-0.250903 -0.19214 1.13452 82 56 67 
-0.236943 -0.223288 1.13193 97 66 82 
-0.217078 -0.239261 1.12533 91 62 80 
-0.163813 -0.0738385 1.01238 107 68 86 
-0.148306 -0.0476329 1.02021 103 72 90 
0.348532 0.044832 1.46737 40 20 22 
0.277007 0.082758 0.913599 56 38 50 
0.311188 -0.332245 0.938235 74 60 85 
-0.224841 0.217102 0.826474 91 52 71 
0.0424702 0.11705 0.824702 59 33 42 
0.355204 0.140112 0.875249 133 112 127 
-0.200946 -0.129353 0.634992 98 85 95 
-0.169247 0.230932 0.669475 44 35 54 
-0.283937 -0.24589 1.1528 75 51 64 
-0.138265 -0.0746541 1.00276 108 66 80 
-0.0330632 -0.23078 1.2494 59 23 27 
0.163723 -0.301728 1.91681 53 23 21 
0.346263 -0.33405 0.921848 134 116 140 
0.390206 -0.324063 0.903651 88 66 87 
-0.471543 0.0166393 1.1966 66 53 73 
-0.469124 -0.0599348 1.20116 122 103 123 
-0.451504 -0.0781626 1.1963 79 63 90 
-0.432594 0.249359 1.16048 63 53 62 
-0.434132 -0.207745 1.20424 62 47 66 
-0.384931 -0.191587 1.181 72 49 59 
-0.337827 0.146513 1.03968 128 81 97 
-0.328773 0.217684 1.02586 35 25 26 
-0.220771 0.131102 0.772857 106 58 70 
-0.161566 -0.25169 1.00157 122 69 77 
-0.155236 0.24806 0.719917 227 233 255 
-0.131103 0.0235937 1.01142 69 39 49 
-0.0505801 0.141919 0.933286 89 62 67 
-0.0289082 -0.218306 0.973629 113 81 104 
0.0773979 -0.0357167 1.42905 74 44 56 
0.0974138 -0.0634114 1.42234 129 73 86 
0.164532 -0.220732 0.981624 96 71 92 
0.184547 -0.305932 0.980724 113 82 98 
0.264306 0.0831522 0.915895 38 30 41 
0.28952 -0.135954 0.924655 83 71 91 
-0.491568 0.112349 1.19431 127 119 143 
-0.493381 -0.241753 1.22683 90 65 86 
-0.489383 -0.199203 1.22271 85 62 80 
-0.482459 0.181358 1.18414 114 108 136 
-0.473274 -0.0240254 1.20166 65 55 79 
-0.459592 0.08244 1.18638 61 53 68 
-0.460431 -0.0540982 1.19808 89 73 102 
-0.442144 -0.126058 1.19787 98 90 114 
-0.411887 -0.191314 1.19247 80 53 60 
-0.385965 -0.244703 1.19093 84 56 71 
-0.37209 0.162991 1.1471 45 39 51 
-0.371234 0.0767543 1.15633 69 56 74 
-0.363513 0.190929 1.14425 35 26 31 
-0.359253 0.16382 1.14362 26 20 24 
-0.355085 0.189287 1.13614 42 29 36 
-0.349615 0.0471865 1.14983 40 28 32 
-0.348907 0.116851 1.14068 95 87 100 
-0.345051 -0.204209 1.17036 87 64 82 
-0.340935 0.238134 1.02992 138 95 115 
-0.331972 -0.252372 1.17052 78 63 82 
-0.315561 0.22119 1.02266 40 31 32 
-0.301887 0.15494 1.01218 69 42 49 
-0.292984 0.0112693 1.12449 82 39 46 
-0.296316 0.106792 1.04848 79 53 54 
-0.299784 0.267052 0.988092 90 98 119 
-0.295025 0.149789 1.02342 79 54 57 
-0.276993 0.0279197 1.08229 66 28 27 
-0.260981 0.0266133 1.07776 109 60 66 
-0.251421 -0.0329949 1.06637 81 38 55 
-0.274924 0.209358 0.82804 53 32 37 
-0.227165 -0.059095 1.07431 66 24 28 
-0.221623 -0.146461 1.05994 97 57 65 
-0.211428 0.0270255 1.06254 58 23 27 
-0.199647 -0.251279 1.12308 75 51 77 
-0.194389 -0.157199 1.05208 120 66 79 
-0.180396 -0.179982 1.04843 118 70 86 
-0.173638 -0.0781003 1.05929 46 23 31 
-0.167445 -0.0907661 1.0585 69 33 33 
-0.165633 0.00387456 1.04919 56 29 38 
-0.166061 0.06317 1.04188 48 25 31 
-0.162748 -0.0283319 1.04981 48 27 34 
-0.14814 -0.0829852 1.02069 126 83 102 
-0.141988 0.00998788 1.01488 58 30 42 
-0.143906 -0.155506 1.00586 79 34 41 
-0.137641 0.103175 0.984053 82 50 55 
-0.11951 0.110622 0.963294 70 42 57 
-0.103288 -0.216111 1.00194 112 80 103 
-0.0968425 0.0408529 0.967275 133 113 89 
-0.076279 -0.0729702 1.01373 106 86 62 
-0.101736 0.144285 0.891637 79 56 66 
-0.0132537 -0.0883554 1.12757 57 27 27 
-0.0449197 -0.179857 0.973677 66 31 35 
-0.12589 0.203646 0.741284 93 58 80 
-0.123141 0.163238 0.743993 78 42 54 
-0.0177285 -0.219511 0.969717 136 85 104 
-0.0190691 -0.176651 0.961397 62 31 36 
-0.0257839 0.14033 0.924629 145 94 111 
-0.0238112 -0.261481 0.948694 62 30 33 
0.00584335 0.0696864 0.955958 85 48 66 
0.0568239 -0.1166 0.970956 117 81 95 
0.0609393 -0.0601936 0.959477 131 79 92 
-0.0628611 0.232514 0.707474 103 61 73 
0.17138 -0.161576 0.971074 99 72 89 
0.119528 0.128202 0.871018 91 57 71 
0.143548 0.0834003 0.89142 156 102 116 
0.172974 0.151054 0.84245 65 35 35 
0.275894 -0.304172 0.943976 123 110 127 
0.285705 0.0531489 0.9088 85 61 74 
0.284661 0.175196 0.898397 59 45 62 
0.298634 -0.0548446 0.913138 99 72 87 
0.370088 -0.31873 0.910894 89 71 97 
0.366405 -0.115281 0.892763 91 67 81 
0.359165 0.190388 0.867808 93 68 90 
0.372422 0.15613 0.865899 83 62 79 
0.40927 0.227151 0.837123 135 128 146 
-0.474301 0.26777 1.15734 56 54 59 
-0.465295 0.230456 1.17984 117 113 130 
-0.435221 -0.102264 1.19408 86 75 105 
-0.433612 0.276611 1.1408 46 40 52 
-0.428501 0.255605 1.15082 83 74 95 
-0.423338 0.165238 1.1644 79 67 87 
-0.42242 -0.146663 1.19283 86 67 95 
-0.40551 0.232149 1.15248 118 99 118 
-0.388352 -0.0837483 1.17554 95 67 92 
-0.382711 0.216901 1.14651 61 45 56 
-0.379594 0.124965 1.15376 120 101 120 
-0.37997 0.00891696 1.16394 134 119 138 
-0.364354 0.259948 1.12121 115 99 112 
-0.358448 0.076446 1.15162 71 55 66 
-0.348953 0.165193 1.13969 83 79 93 
-0.348396 0.261444 1.11289 90 80 89 
-0.345011 -0.083991 1.15983 96 66 78 
-0.340846 0.251155 1.12263 54 43 60 
-0.3316 0.132416 1.13397 56 35 44 
-0.33212 -0.0342868 1.14951 138 114 128 
-0.32581 0.0256939 1.14416 50 34 44 
-0.323166 -0.00937444 1.14616 78 54 78 
-0.321586 -0.0324797 1.14674 141 123 137 
-0.335791 0.248606 1.01705 107 84 90 
-0.307186 0.0471792 1.13406 86 70 83 
-0.322838 0.150782 1.03426 71 50 57 
-0.287104 -0.150848 1.14378 95 62 79 
-0.277421 -0.0989114 1.13626 93 64 84 
-0.243593 -0.0672499 1.1216 127 120 138 
-0.238027 -0.190716 1.12881 87 64 74 
-0.234892 -0.163562 1.1275 85 60 81 
-0.233002 -0.100967 1.12056 50 37 46 
-0.228221 -0.131383 1.12222 58 38 49 
-0.227717 -0.187046 1.1259 81 66 89 
-0.232032 0.137993 1.00286 107 62 83 
-0.28878 0.224085 0.846321 71 52 58 
-0.267918 0.197608 0.812782 122 78 91 
-0.117295 0.0800115 0.998058 95 44 51 
-0.159839 0.165812 0.758224 85 52 63 
0.806086 0.0972887 1.85328 64 31 42 
0.0500068 0.130097 0.899635 99 60 81 
0.0880918 -0.0842698 0.949768 79 39 40 
0.101469 -0.0342374 0.951151 76 35 49 
0.105363 -0.0171503 0.947036 130 79 88 
0.0841276 0.117829 0.888372 147 94 114 
0.200961 -0.328886 0.980207 89 61 86 
0.310773 0.0205064 0.907948 134 113 132 
0.343007 0.0211104 0.893944 157 134 152 
0.355675 0.0988854 0.882591 105 78 95 
0.41398 -0.340895 0.90257 81 65 101 
0.295313 -0.0140222 0.773435 85 85 135 
0.32784 -0.0140548 0.75856 192 211 253 
-0.420225 0.241673 0.790577 120 137 145 
-0.732098 -0.407459 1.25049 135 116 136 
-0.728261 -0.464876 1.25902 111 122 168 
-0.726415 -0.406696 1.25962 164 172 219 
-0.607317 0.0629527 1.1997 33 48 77 
-0.599773 0.222986 1.19323 76 86 113 
-0.597955 0.138659 1.19894 93 108 141 
-0.598373 0.122683 1.20048 97 108 138 
-0.596948 0.0938923 1.2025 96 102 134 
-0.599019 0.036245 1.20709 32 42 69 
-0.596634 0.0593883 1.20629 90 98 135 
-0.59427 -0.120754 1.22117 99 108 149 
-0.591179 -0.107509 1.22245 126 134 173 
-0.595845 -0.276928 1.23208 41 48 77 
-0.591384 -0.266937 1.23245 47 53 89 
-0.591676 -0.373197 1.24141 109 121 159 
-0.589502 -0.487054 1.25001 96 101 139 
-0.525542 0.152288 1.18159 102 93 114 
-0.220599 0.185011 0.759243 65 36 54 
-0.524727 0.0621799 1.18698 94 97 132 
-0.523861 0.0775176 1.18724 103 89 112 
-0.523211 -0.0230703 1.19434 69 72 113 
-0.521437 0.0114516 1.19144 114 95 114 
-0.518379 -0.101228 1.19901 109 86 112 
-0.518584 -0.126936 1.2028 100 83 102 
-0.508269 -0.125419 1.19976 100 79 96 
-0.517404 -0.337558 1.22062 79 77 116 
-0.513362 -0.348757 1.21924 111 93 119 
-0.516138 -0.400457 1.22483 93 98 140 
-0.511643 -0.316277 1.21682 105 85 112 
-0.498756 -0.120547 1.19555 66 53 70 
-0.181791 0.216984 0.731466 63 37 50 
-0.511571 -0.43806 1.2265 104 86 112 
-0.515223 -0.514525 1.23483 116 125 168 
-0.511232 -0.476732 1.23029 118 95 123 
-0.474525 0.0850755 1.16487 81 64 83 
-0.182465 0.181842 0.74403 77 54 72 
-0.183021 0.170569 0.746286 62 31 46 
-0.165882 0.217013 0.725039 68 44 57 
-0.462365 -0.0317045 1.17188 67 57 84 
-0.473749 -0.398437 1.20914 91 65 78 
-0.161967 0.180536 0.734621 73 45 60 
-0.136127 0.235622 0.697301 66 74 113 
-0.431006 0.0806741 1.15103 60 51 70 
-0.446194 -0.341745 1.19376 80 65 88 
-0.419926 0.054036 1.14706 73 59 82 
-0.432998 -0.305987 1.1854 82 64 86 
-0.409269 0.108284 1.13774 96 95 129 
-0.439611 -0.367859 1.19797 126 108 124 
-0.43504 -0.361125 1.19209 59 38 57 
-0.435703 -0.398966 1.19496 70 53 72 
-0.416605 -0.182829 1.16744 66 46 58 
-0.429624 -0.489015 1.20134 84 69 88 
-0.139683 0.192334 0.728893 81 47 64 
-0.417686 -0.401218 1.18776 88 64 88 
-0.385058 -0.0117034 1.13642 64 50 65 
-0.398199 -0.359634 1.17616 64 50 65 
-0.297296 0.129577 1.00212 55 29 40 
-0.392521 -0.334428 1.17333 76 62 75 
-0.394805 -0.432041 1.18296 130 116 129 
-0.394497 -0.462107 1.18525 82 58 80 
-0.378688 -0.23949 1.15995 77 56 71 
-0.381721 -0.361455 1.17021 72 51 70 
-0.384857 -0.464448 1.18399 84 62 83 
-0.346761 0.0392025 1.1115 109 90 109 
-0.231957 0.151188 0.922947 89 57 68 
-0.28727 -0.0138548 1.02593 61 21 29 
-0.364423 -0.385954 1.16753 69 54 73 
-0.365204 -0.462443 1.17269 87 62 81 
-0.258716 0.116079 0.978228 63 46 52 
-0.261454 0.108979 0.984674 120 77 94 
-0.356021 -0.361762 1.16071 84 57 76 
-0.357182 -0.422937 1.16685 134 117 136 
-0.350846 -0.336187 1.15696 77 50 67 
-0.280322 -0.0250167 1.02897 144 90 113 
-0.09327 0.171466 0.711625 74 42 63 
-0.264761 0.0912076 1.01606 140 92 104 
-0.329708 -0.238046 1.14207 80 61 81 
-0.331438 -0.361305 1.14991 86 59 76 
-0.273471 0.00196902 1.03907 40 19 18 
-0.267956 0.0776054 1.03074 138 94 107 
-0.332026 -0.458109 1.16017 128 113 132 
-0.222287 0.157199 0.950086 47 69 116 
-0.328478 -0.384091 1.15353 86 61 82 
-0.308184 -0.0645016 1.11695 78 55 71 
-0.228823 0.128231 0.97681 66 32 46 
-0.261003 0.0904961 1.03644 79 35 50 
-0.311655 -0.382812 1.14419 84 61 81 
-0.313645 -0.366377 1.14847 70 52 64 
-0.312311 -0.412439 1.14903 73 52 67 
-0.210294 0.107913 0.966179 130 82 104 
-0.297219 -0.363851 1.13988 78 59 78 
-0.297221 -0.412585 1.14389 82 61 80 
-0.297855 -0.436108 1.14762 80 58 71 
-0.288789 -0.337011 1.13285 78 56 69 
-0.0471636 0.212769 0.678876 73 42 50 
-0.286845 -0.436939 1.14307 75 51 67 
-0.0541509 0.167092 0.696587 80 38 52 
-0.281593 -0.404241 1.13764 86 61 82 
-0.278742 -0.363348 1.13139 71 55 68 
-0.187548 0.136023 0.959743 94 50 67 
-0.222292 0.0498559 1.02912 65 26 31 
-0.210877 -0.174598 1.01976 78 29 35 
-0.26231 -0.394307 1.12781 78 60 76 
-0.22169 0.0550903 1.03857 46 20 23 
-0.197315 -0.246253 1.00672 67 32 36 
-0.254173 -0.43643 1.12965 76 48 71 
-0.0368564 0.205699 0.691416 170 122 148 
-0.217226 0.018169 1.04232 70 29 43 
-0.207552 -0.0759675 1.03022 82 43 46 
-0.185509 -0.235598 0.998495 50 31 35 
-0.211446 0.063983 1.03637 67 27 35 
-0.172394 -0.25364 0.976257 83 39 52 
-0.238614 -0.356717 1.11555 80 66 89 
-0.153257 0.14991 0.930158 82 52 64 
-0.236923 -0.366416 1.11544 78 56 69 
-0.229716 -0.434326 1.11562 82 58 71 
-0.227262 -0.313079 1.1082 70 47 63 
-0.213522 -0.396388 1.09909 120 106 131 
-0.173345 -0.200072 1.012 60 29 34 
-0.217726 -0.386369 1.10915 72 57 78 
-0.177568 0.0063233 1.02399 84 42 52 
-0.2053 -0.407002 1.10898 84 59 81 
-0.0168502 0.182036 0.70233 86 53 74 
-0.199346 -0.368723 1.10173 70 53 71 
-0.197087 -0.343579 1.10065 63 46 64 
-0.197822 -0.433709 1.10819 79 57 78 
-0.195536 -0.410506 1.10513 135 118 137 
-0.130676 -0.170869 0.970281 100 64 76 
-0.186431 -0.403498 1.09962 129 114 135 
-0.0100787 0.190479 0.706197 88 53 75 
-0.18276 -0.386623 1.09707 130 116 139 
-0.0093953 0.171513 0.707867 105 54 73 
-0.114716 0.128229 0.932827 75 43 56 
-0.133795 -0.0062652 0.98652 111 66 73 
-0.126021 -0.313019 0.990155 141 90 107 
-0.172723 -0.366646 1.09269 74 60 85 
-0.167744 -0.408084 1.09369 78 58 69 
-0.163174 -0.369509 1.08653 71 52 71 
-0.118319 -0.321301 0.988412 55 32 42 
0.000790733 0.195529 0.710198 78 51 66 
-0.116475 -0.126167 0.98143 26 14 14 
7.11907e-05 0.154734 0.714171 82 49 68 
-0.1154 -0.00682372 0.979378 110 64 74 
0.00312637 0.171976 0.71314 105 54 73 
-0.0922771 0.124194 0.925003 79 43 57 
-0.111187 -0.0893943 0.984493 119 63 72 
-0.148472 -0.407543 1.0852 84 61 77 
0.00745068 0.20881 0.708543 118 79 100 
-0.145979 -0.390843 1.08221 53 39 56 
-0.0986799 -0.307343 0.973996 131 73 88 
-0.0816248 0.109428 0.919437 73 41 54 
-0.141348 -0.374756 1.08049 58 46 68 
-0.095265 -0.0761273 0.963534 53 25 24 
0.0148046 0.215774 0.704337 100 59 75 
-0.0761859 -0.296597 0.943267 74 35 38 
0.00563869 0.12427 0.736202 73 53 65 
0.0148047 0.191065 0.717677 92 58 75 
-0.127845 -0.3703 1.07538 66 52 67 
-0.0840601 -0.324614 0.974076 148 98 110 
-0.077113 0.0471593 0.941304 31 20 18 
-0.0676287 -0.288802 0.94128 117 66 75 
-0.0755673 0.0133387 0.946138 78 39 40 
-0.118378 -0.390826 1.07502 120 111 132 
-0.118853 -0.409367 1.07787 80 62 76 
-0.0586528 0.0428318 0.923298 36 22 22 
-0.109643 -0.407057 1.0704 80 59 74 
-0.0759378 -0.0509235 0.971647 117 100 92 
-0.106319 -0.392339 1.06734 76 53 69 
-0.0519884 0.0382642 0.929122 174 162 148 
-0.0613708 -0.067195 0.961638 134 116 92 
-0.0579229 0.0118753 0.959016 171 154 124 
-0.0867458 -0.391943 1.06016 71 48 68 
-0.0504007 -0.0166146 0.951496 188 177 155 
-0.0429144 0.0529597 0.929197 32 17 24 
-0.0545474 -0.0538009 0.965216 61 33 32 
-0.038222 -0.173824 0.932918 61 31 31 
-0.0458757 -0.325389 0.96614 143 92 109 
-0.0493947 -0.0755047 0.959419 21 10 14 
-0.0722733 -0.386837 1.04276 52 28 44 
-0.0454823 -0.0241061 0.957551 139 123 110 
-0.0672942 -0.395248 1.03714 192 195 202 
-0.0321863 0.0446803 0.927772 206 202 191 
0.0420953 0.146568 0.737208 66 34 35 
-0.065964 -0.369132 1.0484 56 34 55 
-0.0569479 -0.37486 1.03217 155 143 121 
-0.0317681 -0.300413 0.965266 78 35 42 
-0.0324991 -0.107696 0.955642 54 22 33 
-0.0322464 -0.310186 0.969362 142 88 111 
0.0437183 0.158514 0.746163 77 44 61 
-0.0255473 0.0471025 0.934831 167 156 136 
-0.0477169 -0.39125 1.02984 60 63 68 
0.0448542 0.169238 0.75079 79 47 68 
-0.0219196 0.058381 0.934334 73 33 34 
-0.00915208 -0.242392 0.92271 45 20 23 
-0.0182046 -0.32928 0.953151 154 111 128 
-0.0192186 -0.296323 0.958245 80 39 53 
-0.0381254 -0.386261 1.02437 55 97 113 
-0.038875 -0.370903 1.02898 38 24 24 
-0.00668667 -0.113062 0.925894 67 31 31 
0.0015094 0.107637 0.890902 63 37 50 
0.00126902 -0.148177 0.915766 148 94 110 
-0.0093003 -0.293603 0.955567 103 48 54 
0.000604324 -0.215528 0.923187 114 68 78 
-0.0283588 -0.387122 1.02228 147 134 125 
0.00797695 -0.200352 0.920198 110 66 79 
0.00764071 -0.144347 0.923105 133 81 94 
0.0533758 0.188508 0.772212 76 45 61 
0.00704196 -0.128856 0.930214 27 13 12 
0.00715117 0.04795 0.927455 131 78 88 
0.0557104 0.196925 0.780287 77 44 63 
0.0117535 -0.0913686 0.928477 125 69 82 
0.0107981 -0.152928 0.937356 61 25 29 
0.0177547 -0.0792701 0.917382 54 22 23 
-0.0124465 -0.372236 1.02712 117 95 108 
0.0137089 -0.168241 0.938116 54 24 26 
0.0648556 0.232337 0.770076 80 64 75 
0.0222933 0.0837045 0.907292 154 101 117 
0.0603985 0.176092 0.791164 95 48 66 
0.0612254 0.162072 0.794219 73 42 58 
0.0378296 0.129431 0.873293 79 48 64 
0.00109834 -0.366628 1.02477 136 117 139 
0.0356954 -0.246932 0.912162 96 55 63 
0.0310812 -0.280581 0.941173 147 92 111 
0.0272182 -0.0664581 0.94378 47 18 20 
0.0191077 -0.371592 1.01601 82 59 77 
0.0705499 0.165101 0.820557 72 41 57 
0.0369267 -0.0848508 0.949407 59 29 39 
0.0463371 -0.191663 0.930277 67 29 40 
0.0712086 0.176804 0.822183 69 37 52 
0.0402477 0.026403 0.938386 68 36 47 
-0.140564 0.182604 1.50358 133 85 101 
0.02886 -0.373398 1.01441 127 112 131 
0.0291311 -0.334705 1.01074 93 69 93 
0.0407812 -0.00329015 0.943943 56 25 31 
0.0295575 -0.322222 1.00921 78 52 77 
0.0488947 -0.214811 0.94242 72 30 42 
0.0557932 -0.170966 0.924571 134 83 98 
0.0804542 0.225915 0.814132 73 50 58 
0.0763963 0.181596 0.833322 71 38 49 
0.0789041 0.219305 0.825779 95 70 89 
0.0549217 0.0582001 0.932215 67 32 38 
0.0455729 -0.317601 1.00028 93 63 75 
0.0449992 -0.352077 1.00632 93 71 92 
0.0650615 0.0163228 0.915189 88 41 57 
0.0692489 -0.24664 0.931698 105 64 78 
-1.18001 0.681186 5.11047 95 52 71 
0.0905331 0.235844 0.818333 48 47 53 
0.0534846 -0.372419 1.00532 80 55 77 
0.0643745 0.0485351 0.928439 70 37 46 
0.0628289 -0.284914 0.993621 79 55 77 
0.0861828 -0.142349 0.904374 58 24 25 
0.0977088 0.226614 0.827892 57 34 42 
0.0761263 -0.0188437 0.931919 58 31 38 
0.0688655 -0.296384 0.991724 102 71 86 
0.0764492 -0.347286 0.996111 80 58 71 
0.105793 0.179947 0.840273 51 42 45 
0.0803154 -0.28453 0.988277 93 65 88 
0.0839212 -0.240279 0.97478 37 20 26 
0.107559 0.127799 0.845945 75 44 59 
0.108145 0.199871 0.837265 56 33 39 
0.0936268 -0.0154386 0.922602 57 31 40 
0.0909404 -0.347272 0.989159 86 59 74 
0.100446 0.0218046 0.918663 52 19 28 
0.122593 0.21961 0.825753 105 69 83 
0.11945 0.0905303 0.853651 85 58 67 
0.0997175 -0.317805 0.983577 125 117 140 
0.130555 0.206194 0.828456 74 40 54 
0.131597 0.165621 0.832323 65 34 49 
0.112008 -0.316706 0.975815 85 76 93 
0.112214 -0.200715 0.965481 87 59 71 
0.121355 0.054946 0.908205 58 26 31 
0.12985 -0.0291025 0.886942 133 82 99 
0.119561 -0.351553 0.979321 77 55 68 
0.128999 -0.349292 0.974313 88 59 81 
0.131207 -0.320291 0.969984 94 65 85 
0.138885 -0.344405 0.969728 76 57 85 
0.137938 -0.202573 0.956378 88 57 73 
0.160151 0.151154 0.814154 82 46 46 
0.146005 -0.321634 0.965931 95 72 92 
0.162931 0.025521 0.869005 138 89 108 
0.17531 0.218915 0.798094 169 121 145 
0.167918 0.00275925 0.874394 62 27 31 
0.162201 -0.320634 0.95959 59 42 58 
0.1748 0.116982 0.832158 54 28 37 
0.168441 -0.337512 0.957482 127 111 137 
0.179341 0.243932 0.802931 56 53 60 
0.177369 0.100644 0.84053 41 30 34 
0.174852 -0.320796 0.953498 102 70 85 
0.178276 -0.337568 0.953011 97 65 86 
0.177837 -0.105139 0.934412 83 60 78 
0.187661 -0.319052 0.950446 131 119 143 
0.18709 -0.135365 0.932426 132 120 144 
0.192368 0.121288 0.880999 71 35 45 
0.198859 -0.2075 0.933178 89 65 79 
0.198245 -0.0438993 0.918715 75 48 63 
0.19841 0.0853339 0.908093 128 115 141 
0.200313 0.0956866 0.904828 85 55 67 
0.223709 0.243068 0.727562 166 178 202 
0.209945 -0.214348 0.930016 88 63 84 
0.214321 -0.322082 0.938275 82 54 68 
0.203645 0.217103 0.89173 52 48 63 
0.205814 0.232833 0.874163 61 58 69 
0.207408 0.152479 0.894383 65 34 39 
0.210356 0.0303526 0.908827 78 60 76 
0.210523 0.0785623 0.90194 72 50 62 
0.211093 0.0958522 0.900595 69 50 70 
0.216621 -0.0459981 0.911577 136 106 116 
0.224038 -0.324629 0.936844 126 118 139 
0.222738 0.196305 0.887247 93 78 97 
0.235976 -0.32387 0.930157 78 57 76 
0.226804 0.0857449 0.894824 148 120 135 
0.226801 0.125646 0.89232 110 103 119 
0.232546 0.187293 0.884237 83 58 80 
0.244244 -0.205202 0.911834 85 64 73 
0.247883 -0.287918 0.922924 81 57 79 
0.241248 0.0879191 0.889788 139 115 128 
0.240419 0.205725 0.881313 101 92 109 
0.246373 0.0277401 0.894396 86 65 84 
0.248818 -0.0265932 0.897249 136 113 129 
0.251112 -0.0732371 0.901974 130 112 138 
0.247206 0.253147 0.850213 107 121 134 
0.25001 0.190953 0.87671 118 95 115 
0.261626 -0.215056 0.909928 124 105 124 
0.265361 -0.0941615 0.898166 76 55 72 
0.258248 0.198369 0.871651 120 101 121 
0.272925 -0.255567 0.911341 79 62 81 
0.279746 -0.263998 0.907491 101 73 88 
0.269071 0.160885 0.872379 129 114 133 
0.286666 -0.203626 0.897249 59 47 61 
0.278693 0.200463 0.862281 49 33 46 
0.287669 -0.0707831 0.888246 71 56 77 
0.289096 -0.109251 0.889048 75 57 73 
0.284279 0.0843489 0.8739 126 105 122 
0.289609 0.0273543 0.877758 84 60 84 
0.289447 0.155555 0.865036 142 121 138 
0.292798 0.21092 0.858216 127 112 135 
0.309249 -0.108958 0.883628 59 36 56 
0.305958 0.121598 0.861482 66 53 70 
0.304557 0.202224 0.853501 48 34 49 
0.310771 0.0735897 0.863365 139 113 124 
0.30683 0.231461 0.832763 72 66 80 
0.325385 0.0754008 0.859014 83 60 68 
0.331988 -0.104686 0.872438 120 97 117 
0.327901 0.194057 0.845238 92 67 86 
0.351747 -0.264156 0.879231 88 61 76 
0.341386 0.0502288 0.854964 89 66 86 
0.347481 0.0892682 0.848427 87 63 77 
0.354984 -0.0460505 0.860007 34 29 36 
0.353748 0.0452913 0.848239 85 69 82 
0.358223 0.028367 0.8509 136 119 135 
0.36147 -0.00825318 0.85332 64 48 61 
0.366436 0.11291 0.839273 71 57 74 
0.381929 -0.0423887 0.846294 140 117 133 
0.386712 -0.0114527 0.842608 134 111 129 
0.377227 0.232699 0.801544 17 19 42 
0.389634 0.134972 0.827241 125 101 114 
0.393653 0.0488477 0.83474 79 53 66 
0.396651 0.167848 0.820782 123 99 113 
0.392635 0.254291 0.795282 59 60 64 
0.394637 0.231474 0.797395 164 183 252 
0.43623 -0.244632 0.925059 24 19 23 
0.432622 -0.156896 0.908589 88 84 107 
0.446811 -0.280549 0.926917 56 43 60 
0.413235 0.228802 0.793794 61 61 73 
0.423959 0.216768 0.865945 41 37 51 
0.46126 -0.293963 0.932124 57 62 94 
0.458105 -0.210581 0.926359 98 118 143 
0.439681 0.215103 0.86028 16 15 23 
0.459642 0.00948277 0.904494 64 68 103 
0.472987 -0.178532 0.933733 110 122 164 
0.472481 -0.11874 0.925895 150 170 207 
0.460715 0.217039 0.882979 78 99 130 
0.464595 0.187502 0.878328 144 168 202 
0.483346 -0.1123 0.916837 164 183 223 
0.48119 -0.0181196 0.919729 106 114 163 
0.478051 0.0641449 0.907611 117 131 180 
0.482038 0.00949208 0.916247 115 119 166 
0.486323 -0.102275 0.913114 119 131 179 
0.489576 0.0654685 0.908231 106 116 165 
0.603498 -0.307088 1.15329 39 43 68 
-0.621032 0.224385 1.21457 23 28 48 
-0.618421 0.239409 1.21651 72 79 107 
-0.610978 0.268312 1.20714 119 107 127 
-0.623686 0.0996127 1.227 32 35 54 
-0.618057 0.141466 1.22503 93 108 141 
-0.617529 0.124934 1.22537 97 108 138 
-0.542828 0.155174 1.20555 102 93 114 
-0.541736 0.0789169 1.21218 103 89 112 
-0.537172 -0.233413 1.23925 118 103 126 
-0.524725 -0.187615 1.2363 113 90 118 
-0.00455523 0.140103 0.518581 81 47 64 
-0.428344 -0.311486 1.20516 76 61 82 
-0.401867 -0.414034 1.20431 74 47 62 
-0.129061 0.100779 0.829714 76 39 56 
-0.283081 -0.394358 1.15807 73 55 77 
-0.186524 -0.21265 1.04563 125 99 112 
0.019941 0.193077 0.739138 82 50 65 
-0.0593584 0.025182 0.959749 169 155 146 
-0.227876 0.178584 1.49148 64 40 54 
-0.0098672 -0.166433 0.953197 70 31 36 
0.042009 -0.205905 0.951523 123 69 83 
-0.0127937 0.176854 1.44466 61 31 39 
0.182104 -0.353619 0.97491 100 75 97 
0.228611 -0.350268 0.957848 80 54 79 
0.237719 -0.348013 0.952962 171 161 188 
0.263966 -0.340954 0.941813 93 67 94 
0.267404 -0.331435 0.941319 74 56 72 
0.27515 -0.340012 0.938916 119 115 140 
0.277336 -0.235765 0.926885 79 54 75 
0.309703 -0.338718 0.924182 67 55 77 
0.330105 -0.329752 0.915866 132 113 132 
-0.542148 0.0468307 1.21553 111 93 115 
0.0558718 0.120809 1.0179 71 52 56 
-0.106652 0.22165 1.83201 61 31 39 
0.0592383 0.120945 0.810382 79 48 64 
-0.159072 0.206238 0.825815 80 55 74 
0.0486402 0.118067 0.830858 61 34 43 
0.353366 -0.340887 0.914218 87 63 77 
0.344471 0.117547 0.877144 89 67 88 
-0.0606042 -0.261362 0.992723 45 22 28 
-0.082769 -0.0961854 0.95393 53 23 21 
0.071891 -0.0197709 0.966112 60 31 36 
-0.0412263 -0.257555 0.989898 44 22 25 
0.107041 -0.00167594 1.46327 86 40 50 
-0.293498 -0.187451 1.15401 134 111 131 
-0.034202 -0.253532 0.960558 46 26 28 
-0.0313472 0.14711 0.892578 64 52 54 
0.0422359 0.0552982 1.21806 163 111 123 
-0.476669 0.23093 1.18524 124 115 134 
-0.356376 -0.0972996 1.17304 117 103 126 
-0.172451 -0.187398 1.05388 34 18 19 
-0.035546 0.0690996 0.974092 64 31 38 
0.163996 0.00512774 1.37343 65 35 43 
-0.0124489 -0.0862521 0.9662 132 85 101 
-0.00216674 0.00607991 0.970734 60 33 40 
0.112064 -0.0627697 0.938199 67 28 33 
0.167482 0.097565 0.881636 103 61 65 
0.437923 -0.167377 0.823344 165 175 187 
0.443984 -0.15117 0.818595 110 107 150 
-0.489448 -0.105182 1.2292 65 56 83 
-0.488062 -0.185765 1.23426 92 73 92 
-0.481 0.269159 1.17591 118 111 118 
-0.480712 -0.0334498 1.22062 36 35 53 
-0.474919 -0.17544 1.23022 92 66 79 
-0.465778 -0.141798 1.22207 125 112 132 
-0.463189 -0.0440055 1.21303 137 124 144 
-0.458704 0.261052 1.17425 107 100 107 
-0.460802 -0.0810098 1.21556 94 70 94 
-0.44573 0.00550548 1.20435 60 53 71 
-0.437322 -0.171522 1.21447 116 87 105 
-0.416896 0.0258589 1.18932 134 114 126 
-0.411545 -0.029232 1.19533 40 31 48 
-0.397609 -0.178798 1.20234 81 57 71 
-0.390447 0.235751 1.16116 114 93 112 
-0.384218 -0.0281144 1.18652 52 42 51 
-0.384934 -0.139346 1.19251 78 64 89 
-0.373414 0.151797 1.16164 49 36 46 
-0.37159 0.176131 1.16106 115 93 106 
-0.351234 0.123426 1.15799 48 36 46 
-0.34268 0.143645 1.15573 99 95 110 
-0.341131 0.00813793 1.16569 79 58 73 
-0.337081 0.0320252 1.16096 115 98 117 
-0.33638 0.123264 1.15196 105 97 118 
-0.331569 0.238731 1.13982 19 18 23 
-0.3212 0.104909 1.14762 54 40 53 
-0.298472 -0.218474 1.17015 90 67 85 
-0.325382 0.171301 1.03338 58 40 36 
-0.296479 0.0370374 1.09264 111 78 99 
-0.301708 0.181458 1.03364 96 55 63 
-0.300686 0.259802 1.01717 40 35 32 
-0.277854 0.056033 1.09587 93 45 61 
-0.279349 0.0809949 1.07798 157 109 123 
-0.260509 -0.0871916 1.14329 95 70 92 
-0.287887 0.229054 1.02441 26 25 30 
-0.252212 -0.23236 1.15475 82 67 90 
-0.277128 0.215111 1.02121 27 21 21 
-0.276124 0.26994 1.00461 43 37 51 
-0.245757 0.0184752 1.08834 75 30 37 
-0.244278 -0.0529912 1.08089 70 34 44 
-0.236585 0.000202554 1.08478 82 38 53 
-0.230676 -0.017649 1.08508 81 40 54 
-0.292899 0.228501 0.872775 76 51 57 
-0.205345 0.0186498 1.07603 66 35 43 
-0.191362 -0.21642 1.12884 66 49 65 
-0.249709 0.118852 0.943341 118 83 107 
-0.182878 -0.132407 1.07715 102 62 71 
-0.269703 0.13618 0.815231 90 45 50 
-0.267109 0.240949 0.796577 82 47 53 
-0.266239 0.229509 0.799194 56 31 35 
-0.15056 -0.0666807 1.05434 41 19 21 
-0.147223 0.0823213 1.04646 81 36 41 
-0.264242 0.135433 0.798852 93 48 53 
-0.257886 0.148974 0.798173 114 66 78 
-0.107949 0.0686608 1.00603 124 68 77 
-0.22752 0.133829 0.784472 114 64 75 
-0.0900392 -0.124507 1.02979 134 81 99 
-0.217154 0.208686 0.785317 87 53 70 
-0.0827408 0.00555933 1.025 37 16 15 
-0.086395 -0.0277457 1.00894 154 136 112 
-0.0880417 0.0243573 1.00085 93 59 47 
-0.0673298 -0.0910098 1.02945 117 75 87 
-0.0895543 0.0322766 0.98363 145 128 118 
-0.204124 0.226685 0.767531 87 45 49 
-0.0782319 0.121456 0.960725 78 47 65 
-0.0622051 -0.221668 1.00091 139 86 102 
-0.0416926 -0.0623397 0.992688 64 35 39 
-0.0370308 -0.0781359 0.98381 106 68 81 
0.928956 0.112125 2.25233 58 25 36 
-0.155094 0.202592 0.762341 76 45 63 
-0.00470671 -0.0418569 0.981842 66 37 42 
0.00124893 -0.088298 0.978023 140 96 111 
0.00638509 -0.0598631 0.975075 69 38 46 
0.0122404 0.0499521 0.968657 59 32 41 
0.0443051 0.0113073 0.985169 85 44 62 
0.0654682 0.0688791 0.972518 91 46 66 
0.065422 -0.107449 0.982631 74 38 52 
0.0551395 -0.215734 0.973103 127 104 120 
0.0613734 -0.268102 0.952663 41 27 27 
0.0463045 0.152185 0.903086 106 69 77 
0.107222 -0.0630082 0.963652 63 30 39 
0.142905 -0.154152 0.997943 110 77 96 
0.186895 -0.154105 0.981618 111 78 97 
0.206908 -0.0993336 0.969231 95 76 95 
0.171476 0.131801 0.865538 103 61 75 
0.180294 0.139815 0.862505 110 72 83 
0.26885 -0.0828236 0.949144 82 58 80 
0.28326 -0.251726 0.95669 94 68 95 
0.279804 -0.0951855 0.941823 86 63 81 
0.290332 -0.268233 0.953424 82 59 85 
0.304127 -0.206155 0.942141 84 71 97 
0.305524 -0.115733 0.935054 72 54 70 
0.312151 -0.340044 0.95196 89 66 94 
0.310812 0.037831 0.921974 153 129 145 
0.320156 -0.0154901 0.92029 100 69 85 
0.325973 -0.115413 0.92679 60 34 59 
0.330702 -0.341845 0.94488 76 60 86 
0.333516 -0.269528 0.940549 46 39 55 
0.330915 -0.0459134 0.91913 144 127 146 
0.334449 0.153521 0.901736 145 133 157 
0.344851 -0.341458 0.939982 85 61 85 
