# .PCD v0.7 - Point Cloud Data file format
VERSION 0.7
FIELDS x y z rgb
SIZE 4 4 4 4
TYPE F F F U
COUNT 1 1 1 1
WIDTH 1280
HEIGHT 1
VIEWPOINT 0 0 0 1 0 0 0
POINTS 1280
DATA ascii
-3.41769 -1.3885601 5.5109801 12491121
-3.40185 -1.38298 5.5047402 11372128
-3.38919 -1.3737 5.5051498 10452057
-3.3881199 -1.37089 5.51019 10254937
-3.3815501 -1.37957 5.5074301 11176294
-3.3492999 -1.37457 5.5092902 10057813
-3.3324299 -1.35176 5.50561 12360054
-3.3350201 -1.36551 5.51336 12294518
-3.3073399 -1.36804 5.5124102 9597524
-3.2026899 -1.34268 5.51579 11175263
-3.1872699 -1.36725 5.5231299 10255705
-3.18764 -1.36696 5.5288701 10584927
-3.1791101 -1.3711801 5.52529 11703410
-3.16959 -1.35502 5.52456 11111017
-3.1723101 -1.37846 5.5280399 11966582
-3.1658599 -1.36744 5.5294499 11703154
-3.1298599 -1.3527499 5.5239701 13215873
-3.1087601 -1.3329099 5.5199099 14466198
-3.08972 -1.32967 5.5227699 13215361
-3.09426 -1.33799 5.5204401 13412740
-3.08446 -1.33839 5.5225801 10451540
-3.0852799 -1.34419 5.52426 10451795
-3.0792401 -1.34707 5.5228701 11504482
-3.0801799 -1.3523901 5.5255399 11570275
-3.0704999 -1.3489701 5.5266399 11109469
-3.0596399 -1.35911 5.5383401 10320726
-3.06024 -1.37309 5.5401902 10781535
-3.0174899 -1.34655 5.5391502 13674618
-3.0025301 -1.34271 5.5389299 14134652
-2.8640599 -1.38653 5.5666199 12755328
1.51459 1.3853 4.7360001 13813174
-4.1512399 -1.3393 5.4212599 4798248
-4.14223 -1.34104 5.4257898 5126956
-4.14288 -1.34526 5.4194598 4534820
-4.1462498 -1.34294 5.4218102 4797993
-4.1286402 -1.33854 5.4266 4666661
-4.1085 -1.33943 5.4254098 4469026
-4.1212502 -1.34699 5.4240999 4337441
-4.1028199 -1.34717 5.4307799 4205854
-4.0835199 -1.33937 5.43049 5455920
-3.9949701 -1.3517801 5.4432302 5784111
-3.9827299 -1.34452 5.4460802 6968384
-3.9711499 -1.34522 5.4472599 4797474
-3.94526 -1.34778 5.44278 5521711
-3.8601699 -1.34315 5.45818 5191719
-3.83565 -1.33523 5.45298 5192231
-3.7688401 -1.3511699 5.4615598 6310195
-3.7549701 -1.34715 5.4671798 7230782
-3.7478199 -1.35394 5.46595 7756868
-3.7362101 -1.35225 5.4680901 7953991
-3.73382 -1.3640701 5.4772801 5915180
-3.58319 -1.33074 5.4777098 7230270
-3.54052 -1.3462 5.4884701 7493182
-3.5297101 -1.34638 5.4896002 7624509
-3.5302899 -1.34732 5.4899001 7690302
-3.5270801 -1.3411 5.4932098 7032629
-3.5226099 -1.35243 5.4930401 7887166
-3.5032401 -1.35332 5.4915299 8083772
-3.50735 -1.34602 5.4924998 7689529
-3.49473 -1.35428 5.4967899 9464396
-3.4997699 -1.34858 5.4984899 9399118
-3.48651 -1.35938 5.4980302 9134658
-3.46963 -1.35101 5.5009398 9200185
-3.47681 -1.3584 5.5025001 8739637
-3.4600899 -1.35526 5.4971099 10384458
-3.4479301 -1.3539 5.4983301 9726528
-3.4367599 -1.35414 5.5005002 9200960
-3.42924 -1.3608299 5.50421 10715485
-3.4229901 -1.36933 5.5091901 11965294
-3.4161401 -1.3573 5.51054 11176039
-3.3887601 -1.35271 5.5065098 11044711
-3.38289 -1.36069 5.5130401 10123865
-3.38503 -1.37547 5.5200901 9926487
-3.38028 -1.37366 5.5222602 9597779
-3.3459001 -1.3363 5.5095601 10189657
-3.3543701 -1.36598 5.5137801 9663313
-3.33763 -1.34067 5.50632 10057814
-3.3326199 -1.3515 5.5117202 12820604
-3.32358 -1.3512 5.5159798 12557176
-3.31721 -1.36467 5.5165 10189660
-3.31091 -1.35154 5.5135102 10254939
-3.28795 -1.33706 5.5111198 11045479
-3.28546 -1.3473099 5.5163598 11308395
-3.2932999 -1.3607301 5.5172501 11176811
-3.28269 -1.36072 5.5183601 11571825
-3.2204399 -1.33145 5.5197001 12820088
-3.20539 -1.33022 5.5145702 11306848
-3.1995699 -1.33392 5.5233202 10319954
-3.18682 -1.36484 5.5336099 10716515
-3.16834 -1.35285 5.5314102 11111017
-3.1385601 -1.34727 5.52775 11833964
-3.1219299 -1.335 5.5285401 12886651
-3.10219 -1.31822 5.5255299 14202511
-3.0873301 -1.32533 5.5325899 13741705
-3.07113 -1.32822 5.5336199 10648405
-3.0760701 -1.32717 5.5254002 10780505
-3.0722699 -1.34171 5.53475 10648661
-3.0496099 -1.34092 5.5417199 10319442
-3.05461 -1.34999 5.54003 10254421
-3.0402501 -1.34263 5.5370302 10254421
-3.0399599 -1.3414299 5.5441899 10516822
-3.0302801 -1.3423001 5.5392098 10780248
-3.0169499 -1.33323 5.5392599 11898213
-3.01175 -1.3388799 5.5429001 13214067
-2.99825 -1.32929 5.54282 12950637
-2.98914 -1.33281 5.5391202 13871484
-2.9818799 -1.3334399 5.5467901 12490349
1.5108401 1.39184 4.73771 13812917
1.51416 1.39832 4.7380099 13483695
-4.15029 -1.32762 5.4261498 4995627
-4.1472502 -1.34123 5.4282899 5324335
-4.1425099 -1.33903 5.4326301 5587506
-4.1464 -1.33658 5.4345398 5982007
-4.13586 -1.33943 5.4316502 5061161
-4.11797 -1.33158 5.4323602 5060905
-4.1078901 -1.33617 5.4298601 4600612
-4.1055398 -1.33025 5.4345398 4600613
-4.0956998 -1.33204 5.43928 3811354
-4.0984802 -1.3386 5.43543 3942940
-4.0834999 -1.332 5.4377999 4469026
-4.0767202 -1.3401901 5.4381199 5324334
-3.99524 -1.3176301 5.4366002 5323561
-3.97754 -1.33541 5.45013 6310453
-3.96556 -1.3357 5.4509902 4534559
-3.9521401 -1.33478 5.4507298 4666403
-3.9493999 -1.34574 5.4511199 5126953
-3.95015 -1.34701 5.45994 5193002
-3.85496 -1.33599 5.4633002 4731169
-3.8551199 -1.33622 5.4633899 4731169
-3.8359499 -1.32236 5.46172 4600096
-3.82742 -1.33319 5.4583302 5455658
-3.76302 -1.3080699 5.4582 6047281
-3.76034 -1.33682 5.4702601 7033402
-3.5934501 -1.28925 5.4644599 7427901
-3.5835299 -1.32294 5.4838099 7164478
-3.5589199 -1.3217601 5.4825401 7098684
-3.55287 -1.32569 5.4906502 6506546
-3.5352399 -1.33688 5.4906502 6703666
-3.50453 -1.33066 5.49547 7558973
-3.5043001 -1.34193 5.4997201 8676424
-3.5000501 -1.34978 5.5081902 10386011
-3.4929099 -1.3521399 5.5051298 10517337
-3.48189 -1.34988 5.5095801 9595972
-3.48401 -1.35533 5.5050201 9398082
-3.4342699 -1.32722 5.5036101 10778958
-3.4232199 -1.3264 5.5067501 9135684
-3.41364 -1.32468 5.4990802 9333838
-3.40904 -1.336 5.5064802 10781798
-3.3951399 -1.32275 5.5084901 10979693
-3.3819101 -1.35782 5.5180302 10058586
-3.35234 -1.3272099 5.51264 11571569
-3.3755901 -1.36471 5.5247798 9927000
-3.3506999 -1.34104 5.5190902 10321243
-3.3357401 -1.33608 5.5121298 10846814
-3.29691 -1.33104 5.5141602 10123608
-3.2869101 -1.3292 5.52069 10124123
-3.2879801 -1.33052 5.5194802 10321502
-3.2790201 -1.32757 5.5240698 10453087
-3.28073 -1.33873 5.5187898 11177066
-3.26805 -1.3298399 5.5193801 11571568
-3.2576499 -1.32528 5.52209 10518880
-3.2476299 -1.3294801 5.5178599 10189914
-3.2367301 -1.32582 5.5248299 11044452
-3.2195599 -1.32927 5.5271602 12359279
-3.20895 -1.3274699 5.5278401 11372385
-3.2082901 -1.32757 5.5271301 11306591
-3.1956 -1.32569 5.5316901 9464648
-3.1860499 -1.3276 5.5334601 9925972
-3.1705 -1.3320301 5.5377798 10518109
-3.17786 -1.3444 5.53651 10255710
-3.1603401 -1.3332601 5.5383201 11044194
-3.1224799 -1.33183 5.5422502 13149822
-3.1023099 -1.31747 5.5314698 13939597
-3.0915999 -1.31505 5.5312901 13939084
-3.0816 -1.32315 5.5363598 12622966
-3.0846901 -1.31656 5.5383201 13610374
-3.0674801 -1.3365999 5.54532 10055753
-3.0613301 -1.3296601 5.5483699 10647889
-3.0455101 -1.33336 5.5444498 11372129
-3.01208 -1.32643 5.5500898 10977367
-3.0074601 -1.3311 5.5530701 11766624
-3.0030701 -1.33758 5.5483799 13410931
1.50791 1.39951 4.73908 13681331
1.50727 1.3994499 4.7396402 13681587
1.50901 1.40414 4.73809 13549744
1.51402 1.39905 4.73982 13417902
1.50993 1.40497 4.7394099 13483951
-4.1478801 -1.32872 5.4330001 5916471
-4.1471601 -1.3248 5.4381299 5982263
-4.1429901 -1.337 5.4379201 5850421
-4.13309 -1.33356 5.4368901 5323820
-4.1210499 -1.3145 5.43681 5586992
-4.1138 -1.32315 5.43469 5323822
-4.10075 -1.3208899 5.4372802 4271904
-4.1026301 -1.32082 5.4437099 4008733
-4.0987201 -1.33553 5.4421101 3811354
-4.0662198 -1.30205 5.4393601 4074271
-4.0829201 -1.32798 5.4432201 4206111
-4.0100398 -1.31841 5.44348 4600353
-4.0040202 -1.3220299 5.4517298 5455145
-3.9758699 -1.33113 5.4553299 5586732
-3.9524601 -1.33543 5.4593101 4797989
-3.86604 -1.3318501 5.46453 5652011
-3.8524599 -1.31248 5.4647698 4994338
-3.8432701 -1.3172899 5.4635 4468253
-3.7632401 -1.2821701 5.4602199 5455149
-3.7642 -1.30046 5.4690299 5981746
-3.7525301 -1.3228101 5.4774799 6836280
-3.62748 -1.2899801 5.47859 5520425
-3.5996599 -1.2864799 5.4811001 8349004
-3.58652 -1.31012 5.48347 7098938
-3.57162 -1.31475 5.49682 9138520
-3.562 -1.3196599 5.4937401 7032890
-3.5581 -1.31365 5.4925699 7164733
-3.4676199 -1.3422101 5.5114698 10318146
-3.3966701 -1.31511 5.5096102 11045483
-3.38761 -1.317 5.5138202 11966585
-3.3773799 -1.31557 5.5159402 11571827
-3.3676 -1.31546 5.5181899 10124381
-3.3563099 -1.31452 5.5181298 10321760
-3.3445899 -1.3149 5.5183301 11308395
-3.3119199 -1.31402 5.5227098 11043935
-3.31692 -1.3228199 5.5200801 12096621
-3.30058 -1.31215 5.5247202 10057814
-3.2974 -1.32602 5.5261002 9202764
-3.2699699 -1.32469 5.52882 10189659
-3.2578499 -1.31905 5.5321298 10518623
-3.2479999 -1.32385 5.5274 11242345
-3.2480299 -1.32215 5.5269899 11308138
-3.22616 -1.32321 5.5294499 11636071
-3.2146299 -1.31935 5.5299501 12293487
-3.2043099 -1.3192101 5.5310202 11635814
-3.1656799 -1.32391 5.5402002 11570278
-3.155 -1.3242 5.54041 12688242
-3.14993 -1.32778 5.5472698 13543548
-3.1175301 -1.30943 5.54287 12162669
-3.1361401 -1.33529 5.54565 12228204
-3.1119201 -1.30917 5.5400801 12557428
-3.1047599 -1.30682 5.5400701 12623480
-3.11975 -1.32135 5.5396299 12886391
-3.1030099 -1.30501 5.54321 12294772
-3.1019599 -1.3121099 5.5367999 13347460
-3.0938301 -1.30926 5.5408201 13150081
-3.08483 -1.30524 5.5422101 12623737
-3.07481 -1.3240499 5.5457201 11109211
-3.0674 -1.32348 5.5535798 11108696
-3.03284 -1.30462 5.5446801 11306594
-3.02825 -1.31433 5.5521002 11372645
-3.01653 -1.31435 5.5514102 10451542
-2.9978299 -1.29422 5.5454602 10254677
-3.0125699 -1.32771 5.5598102 10845783
-2.9993601 -1.33077 5.5586901 12096105
1.50521 1.41056 4.7403898 13681332
1.5062799 1.41082 4.7410302 13615795
1.50804 1.41667 4.7410498 12694177
-4.1595201 -1.3072701 5.4372702 4863784
-4.1549301 -1.31788 5.43822 5324334
-4.1496301 -1.3077101 5.4410901 5784885
-4.1528401 -1.3108701 5.4437699 5784629
-4.1124201 -1.31034 5.4429598 5784371
-4.0528798 -1.26845 5.4298401 4402975
-4.05372 -1.28356 5.4407001 4402975
-4.0162001 -1.31546 5.4605198 5258281
-4.0007 -1.31039 5.4591298 5783852
-3.85536 -1.2972 5.4692001 5915694
-3.8606801 -1.30723 5.4669199 5784109
-3.8461599 -1.30637 5.4709802 4863266
-3.83026 -1.29816 5.4672699 4534302
-3.8346 -1.29968 5.4688401 4600094
-3.8201001 -1.29527 5.47263 5389354
-3.75581 -1.2603101 5.4618201 5126182
-3.7590899 -1.30805 5.4780302 6375988
-3.75474 -1.29212 5.4755998 6244661
-3.72663 -1.31855 5.48838 5585959
-3.69838 -1.3133 5.4927602 5652010
-3.6858699 -1.3114901 5.48698 5455144
-3.6729 -1.30616 5.4902802 5126181
-3.6607499 -1.30524 5.4898701 5125923
-3.64676 -1.29944 5.4925599 5520425
-3.6156199 -1.28838 5.48525 6112046
-3.5998399 -1.27935 5.4850502 8283211
-3.58444 -1.31343 5.5035501 9467228
-3.54651 -1.28852 5.4927301 7164730
-3.50824 -1.33634 5.5199499 9203025
-3.4714899 -1.3039 5.5086799 10648662
-3.45947 -1.30391 5.5088 10450249
-3.39346 -1.30734 5.5139899 9663574
-3.3831799 -1.3041 5.5227799 8281153
-3.37273 -1.30668 5.5193601 8742474
-3.36535 -1.30532 5.5247698 8413253
-3.3556399 -1.31275 5.5260701 11111277
-3.316 -1.3067 5.5246 11767658
-3.32149 -1.29739 5.5262599 12886652
-3.30865 -1.31116 5.5309 10584413
-3.29562 -1.30334 5.5277901 9268556
-3.2765901 -1.30699 5.5358 10123608
-3.2808199 -1.32191 5.53368 9400143
-3.2735701 -1.31927 5.53409 9597266
-3.25102 -1.3176 5.5383101 12163191
-3.1605799 -1.31441 5.5418801 12556397
-3.1532199 -1.3137 5.5475798 12687981
-3.1343 -1.3177 5.5507498 11898980
-3.1338401 -1.3278199 5.5509701 12425325
-3.11672 -1.30841 5.5506601 11965549
-3.0978301 -1.3071001 5.5506802 12031601
-3.0868199 -1.30468 5.5556598 10847327
-3.08144 -1.3143899 5.5500398 11241570
-3.0588 -1.30664 5.55761 12885110
-3.05931 -1.30723 5.55831 12819574
-3.04708 -1.307 5.5555601 12292974
-3.0210199 -1.29923 5.5506601 11438695
-3.01178 -1.29532 5.5549102 9991505
-3.0079801 -1.32162 5.5706701 10912606
-3.0038199 -1.32663 5.5650201 11306592
1.39384 1.4195 4.7333498 13484207
-4.16503 -1.28055 5.4355798 4271390
-4.1593699 -1.2898 5.43576 4600356
-4.1599798 -1.2867301 5.44275 4797734
-4.1550698 -1.29785 5.4426098 5126699
-4.1133199 -1.30872 5.4493699 5652785
-4.0661101 -1.27226 5.4412198 4337182
-4.0559602 -1.26895 5.4463701 5521198
-4.0492802 -1.2763799 5.4464302 5258024
-4.05794 -1.27617 5.4437099 4929317
-4.0424099 -1.27947 5.45292 5455148
-4.0317001 -1.28333 5.4506302 4666148
-4.0224299 -1.28576 5.4561801 4403234
-4.0228701 -1.30573 5.4611101 4929832
-4.0138001 -1.28519 5.4563699 4797992
-4.01158 -1.30651 5.46387 5587246
-3.8521299 -1.28706 5.47575 6244403
-3.84587 -1.29687 5.4753599 5455145
-3.8302 -1.2925 5.4777999 5257766
-3.8143599 -1.2727 5.4737301 6178353
-3.8208101 -1.29267 5.4819798 6113074
-3.7920201 -1.28409 5.47786 6047025
-3.75912 -1.27536 5.4791098 5455403
-3.7234399 -1.31125 5.4952302 6178095
-3.70242 -1.29435 5.4925499 6243888
-3.6995001 -1.30309 5.4912901 6112304
-3.69734 -1.3014801 5.4988098 6572598
-3.69485 -1.30889 5.50068 6178354
-3.68381 -1.30518 5.4949498 5586731
-3.6747999 -1.29004 5.4954801 5389094
-3.6727901 -1.30452 5.4962902 5126180
-3.5980201 -1.26473 5.4846601 7362370
-3.59641 -1.28641 5.4959602 9599068
-3.5964701 -1.31445 5.5078001 9204057
-3.5641799 -1.29482 5.5025401 9993571
-3.49651 -1.28702 5.5131001 8085059
-3.48684 -1.29019 5.5145502 10979176
-3.4767799 -1.2920001 5.5164199 12359540
-3.48261 -1.30202 5.51402 11241575
-3.4707799 -1.30213 5.5144801 10779990
-3.40203 -1.2975301 5.5208702 9399115
-3.3932099 -1.2999901 5.52314 8741700
-3.3829899 -1.3001699 5.5244799 7952187
-3.3615501 -1.2977099 5.52983 8545609
-3.33164 -1.29386 5.5296898 10913380
-3.31587 -1.29014 5.5312099 12295546
-3.3098099 -1.29924 5.5296602 12689532
-3.3049901 -1.2989 5.5331702 11439979
-3.3050001 -1.3077199 5.5386901 9663570
-3.2953501 -1.30208 5.5358801 9334606
-3.2846899 -1.28442 5.53578 10255709
-3.2823501 -1.29862 5.5370202 9992280
-3.2706699 -1.2957 5.53795 10452827
-3.27139 -1.30828 5.5383101 11044966
-3.24401 -1.30744 5.5459499 11308139
-3.2330301 -1.3045501 5.5479898 11176294
-3.2339499 -1.30767 5.5416799 11636845
-3.14904 -1.30137 5.55617 13872512
-3.1522901 -1.31138 5.5524302 13214324
-3.1575401 -1.30316 5.5513401 13872509
-3.1624 -1.31143 5.5548801 13411703
-3.1434801 -1.31285 5.5562701 12490860
-3.1526201 -1.31128 5.5579801 13477753
-3.13888 -1.30424 5.55829 11570276
-3.11568 -1.29971 5.5599999 11636844
-3.10638 -1.3019 5.5522699 11768429
-3.1027801 -1.29619 5.5572801 11439721
-3.09056 -1.29137 5.5580201 10913377
-3.06898 -1.29617 5.5616899 11635814
-3.0643101 -1.3012 5.5610299 12293487
-3.0353701 -1.30085 5.5615001 13083518
-3.03546 -1.29934 5.5640602 13214847
-3.02475 -1.29298 5.56604 12491124
-3.0241699 -1.29373 5.56389 12622967
-4.1525798 -1.28448 5.4518099 5323820
-4.1540198 -1.2963001 5.4518099 5389869
-4.0788598 -1.27889 5.4585299 4600352
-4.0604901 -1.27114 5.4553399 5850162
-4.0507302 -1.27431 5.4537702 5981747
-4.0341802 -1.26595 5.4532299 6310199
-4.02809 -1.27556 5.4545102 4600355
-4.0226402 -1.26537 5.45678 4797734
-4.01581 -1.26739 5.4608698 4008478
-4.0177698 -1.2961299 5.4640398 4995625
-4.0093198 -1.27538 5.4604502 4534820
-3.9997399 -1.27882 5.4655099 5324333
-3.99967 -1.27542 5.4648499 5126698
-3.9874599 -1.27885 5.4664698 5784624
-3.98946 -1.3013 5.4693098 5586475
-3.89621 -1.30023 5.4844398 5915695
-3.86185 -1.27167 5.4746199 5455144
-3.85253 -1.2689199 5.4737501 5915950
-3.83936 -1.2868 5.4823599 5520679
-3.8117299 -1.26006 5.47335 6836281
-3.8015699 -1.26199 5.4780402 6902075
-3.7946501 -1.26794 5.4826198 6112817
-3.7983601 -1.2754 5.4781499 6573368
-3.7871301 -1.27377 5.48702 4929058
-3.76999 -1.26587 5.4854999 4994852
-3.75787 -1.28381 5.4937 6047538
-3.70239 -1.2922699 5.4979701 6506803
-3.70807 -1.28839 5.5021601 6572851
-3.69749 -1.2997299 5.50177 6638647
-3.6970899 -1.28869 5.4995098 6967352
-3.6803801 -1.28036 5.4968801 6573109
-3.6749001 -1.2889301 5.5011902 5257508
-3.67449 -1.28836 5.5008998 5257508
-3.6760199 -1.2892801 5.5072899 5257508
-3.59988 -1.25915 5.5002899 6704441
-3.60097 -1.2666399 5.50318 7757384
-3.5956199 -1.2725101 5.49717 8809813
-3.5648501 -1.27878 5.5101199 9335642
-3.56216 -1.28825 5.5113702 9401692
-3.5545499 -1.27819 5.5121899 7296319
-3.5477099 -1.2845401 5.5118599 6309425
-3.4999199 -1.27292 5.5127501 7624766
-3.49087 -1.27711 5.5154099 8282437
-3.4813499 -1.2806 5.5177898 11834482
-3.4049201 -1.2800699 5.52702 11372900
-3.3704901 -1.29247 5.53374 8742728
-3.35653 -1.28643 5.5358701 10256226
-3.35077 -1.29662 5.5353398 11177327
-3.3220301 -1.2807699 5.5325198 10979689
-3.31147 -1.28213 5.5345998 11768690
-3.30667 -1.29082 5.54462 11242603
-3.2841599 -1.2826101 5.54386 10387295
-3.2779801 -1.2898 5.5408602 10320988
-3.27176 -1.28599 5.5395598 10518622
-3.27513 -1.28431 5.5464301 11439469
-3.2544899 -1.28784 5.5505199 10387037
-3.25032 -1.29768 5.5522299 9992535
-3.2404399 -1.29845 5.5566401 10716000
-3.24488 -1.30718 5.5542102 10913123
-3.15381 -1.3009 5.5641198 14990991
-3.1347001 -1.28768 5.5630698 11373410
-3.14801 -1.2983 5.56216 14004612
-3.13919 -1.29261 5.5624499 12031083
-3.1254499 -1.29351 5.5590401 11110244
-3.1073 -1.26915 5.5570202 11176294
-3.10307 -1.27903 5.55476 11110757
-3.09196 -1.27756 5.5545402 10913379
-3.0855 -1.28871 5.5644798 10583899
-3.07691 -1.2907 5.5685701 11570279
-3.08179 -1.29974 5.5662599 10715228
-3.0629301 -1.28898 5.5711799 12820602
-3.02543 -1.27312 5.5594802 12754808
-3.01563 -1.2668101 5.56636 11570020
-3.0162499 -1.26934 5.56323 11767657
-3.01736 -1.29208 5.5720401 10056783
-4.1586299 -1.25543 5.4471202 4074268
-4.1586299 -1.27406 5.4511199 4666147
-4.1552 -1.26661 5.4546499 4732196
-4.1572399 -1.26938 5.45576 4732196
-4.15342 -1.2828799 5.4576998 5389869
-4.15345 -1.28291 5.4577098 5389869
-4.1101999 -1.25932 5.4534998 5126953
-4.11235 -1.26384 5.4497499 5127210
-4.1094398 -1.27539 5.4580498 5126439
-4.0799298 -1.27781 5.46488 4863524
-4.04215 -1.25573 5.4607501 7560520
-4.0363302 -1.2657501 5.4622698 6639421
-4.0246601 -1.2650501 5.4656601 4534306
-4.0115299 -1.26538 5.46064 4074270
-4.0065999 -1.2680399 5.4655199 4337441
-3.9913001 -1.27747 5.46984 5455916
-3.98789 -1.27747 5.4728599 5126438
-3.9017 -1.28861 5.4924102 5455403
-3.87358 -1.26739 5.4865499 5060901
-3.8929999 -1.29699 5.49159 5652524
-3.85026 -1.25094 5.4773502 5455144
-3.86149 -1.26961 5.4807401 5455144
-3.84326 -1.26132 5.4776101 6836795
-3.79689 -1.25249 5.4814801 7164991
-3.7901399 -1.26437 5.48423 5652268
-3.7924299 -1.26273 5.4871502 5981232
-3.78093 -1.26294 5.4911499 4731680
-3.75857 -1.26595 5.4933 5718574
-3.6883299 -1.2742 5.4997501 7033145
-3.6791501 -1.27723 5.50176 6243888
-3.6824 -1.2806799 5.51017 6046511
-3.67767 -1.29097 5.5088801 5257508
-3.59811 -1.24606 5.5002999 6375732
-3.5917301 -1.26441 5.5090098 9401694
-3.5692401 -1.2650501 5.5160499 9072984
-3.5727401 -1.2730401 5.5148902 9401693
-3.5605199 -1.2708499 5.5142798 7427903
-3.5295701 -1.25298 5.5149398 6966838
-3.5255799 -1.26386 5.5154099 7558719
-3.5098801 -1.25313 5.5150099 9269077
-3.52037 -1.27174 5.5205798 8545354
-3.4983001 -1.25497 5.5143399 8611661
-3.49107 -1.25472 5.5212002 8545611
-3.48401 -1.26279 5.5218 8479561
-3.47665 -1.27222 5.5215302 11373676
-3.4015501 -1.27783 5.5360599 11175521
-3.3889101 -1.26948 5.5391798 10583387
-3.39417 -1.27967 5.5380998 10122835
-3.3847001 -1.28491 5.53655 10386266
-3.36678 -1.28336 5.5447602 10321759
-3.36536 -1.28281 5.5453901 10321503
-3.2768199 -1.26483 5.5478001 11373934
-3.26249 -1.28089 5.5524902 12426362
-3.2518599 -1.27512 5.5553899 10650465
-3.2452099 -1.2881 5.5543499 10124123
-3.15992 -1.29146 5.57091 15320471
-3.15014 -1.27736 5.56463 14925457
-3.14939 -1.29282 5.5686302 14202246
-3.1442201 -1.2840101 5.57125 12820596
-3.1310599 -1.28032 5.5681 11110239
-3.08693 -1.25429 5.5598998 9794384
-3.0877199 -1.2737499 5.5664201 10255447
-3.07934 -1.257 5.5624599 10189140
-3.06147 -1.2573299 5.5681801 11965038
-3.07778 -1.27386 5.5709 11439463
-3.08692 -1.29023 5.5734401 11307109
-3.06777 -1.27836 5.5699801 12820859
-3.03895 -1.26737 5.5711498 13281411
-3.0262101 -1.26525 5.5674801 13083773
-3.0201001 -1.25622 5.5701199 12622709
-2.9974699 -1.24988 5.56463 10121544
1.39805 1.43969 4.7425599 13549999
1.40046 1.44461 4.7428498 13615538
-4.1589899 -1.2531199 5.4527102 4206110
-4.1543899 -1.24725 5.4573398 4337952
-4.1479101 -1.27121 5.4598298 5521455
-4.1250501 -1.23019 5.44945 4731940
-4.1250601 -1.2468801 5.4598098 5126953
-4.1202302 -1.25073 5.46245 5061417
-4.1135802 -1.26068 5.4619598 4995624
-4.07304 -1.26556 5.4691701 5389612
-4.0583801 -1.25966 5.4643698 6573884
-4.0361099 -1.24564 5.4617901 7889484
-4.0253801 -1.24552 5.4664898 6508090
-4.0149298 -1.2460901 5.47123 4600610
-3.8977399 -1.26595 5.4855099 4665889
-3.8919799 -1.2757601 5.4897299 5192488
-3.8915 -1.27345 5.49579 5060902
-3.85833 -1.24343 5.4798698 4797730
-3.8496499 -1.24426 5.4868102 5849901
-3.79283 -1.2447701 5.48561 7033406
-3.78866 -1.24544 5.4913001 6507320
-3.7806101 -1.25833 5.5023899 4863268
-3.77124 -1.26343 5.49822 5258283
-3.68399 -1.27942 5.5183001 5717545
-3.59007 -1.24643 5.5080299 6638902
-3.5931301 -1.2407399 5.5110898 6770489
-3.5843899 -1.24869 5.5190802 8085834
-3.5801201 -1.25924 5.5214801 10389101
-3.56985 -1.2579 5.5237498 8677969
-3.5609901 -1.26349 5.5218301 6703923
-3.5467801 -1.2580301 5.52315 6177323
-3.53479 -1.25082 5.5254002 7821889
-3.5232401 -1.2532901 5.5240002 9137491
-3.51616 -1.26327 5.5242901 9334612
-3.50073 -1.25117 5.5236001 8940111
-3.4865999 -1.25844 5.5304298 9400918
-3.42767 -1.2556 5.53724 10912350
-3.40695 -1.26825 5.5455098 14004360
-3.37322 -1.2569799 5.5408902 12360053
-3.38307 -1.26955 5.54989 11899503
-3.3633599 -1.25984 5.5412302 9926230
-3.3525901 -1.26235 5.5420198 9861211
-3.3522501 -1.26179 5.5395899 9861210
-3.3453901 -1.25133 5.5436301 10190177
-3.33408 -1.25112 5.5433002 10847848
-3.31759 -1.2428 5.5373902 11571569
-3.3113799 -1.25047 5.54246 11176813
-3.3018601 -1.25653 5.5504899 10847847
-3.2784801 -1.2659 5.5549698 12031863
-3.2736001 -1.27554 5.5566902 13676431
-3.2604499 -1.26845 5.5583401 11900275
-3.2516201 -1.2656699 5.56248 10255709
-3.2110801 -1.21964 5.5377998 10255453
-3.20222 -1.24485 5.5507398 10452314
-3.1926501 -1.24336 5.5545602 11242086
-3.18455 -1.25532 5.5592098 14204057
-3.1530001 -1.27052 5.5711899 14201477
-3.1331799 -1.27651 5.5717502 11241567
-3.0884299 -1.23163 5.5634999 12425589
-3.0850799 -1.2439899 5.56427 10517849
-3.08567 -1.25494 5.56569 9991506
-3.0780201 -1.24887 5.5696702 11241572
-3.0520201 -1.25682 5.5735002 12623226
-3.0095601 -1.24949 5.5729299 10911318
-2.9979801 -1.24439 5.5788298 11042128
-2.92611 -1.23391 5.58111 11241829
1.39572 1.44936 4.7414999 13615793
1.3975 1.45364 4.7403402 13681330
1.4075201 1.44485 4.7438002 13681331
1.40817 1.45134 4.7421699 13813173
-4.15944 -1.2363 5.4552498 4206366
-4.1548901 -1.24502 5.4629898 4337695
-4.1287599 -1.22649 5.4527502 4469025
-4.1373701 -1.2394 5.4580202 4666403
-4.1324301 -1.22276 5.4560499 4271646
-4.1262202 -1.23957 5.4616399 4929319
-4.1210599 -1.2492501 5.4691701 4995368
-4.08635 -1.26501 5.47717 5126440
-4.0725899 -1.2596999 5.4829202 6047539
-4.0597601 -1.2608 5.4752898 7428934
-3.8555601 -1.23642 5.48807 5126436
-3.84971 -1.2399 5.4970798 6112817
-3.79213 -1.23984 5.4952502 7099456
-3.7839401 -1.24409 5.5007901 5652524
-3.7834499 -1.23299 5.5010099 6508087
-3.7586801 -1.2417001 5.4978199 5586733
-3.7557399 -1.25032 5.5030799 5718063
-3.6792099 -1.2707601 5.5232601 5520165
-3.61327 -1.24639 5.5162301 6112816
-3.6082499 -1.23716 5.5184202 6046766
-3.5985799 -1.23976 5.5157099 6901819
-3.59688 -1.23562 5.52 6836025
-3.5897 -1.24141 5.5225201 7230782
-3.5782599 -1.2523 5.5276999 8875349
-3.5761099 -1.2469701 5.5284801 8217163
-3.56673 -1.2639 5.5346899 6506289
-3.5692899 -1.25427 5.5285501 7756611
-3.5411601 -1.24848 5.5252399 6769458
-3.5455699 -1.2472301 5.5299602 6835251
-3.51139 -1.23175 5.52987 11308397
-3.5272601 -1.2492599 5.53369 9861468
-3.51231 -1.25065 5.5317202 10518627
-3.50196 -1.23358 5.53162 10781796
-3.49524 -1.22506 5.5276999 10649953
-3.49858 -1.248 5.5289502 9005902
-3.4861 -1.22733 5.5295401 9531473
-3.4916799 -1.23728 5.52772 9203023
-3.47756 -1.23041 5.5324302 10518364
-3.4814 -1.23762 5.52947 10058074
-3.4610701 -1.23522 5.53508 10913635
-3.44539 -1.2397701 5.5388098 10781281
-3.43203 -1.25284 5.5429401 10912351
-3.42221 -1.25273 5.5459399 12031342
-3.4005799 -1.24775 5.54742 13280635
-3.38814 -1.24317 5.54846 12425074
-3.40063 -1.265 5.5469899 12951929
-3.38377 -1.2525899 5.5509601 13346433
-3.3886099 -1.2616301 5.5490298 12293489
-3.37379 -1.25207 5.5541501 12163189
-3.37833 -1.26068 5.5519099 12491639
-3.36851 -1.25063 5.5465999 11965810
-3.3547699 -1.24036 5.5479102 8742218
-3.3633201 -1.25246 5.5497499 9597522
-3.3580201 -1.25251 5.5462599 9005901
-3.3395901 -1.24164 5.5455499 9268562
-3.3341 -1.23251 5.5478101 8610631
-3.3285501 -1.24187 5.5454798 10058330
-3.3229599 -1.23251 5.5475998 10189659
-3.3172901 -1.24168 5.5451698 11505518
-3.3127301 -1.23392 5.5483699 11571311
-3.2999699 -1.2450401 5.5501199 10321502
-3.2844701 -1.23422 5.5542498 11308139
-3.2889199 -1.24315 5.5513401 11374188
-3.2957101 -1.26235 5.5570202 11505775
-3.2805901 -1.24463 5.55551 11571309
-3.2648001 -1.26662 5.5686302 11110759
-3.20702 -1.2413501 5.5570598 9991504
-3.1972401 -1.23958 5.5606298 11636583
-3.18736 -1.23735 5.56429 11505258
-3.18345 -1.24219 5.55896 12887682
-3.1721599 -1.2429399 5.5700498 14466970
-3.1644299 -1.24703 5.5686798 13676422
-3.15589 -1.26404 5.5806999 13543290
-3.1238501 -1.23473 5.5710702 12359788
-3.1114299 -1.2305599 5.5702701 13149562
-3.1147599 -1.2437201 5.5693798 12360047
-3.0818701 -1.23833 5.5685301 11438696
-3.07394 -1.23111 5.5732698 13149570
-3.0757799 -1.24367 5.5755 12294259
-3.0648999 -1.23401 5.5767002 12294518
-3.06442 -1.24413 5.57372 11504488
-3.02057 -1.24884 5.5825801 11306332
-2.99226 -1.24868 5.5867901 11370837
-2.9308901 -1.22288 5.5830402 10189140
-2.9210899 -1.22523 5.5830202 11241572
-2.91032 -1.22465 5.5830102 11241829
-2.78566 -1.22929 5.5989599 11373159
-2.77227 -1.22256 5.5957499 10649439
-2.7595799 -1.22221 5.5943899 10649695
-2.7429199 -1.20613 5.5934501 11702382
-2.7267101 -1.20885 5.59694 10911834
-2.7183199 -1.2134 5.5955 12621680
-2.7102201 -1.21407 5.5996599 12358506
-2.71486 -1.20995 5.5998702 12424556
1.4047 1.45717 4.7442498 13878709
1.42896 1.4615901 4.7458601 14010297
-4.1349902 -1.22515 5.4705601 4271646
-4.1303201 -1.2275701 5.4667001 4403233
-4.1214399 -1.2471499 5.4756598 4864039
-4.05688 -1.25272 5.4853702 7429190
-3.8529601 -1.22821 5.4967599 5586729
-3.7564199 -1.23564 5.5079598 6244404
-3.75244 -1.22436 5.5089402 7033917
-3.74667 -1.23242 5.5117502 6967867
-3.61112 -1.22048 5.5241098 5783337
-3.60413 -1.2294 5.5221701 5980973
-3.5974 -1.23488 5.52634 6901818
-3.5970099 -1.23321 5.5321498 7230782
-3.57886 -1.23625 5.53053 7822405
-3.57076 -1.24986 5.54041 6901302
-3.5245199 -1.22621 5.5261202 8940366
-3.52441 -1.22182 5.5266399 8414022
-3.53613 -1.2296 5.5308299 7361593
-3.5139899 -1.2163301 5.5292802 10847332
-3.4918699 -1.21687 5.5311599 11307367
-3.46984 -1.2325 5.5370102 10518364
-3.4734001 -1.22149 5.5360098 9333574
-3.46117 -1.23326 5.54106 10255192
-3.4653299 -1.2232701 5.5399599 8675644
-3.4532299 -1.2347701 5.54568 10517852
-3.45174 -1.23489 5.5384698 10913123
-3.44419 -1.2368701 5.5436502 10583645
-3.4289501 -1.2381001 5.5485001 11043936
-3.39819 -1.20874 5.5414 11899242
-3.4233 -1.2468801 5.5480499 12623222
-3.4221699 -1.24404 5.55264 12952186
-3.4003401 -1.22856 5.5481 11570277
-3.4128001 -1.2468801 5.5497098 12557683
-3.38606 -1.22158 5.5467701 10386005
-3.39521 -1.23787 5.5488 11898729
-3.3833001 -1.23408 5.5503802 12031086
-3.3733301 -1.23264 5.5543098 11702381
-3.3787501 -1.24322 5.55269 12886398
-3.36533 -1.2363501 5.5527701 10847330
-3.3651199 -1.23711 5.5520201 10913123
-3.3526199 -1.23106 5.5520501 9597012
-3.34026 -1.22286 5.5499601 10452578
-3.3291299 -1.20489 5.54672 10386783
-3.3285401 -1.2232 5.5499501 8544580
-3.31879 -1.20735 5.5481901 9334095
-3.3174 -1.2232 5.5497398 9992024
-3.2746301 -1.21632 5.5583301 10452832
-3.27968 -1.2255 5.5566502 10716257
-3.26844 -1.2237099 5.5576401 11176552
-3.2284501 -1.21911 5.5619998 11834998
-3.2325599 -1.22737 5.5584302 11242605
-3.2167001 -1.22006 5.5562201 10123609
-3.2075601 -1.21766 5.5660801 9924944
-3.1872301 -1.22666 5.5655298 10781020
-3.17643 -1.22311 5.5679998 10189658
-3.17502 -1.22927 5.5675001 11966583
-3.1700799 -1.2278 5.57477 11571312
-3.16872 -1.23603 5.5735002 13281927
-3.16049 -1.23755 5.57898 12425845
-3.1640201 -1.24458 5.5756202 13149824
-3.15607 -1.24655 5.5811601 13214586
-3.1604099 -1.25516 5.57866 13675392
-3.14571 -1.23748 5.5815101 12161900
-3.1376801 -1.2312599 5.5748901 12096362
-3.11204 -1.2132699 5.5721102 13280893
-3.11655 -1.22174 5.5700002 13017719
-3.1083901 -1.22391 5.5750098 13807749
-3.1075599 -1.24018 5.5802102 13610371
-3.06848 -1.22788 5.5822201 13544584
-3.06689 -1.2343301 5.58006 12491897
-3.0602701 -1.23835 5.5867701 10649436
-3.01194 -1.2081 5.57584 11570023
-2.9297199 -1.2218601 5.5908198 10518106
-2.9040301 -1.2076401 5.5843601 11044453
-2.89535 -1.20525 5.5892401 10320473
-2.89393 -1.2043101 5.5893698 10188887
-2.8740499 -1.20332 5.59093 11898471
-2.7884901 -1.21684 5.6059299 10385495
-2.7820699 -1.22258 5.6029801 10714974
-2.77931 -1.21778 5.6078801 9464652
-2.77196 -1.22219 5.6037402 9728081
-2.7676899 -1.21465 5.60671 9267531
-2.75597 -1.20733 5.6036501 9859924
-2.7420399 -1.19692 5.60467 11307624
-2.7341299 -1.20286 5.6037502 11307108
-2.7232599 -1.20443 5.6027098 10779991
-2.7149701 -1.20487 5.6092501 11371870
-2.6974101 -1.20933 5.6115298 11240797
1.36816 1.471 4.7453499 13681845
-4.1297898 -1.19089 5.4563899 4272159
-4.13555 -1.18522 5.4621 4535330
-4.1276999 -1.2314399 5.47721 4666405
-4.1186399 -1.22671 5.48419 4732453
-3.85606 -1.22136 5.5055599 5521192
-3.8225801 -1.20163 5.5032201 5784621
-3.8505299 -1.2366199 5.5078001 6309939
-3.8268199 -1.20863 5.50559 5915951
-3.7602 -1.20778 5.5107198 6047024
-3.74792 -1.20794 5.51085 7296575
-3.7400601 -1.23238 5.5179 7165245
-3.7309 -1.2302001 5.5233102 6507572
-3.6680801 -1.21233 5.5222702 5849390
-3.6047201 -1.2101901 5.5310702 6046252
-3.5950799 -1.2132 5.5257902 6835768
-3.5906999 -1.20566 5.5296001 6967097
-3.5847001 -1.21375 5.5274 7559490
-3.5847001 -1.21375 5.5274 7559490
-3.58359 -1.21075 5.53232 7691075
-3.5792501 -1.24736 5.5464501 7164474
-3.5360501 -1.2187001 5.5335102 7295800
-3.5211201 -1.20636 5.5303302 7755579
-3.5151 -1.20735 5.5374498 9662803
-3.49071 -1.2101099 5.5421901 10320212
-3.4814501 -1.21448 5.5380902 9464903
-3.47052 -1.2086101 5.5446 9858888
-3.4623401 -1.21246 5.54739 9069628
-3.45667 -1.22123 5.5500798 8740921
-3.4447601 -1.2352099 5.5501599 10188885
-3.45047 -1.22782 5.5499902 9793868
-3.4442799 -1.233 5.55509 9925198
-3.39957 -1.18609 5.54071 9465676
-3.4111099 -1.19744 5.5433502 8938559
-3.3996301 -1.19371 5.5412302 10320726
-3.39993 -1.1968499 5.5369301 10978398
-3.39329 -1.1997499 5.5432701 11504999
-3.38551 -1.20186 5.54842 10583645
-3.39059 -1.21205 5.5448599 10386006
-3.3810501 -1.21231 5.54847 9794385
-3.37781 -1.2237999 5.5517402 11109987
-3.3725901 -1.21399 5.5535898 10123351
-3.36815 -1.22285 5.5560098 10254937
-3.3624301 -1.22974 5.5570698 10057559
-3.3624201 -1.23 5.5568299 10057560
-3.34725 -1.21965 5.5541501 10912870
-3.33095 -1.2003 5.5474 10781540
-3.32059 -1.1997499 5.55056 10518111
-3.3143001 -1.20547 5.5580702 10847074
-3.3103499 -1.2096 5.5549202 10979173
-3.2819901 -1.20271 5.56147 10979690
-3.2722001 -1.20391 5.5609598 11111275
-3.2374499 -1.21166 5.5661802 11242861
-3.22631 -1.2112499 5.5678301 12426620
-3.21491 -1.20819 5.5693302 11767660
-3.2190199 -1.21609 5.56672 10978661
-3.19766 -1.2164299 5.5716901 11043165
-3.1940701 -1.2270401 5.57479 10977885
-3.1722901 -1.20258 5.5728798 8807234
-3.1805799 -1.22005 5.57371 9399628
-3.17221 -1.2215101 5.5782399 10254941
-3.16447 -1.22396 5.5834498 10583904
-3.1624601 -1.23244 5.5792999 11570796
-3.1527901 -1.2322201 5.5825801 11767659
-3.1363101 -1.22103 5.5781202 11175521
-3.1317799 -1.21244 5.5803199 11504486
-3.1218801 -1.2128299 5.57619 12557427
-3.1171999 -1.20407 5.5781102 13149563
-3.1075101 -1.20478 5.5741901 13017977
-3.1048501 -1.23408 5.58535 14070924
-3.06391 -1.22203 5.5883899 12557945
-3.05423 -1.22156 5.5905199 10057556
-3.0425799 -1.20436 5.5845199 9991508
-3.0304899 -1.2010601 5.58711 10649183
-3.03297 -1.20758 5.5818 10715231
-3.02226 -1.20734 5.5880098 10912352
-3.00893 -1.20508 5.5829301 10648662
-2.9258101 -1.20531 5.59412 10057556
-2.91524 -1.1995 5.5970898 9662799
-2.9054401 -1.20286 5.5932002 8873543
-2.89692 -1.20076 5.5982699 9136200
-2.88504 -1.20286 5.5957398 10648663
-2.87621 -1.19947 5.5998702 10977627
-2.87025 -1.20741 5.5974498 12030056
-2.7916999 -1.18856 5.6064401 11306078
-2.78123 -1.19014 5.6047502 10318926
-2.78738 -1.19908 5.6024299 10319441
-2.7714901 -1.18418 5.6008201 10055755
-2.77301 -1.2060699 5.60812 9069892
-2.7614601 -1.1887701 5.6097798 8411960
-2.75002 -1.18987 5.6075201 8873284
-2.7089 -1.20945 5.6185002 11043674
-2.6979799 -1.20784 5.6247501 10188369
1.37238 1.47323 4.7507501 13418415
1.378 1.4706 4.74931 13550258
-4.13482 -1.19537 5.4758 4666661
-4.1209502 -1.1912301 5.4773302 4534561
-4.1203098 -1.20195 5.4771299 4205853
-4.1160998 -1.21462 5.4841199 4600867
-4.1037898 -1.21413 5.4879298 4732196
-3.84183 -1.20102 5.5051398 5191972
-3.83251 -1.20377 5.50877 5586731
-3.8204701 -1.2005399 5.5110602 5389865
-3.8197501 -1.21324 5.5120902 5455144
-3.81089 -1.20152 5.5160398 5521451
-3.8136699 -1.22182 5.5169301 6244658
-3.8054199 -1.2228301 5.5226598 6442551
-3.7979 -1.22516 5.5192399 6442295
-3.7544 -1.19791 5.51371 5915180
-3.7432001 -1.19958 5.5148802 7362368
-3.73508 -1.1986901 5.5187702 8414798
-3.7288101 -1.20793 5.5188799 7099452
-3.72948 -1.2197599 5.5303602 5915179
-3.72544 -1.21521 5.5294499 5718057
-3.6758201 -1.21603 5.5357199 5849647
-3.6048999 -1.20339 5.5352702 6045995
-3.58781 -1.1958899 5.53442 6769973
-3.5338099 -1.18488 5.5331402 7559232
-3.53034 -1.18084 5.5310998 7362110
-3.53933 -1.21507 5.5411 7427132
-3.5357101 -1.20627 5.5409999 7558716
-3.5248899 -1.1863199 5.5373302 7756095
-3.5228601 -1.20005 5.5405798 7952959
-3.52018 -1.1966 5.5351801 7821372
-3.51618 -1.1897 5.5402999 8808009
-3.5155399 -1.20411 5.5481 10715233
-3.4570799 -1.18555 5.5451798 11042904
-3.46771 -1.20268 5.5494499 10582611
-3.45681 -1.2025 5.5489101 9660737
-3.44223 -1.19572 5.5483298 10121285
-3.42699 -1.18784 5.5472798 9463358
-3.41961 -1.19218 5.5442801 8675128
-3.39219 -1.19472 5.5501099 11505516
-3.3817201 -1.18521 5.55163 11900022
-3.3803799 -1.19266 5.5502701 11373422
-3.3747201 -1.19917 5.5572 10584162
-3.3657601 -1.20017 5.5570998 10387040
-3.3600199 -1.20319 5.5643101 10979177
-3.3143499 -1.19497 5.5585499 11768431
-3.3064401 -1.19806 5.5650802 11636587
-3.2691 -1.19215 5.5675902 11571569
-3.2634799 -1.2011 5.5658698 11242861
-3.22649 -1.21017 5.5752001 12492152
-3.2046101 -1.20821 5.5731201 11438178
-3.21559 -1.20789 5.5777998 11964779
-3.21543 -1.20767 5.5770898 11964779
-3.18626 -1.18922 5.5747399 11898469
-3.17767 -1.19354 5.5738702 9267011
-3.1860199 -1.19838 5.5800099 10385233
-3.16611 -1.2108901 5.5795898 9794132
-3.1484201 -1.2064 5.58495 10517854
-3.1370001 -1.20441 5.5790901 10386522
-3.1387701 -1.20611 5.5883498 10583642
-3.12798 -1.2051001 5.5832801 12162671
-3.1326799 -1.21276 5.5885901 12294257
-3.1210401 -1.1912 5.5822802 12820085
-3.1173501 -1.20322 5.5855298 13215355
-3.09675 -1.18024 5.5767102 12886390
-3.06146 -1.2168601 5.5939398 11833967
-3.03581 -1.1903501 5.5871601 9596751
-3.0177901 -1.19461 5.59341 11372900
-2.9263501 -1.19712 5.6034999 12886136
-2.9056599 -1.19602 5.6005902 8675905
-2.8838201 -1.1927201 5.6059899 8873028
-2.8743801 -1.1917599 5.6091199 9662284
-2.86764 -1.1983401 5.6057301 11108698
-2.80217 -1.18723 5.6078401 12359794
-2.7813799 -1.18443 5.6086502 10713683
-2.76686 -1.17802 5.6050801 9529669
-2.7444601 -1.19463 5.6192298 10057557
-2.7171199 -1.19713 5.62291 11175264
1.38144 1.47508 4.7529702 13484209
-4.1391702 -1.16895 5.47298 4074523
-4.1379199 -1.18327 5.4738898 4864038
-4.1360102 -1.19393 5.4827399 5126954
-4.1124701 -1.19621 5.4826398 4600354
-4.11516 -1.18827 5.4840002 4731940
-4.1041298 -1.18981 5.4878898 4995111
-4.1043801 -1.18885 5.4869699 4995367
-4.10741 -1.21042 5.4913001 4666404
-4.0934501 -1.18919 5.48985 4534561
-4.0983601 -1.2143 5.4969401 5060905
-4.0805898 -1.18699 5.4910898 4797733
-3.85602 -1.18344 5.5114198 6376245
-3.8499899 -1.19432 5.5103798 5521193
-3.8421199 -1.20042 5.51299 4929059
-3.8150599 -1.1735899 5.5119901 4797989
-3.82778 -1.19389 5.5138998 4929573
-3.7975399 -1.16531 5.5101099 5192490
-3.7974899 -1.1672 5.5043402 5258283
-3.81023 -1.18273 5.5128798 5192490
-3.79145 -1.17353 5.5151 5850418
-3.8061399 -1.20981 5.5242701 6113333
-3.7829399 -1.17392 5.5156498 5982004
-3.7678599 -1.17319 5.5152798 5982004
-3.76053 -1.18732 5.5163102 6375990
-3.75124 -1.19174 5.5192599 6309680
-3.7279201 -1.19893 5.5254202 7231038
-3.71925 -1.18674 5.5283499 6178352
-3.6851001 -1.18285 5.5304399 5454888
-3.6787 -1.20723 5.5387201 5652268
-3.6741199 -1.22666 5.5468402 7560005
-3.60025 -1.19505 5.53934 6374958
-3.5731399 -1.18572 5.53896 7559746
-3.53898 -1.17203 5.5382299 6769719
-3.5255201 -1.17083 5.53161 7822148
-3.5204201 -1.17783 5.53967 8413769
-3.5179501 -1.17026 5.5380602 8940112
-3.51811 -1.1912 5.5425601 8808009
-3.4551799 -1.18019 5.5539899 10845267
-3.44766 -1.18687 5.5480199 10844753
-3.44752 -1.18665 5.5479298 10910289
-3.4474101 -1.1852 5.55299 11634010
-3.43817 -1.18808 5.5507998 10515529
-3.4377699 -1.18594 5.5558901 11304786
-3.4376299 -1.18621 5.55586 11238993
-3.3992801 -1.18046 5.5496101 10518365
-3.38943 -1.18128 5.5521698 11110761
-3.38428 -1.1718301 5.5546398 11110762
-3.3665299 -1.1981 5.5661101 10255455
-3.31955 -1.17006 5.5587802 11044709
-3.3083799 -1.1873699 5.5659099 11965809
-3.2999699 -1.18966 5.5708499 10189657
-3.2893701 -1.18955 5.5741901 9860694
-3.29339 -1.19328 5.5669999 10189659
-3.28372 -1.19653 5.5697999 10913897
-3.2665801 -1.18638 5.5721002 11374190
-3.2581699 -1.18793 5.57582 11111020
-3.2492499 -1.1868401 5.5785398 10650723
-3.2450099 -1.1959 5.5813498 11505774
-3.21472 -1.1871901 5.58178 12293999
-3.1915901 -1.18945 5.5816598 13016948
-3.17942 -1.18839 5.5813298 10122575
-3.1639299 -1.18752 5.5806999 9464906
-3.1623399 -1.1988 5.5838699 9597006
-3.1563599 -1.18962 5.58637 9793870
-3.13258 -1.1862299 5.5827098 10846555
-3.11502 -1.17834 5.5876198 13082998
-3.11201 -1.19336 5.5872402 13346684
-3.0964701 -1.1807899 5.5866499 12951929
-3.07461 -1.16734 5.5848699 13281664
-3.07464 -1.1749001 5.5847402 13281408
-3.0718999 -1.18006 5.5945101 13215616
-3.0813601 -1.2097501 5.60428 13544839
-3.06194 -1.19275 5.59833 13017982
-3.0439701 -1.18326 5.5988498 10912608
-3.0302401 -1.18022 5.5894799 10057556
-3.02177 -1.1821001 5.5926299 11044450
-3.01297 -1.18619 5.5961399 11701862
-3.00684 -1.1770101 5.5991902 9990989
-3.0032101 -1.18979 5.5968199 9463869
-2.9948599 -1.17699 5.5975399 9463614
-2.97191 -1.17355 5.60045 10187079
-2.9589701 -1.17582 5.6009698 9201473
-2.94276 -1.17988 5.6030698 10517076
-2.9350901 -1.19067 5.6070499 11701345
-2.9338801 -1.17986 5.6062598 11898466
-2.92172 -1.18004 5.6066198 12951411
-2.9142101 -1.18861 5.6045799 11570277
-2.91083 -1.18025 5.6077499 10517845
-2.9007399 -1.18053 5.60886 10320985
-2.87486 -1.18234 5.6105299 9070665
-2.86832 -1.18643 5.6172099 10584155
-2.7817199 -1.17981 5.6191902 11898469
-2.7671399 -1.17695 5.6218901 9464647
-2.74787 -1.17974 5.6195002 9597008
-2.73247 -1.16312 5.6174102 10452571
-2.72861 -1.17916 5.62782 11833710
-2.71433 -1.17378 5.6286201 11504488
-2.7225201 -1.18966 5.6272001 11833196
-2.71894 -1.189 5.6268802 11701866
-2.71382 -1.19294 5.6278901 11109472
-2.7129099 -1.19206 5.6356201 10583385
-2.7121601 -1.20653 5.63552 10320212
-4.1273098 -1.1866699 5.4879398 5389613
-4.1307702 -1.18848 5.4960299 5389613
-4.1160598 -1.18664 5.4906602 5060649
-4.1014199 -1.182 5.4915199 5258284
-4.09197 -1.17858 5.4963698 4600611
-4.07901 -1.17615 5.4969301 4403232
-4.0725698 -1.19117 5.49546 5193004
-3.8601899 -1.18136 5.5220599 6244404
-3.8499 -1.18668 5.5194201 5191975
-3.77917 -1.17283 5.5163598 5784625
-3.7625599 -1.16962 5.5172901 6244662
-3.7557499 -1.17098 5.52493 7033660
-3.75144 -1.183 5.5253901 7033403
-3.7269101 -1.17941 5.5352702 6835767
-3.7123499 -1.17691 5.5310302 6507317
-3.69806 -1.16808 5.5282302 7296833
-3.68927 -1.1697201 5.5335002 5980976
-3.6889 -1.18094 5.5339198 5454631
-3.67243 -1.17662 5.5399899 4994084
-3.6847701 -1.19718 5.5420299 5455145
-3.6803601 -1.20561 5.55092 5520680
-3.6790299 -1.20568 5.5445099 5520681
-3.6709599 -1.20866 5.5511198 7230784
-3.67152 -1.22252 5.5525398 8217679
-3.6084099 -1.1901 5.5443301 7230011
-3.6168001 -1.18933 5.5511799 7163961
-3.5817299 -1.1729701 5.5457902 7691073
-3.5401399 -1.16593 5.5458999 7427649
-3.52653 -1.16435 5.5397401 8940371
-3.5169799 -1.17083 5.5431099 9268562
-3.51337 -1.1629699 5.5471902 11176814
-3.44681 -1.18294 5.5577302 12291682
-3.4355199 -1.18169 5.5602498 12028509
-3.4350901 -1.1814899 5.56006 12028253
-3.39639 -1.1635799 5.55794 10123093
-3.3762701 -1.16511 5.55902 12097914
-3.36289 -1.15695 5.5608101 11110762
-3.31988 -1.1588399 5.56423 10584417
-3.3095901 -1.1663899 5.5644202 12689532
-3.2990799 -1.16579 5.5736399 11439465
-3.2998099 -1.16996 5.5710802 11373671
-3.29462 -1.1798 5.57265 9465935
-3.29195 -1.17389 5.5735602 9268555
-3.2841001 -1.17984 5.5760298 9598036
-3.2757199 -1.18442 5.5754299 10848103
-3.27547 -1.18257 5.5815201 10782054
-3.2658801 -1.1838 5.5778599 11242606
-3.2650599 -1.18073 5.58355 10716263
-3.2650101 -1.18217 5.5841599 10716263
-3.2555001 -1.18183 5.5802002 10321504
-3.24828 -1.18404 5.5833101 10716516
-3.24033 -1.18698 5.5835099 11703152
-3.2267201 -1.18068 5.5858798 11966065
-3.2404599 -1.20447 5.59022 12689787
-3.2195599 -1.17779 5.5836 11833964
-3.2082 -1.17634 5.5832701 11504741
-3.19222 -1.16866 5.5850301 12293741
-3.1963799 -1.17627 5.5829 13149305
-3.18607 -1.17992 5.5838499 13149047
-3.1779201 -1.18528 5.5880299 10451540
-3.1656699 -1.17714 5.59023 10649176
-3.1494901 -1.17838 5.5907502 11503970
-3.14376 -1.18173 5.5896902 11635556
-3.0794499 -1.15105 5.5893602 12886910
-3.07636 -1.15564 5.5854201 13281667
-3.07112 -1.1684901 5.5943198 13215614
-3.06006 -1.1691099 5.5948901 12754552
-3.05235 -1.17751 5.6019702 12491636
-3.0571499 -1.18441 5.59901 12425588
-3.0308199 -1.1763999 5.6010199 10715229
-2.9826 -1.17232 5.60463 9858113
-2.9730501 -1.16764 5.6078901 11240540
-2.95873 -1.17004 5.6097498 10977886
-2.9505799 -1.17626 5.6073098 10122319
-2.9398401 -1.17307 5.6082501 11504224
-2.9275 -1.17082 5.6076398 13148787
-2.9211199 -1.17879 5.6142602 12622703
-2.9105899 -1.17966 5.6152501 10386517
-2.87272 -1.1764801 5.6193099 10584416
-2.7918899 -1.17752 5.6244998 13017462
-2.78197 -1.17698 5.6300902 12556912
-2.74859 -1.1731499 5.62711 9860181
-2.73841 -1.15677 5.6283698 10715487
-2.73295 -1.1642801 5.6265898 11242087
-2.72875 -1.15669 5.6297102 11702381
-2.71118 -1.16124 5.6322398 10780768
1.46402 1.49008 4.7663898 13286573
-4.10078 -1.17207 5.4973302 5324077
-4.0883002 -1.16588 5.4997101 4469026
-3.7957399 -1.1610301 5.5218401 5455661
-3.7706001 -1.1556 5.5286899 4994596
-3.7641699 -1.16576 5.5269399 5981490
-3.7543199 -1.16293 5.5316601 6638903
-3.7486701 -1.17196 5.53231 7888453
-3.7327499 -1.16939 5.5392299 7822148
-3.6993001 -1.16172 5.5302501 7888969
-3.7016201 -1.1543 5.5318198 7757639
-3.6935599 -1.15614 5.5380902 7954506
-3.6927099 -1.15413 5.5358901 8283470
-3.6908 -1.16379 5.5356998 6836283
-3.6812799 -1.173 5.5381699 5652010
-3.68274 -1.16606 5.5413399 6046511
-3.66242 -1.16136 5.5341401 5059876
-3.6631999 -1.1605 5.54004 4928803
-3.6578801 -1.16935 5.5462399 5915697
-3.6689501 -1.20179 5.5608101 7757898
-3.6401701 -1.15939 5.5450301 6968128
-3.5896299 -1.14028 5.53161 8611405
-3.58499 -1.14545 5.54283 8545868
-3.5634799 -1.14044 5.5436902 10388329
-3.5475299 -1.13862 5.54213 8743764
-3.54197 -1.1487401 5.5426302 7033146
-3.5410299 -1.14738 5.5416899 6967353
-3.5202999 -1.13907 5.5467501 9795933
-3.5288999 -1.15987 5.5485201 10124387
-3.5190301 -1.1549 5.5488901 11374193
-3.4235301 -1.16282 5.56498 12423264
-3.38484 -1.1581399 5.5616899 10386781
-3.37412 -1.1540101 5.5663099 9399890
-3.31073 -1.15642 5.5707102 12294775
-3.31072 -1.15944 5.57549 12426360
-3.2924199 -1.16603 5.58039 9597263
-3.29074 -1.16302 5.5803399 9597264
-3.2796199 -1.16204 5.5851998 10387036
-3.27016 -1.1722701 5.5833802 10584420
-3.26037 -1.16975 5.5870099 9268560
-3.2495301 -1.17098 5.5844402 8874316
-3.23434 -1.16575 5.5857902 12295806
-3.23437 -1.16677 5.5866599 12361598
-3.22088 -1.16178 5.5892501 11637874
-3.2263701 -1.17125 5.5854201 11637615
-3.2140701 -1.16837 5.5858598 10321241
-3.20312 -1.16757 5.5859799 10320468
-3.16171 -1.16754 5.5994301 11965032
-3.1554301 -1.17342 5.5942998 11964518
-3.09729 -1.1447999 5.59308 11834222
-3.0866899 -1.14501 5.5932798 12163445
-3.0755601 -1.14434 5.5928702 12229237
-3.0697999 -1.1508501 5.59337 12360564
-3.02618 -1.16747 5.6045799 11899759
-3.01952 -1.16423 5.6108699 13544585
-3.0195601 -1.1745501 5.6106601 12689018
-3.0090101 -1.16451 5.6121502 10452060
-3.0037899 -1.17308 5.6168399 9991250
-3.00371 -1.17296 5.6105099 9399113
-2.9896901 -1.16704 5.6077199 10319441
-2.9830201 -1.16518 5.6112099 10714456
-2.96984 -1.15185 5.60814 11570025
-2.96457 -1.1640199 5.6119499 11767658
-2.94069 -1.15345 5.6125598 11175520
-2.9495201 -1.16944 5.6150398 11043420
-2.9310801 -1.1530401 5.6145802 12227947
-2.93589 -1.1621799 5.6122098 11701346
-2.9193699 -1.1520801 5.6143799 13280634
-2.8641901 -1.15482 5.6216002 10912867
-2.8645 -1.15602 5.6181798 10781282
-2.8501401 -1.15177 5.6213498 12294775
-2.8385 -1.14851 5.6207399 11242858
-2.8298399 -1.15095 5.6229401 10716516
-2.8191199 -1.15117 5.6241398 11308651
-2.8083501 -1.15144 5.6252398 13281925
-2.7944801 -1.1684 5.6370301 13149308
-2.7838299 -1.16731 5.63868 12162413
-2.77917 -1.16916 5.63518 11636326
-2.7437999 -1.14911 5.6300402 9794384
-2.7344899 -1.14969 5.6318402 9991764
-2.7249 -1.14876 5.6329398 9860177
-2.72069 -1.15817 5.63381 11439209
-2.7100699 -1.15622 5.63446 10320473
1.46038 1.49719 4.7685099 12957609
1.4591 1.50765 4.7642298 11114887
-4.0942001 -1.1572599 5.49756 4995368
-3.8013201 -1.1502399 5.5247002 5258025
-3.7945199 -1.15754 5.5342498 5915953
-3.77125 -1.15321 5.53687 5060390
-3.7609301 -1.15556 5.5331402 5915697
-3.7499101 -1.15177 5.53688 6441525
-3.74401 -1.16009 5.5360699 7164734
-3.7392199 -1.15092 5.5390301 6770232
-3.7002299 -1.1398 5.5376101 6638903
-3.6884 -1.1498801 5.5462799 7033147
-3.6868501 -1.15967 5.5429001 6572596
-3.67591 -1.15546 5.5476499 6309682
-3.6638 -1.15955 5.5459299 4928803
-3.6286399 -1.13587 5.5458498 6112821
-3.62322 -1.14564 5.5475202 6375734
-3.6071601 -1.14314 5.5427299 7295805
-3.5952301 -1.13559 5.5440898 8742990
-3.5592301 -1.13245 5.5472202 10914672
-3.5504799 -1.13109 5.5521898 9861988
-3.5394001 -1.13353 5.5465202 7493695
-3.5293 -1.1340899 5.5486898 8151366
-3.5244801 -1.1253099 5.55089 8150852
-3.5183499 -1.12861 5.5517402 8874573
-3.51072 -1.1355799 5.5512099 10716519
-3.4302499 -1.1467201 5.5699701 11304526
-3.42816 -1.15256 5.56671 11633748
-3.4216199 -1.15897 5.5715899 11568727
-3.40259 -1.14375 5.5739899 10714454
-3.39329 -1.15432 5.5699 8938820
-3.381 -1.1477799 5.5722399 8544321
-3.3703599 -1.14424 5.57584 9860178
-3.36414 -1.15009 5.5708599 9992022
-3.3469601 -1.14178 5.5731301 11373678
-3.3137 -1.15379 5.58248 11242343
-3.3018301 -1.15992 5.5823498 11439722
-3.2822001 -1.14753 5.5861402 10387037
-3.2664001 -1.1566499 5.5878601 11571308
-3.24577 -1.16441 5.5924802 9532504
-3.2267001 -1.1518 5.5897598 12493186
-3.21576 -1.15079 5.59514 11571825
-3.20382 -1.14916 5.59448 9860947
-3.1830201 -1.15049 5.5968199 10649949
-3.1714599 -1.14352 5.5973001 12031602
-3.1489201 -1.1462899 5.5974698 12557168
-3.1502199 -1.1627001 5.6012702 13411705
-3.1289599 -1.15938 5.6090298 12490861
-3.10814 -1.14329 5.60077 11504998
-3.0820301 -1.13695 5.6015501 11373672
