ply                 
format ascii 1.0    
element vertex 1341
property float x    
property float y    
property float z    
property uchar red  
property uchar green
property uchar blue 
end_header          
-3.36113 -1.60322 9.94509 28 67 126 
-3.37646 -1.59925 9.99019 76 121 176 
1.51524 0.714687 8.0911 25 33 69 
-3.36142 -1.57284 9.93531 28 68 127 
1.45433 0.707633 8.14493 15 25 60 
-3.37795 -1.54954 9.97324 51 91 150 
-3.36332 -1.53081 9.90802 116 159 214 
-2.20737 0.848316 10.004 58 66 113 
-2.26376 -1.70424 11.1968 139 143 190 
-2.26515 -1.69765 11.2076 115 122 168 
-2.31297 -1.68489 11.1821 58 83 139 
-2.26833 -1.68876 11.2031 92 95 140 
-2.30111 -1.6557 11.1622 171 198 245 
-2.16375 0.785199 10.0378 33 52 95 
0.789516 -1.45591 9.23709 39 51 89 
0.799353 -1.43693 9.18419 104 125 156 
2.32924 -1.15728 6.79642 42 49 91 
2.64785 -0.934738 5.07247 30 33 42 
-2.32398 -1.59551 11.215 109 143 191 
-2.2657 -1.59023 11.1699 107 125 175 
-2.16516 0.763749 10.0444 36 58 105 
-2.29615 -1.56937 11.0817 61 102 148 
-2.91433 0.731066 9.83868 43 66 110 
2.65933 -0.870998 4.99399 68 77 74 
-2.80298 0.717101 9.84947 35 43 79 
-2.85754 0.719408 9.87715 42 65 106 
-2.1275 -1.3546 10.4151 27 62 100 
-2.13425 -1.41257 11.1336 190 194 241 
2.35542 1.15878 6.10941 42 45 80 
-3.06411 0.703186 9.81504 30 53 95 
1.26728 -1.20461 8.70303 34 50 76 
-1.30311 0.702699 10.2973 35 47 85 
-1.44822 0.691699 10.2388 40 51 96 
-2.05932 0.655499 10.0965 46 57 102 
2.60338 0.929655 5.15399 18 33 76 
-2.95911 0.640617 9.84544 42 44 82 
-2.25504 0.643962 10.0547 51 72 117 
-2.66288 1.64927 9.39351 57 76 108 
-2.27202 0.643667 10.049 43 58 101 
-2.75358 1.64694 9.45886 18 38 73 
2.32857 -0.954512 6.7449 41 48 90 
2.04592 -1.0431 8.00617 29 38 69 
-3.06778 0.591386 9.84965 46 67 110 
-1.89314 -1.1522 10.65 31 51 104 
-2.84847 -1.12514 10.6915 88 108 141 
-2.21181 0.576245 10.0909 48 53 91 
2.36022 1.07474 6.2155 39 63 99 
2.34683 -0.869052 6.62449 28 43 84 
-2.05114 0.561622 10.0756 37 45 82 
-1.42836 -1.20444 11.3187 161 183 233 
2.32289 -0.865032 6.71417 44 52 91 
-2.31443 0.550992 10.058 39 57 93 
2.0178 -0.959112 8.05623 37 41 78 
-2.81973 0.537193 9.95902 33 37 72 
-3.06786 0.52118 9.8729 35 59 97 
-2.7161 1.62947 9.54465 76 76 102 
-2.96422 0.506981 9.88628 30 38 77 
1.53452 -0.8417 8.44022 41 55 94 
-3.62017 0.341606 7.33751 41 35 63 
1.41957 -0.820455 8.50423 61 70 111 
2.04024 -0.774826 7.97307 30 39 68 
-2.70601 1.60883 9.49689 30 29 63 
-2.72108 1.6075 9.48928 14 32 70 
2.38281 0.202093 6.29327 23 33 68 
2.02622 -0.74216 7.99795 28 40 66 
1.455 -0.707794 8.45984 53 65 107 
1.47253 -0.707688 8.46432 47 62 101 
1.56752 -0.695417 8.40242 53 66 110 
1.58885 -0.698052 8.43473 37 44 90 
2.03853 -0.579527 7.87693 30 43 75 
-3.18816 -0.382182 8.41276 47 36 66 
1.43084 -0.399703 8.40612 36 50 89 
1.41638 -0.342582 8.39468 41 54 96 
2.59963 -0.280222 5.30772 39 49 76 
2.37774 -0.263637 6.38378 31 42 74 
0.784996 1.30605 7.98554 12 16 45 
-1.96927 0.0290745 10.2027 58 51 84 
2.35994 -0.044856 6.28705 40 45 77 
2.34717 -0.0345062 6.44621 39 61 100 
2.37032 -0.03622 6.37016 33 40 69 
2.34054 -0.0133171 6.48631 46 51 81 
2.04027 0.0621991 7.73123 26 39 71 
1.42017 1.2648 4.03617 116 127 155 
1.67307 -2.96002 9.28881 149 161 213 
2.50831 -2.09225 7.05225 17 6 82 
2.52956 -2.07538 7.01813 20 10 63 
-2.16683 0.560342 10.1064 38 65 110 
-2.06228 0.565829 10.1341 33 41 78 
2.35274 0.128258 6.23203 25 28 59 
2.23247 -1.94785 8.18653 16 17 82 
1.41166 0.216242 8.25884 39 47 84 
1.13589 0.140392 6.62618 15 19 44 
1.41566 0.177308 8.26171 18 19 47 
1.52554 0.168392 8.2321 33 38 68 
1.41181 0.155551 8.2809 29 33 68 
2.37084 1.29587 6.08403 95 116 171 
-2.96607 0.598721 9.87797 42 53 99 
-2.92246 0.600215 9.90534 37 60 110 
2.33899 -0.144119 6.50434 23 36 71 
2.36326 -0.153266 6.50845 44 68 106 
-2.21242 0.760576 10.034 34 43 86 
2.37366 -0.176078 6.35479 28 38 73 
1.58764 -0.208192 8.35069 14 22 59 
1.15616 -1.98214 10.3605 133 162 220 
2.35432 -0.231356 6.42275 38 38 74 
2.3502 -0.237774 6.5039 33 51 89 
-3.198 -0.233739 9.1314 50 62 102 
-3.3498 -1.53672 9.87937 26 65 122 
1.42985 0.820453 8.07691 21 33 71 
-3.35163 -1.51838 9.87209 69 112 163 
1.55379 0.835027 8.01939 17 27 63 
0.805441 -1.55825 9.25057 85 94 127 
-2.26701 -1.70702 11.2131 139 143 190 
-1.60978 -0.853453 10.3504 91 121 149 
-2.28471 -1.63325 11.1797 67 78 132 
1.4494 1.27754 8.02918 25 27 50 
-2.27411 -1.6084 11.1756 132 155 199 
0.798562 -1.43391 9.17506 88 107 139 
-2.31779 -1.56892 11.125 159 202 245 
-2.66837 1.65037 9.49325 37 34 63 
-2.25516 -1.56882 11.152 187 206 249 
-2.44826 -1.44357 11.0936 174 205 251 
1.43039 -0.383254 8.45433 35 48 83 
-2.06163 0.793375 10.0668 42 45 80 
1.46479 0.12341 8.27484 36 41 71 
1.52487 -0.215894 8.28788 33 45 87 
1.43316 0.704114 8.11557 21 32 64 
1.50607 0.71257 8.05157 40 50 86 
2.63786 -1.0419 5.02229 59 79 112 
-3.3388 -1.5656 9.89789 11 30 63 
1.41455 1.19218 8.04959 3 15 41 
1.43318 -0.711323 8.47254 41 52 98 
2.33169 0.160575 6.42205 41 45 74 
2.33139 -0.868681 6.73604 44 52 91 
2.04119 -0.841386 7.94955 27 41 70 
1.46391 -0.870092 8.49808 36 45 88 
0.785658 -1.44973 9.201 39 51 89 
1.55008 1.37945 7.89351 24 40 73 
2.3161 -1.1517 6.75979 35 42 84 
1.46202 -0.316274 8.3622 33 47 84 
1.41711 0.723315 8.14471 23 30 58 
1.53525 -0.213991 8.28369 31 43 83 
2.65867 -0.953392 5.0798 22 25 42 
-1.45086 0.805278 10.2152 36 46 82 
1.51478 1.26355 7.98645 29 39 74 
-3.73129 -0.813323 7.61101 52 82 132 
2.05058 1.5398 7.35545 38 46 93 
1.62957 -2.16176 8.49352 24 68 105 
2.33562 -0.855156 6.69749 29 42 76 
1.41507 -0.819587 8.47314 39 48 89 
2.36368 1.33921 6.16211 45 70 111 
-2.80684 0.717444 9.86342 34 40 74 
2.33868 -0.858208 6.65673 36 42 76 
-2.27548 0.552839 10.081 36 45 84 
1.54247 1.20583 7.94977 21 33 59 
-2.812 0.514442 9.92719 29 34 72 
1.46837 -0.868712 8.48217 38 51 95 
1.5294 1.38374 7.97892 16 21 50 
-2.65446 1.63897 9.42345 37 34 63 
2.53568 -2.06313 7.03276 57 44 114 
1.44676 0.157902 8.22043 12 17 47 
1.5353 0.129257 8.25807 26 29 60 
2.54886 -2.22502 6.97992 127 132 188 
1.5781 -0.210972 8.32283 15 16 44 
-2.59186 -1.26737 10.9861 37 46 103 
2.35692 1.2885 6.05377 95 116 171 
-2.27939 -1.65736 11.1868 145 150 205 
-2.30655 -1.66122 11.1762 188 212 255 
-2.31051 -1.68301 11.1619 58 83 139 
-2.31471 -1.70381 11.1873 61 88 143 
0.805441 -1.55825 9.25057 85 94 127 
1.68358 -3.04045 9.34423 200 219 255 
1.67212 -3.01269 9.33668 165 186 233 
2.20585 -1.85671 8.95526 59 76 106 
2.35712 1.27886 6.08695 29 35 83 
1.4131 0.819839 8.12633 18 26 62 
1.57771 -0.272162 8.34419 33 37 82 
1.5327 -0.253053 8.31376 43 53 89 
1.40654 -0.227698 8.33896 42 52 88 
0.615111 -2.32756 10.8275 100 129 187 
-2.12586 -1.37405 10.3798 75 104 138 
2.33085 -0.134426 6.57887 38 38 72 
1.55554 1.3822 7.92086 13 23 48 
2.02897 0.0635715 7.70531 29 36 65 
2.34368 0.0545659 6.47216 29 38 69 
2.0338 0.356167 7.66304 32 37 67 
2.31796 -0.205401 6.53275 24 31 59 
2.0828 0.116768 7.73014 37 45 82 
1.39043 1.26354 7.99622 20 21 49 
2.02189 0.258617 7.77077 27 32 64 
2.34187 0.246653 6.52387 49 54 94 
1.41358 -0.377703 8.3809 31 41 77 
2.58845 -0.334866 5.42493 52 54 92 
2.35392 0.849664 6.16181 29 33 68 
-3.34592 -1.54144 9.92377 11 26 57 
-3.06666 0.586996 9.86088 32 54 95 
-2.16726 0.649612 10.0918 37 59 108 
-2.75076 1.64578 9.44913 18 38 73 
-2.06515 0.765117 10.0831 23 31 68 
1.44152 1.19234 8.02457 14 21 50 
2.57494 0.891467 5.08469 78 103 157 
2.3764 1.30106 6.12851 34 42 91 
2.33992 -0.875571 6.7545 43 45 83 
1.41749 1.19395 8.07825 9 15 39 
1.57907 -0.695053 8.39815 37 44 90 
1.5557 -0.695215 8.34304 38 46 92 
2.04169 0.133648 7.75408 28 39 71 
1.54546 1.19893 7.91172 17 25 48 
2.34159 -0.856789 6.71886 25 31 63 
2.35108 1.07037 6.20544 31 48 78 
1.54327 0.131033 8.14011 40 48 85 
1.56553 -0.387579 8.30312 30 40 76 
2.33901 -0.852298 6.76164 50 54 92 
2.59564 -0.44217 5.64443 46 51 83 
-2.8153 0.602317 9.91992 29 39 75 
2.61563 -0.274247 5.40493 21 40 72 
-2.21433 0.685093 10.0657 68 76 115 
-3.18848 -0.0282809 7.96307 50 51 71 
2.34895 1.28479 6.03167 95 116 171 
2.37525 1.27916 6.09917 91 107 158 
2.5564 -2.09212 7.10329 157 148 211 
2.35184 1.24463 6.07823 40 38 77 
0.751397 1.48249 8.0941 10 13 32 
1.56929 1.39197 7.97387 13 23 48 
1.54645 1.28718 7.93409 20 24 49 
1.39528 1.26825 8.00914 20 21 49 
1.40359 1.18033 8.02788 8 13 33 
1.56601 0.838 8.0858 17 23 49 
1.56592 0.746196 8.11271 22 26 55 
1.41163 0.726077 8.16449 21 26 56 
1.44676 0.700774 8.12909 16 23 49 
1.41997 0.700203 8.18056 18 24 56 
2.02131 0.519505 7.69523 27 33 65 
2.04674 0.309904 7.55679 21 25 54 
1.42061 0.151839 8.27332 13 17 46 
1.41621 0.122501 8.27948 18 20 45 
2.34671 -0.0343863 6.49734 26 30 55 
-3.05324 0.521232 9.83751 28 44 80 
2.23019 -1.78524 8.25276 20 4 77 
2.36399 -0.165921 6.42311 33 36 77 
2.26128 -1.78669 8.31073 153 148 206 
1.58343 -0.212259 8.33876 11 14 45 
2.33954 -0.217588 6.47729 21 30 61 
2.60317 -0.265742 5.31463 35 40 62 
1.56673 -0.332488 8.30447 29 38 77 
1.43142 -0.351573 8.43034 23 35 73 
1.58312 -0.701634 8.41923 34 46 86 
-2.14545 -1.39129 10.5336 87 121 158 
-1.6252 -0.864629 10.4639 96 130 158 
-3.33331 -1.64369 9.93603 64 105 161 
2.33222 -0.963947 6.75003 30 35 73 
-2.47251 -1.47809 11.1423 38 70 131 
-2.24668 -1.56829 11.1329 195 214 255 
-2.2733 -1.58092 11.1261 58 91 136 
0.803581 -1.4475 9.2393 108 131 165 
-2.30551 -1.61525 11.1497 192 220 255 
0.805958 -1.56203 9.26807 81 89 125 
2.60274 -0.259396 5.33457 28 26 50 
-3.36233 -1.55104 9.98486 25 41 74 
2.37482 1.28877 6.06879 13 28 67 
-2.28998 -1.62681 11.2797 154 171 215 
2.37666 1.26376 6.09306 94 112 174 
2.31935 -0.0234776 6.48853 23 38 67 
2.63871 -0.870784 4.95479 77 86 81 
2.57205 -0.421919 5.55957 25 31 57 
2.58096 -0.441751 5.60697 24 28 53 
-2.96506 0.53004 9.89367 32 36 71 
-2.05567 0.553492 10.0622 31 36 66 
1.44054 1.33576 8.00992 24 24 48 
-2.07048 0.763107 10.1045 25 31 67 
-3.19728 0.664506 8.18412 52 40 54 
1.44053 1.278 8.03738 20 18 40 
1.53454 -0.785128 8.41421 39 52 96 
2.38726 0.858689 6.24061 34 37 72 
1.41994 1.25016 8.09221 16 19 38 
1.44323 1.22048 8.05269 20 20 46 
2.35748 -0.866475 6.67042 28 31 62 
-2.58948 -1.2551 10.9135 29 35 85 
-2.25794 -1.57422 11.1981 195 214 255 
0.803536 -1.44657 9.24932 105 128 162 
-2.31489 -1.61406 11.1872 200 224 255 
-2.31838 -1.66719 11.2041 191 214 255 
1.53598 0.28176 8.24615 17 18 48 
2.26423 -1.79405 8.34459 164 165 222 
2.24053 -1.91627 9.04973 102 125 179 
1.43496 -0.742373 8.53197 36 48 88 
1.44023 1.30866 8.02459 11 17 41 
2.05905 0.488389 7.56785 28 37 66 
-2.69029 1.66477 9.55764 22 18 43 
-2.91897 0.70116 9.8683 26 51 92 
1.1769 -1.33476 9.01558 76 92 126 
1.18179 -1.31896 9.00142 70 95 125 
-2.07111 0.650737 10.1203 30 40 75 
1.47359 -0.717694 8.51335 36 45 86 
1.54608 -0.706086 8.47087 44 53 96 
-3.08425 0.593812 9.92137 42 65 107 
-1.60568 -0.852927 10.2621 96 130 158 
1.51857 0.769098 8.08713 19 23 52 
1.40728 0.788081 8.14845 19 25 51 
1.44749 0.799238 8.14761 19 25 51 
-2.22177 0.752597 10.0428 31 39 76 
1.56188 0.256948 8.18796 12 14 37 
1.53515 0.252754 8.24328 16 18 41 
2.01522 -0.821282 8.00593 29 29 57 
1.53786 0.221189 8.25718 17 19 44 
2.64142 -0.947707 5.06736 14 13 21 
2.33527 -1.16671 6.81075 37 42 80 
1.4271 0.185663 8.33666 14 18 45 
1.42382 -0.29471 8.38989 23 32 71 
1.53965 0.160446 8.26776 15 16 44 
2.05213 0.110896 7.62565 27 33 65 
2.3517 0.0612126 6.3569 57 61 98 
1.42867 0.124342 8.34696 17 19 44 
2.37264 1.30462 6.09053 89 115 172 
-1.98222 0.0328035 10.2747 55 49 75 
1.26968 -1.1989 8.74708 20 26 38 
1.4418 1.36983 7.99953 20 23 54 
2.35408 -0.259283 6.41436 31 32 62 
1.41037 1.37411 8.06089 29 35 67 
1.44407 1.24965 8.04544 15 22 41 
1.5278 -0.21594 8.30332 33 45 87 
1.41833 -0.228972 8.35939 28 37 76 
0.733213 1.34634 7.95874 35 46 78 
1.41952 -0.350545 8.4036 27 39 77 
1.41382 1.28342 8.08154 18 23 45 
2.36903 -0.0599284 6.40115 30 32 57 
2.3534 0.14619 6.29745 19 26 44 
1.48713 -0.787588 8.58997 30 39 78 
1.53416 1.35811 7.83742 18 23 42 
1.4465 1.36571 8.01915 25 26 47 
-2.73102 1.6178 9.54877 17 29 67 
-2.39871 -2.16384 11.1475 110 148 210 
2.59584 -0.350239 5.32348 25 30 50 
1.41975 -0.3007 8.37302 22 35 70 
2.34908 -0.860651 6.63873 28 37 68 
2.63389 -1.04437 5.03864 18 20 43 
2.38358 -0.173093 6.45527 29 31 54 
-2.14044 -1.41859 11.1771 184 193 236 
-2.07006 0.645942 10.1141 29 38 71 
-2.88921 0.58852 9.79213 26 47 94 
-2.97202 0.586134 9.89069 33 41 80 
0.808792 -1.45256 9.26959 105 128 162 
1.54238 0.279081 8.26087 12 13 41 
2.03233 0.181359 7.70286 36 41 70 
2.36253 0.0603036 6.33684 24 31 50 
1.44729 1.24937 8.06396 16 21 41 
1.57607 0.158963 8.24161 19 23 48 
-3.09232 0.591069 9.9611 32 54 95 
-2.31259 0.629416 10.0568 29 47 85 
-3.05659 0.635286 9.81769 30 46 82 
2.33319 0.0239196 6.2877 25 30 49 
1.45809 -0.715688 8.42796 32 46 81 
-2.76514 1.65546 9.51769 25 41 77 
1.55239 0.76576 8.04193 16 24 45 
2.53369 -0.300419 5.51735 26 24 46 
2.31805 1.3373 6.18709 32 38 60 
2.03293 -0.892829 7.93251 29 40 72 
2.62986 -0.889946 5.02958 112 132 167 
-1.99335 0.0309163 10.3337 55 43 65 
-3.18255 0.0327387 8.18538 49 32 38 
-2.27976 -1.57648 11.0889 55 93 132 
2.25476 -1.90788 9.05959 195 219 255 
-2.71568 1.60792 9.50096 12 20 57 
-2.34004 -2.16361 11.2634 75 117 159 
2.56046 -0.325392 5.44487 30 35 65 
-3.27543 -1.66018 10.0496 136 165 221 
0.811451 -1.46232 9.30048 112 132 169 
-2.151 0.640324 10.0404 35 52 95 
-2.23101 -1.45835 11.095 83 116 151 
2.32653 0.236218 6.46827 27 33 59 
1.44866 0.195286 8.22101 11 16 36 
1.47017 1.38613 8.14255 22 26 51 
2.60502 -0.349525 5.34604 34 40 66 
2.55956 -0.302522 5.57421 35 32 61 
-3.17228 -0.00980418 7.9244 36 29 37 
1.57521 0.838959 8.13848 17 24 53 
1.42743 -0.245576 8.41293 21 31 66 
2.34405 -0.143335 6.60094 32 34 59 
-3.00281 0.973583 9.90467 38 54 88 
-2.0644 0.705753 10.043 33 39 71 
1.44076 1.29453 8.02712 13 15 36 
2.36226 -0.0645869 6.37842 28 29 49 
-3.16193 0.235556 8.97744 32 29 40 
2.63973 -1.06635 5.03446 95 114 147 
-2.29957 0.691063 9.97597 30 45 78 
1.41931 0.133109 8.30915 21 25 52 
-2.83048 0.593792 9.93954 30 46 72 
1.46067 -0.301676 8.39209 23 36 68 
1.47724 -0.788204 8.54116 30 42 80 
0.842505 1.37861 8.15112 15 18 33 
1.53518 -0.711607 8.40196 34 46 88 
-3.54637 -0.580397 7.52549 43 32 48 
-3.18778 -0.146709 9.43446 51 47 70 
1.56194 1.31366 7.97942 16 23 42 
-1.01256 0.75395 3.80782 3 12 17 
-2.41403 -2.17322 11.2702 72 109 164 
1.72434 -1.24878 8.41683 31 36 58 
1.15669 -1.66809 9.03287 193 214 255 
0.848291 1.38914 8.20761 14 21 37 
0.794435 1.32634 8.09331 32 43 75 
0.794547 -1.53038 9.19594 102 120 156 
1.50967 0.81532 8.03266 16 23 42 
-1.39585 1.05863 10.1552 39 55 89 
-2.05843 0.701622 9.97157 30 39 68 
-3.08813 0.684791 9.94406 19 40 71 
-2.17473 0.71513 10.1503 26 48 89 
-2.2826 0.621774 9.93017 23 37 72 
2.34618 0.237069 6.52242 30 34 59 
-2.63124 -1.1703 10.7577 107 110 151 
1.525 0.266855 8.22757 51 56 85 
1.40404 0.255859 8.20907 10 15 37 
1.40345 0.195147 8.20843 12 14 37 
1.40413 1.35911 8.02727 25 27 52 
1.4324 0.139483 8.1892 13 18 38 
2.04603 -0.905853 8.00486 29 34 63 
2.31026 -0.0828787 6.51807 31 27 52 
-3.1787 -0.00886543 7.94015 32 32 44 
2.0253 -0.899112 8.04778 24 28 55 
2.32244 -0.145454 6.55108 32 32 56 
2.3405 -0.173858 6.36868 33 34 65 
2.0387 -0.527775 7.81772 109 131 168 
2.54856 -0.985306 5.73647 97 116 149 
-2.29483 -2.12039 11.1381 147 162 221 
2.77301 -1.09879 4.54237 104 99 79 
-2.2869 -2.03931 11.3189 180 203 255 
2.73406 -0.971157 4.69731 46 39 31 
-2.1999 2.10882 10.7611 54 68 115 
2.75111 -0.913771 4.65827 98 94 85 
-2.12415 -1.37598 10.4173 88 124 160 
-2.23679 1.84889 10.847 17 31 60 
1.53735 -0.864741 8.45397 41 50 93 
1.42304 -0.853108 8.50748 39 51 91 
1.42221 -0.821649 8.51594 61 70 111 
1.46578 -0.812708 8.47216 45 56 101 
1.41505 -0.401041 8.40868 40 54 93 
-3.18161 -0.144049 9.46079 49 38 68 
-2.06101 0.564738 10.125 33 41 78 
1.44679 0.123352 8.26536 21 28 57 
-2.30797 -2.1475 11.3099 184 205 255 
-2.05951 0.655636 10.0957 35 47 89 
-2.21636 0.761265 10.0596 34 43 86 
-2.11516 1.98449 9.91187 15 21 47 
-1.58753 1.72094 9.76196 22 27 57 
-2.27155 -1.59147 11.195 80 102 151 
1.52728 1.2039 7.97983 11 18 44 
1.46395 -0.870084 8.49728 36 45 88 
1.43482 0.726192 8.12087 26 29 60 
1.53532 -0.808507 8.43873 50 62 102 
2.66961 -0.878711 4.99064 117 121 106 
-2.27232 0.575661 10.0652 41 50 83 
-1.97907 0.517913 9.12261 38 51 83 
1.52768 0.164342 8.20581 14 18 45 
1.52582 0.129019 8.21983 26 29 60 
-2.3159 -2.15088 11.3382 179 200 255 
-2.31703 -2.16001 11.2642 84 111 164 
2.75334 -0.51282 4.78928 42 42 70 
1.39783 1.20882 8.03217 26 26 52 
1.40443 0.779176 8.13185 33 37 66 
1.41041 -0.227513 8.35543 42 52 88 
1.5476 1.34499 7.94544 33 34 62 
1.52252 1.28028 7.95857 25 27 50 
1.46068 -0.846417 8.49504 32 46 83 
-2.17604 -0.558263 10.351 107 119 161 
1.40417 1.3027 8.021 13 19 41 
1.44173 0.786708 8.1248 23 26 57 
1.44822 0.760929 8.13066 17 22 52 
1.4452 0.730411 8.1436 23 27 56 
-1.45541 0.690693 10.2635 34 47 91 
1.45247 0.274257 8.20771 7 14 43 
1.52307 0.249659 8.17725 14 16 37 
1.44941 0.242642 8.22085 10 16 40 
1.45121 0.213463 8.23034 8 14 40 
1.45562 -0.22612 8.35375 25 37 77 
2.71089 -1.13571 4.71752 30 42 56 
1.42591 -0.74395 8.48692 36 49 91 
-2.32828 -2.15924 11.3823 178 199 254 
-2.28095 -1.61922 11.2253 154 171 215 
-2.2064 0.580398 10.035 36 45 78 
-2.31024 0.544971 10.061 26 42 78 
-2.29548 -1.64376 11.221 64 81 135 
-2.25975 -1.57602 11.2123 195 214 255 
-3.21679 -1.41837 10.2187 33 22 82 
1.41249 0.242493 8.24053 10 12 35 
-2.33449 -2.16999 11.3078 73 114 158 
1.44085 0.733897 8.12509 19 23 50 
1.43345 1.30513 7.99667 11 17 41 
-2.9107 0.501083 9.91073 19 39 76 
1.51301 1.30985 7.94688 15 20 42 
1.42591 -0.829596 8.50728 36 49 94 
1.55716 0.774832 8.08099 21 27 51 
1.55388 0.256619 8.15684 12 14 37 
1.55755 0.199879 8.1756 14 16 39 
1.51248 1.18998 7.95319 13 14 32 
1.4516 -0.249708 8.3576 29 39 74 
-2.29215 -1.58598 11.1723 55 93 132 
1.461 -0.780062 8.47831 30 39 78 
1.51511 1.37167 7.94574 16 21 41 
-0.930314 0.597532 3.84757 1 16 45 
1.51729 0.821667 8.05625 15 22 41 
1.56785 -0.217652 8.26678 11 16 38 
1.45225 0.191616 8.22993 12 17 39 
1.41581 0.199508 8.24637 13 15 36 
1.5631 0.283273 8.18102 10 15 37 
1.52832 0.276206 8.20394 12 13 41 
1.40322 1.2936 8.04191 15 17 42 
-3.07287 0.642045 9.88443 30 46 82 
1.4449 0.752226 8.12396 17 23 49 
1.55552 0.765094 8.05404 16 24 45 
1.27151 -1.20432 8.762 21 27 43 
1.5742 -0.704841 8.3919 34 46 88 
-1.64606 1.68977 9.82989 26 42 76 
1.56274 -0.217106 8.27902 13 16 47 
0.792967 -1.44551 9.17577 112 132 169 
1.41994 0.196236 8.26424 11 13 34 
1.43503 1.36218 7.99796 22 26 51 
-2.29874 0.627109 10.028 23 37 72 
1.42394 -0.73351 8.48026 37 49 87 
-2.31187 0.695174 10.0503 30 45 78 
0.826046 1.36214 8.05333 15 18 33 
1.5382 -0.713156 8.41462 34 46 88 
1.55311 1.30938 7.94516 16 23 42 
1.43639 0.264428 8.19706 16 23 42 
1.41998 0.256298 8.27668 10 15 37 
-3.18763 1.08789 7.69864 19 25 39 
1.44032 0.198726 8.21875 12 17 39 
-3.29092 3.96334 17.4758 19 38 78 
1.70469 -3.03512 9.33338 124 160 212 
1.68664 -2.97787 9.34406 166 184 232 
-3.20351 3.79282 17.4459 44 46 87 
2.55157 -2.22744 6.97091 65 80 137 
-2.30276 -2.17115 11.2709 192 213 255 
-2.30242 -2.02569 11.3412 101 122 189 
-2.29888 -1.99781 11.2379 181 205 253 
-2.28375 -2.01875 11.361 191 200 255 
2.38239 1.28947 6.09605 23 29 79 
2.35142 -0.14367 6.53582 29 42 76 
2.35305 -0.148689 6.48919 50 67 110 
-2.32667 -1.57378 11.181 160 199 242 
-3.20041 3.51041 17.5132 51 49 89 
-2.65088 -1.17516 10.8043 101 96 136 
-2.91356 -1.13014 10.6788 99 102 135 
2.77669 -0.350535 4.70313 38 40 78 
2.79242 -1.10457 4.57031 108 110 89 
2.78741 -0.369793 4.68907 26 34 73 
2.79322 -0.391564 4.69441 34 59 100 
2.80107 -0.995875 4.54116 32 31 36 
2.76276 -0.388871 4.75967 33 30 59 
2.34428 0.0585718 6.47316 30 48 84 
1.58168 -0.268287 8.32274 22 34 72 
2.85617 -0.410328 4.51396 42 56 103 
1.45584 1.2247 8.04666 19 21 42 
2.79348 -0.415145 4.741 37 33 66 
2.78614 -0.434252 4.69613 42 54 96 
-1.30595 1.08157 10.2247 29 41 79 
2.83547 -0.45168 4.49339 37 51 80 
2.82 -0.459019 4.58062 25 29 67 
2.76074 -0.48064 4.80977 31 44 88 
-2.05714 0.565675 10.1176 54 58 95 
2.01084 0.524354 7.69196 29 41 81 
2.0592 0.509592 7.6796 30 38 77 
2.77189 -0.503421 4.78404 31 40 83 
1.43147 -0.710088 8.46591 40 53 97 
2.76771 -0.516227 4.80575 30 31 62 
2.821 -0.66426 4.63498 23 37 66 
2.77229 -0.552241 4.73162 33 55 94 
2.80677 -0.557217 4.78362 14 25 57 
2.79297 -0.557712 4.83758 23 34 64 
2.84004 -0.640034 4.56038 16 31 62 
2.82837 -0.571416 4.51038 96 113 139 
2.80258 -0.605303 4.58752 30 33 68 
2.84933 -0.599798 4.54439 21 32 62 
2.80709 -0.595611 4.69725 17 28 73 
2.76863 -0.574757 4.78102 101 114 146 
2.79815 -0.583278 4.75199 13 33 66 
2.04544 1.62113 7.41428 37 52 95 
-1.30176 0.701648 10.2845 46 54 93 
-3.19413 3.65348 17.4071 53 61 107 
2.50841 -0.120611 4.03982 86 98 138 
2.06732 1.5503 7.4026 40 52 102 
1.42375 -0.800673 8.5067 42 55 99 
-1.64683 1.68806 9.77637 61 84 118 
-3.23976 3.03769 17.6346 28 54 91 
0.794025 1.31509 8.04019 17 20 51 
2.80194 -0.994553 4.56003 42 31 25 
2.36408 0.961491 6.24595 45 67 108 
1.53888 0.129018 8.22735 39 44 74 
-2.85024 -1.12677 10.7007 99 122 156 
-2.12361 0.651861 10.0894 42 57 100 
2.35743 -0.214904 6.56664 46 52 84 
-2.86824 -1.14014 10.7316 27 49 88 
2.33841 -0.939259 6.77481 53 61 98 
-2.80632 0.603643 9.87107 41 53 91 
2.05424 1.58583 7.3324 97 119 169 
2.36805 1.28363 6.11219 24 34 83 
2.77868 -0.362785 4.73523 30 48 84 
-2.6779 1.65622 9.53853 27 21 55 
2.82733 -0.453295 4.55569 38 50 88 
2.52027 0.377843 4.39333 169 140 132 
2.52969 0.37163 4.38904 237 217 218 
1.43279 0.155874 8.30354 12 21 52 
1.42532 0.120876 8.32661 20 26 60 
2.24068 -1.95279 8.21203 25 36 98 
2.78798 -0.377292 4.72176 29 34 76 
2.80302 -0.39677 4.54143 25 25 61 
2.81128 -0.410599 4.52357 20 33 75 
2.74525 -0.513976 4.77644 30 31 62 
2.75111 -0.48024 4.79914 25 34 77 
2.78066 -0.555289 4.74751 22 38 72 
2.80546 -0.557062 4.49749 42 61 103 
2.78529 -0.582661 4.73697 7 22 53 
2.809 -0.598265 4.70345 9 19 70 
2.81299 -0.604957 4.66667 33 38 78 
2.78422 -0.63654 4.72247 28 31 62 
2.76992 -0.41247 4.70962 35 34 65 
2.64598 -1.03752 5.08524 43 42 76 
2.78237 -1.10145 4.56503 99 103 86 
-2.65366 -1.17643 10.8191 101 96 136 
2.81128 -1.15029 4.42046 107 112 142 
-2.55933 -1.25333 10.8418 47 52 108 
-3.28125 3.78559 17.4082 21 20 51 
-2.28647 -1.63588 11.193 61 77 136 
-3.14921 3.6854 17.5648 23 57 95 
2.36805 1.278 6.08532 95 100 155 
2.82629 -0.579341 4.50278 16 23 49 
1.44891 0.161994 8.27123 10 23 57 
1.44182 0.123223 8.24427 23 26 57 
2.77142 -0.380241 4.66988 106 132 167 
2.81556 -0.445773 4.5223 88 104 130 
2.80868 -0.592682 4.56674 31 43 85 
2.83168 -0.611964 4.56188 12 22 47 
-2.3051 -1.61046 11.1592 147 184 228 
2.79671 -0.63052 4.72786 76 79 110 
2.02889 -0.677303 8.01117 27 32 62 
1.45618 -0.709511 8.47326 44 58 103 
-2.3059 -1.57814 11.1364 63 107 156 
2.57052 -0.237163 5.57199 34 41 83 
2.63713 -1.04206 5.02301 50 69 101 
2.36021 -0.153238 6.50132 33 47 84 
1.43745 0.818489 8.12529 35 48 80 
1.45793 0.731038 8.15308 27 31 60 
1.39883 0.721991 8.13242 24 27 58 
1.45751 -0.845293 8.48063 33 47 82 
1.47188 -0.87429 8.53039 33 45 87 
0.793163 -1.45694 9.25868 39 53 88 
-2.1694 0.787999 10.0658 40 64 108 
2.04243 1.24298 7.48623 35 54 87 
-3.19724 3.60783 17.4632 51 50 94 
1.41772 1.2641 4.03713 96 116 143 
2.35779 -0.144013 6.54853 29 42 76 
2.56889 -0.352624 5.59199 37 49 91 
2.32786 -0.224465 6.58518 28 34 66 
-3.21142 3.67645 17.5249 38 45 89 
-2.91356 -1.13014 10.6788 99 102 135 
1.56497 1.21075 7.97822 21 32 62 
2.32995 -0.935762 6.75352 38 44 80 
2.37659 1.30669 6.02935 28 42 81 
2.78449 -0.989815 4.53483 45 32 26 
1.46735 0.279116 8.27815 15 23 62 
2.82476 -0.569289 4.59331 39 37 84 
2.83635 -0.561113 4.54168 17 32 71 
2.79814 -0.537692 4.77394 12 19 48 
2.82692 -0.458988 4.58853 24 24 62 
1.45245 0.824988 8.13574 18 27 60 
2.54344 0.367459 4.4396 133 136 127 
2.54175 0.375884 4.41601 255 251 246 
2.81851 -0.421021 4.5704 39 40 84 
-1.86861 -1.13782 10.4657 26 48 95 
2.84355 -0.400365 4.59525 46 48 89 
2.79918 -0.383241 4.70534 106 132 167 
2.85276 -2.23312 7.71181 188 203 246 
0.652736 -2.33345 10.8405 77 94 146 
2.26014 -1.80374 8.34332 36 36 98 
2.84389 -0.613379 4.57996 8 16 37 
2.81883 -0.625563 4.54465 86 109 141 
2.80244 -0.631879 4.73815 80 86 120 
2.80139 -0.639358 4.74789 45 50 80 
-2.16001 0.580024 10.069 29 51 92 
1.4664 0.158025 8.30174 13 20 48 
2.37172 1.27718 6.09475 105 116 170 
2.84691 -0.656465 4.58573 15 19 46 
-3.20019 3.47415 17.6653 32 46 93 
2.82216 -0.60592 4.68038 47 52 90 
2.36893 1.2978 6.1122 24 37 81 
2.84014 -0.599067 4.53364 21 32 62 
2.82535 -0.669179 4.64846 8 20 36 
2.83263 -0.597092 4.60001 41 46 84 
2.78935 -0.338038 4.74946 41 49 88 
2.78507 -0.352114 4.77706 37 40 83 
0.804674 -1.55705 9.24354 80 95 124 
1.5468 -0.217828 8.34834 28 42 81 
2.81758 -0.370647 4.73263 40 44 79 
2.79574 -0.366157 4.75974 29 48 81 
2.79863 -0.381781 4.73709 34 39 77 
1.52264 1.28351 7.95929 22 20 42 
2.83737 -0.581402 4.51916 11 16 38 
2.79111 -0.391054 4.79849 42 38 71 
2.82434 -0.40738 4.47177 31 53 90 
2.833 -0.571378 4.52296 69 90 117 
2.36356 -0.808134 6.64553 37 52 93 
2.78288 -0.415448 4.72515 29 24 56 
2.78145 -0.559671 4.78231 22 18 51 
2.80808 -0.432464 4.73076 26 31 69 
2.64628 -1.02876 5.06019 34 27 58 
1.5659 0.83923 8.06985 13 25 63 
2.82513 -0.445753 4.53445 78 98 125 
2.85386 -0.45679 4.59091 22 32 57 
1.4107 0.699605 8.14494 17 27 63 
2.57845 -0.238781 5.58851 39 44 86 
2.59784 -0.443889 5.63856 24 31 60 
-2.16516 0.649023 10.0808 32 58 109 
2.78824 -0.51103 4.83118 100 119 152 
2.79316 -0.50712 4.81561 41 43 81 
2.68506 -0.887054 5.01893 95 98 87 
1.53711 -0.866357 8.4337 35 47 89 
-2.82695 0.60911 9.96689 21 35 72 
2.02393 -0.828456 8.02351 32 36 61 
-1.88795 -1.14949 10.4376 148 169 216 
1.65946 -2.95093 9.25087 128 146 196 
2.78554 -0.647823 4.6012 85 110 141 
2.77021 -0.558485 4.76536 22 18 51 
2.85485 -0.562372 4.56903 7 15 52 
2.74466 -0.529717 4.70549 12 19 48 
2.77472 -0.453905 4.51884 12 15 46 
2.35863 1.27534 6.04358 16 23 65 
2.80424 -0.451488 4.53061 11 17 39 
2.80181 -0.448316 4.48483 16 14 36 
2.79199 -0.419089 4.53707 23 25 66 
2.81805 -0.409583 4.5013 24 24 62 
2.76437 -0.399144 4.73274 19 22 53 
2.77249 -0.3653 4.6712 23 28 66 
2.81237 -0.357535 4.55235 58 56 103 
-2.28891 -2.01053 11.249 86 99 167 
1.40492 0.811173 8.10737 14 24 51 
-2.30442 -1.58653 11.174 57 101 148 
0.791313 1.31161 8.02462 17 20 51 
2.04526 1.24511 7.51919 28 35 61 
1.54841 0.745177 8.04881 23 25 50 
0.795261 -1.54982 9.19647 88 105 135 
2.02559 0.521532 7.71926 24 33 66 
2.8017 -0.65269 4.70252 9 17 36 
2.33234 0.244481 6.49671 33 43 79 
-2.37927 1.60274 10.3652 3 19 42 
1.58444 -0.703137 8.42273 40 52 100 
1.43773 -0.716844 8.51094 28 43 86 
2.75332 -0.598422 4.74715 19 16 33 
2.8036 -0.577785 4.4782 11 16 38 
-2.06925 0.763504 10.0954 29 34 66 
1.53811 1.20633 8.0363 9 14 36 
1.39434 1.2082 8.00934 26 24 46 
2.05765 0.163794 7.62931 33 33 57 
1.42997 -0.316823 8.42213 24 37 72 
-1.61535 -0.85805 10.362 83 117 145 
2.76323 -0.348717 4.68327 28 28 62 
2.06831 1.22226 7.43311 30 36 62 
1.55525 1.38268 7.93106 12 19 48 
1.40227 1.36646 8.02666 25 30 62 
2.79825 -0.35774 4.79066 29 30 61 
2.83496 -0.423186 4.5903 26 21 61 
2.79017 -0.428529 4.70828 26 31 69 
2.84232 -0.458164 4.60918 24 24 62 
2.79323 -0.525287 4.83614 20 16 39 
2.76963 -0.533313 4.74359 12 13 33 
2.81924 -0.587732 4.78758 11 23 47 
2.82922 -0.603164 4.73145 14 17 52 
2.83519 -0.613173 4.62541 34 33 67 
2.83971 -0.627771 4.57265 71 98 127 
2.83708 -0.655209 4.66749 72 95 127 
1.42746 -0.718715 8.49809 32 47 88 
2.24048 -1.77903 8.27311 186 200 249 
-2.30747 -1.65818 11.1322 181 210 252 
2.62744 -0.264691 5.54615 38 47 80 
1.42882 0.147474 8.31916 16 23 52 
2.34192 -0.028617 6.57302 30 34 61 
1.56877 0.259229 8.21591 12 16 41 
1.55765 1.35879 7.96492 17 19 40 
2.80925 -0.365019 4.71969 22 27 59 
2.8072 -0.385376 4.74898 33 37 74 
2.81741 -0.400394 4.73264 17 33 58 
2.81233 -0.41593 4.76543 35 34 65 
2.02305 1.23479 7.45929 27 39 65 
-3.206 3.46692 17.649 27 36 79 
2.783 -0.383116 4.68075 113 139 176 
-2.21646 0.587588 10.0841 32 38 72 
-2.06425 0.647375 10.0717 28 37 76 
2.80622 -1.15726 4.56713 84 108 142 
2.8015 -0.562824 4.80921 42 39 70 
2.8042 -0.594358 4.83054 42 39 68 
2.86942 -0.606025 4.64455 15 15 43 
2.81065 -0.604433 4.82408 21 18 37 
2.34678 -0.211006 6.51213 28 26 48 
-1.46047 1.06413 10.1465 28 41 75 
2.82863 -0.65657 4.74061 11 14 29 
2.84922 -0.663783 4.63914 20 20 48 
2.84947 -0.678937 4.60271 14 14 26 
2.73153 -1.1327 4.82363 40 29 45 
1.55941 -0.728997 8.49807 39 53 92 
-2.71433 2.17266 9.45715 15 13 34 
2.7011 -0.888994 5.0368 111 117 103 
2.37481 0.947 6.2035 49 63 102 
1.51094 0.763964 8.0559 16 23 51 
2.7719 -0.512114 4.77412 13 15 38 
2.7656 -0.413744 4.69466 20 18 42 
2.75242 -0.582969 4.69846 18 35 65 
2.81159 -0.610549 4.65621 10 15 45 
1.59364 -0.217201 8.36969 11 15 42 
1.1957 -1.82809 9.18348 194 213 255 
1.57773 1.3873 8.00518 11 17 39 
2.79508 -0.400785 4.70165 17 33 58 
1.41005 -0.726517 8.42133 34 46 84 
1.57254 0.21277 8.22312 15 17 40 
1.20239 -1.34876 9.12617 71 84 116 
2.82737 -0.664738 4.60768 13 13 37 
2.644 -1.05678 5.00766 115 131 165 
2.78331 -0.654997 4.63378 15 12 31 
1.42132 0.812651 8.18924 23 28 58 
2.05035 0.520872 7.79313 29 40 72 
1.56604 0.755379 8.09635 21 23 48 
2.07562 0.172064 7.69303 29 34 66 
-2.07482 0.65153 10.1462 24 37 72 
-2.73799 1.62718 9.37945 26 33 61 
2.78726 -1.15216 4.53908 107 130 164 
1.39446 1.28752 8.00528 14 20 42 
2.58913 -0.453513 5.60787 22 23 43 
2.36336 0.108782 6.33754 31 39 62 
2.35271 0.167168 6.43251 30 39 70 
2.68514 -1.1195 4.75413 34 23 39 
2.37849 1.1702 6.12709 37 41 68 
1.47871 -0.729165 8.54315 34 52 90 
2.73143 -0.58012 4.67588 11 23 47 
2.36077 -0.118357 6.39502 34 32 56 
-2.08125 0.71358 10.1626 27 36 65 
2.59306 0.402313 4.52379 135 132 99 
2.31983 -0.145484 6.54475 29 31 52 
-2.08828 0.650445 10.2031 25 40 73 
2.71013 -0.522505 4.6768 9 15 29 
2.75765 -0.524905 4.78362 15 12 29 
2.81074 -0.649574 4.63892 54 78 106 
2.79017 -0.420437 4.71546 15 17 38 
2.64513 -1.07078 5.04213 104 120 154 
1.55916 1.37175 7.96452 15 18 37 
1.42566 0.197889 8.28849 11 16 38 
2.06426 0.106942 7.65831 32 39 68 
1.4044 -0.247169 8.34983 22 32 68 
2.73268 -0.385456 4.71871 24 24 50 
1.54756 -0.234738 8.37874 33 47 84 
2.65662 -0.930045 5.05788 113 131 169 
-2.83313 0.662234 9.95646 23 29 53 
-2.92238 0.974319 9.82595 26 54 94 
1.7441 -1.25811 8.49202 37 41 68 
-2.36419 0.00533855 10.0948 38 48 83 
1.56649 0.273829 8.20461 12 17 39 
1.4444 0.266726 8.23093 10 17 43 
1.54085 0.815088 8.02095 16 21 43 
0.642431 -2.34422 10.8893 110 135 191 
-2.63697 -1.17637 10.7755 100 108 147 
2.36769 1.33402 6.20101 38 50 76 
2.31283 0.233888 6.44448 33 44 72 
2.02777 1.23761 7.48777 28 38 63 
2.00716 -2.23812 8.74576 60 97 142 
-2.16087 1.02158 10.0115 37 56 96 
1.51224 -0.234647 8.25993 25 38 72 
2.32987 0.978374 6.08936 36 43 71 
-1.39753 1.05976 10.1701 36 52 85 
-2.30571 -2.1477 11.286 185 202 255 
-2.28128 -1.6577 11.203 160 165 220 
-2.32538 -1.57121 11.1615 160 199 242 
1.46258 0.18354 8.2616 33 34 62 
0.788159 -1.45322 9.22148 39 55 89 
-2.72882 1.61972 9.5043 59 84 115 
1.26843 -1.19823 8.72576 27 29 50 
2.65878 -0.953287 5.08007 29 28 44 
-1.30641 1.07966 10.2051 29 41 79 
1.4187 -0.821324 8.49544 34 53 93 
1.53496 -0.790083 8.44304 46 58 100 
1.55144 -0.757197 8.4312 35 50 93 
1.41895 -0.712795 8.47406 31 46 89 
-1.44879 0.692484 10.2379 66 73 125 
2.03821 1.61763 7.39775 37 52 95 
2.5633 -1.25781 5.79811 49 58 99 
1.54781 -0.861756 8.45201 38 50 92 
-2.72739 1.61076 9.51134 17 39 80 
2.33722 -1.04729 6.78664 35 44 85 
2.25533 0.993042 4.58683 71 85 112 
1.67542 -2.99482 9.32931 79 96 152 
-2.67586 1.6539 9.51999 27 21 55 
2.02813 0.264858 7.79259 25 36 68 
1.53508 0.283337 8.18843 23 35 75 
1.40649 0.271911 8.23769 28 44 80 
1.40967 0.236993 8.25563 18 23 55 
1.40979 -0.261415 8.36003 12 18 52 
2.64808 -1.03889 5.08747 43 42 76 
0.802144 -1.4408 9.21375 101 122 153 
-2.28633 -1.63395 11.1872 61 77 136 
1.27959 0.191124 7.49287 18 27 60 
1.46013 -0.792446 8.47494 32 46 85 
2.05008 0.246119 7.72201 22 31 64 
-2.71217 1.62733 9.53084 58 53 83 
1.42723 -0.876799 8.51627 38 51 86 
1.42369 -0.401799 8.43548 23 37 76 
-1.30678 0.815602 10.2718 30 36 72 
1.41219 0.781614 8.12136 30 31 59 
2.3541 0.957984 6.22913 45 67 108 
-2.31572 0.639721 10.0454 32 56 92 
1.42303 0.271117 8.25764 7 13 47 
-2.16098 0.580749 10.0872 29 51 92 
1.45698 0.1568 8.27342 13 20 48 
-2.27599 -1.61156 11.1981 148 164 213 
2.06839 0.115131 7.67627 32 38 72 
1.46946 -0.796147 8.5263 37 52 91 
-1.61783 -0.861184 10.3977 83 117 145 
1.27022 -1.19882 8.74025 23 25 40 
2.35225 1.15898 6.18973 33 51 89 
1.56189 -0.240881 8.28476 12 16 43 
1.57674 -0.211796 8.30313 12 18 54 
1.45363 0.274168 8.2362 9 13 42 
1.52422 0.278889 8.18254 10 14 41 
-2.2753 -1.58159 11.1354 58 89 135 
-2.32754 -1.57733 11.1516 185 214 255 
-2.3117 -1.66352 11.2109 192 220 255 
2.58061 -0.261311 5.46317 40 55 96 
2.33959 -0.879029 6.74672 32 33 64 
-2.28658 -1.63273 11.1556 63 85 145 
1.39749 1.36069 7.98696 24 25 56 
-2.20971 0.640301 10.0449 48 51 96 
1.56068 0.256436 8.18139 14 16 39 
1.41174 0.147362 8.24753 17 22 51 
2.57449 -0.32416 5.47621 41 52 84 
1.57316 -0.725135 8.41263 31 45 84 
2.33388 -0.0127438 6.46572 41 44 75 
1.5796 0.286826 8.22151 17 24 68 
1.53688 0.277366 8.23095 7 11 40 
1.41768 0.20516 8.274 9 16 44 
1.4186 0.190668 8.27962 14 16 41 
0.805707 -1.44738 9.23187 110 129 162 
2.05816 0.111521 7.64832 32 39 68 
1.42134 0.147074 8.29646 16 23 52 
1.47339 -0.780883 8.50968 27 41 78 
1.41084 1.24083 8.0615 13 20 46 
-2.27725 -1.57803 11.1251 55 88 129 
1.42409 -0.313927 8.40168 21 34 68 
1.53041 0.138595 8.23789 18 22 51 
-2.33989 -1.57527 11.1819 186 218 255 
1.41282 -0.72401 8.43204 34 46 84 
1.56258 0.829564 8.07199 16 22 46 
1.52041 0.822356 8.08074 11 16 36 
-2.22289 0.643501 10.0814 28 43 82 
-2.18201 -0.558531 10.3858 105 117 157 
1.51389 1.35325 7.95442 16 17 38 
1.40667 0.739091 8.13219 16 24 47 
2.60473 -0.349509 5.34385 34 40 66 
1.45355 -0.298644 8.35267 23 36 68 
-1.40034 0.744385 10.2308 28 47 80 
-1.98449 0.0300432 10.2882 47 40 58 
1.43769 0.802071 8.0988 18 25 51 
1.55941 0.266865 8.18442 11 16 38 
-2.17861 -0.551343 10.3264 110 122 164 
2.32141 1.33977 6.20683 33 38 60 
-2.07898 0.71026 10.114 27 36 65 
-2.35081 -1.5825 11.234 189 219 255 
-1.31811 0.695882 10.339 28 41 73 
0.7971 -1.53632 9.22027 95 111 145 
1.27024 -1.20023 8.77419 19 23 32 
1.40821 0.193983 8.23473 11 16 38 
-2.7218 1.60863 9.52275 25 34 75 
1.54187 0.753103 8.0371 20 24 51 
-1.46554 0.674772 10.1816 24 39 70 
-2.15736 1.01281 9.94826 37 56 96 
2.3294 -0.801423 6.69372 28 30 55 
-1.47402 1.05774 10.1475 28 43 76 
-2.31481 0.631204 10.0699 22 45 77 
-2.30048 -2.14035 11.2767 189 209 255 
-2.21409 1.90403 9.97207 35 45 80 
1.50986 1.28121 7.97346 26 31 63 
-1.40336 0.695587 10.2603 27 51 97 
-2.18968 1.73273 10.041 93 84 111 
-2.21616 2.0112 9.94672 35 46 92 
1.71103 -2.99288 9.31866 54 71 127 
-2.19173 1.95464 9.98181 26 61 99 
-2.18645 1.89035 10.0028 12 41 75 
1.42685 0.120317 8.29207 27 32 61 
1.70362 -2.97108 9.31035 127 147 197 
-2.21754 1.954 9.95725 30 39 80 
1.41884 0.269406 8.24461 7 13 47 
-2.16123 2.09447 10.4789 38 43 73 
1.45511 0.186484 8.27694 18 22 49 
1.61732 -0.826761 8.98064 37 52 91 
1.4307 -0.829236 8.51312 31 45 82 
1.7023 -3.03926 9.3222 185 207 254 
-2.2797 -1.66181 11.2218 187 190 245 
1.39815 1.29922 8.00175 11 18 44 
-2.16191 2.2666 10.4406 22 30 53 
-2.2216 1.9481 9.96503 16 22 48 
-2.18243 1.87774 9.97481 15 34 66 
-1.3115 0.748653 10.2907 38 43 72 
-1.67057 1.93852 9.84465 8 17 46 
2.51356 -2.10583 7.07733 123 128 184 
1.46041 -0.779951 8.46944 27 41 78 
-2.1783 1.9383 9.94923 9 23 50 
1.42274 -0.72973 8.46142 34 46 84 
1.4338 1.3582 7.97683 21 22 42 
-1.31357 1.06703 10.2039 23 34 62 
1.40248 1.29266 8.0292 14 20 42 
1.55029 0.823084 8.04735 15 21 43 
1.18732 -1.33965 9.07078 71 84 116 
-2.83015 0.656659 9.93069 23 29 53 
1.41204 -0.237863 8.35774 16 26 61 
-2.89827 0.589026 9.86136 28 46 82 
2.86306 -0.658426 4.60317 32 42 78 
1.44796 1.28022 4.08618 132 139 167 
3.01796 0.755955 3.54291 40 64 110 
3.07232 0.752659 3.53776 31 37 87 
2.38584 1.34541 6.20009 44 61 107 
3.03021 0.739006 3.50441 31 37 87 
2.07425 1.59351 7.40401 31 44 97 
2.38799 1.29232 6.10582 30 36 96 
3.05348 0.708218 3.4952 23 26 81 
3.05703 0.704246 3.51063 99 110 164 
-0.875505 2.00243 9.37955 90 112 159 
2.88257 -0.629376 4.62547 51 70 102 
3.05027 0.680066 3.5353 33 38 93 
3.00813 0.667231 3.50177 44 45 91 
1.43183 0.727276 8.18678 50 55 87 
1.43426 0.702835 8.14437 32 50 88 
-1.30604 1.08228 10.2201 46 53 99 
3.05509 0.558102 3.49041 34 48 87 
1.54925 1.38103 7.91346 21 33 75 
2.37297 0.963582 6.26188 57 80 124 
-1.64665 1.68284 9.75135 74 100 135 
1.46084 0.735838 8.15238 36 39 74 
1.44781 0.731375 8.16853 40 54 89 
2.30971 -1.6992 8.20685 25 37 77 
-1.45381 1.06738 10.1358 62 64 112 
2.036 0.528358 7.7516 33 46 88 
2.06155 0.52493 7.77891 31 39 75 
2.37004 0.227858 6.43278 55 72 118 
2.39032 0.208317 6.35061 37 52 95 
2.06611 0.358857 7.72891 37 40 81 
2.37256 -0.104517 6.51387 43 53 89 
2.38237 0.951248 6.20958 49 68 110 
2.37416 -0.188856 4.24866 116 135 167 
-1.45 0.602343 10.2546 54 56 104 
2.81387 -1.13253 4.49557 50 57 103 
3.06639 -0.360385 3.83372 53 75 125 
2.80435 -1.10854 4.5837 114 111 96 
1.45751 0.126918 8.30226 17 31 66 
3.06846 -0.382995 3.70981 51 64 109 
2.78886 -0.287762 4.70725 39 44 82 
2.3496 -0.136767 6.5755 62 75 117 
2.38324 -0.164113 6.4599 39 50 96 
2.79282 -0.329173 4.78257 50 49 91 
2.38452 -0.18048 6.35441 55 56 87 
1.43752 -0.850839 8.51422 47 60 102 
2.36689 -0.22163 6.66363 45 57 99 
2.35593 -0.231322 6.6055 23 31 67 
2.83944 -0.398846 4.75222 21 40 82 
2.80014 -0.405614 4.77489 36 43 85 
1.44964 -0.825534 8.5455 39 50 96 
2.87485 -0.451992 4.54427 22 28 64 
1.46447 -0.797334 8.51565 56 73 116 
1.56499 -0.7856 8.47591 44 57 99 
2.06865 -0.868577 7.82228 28 32 67 
1.44111 -0.769179 8.50776 47 60 104 
1.45674 -0.219998 8.34988 46 59 111 
1.459 -0.741512 8.47619 42 59 103 
2.83867 -0.570271 4.61011 39 39 89 
1.5474 -0.737912 8.45862 55 72 118 
2.75888 -0.572735 4.7702 99 112 144 
1.47539 -0.311542 8.40307 39 47 86 
2.83275 -0.622149 4.8095 22 37 78 
3.04989 -0.706639 3.845 52 54 93 
2.04344 -0.512607 7.91796 34 43 86 
3.03276 0.569633 3.53895 36 54 94 
3.02973 -0.807892 4.02122 37 49 89 
2.04037 -0.591473 7.99574 38 42 79 
3.02183 0.364503 3.57329 38 53 96 
2.84367 -0.286925 4.47494 49 66 110 
2.66456 -1.06074 5.08764 24 32 68 
2.81928 -0.654593 4.65022 91 115 151 
2.85504 -0.629297 4.59128 96 119 151 
2.84827 -0.615025 4.6416 34 35 79 
2.80557 -0.597466 4.69731 33 46 99 
2.85486 -0.598163 4.62315 25 32 74 
2.77919 -0.368702 4.68454 33 46 91 
2.83708 -0.4518 4.53487 22 22 56 
2.86093 -0.416463 4.5865 11 24 69 
2.78109 -0.401838 4.75379 30 39 78 
2.82943 -0.45762 4.59209 28 28 66 
2.24871 -1.95703 8.23101 47 72 129 
2.36701 -0.237132 6.5846 26 36 71 
0.802474 -1.5554 9.2298 99 111 149 
2.32468 -1.70459 8.24187 29 42 84 
0.772322 -1.44608 9.16912 50 58 104 
1.5402 1.29621 8.0014 32 32 58 
1.43497 -0.227564 8.39061 27 40 85 
1.28201 -1.21198 8.76423 56 70 99 
1.4259 0.179835 8.27734 32 37 69 
2.37608 1.26714 6.09413 116 135 194 
1.41607 0.825899 8.17746 50 68 108 
3.0364 0.697259 3.49264 107 118 174 
-0.873974 2.00737 9.40225 90 108 154 
1.56719 0.74596 8.08915 30 35 67 
1.4294 0.705461 8.1909 20 29 68 
2.77562 -1.15055 4.80269 31 32 53 
2.79895 -0.631289 4.73393 91 97 133 
3.03125 0.704177 3.49812 11 18 70 
2.01941 0.524862 7.71933 33 46 88 
3.02272 -0.695077 3.87952 22 36 73 
2.05039 0.52608 7.76193 30 38 75 
2.07847 1.57498 7.36131 32 39 91 
1.42613 0.216244 8.3112 32 47 88 
2.67428 -1.03108 5.08861 61 68 112 
1.44011 -0.380024 8.43839 53 67 106 
1.45052 -0.86956 8.46404 48 59 105 
1.4735 -0.844648 8.50043 43 52 95 
1.57411 -0.858393 8.42658 49 57 104 
2.0751 -0.913239 7.90614 35 43 80 
1.45226 -0.826084 8.55672 39 50 96 
2.06268 1.59101 7.38063 41 57 109 
1.5821 -0.730931 8.4511 60 77 120 
2.34752 -0.13083 6.6115 49 66 110 
1.55126 0.25 8.24336 30 33 68 
1.42448 0.123579 8.32516 21 33 71 
1.44358 -0.747686 8.51296 41 54 98 
1.53645 -0.734498 8.4241 44 56 104 
1.45527 -0.82507 8.49614 35 52 95 
2.39953 -0.249414 6.40825 34 38 73 
1.56332 -0.729101 8.4623 40 51 96 
2.80637 -1.15555 4.56045 149 167 205 
-0.883892 2.04439 9.35247 89 97 143 
3.05296 0.715689 3.50315 95 124 184 
3.05848 0.709165 3.52156 11 18 70 
1.43549 1.3357 8.00894 21 24 55 
2.39071 1.30852 6.12538 114 136 196 
2.85 -0.393809 4.56965 39 55 91 
2.83271 -0.322231 4.73094 126 148 189 
1.5235 1.23198 8.00293 16 21 51 
1.53621 0.804842 8.09606 19 16 43 
1.44027 0.821418 8.09952 23 36 80 
1.44171 0.789835 8.12606 27 33 65 
2.07983 -0.976104 7.93394 20 28 64 
2.05356 -0.900389 7.98856 33 35 73 
2.39392 0.19706 6.30767 30 42 82 
1.45205 -0.793262 8.47178 36 50 95 
1.45253 -0.766843 8.45141 34 44 93 
1.43956 -0.745866 8.5381 37 56 99 
1.56919 -0.729011 8.4054 37 51 98 
1.46773 -0.711304 8.47003 38 46 95 
2.07507 0.227886 7.67308 29 42 84 
1.5682 -0.697367 8.38062 37 49 99 
2.05406 -0.669512 7.95302 46 59 91 
1.43835 0.272421 8.30393 7 15 52 
1.54754 0.222756 8.24537 12 17 47 
1.57376 0.197277 8.23472 23 29 63 
1.58332 0.167281 8.25283 26 36 72 
3.06695 -0.700305 3.92272 28 35 64 
2.88468 -0.326259 4.52845 36 44 83 
2.83922 -0.338755 4.74042 19 32 67 
2.80799 -0.331238 4.80393 74 78 123 
2.80104 -0.336688 4.76267 27 35 74 
2.84756 -0.360269 4.595 46 48 97 
2.80795 -0.591354 4.82945 23 24 55 
2.38256 -0.258654 6.48812 46 61 104 
1.54718 -0.218543 8.34906 24 39 78 
2.80691 -0.536107 4.78458 11 20 59 
2.85428 -0.56328 4.56805 13 24 70 
2.80942 -0.560106 4.86746 21 25 60 
1.46596 1.34813 8.05244 20 19 50 
2.34223 -0.226902 6.62696 37 45 84 
3.06352 0.704537 3.53949 42 45 96 
2.05906 0.0655259 7.78467 39 45 77 
2.86731 -0.661837 4.66316 37 42 84 
-1.63221 1.67434 9.7742 30 37 83 
1.42969 -0.408092 8.43737 31 44 88 
2.35666 0.229035 6.46323 39 51 91 
1.55744 -0.818074 8.48404 38 50 98 
1.5521 -0.761873 8.45616 36 50 97 
2.03292 -0.565088 7.98879 39 44 76 
1.55735 -0.844826 8.50513 39 57 103 
2.03142 -0.606142 7.91474 44 49 81 
1.39616 1.32827 8.0082 36 37 68 
2.82107 -0.605004 4.83415 20 20 44 
2.84833 -1.16088 4.47106 126 138 176 
2.03192 -0.829768 8.04302 40 45 74 
2.82614 -0.350925 4.76324 45 50 88 
3.0596 0.366168 3.60466 34 46 88 
1.46996 -0.880394 8.52743 40 54 99 
2.7552 -1.13614 4.85527 63 50 67 
1.57884 1.39351 7.99144 22 35 79 
1.53815 0.830427 8.1116 10 17 45 
1.56953 0.809406 8.09786 21 20 52 
1.58306 0.287595 8.222 29 34 76 
1.52603 0.276047 8.18702 9 18 49 
1.42825 0.242028 8.29912 12 20 56 
1.46798 0.214355 8.29061 9 14 46 
1.44791 0.152817 8.35843 14 23 54 
2.81269 -0.324844 4.7365 20 28 67 
2.78953 -0.357985 4.77935 26 29 70 
2.84137 -0.394732 4.58855 22 23 67 
2.79865 -0.385038 4.73837 20 28 67 
2.82516 -0.418862 4.5557 10 13 54 
2.82981 -0.601805 4.59614 15 20 50 
1.44853 -0.718548 8.54439 41 59 107 
1.46199 -0.772494 8.47807 32 45 90 
1.42661 1.37485 8.07355 24 36 74 
1.45845 1.34882 8.06352 21 24 55 
1.54439 1.26337 8.04291 11 17 49 
1.53745 0.809051 8.13215 15 20 50 
1.58641 0.226158 8.26293 8 21 56 
1.41348 0.185499 8.26521 14 19 51 
1.57222 0.163606 8.2336 28 38 74 
1.54337 0.161309 8.26138 23 31 68 
2.36659 -0.204372 6.62643 37 44 73 
2.59214 -0.447554 5.62791 29 32 63 
2.82041 -0.570994 4.50937 114 133 163 
2.78404 -0.591873 4.80512 25 26 56 
2.79791 -0.603061 4.808 31 32 62 
1.45247 -0.744457 8.56184 35 53 99 
1.43478 -0.779609 8.51443 39 53 98 
2.84071 -1.1412 4.52874 39 45 81 
2.06086 0.202792 7.87122 35 39 68 
3.01551 0.726798 3.47996 100 122 182 
2.34993 0.180635 6.5484 45 53 92 
2.03061 -0.736276 8.02753 36 40 69 
2.98802 -0.672792 3.96647 39 39 73 
2.7943 -0.658783 4.66126 27 28 58 
-1.6376 1.66008 9.69266 30 37 83 
2.99951 0.709638 3.47924 25 32 86 
3.00695 0.697155 3.45124 15 15 65 
3.00779 0.699006 3.48763 20 22 73 
2.06542 -0.600759 8.0747 33 39 73 
1.47981 -0.737391 8.52532 35 52 96 
1.56571 -0.779199 8.4019 42 56 103 
1.528 1.20095 8.00733 16 20 49 
2.65545 -0.9529 5.08165 43 40 59 
2.72115 -0.963383 5.1738 30 24 38 
2.35367 0.179133 6.53374 46 55 88 
2.36477 0.0767765 6.46936 43 57 94 
2.78084 -0.415171 4.72346 29 28 60 
2.82007 -0.580733 4.49759 36 42 74 
3.02612 0.6735 3.51667 38 40 89 
3.06779 0.75931 3.59217 26 41 72 
2.02235 -0.516067 7.86028 44 51 95 
3.09226 0.727013 3.53545 90 120 182 
2.38049 1.2975 6.13774 64 74 123 
2.86076 -0.674616 4.69484 10 16 38 
2.88744 -0.671212 4.68198 27 26 58 
2.87502 -0.66392 4.74864 27 28 58 
2.83176 -0.632159 4.82225 14 15 36 
1.55516 1.36192 7.95762 15 25 52 
1.4298 1.36352 7.97688 27 31 68 
2.89689 -0.634311 4.63732 81 102 133 
3.05446 -0.677987 4.02803 35 35 69 
2.86296 -0.61532 4.72058 17 15 54 
1.46108 1.35946 8.07302 19 26 55 
2.84205 -0.596573 4.86128 17 18 39 
2.87092 -0.593241 4.85011 16 21 43 
-1.63761 1.66332 9.7039 17 24 70 
2.83565 -0.56968 4.83245 15 17 40 
1.56953 -0.234215 8.31624 4 15 43 
3.06667 0.690938 3.53158 99 123 185 
1.55011 0.833479 8.04796 14 28 73 
2.83947 -0.515233 4.86172 24 28 65 
1.52478 0.259929 8.19799 6 17 47 
1.45712 -0.743212 8.57219 36 53 99 
1.42732 0.262343 8.29138 7 18 48 
2.0698 -0.916369 7.9255 26 34 70 
-0.883171 -1.15467 11.3131 183 212 254 
2.37689 -0.248235 6.56043 28 33 63 
1.44309 0.151762 8.24713 9 18 49 
1.44228 0.133607 8.24947 10 21 51 
1.41696 0.126934 8.28831 17 23 59 
2.37718 -0.183981 6.36232 33 34 65 
2.84046 -0.360996 4.55905 14 18 53 
2.84998 -0.351147 4.78745 45 50 88 
2.83899 -0.387646 4.7483 124 149 189 
1.55081 -0.710162 8.47057 46 60 105 
3.0434 -0.72359 3.7196 23 25 46 
3.07162 -0.437366 3.9888 54 57 92 
2.83249 -1.15708 4.55084 32 31 73 
1.53288 -0.775519 8.43017 32 51 94 
3.09864 -1.06068 3.82477 59 63 110 
2.77447 -1.14809 4.52951 137 161 199 
2.8182 -0.659853 4.68068 20 18 42 
3.04869 -0.5608 3.79987 31 32 62 
2.37255 0.223129 6.46366 38 48 83 
2.39416 0.206845 6.38321 40 52 90 
1.392 0.801852 8.10074 20 31 59 
1.59022 0.839912 8.1504 7 22 55 
1.47646 0.273555 8.30491 7 16 47 
1.488 0.20561 8.35368 8 14 46 
1.4182 0.196164 8.28195 10 19 52 
2.85552 -0.319321 4.51154 22 27 49 
2.81378 -0.340298 4.71268 32 46 85 
2.88145 -0.38737 4.55801 27 26 57 
2.80525 -0.361874 4.7966 26 28 66 
2.82244 -0.450597 4.50803 25 26 56 
2.79778 -0.527694 4.83553 19 16 43 
1.41065 -0.241928 8.35142 28 43 82 
2.82131 -0.610157 4.72499 11 15 50 
3.04952 -0.719955 3.76018 20 21 52 
2.6532 -1.04163 5.08227 22 18 45 
2.26304 -1.95887 8.2387 19 39 100 
2.14782 -1.88521 8.79008 219 228 255 
2.84446 -0.676484 4.68177 18 25 51 
2.82274 -0.652908 4.75249 16 19 34 
2.35427 -0.237192 6.62519 33 33 59 
1.58162 0.214011 8.24917 17 23 55 
3.06584 -0.727771 3.74432 29 31 54 
1.45979 0.136143 8.2833 15 18 49 
1.49181 -0.299236 8.46988 28 42 81 
2.37949 -0.141021 6.65868 37 50 85 
2.04143 -0.509567 8.00569 31 45 82 
2.42355 0.115214 6.44762 34 49 82 
1.53903 1.3678 7.89646 20 23 54 
2.02853 -0.890731 8.05897 37 42 72 
2.39728 -0.273551 6.49021 22 32 57 
1.44832 -0.728983 8.54246 35 49 94 
1.44482 -0.717915 8.41476 38 50 92 
1.54884 -0.715753 8.44796 40 52 100 
-1.31497 0.687421 10.2544 37 45 82 
2.59945 -0.250964 5.6172 44 54 90 
1.56777 0.756141 8.10131 24 30 62 
0.812813 -1.55137 9.27747 104 118 155 
1.45483 -0.782637 8.45829 33 44 89 
2.71489 -1.02039 5.09662 51 53 78 
3.01588 -0.569918 3.6956 30 37 63 
2.78089 -1.03134 4.4455 116 128 166 
2.99729 0.669371 3.44971 103 123 184 
2.35143 0.186495 6.23622 37 46 77 
2.89377 -0.420561 4.57471 17 15 36 
2.36177 -2.03841 8.98708 23 25 63 
1.19374 -1.85973 9.22061 31 26 49 
2.77297 -0.572609 4.76378 17 19 40 
1.56295 -0.227303 8.29235 9 14 43 
2.87394 -0.678062 4.66412 19 17 39 
2.78644 -0.608757 4.68977 13 16 47 
1.44554 0.262843 8.3359 8 19 49 
2.0101 -0.83516 7.91405 37 42 74 
2.78276 -0.353718 4.6912 22 28 54 
2.83096 -0.39003 4.84513 65 68 111 
2.88999 -0.679469 4.73894 29 29 53 
