ply                 
format ascii 1.0    
element vertex 1343
property float x    
property float y    
property float z    
property uchar red  
property uchar green
property uchar blue 
end_header          
1.59317 -0.699112 8.44808 37 44 90 
2.04249 -0.580039 7.88624 30 43 75 
-3.19233 -0.384171 8.42509 47 36 66 
1.43468 -0.400215 8.41921 36 50 89 
1.42015 -0.342984 8.40764 41 54 96 
2.59538 -0.279812 5.30155 39 49 76 
2.37761 -0.263447 6.38314 31 42 74 
0.786391 1.30802 7.99509 12 16 45 
-1.97359 0.0285624 10.2294 58 51 84 
2.35945 -0.0446838 6.28592 40 45 77 
2.34722 -0.0343119 6.44604 39 61 100 
2.37012 -0.0360307 6.36953 33 40 69 
2.34071 -0.013115 6.48638 46 51 81 
2.04378 0.0626488 7.73986 26 39 71 
1.41409 1.26063 4.02801 116 127 155 
1.67973 -2.9671 9.30809 149 161 213 
2.51065 -2.09313 7.05488 17 6 82 
2.53178 -2.07617 7.02051 20 10 63 
-2.17178 0.561336 10.1319 38 65 110 
-2.06697 0.566902 10.1599 33 41 78 
2.35204 0.128396 6.23063 25 28 59 
2.23776 -1.9507 8.19741 16 17 82 
1.41503 0.216887 8.271 39 47 84 
1.13591 0.14022 6.62674 15 19 44 
1.41906 0.177882 8.27386 18 19 47 
1.52913 0.168983 8.24418 33 38 68 
1.41524 0.15609 8.29321 29 33 68 
2.36952 1.29576 6.08234 95 116 171 
-2.9728 0.599349 9.90105 42 53 99 
-2.92913 0.600882 9.92867 37 60 110 
2.33923 -0.143935 6.50445 23 36 71 
2.36354 -0.153076 6.50862 44 68 106 
-2.21748 0.762089 10.0588 34 43 86 
2.37341 -0.175888 6.35398 28 38 73 
1.59171 -0.20828 8.36367 14 22 59 
1.16291 -1.98867 10.3914 133 162 220 
2.3543 -0.231175 6.42231 38 38 74 
2.35046 -0.2376 6.50398 33 51 89 
-3.20357 -0.235476 9.14855 50 62 102 
-3.35674 -1.54201 9.90273 26 65 122 
1.43277 0.822094 8.08787 21 33 71 
-3.35856 -1.52363 9.89538 69 112 163 
1.55685 0.836704 8.03006 17 27 63 
0.809331 -1.56199 9.26971 85 94 127 
-2.27278 -1.71402 11.2499 139 143 190 
-1.6128 -0.856616 10.3785 91 121 149 
-2.29053 -1.63994 11.2161 67 78 132 
1.45215 1.27996 8.03994 25 27 50 
-2.2799 -1.61499 11.2119 132 155 199 
0.802298 -1.43726 9.19352 88 107 139 
-2.32367 -1.57531 11.1607 159 202 245 
-2.67409 1.65342 9.51286 37 34 63 
-2.26086 -1.57522 11.1881 187 206 249 
-2.4546 -1.44949 11.1289 174 205 251 
1.43431 -0.383742 8.46784 35 48 83 
-2.06633 0.795079 10.0919 42 45 80 
1.46834 0.123906 8.28714 36 41 71 
1.52864 -0.216016 8.30017 33 45 87 
1.43619 0.705583 8.1268 21 32 64 
1.50913 0.714035 8.06238 40 50 86 
2.63358 -1.04052 5.01682 59 79 112 
-3.34574 -1.57099 9.92141 11 30 63 
1.41729 1.19445 8.06043 3 15 41 
1.4372 -0.712455 8.48593 41 52 98 
2.33162 0.160778 6.42179 41 45 74 
2.33246 -0.86874 6.73725 44 52 91 
2.04537 -0.842327 7.95925 27 41 70 
1.46782 -0.871412 8.51034 36 45 88 
0.789224 -1.45292 9.21824 39 51 89 
1.55274 1.38191 7.90337 24 40 73 
2.31727 -1.15186 6.761 35 42 84 
1.46582 -0.316608 8.37497 33 47 84 
1.42017 0.724839 8.15618 23 30 58 
1.53905 -0.214107 8.29601 31 43 83 
2.65358 -0.951822 5.07274 22 25 42 
-1.45395 0.807431 10.2424 36 46 82 
1.5176 1.26593 7.99696 29 39 74 
-3.73462 -0.815936 7.61975 52 82 132 
2.05285 1.54194 7.36193 38 46 93 
1.63433 -2.16552 8.50626 24 68 105 
2.33657 -0.855183 6.69847 29 42 76 
1.41908 -0.820934 8.48649 39 48 89 
2.36263 1.33923 6.16089 45 70 111 
-2.81317 0.718449 9.88637 34 40 74 
2.3395 -0.858202 6.65743 36 42 76 
-2.28069 0.553749 10.1062 36 45 84 
1.54528 1.20807 7.96 21 33 59 
-2.81839 0.51493 9.95074 29 34 72 
1.47253 -0.870151 8.49564 38 51 95 
1.53219 1.38633 7.98942 16 21 50 
-2.66002 1.64189 9.44247 37 34 63 
2.53798 -2.06396 7.03529 57 44 114 
1.45015 0.158437 8.23229 12 17 47 
1.53897 0.129786 8.27035 26 29 60 
2.55096 -2.22575 6.9819 127 132 188 
1.58209 -0.211069 8.33557 15 16 44 
-2.59862 -1.27259 11.0202 37 46 103 
2.3555 1.28833 6.05193 95 116 171 
-2.2852 -1.66414 11.2232 145 150 205 
-2.31243 -1.66801 11.2125 188 212 255 
-2.31637 -1.68987 11.1981 58 83 139 
-2.32062 -1.71077 11.2237 61 88 143 
0.809331 -1.56199 9.26971 85 94 127 
1.69038 -3.04783 9.36392 200 219 255 
1.67886 -3.01997 9.35624 165 186 233 
2.21318 -1.86068 8.97312 59 76 106 
2.35581 1.27875 6.08527 29 35 83 
1.41608 0.821521 8.13767 18 26 62 
1.58175 -0.272378 8.35705 33 37 82 
1.53656 -0.253243 8.32629 43 53 89 
1.41015 -0.22788 8.35155 42 52 88 
0.620436 -2.33607 10.8626 100 129 187 
-2.13025 -1.379 10.4078 75 104 138 
2.33133 -0.13424 6.57945 38 38 72 
1.55827 1.38471 7.93093 13 23 48 
2.03239 0.0640118 7.71372 29 36 65 
2.3438 0.0547763 6.47216 29 38 69 
2.03708 0.357018 7.6713 32 37 67 
2.3183 -0.205235 6.53301 24 31 59 
2.0864 0.117316 7.73889 37 45 82 
1.393 1.26585 8.00662 20 21 49 
2.02546 0.259373 7.77984 27 32 64 
2.34213 0.246922 6.52428 49 54 94 
1.41733 -0.378173 8.39376 31 41 77 
2.58469 -0.33441 5.41922 52 54 92 
2.35291 0.849687 6.16037 29 33 68 
-3.35293 -1.54679 9.94749 11 26 57 
-3.0736 0.587541 9.8838 32 54 95 
-2.17222 0.650862 10.1172 37 59 108 
-2.75659 1.64872 9.46836 18 38 73 
-2.06987 0.766749 10.1084 23 31 68 
1.44427 1.1946 8.03525 14 21 50 
2.56957 0.890071 5.07776 78 103 157 
2.37525 1.30104 6.12711 34 42 91 
2.34103 -0.875638 6.75577 43 45 83 
1.4203 1.19627 8.08934 9 15 39 
1.58329 -0.696092 8.41117 37 44 90 
1.55975 -0.696234 8.35557 38 46 92 
2.04525 0.134212 7.76293 28 39 71 
1.54819 1.20111 7.92164 17 25 48 
2.34259 -0.856823 6.71991 25 31 63 
2.3502 1.07045 6.20436 31 48 78 
1.54672 0.131529 8.15142 40 48 85 
1.56947 -0.388012 8.31552 30 40 76 
2.34016 -0.852368 6.763 50 54 92 
2.59276 -0.441663 5.63971 46 51 83 
-2.82172 0.603043 9.94339 29 39 75 
2.61173 -0.273851 5.39913 21 40 72 
-2.2194 0.686408 10.0908 68 76 115 
-3.19194 -0.0297771 7.9727 50 51 71 
2.34745 1.28458 6.02969 95 116 171 
2.37399 1.27908 6.09757 91 107 158 
2.55892 -2.09307 7.1062 157 148 211 
2.3505 1.2445 6.07649 40 38 77 
0.75282 1.48491 8.10451 10 13 32 
1.57216 1.39459 7.98439 13 23 48 
1.54921 1.28954 7.94423 20 24 49 
1.39788 1.27059 8.01964 20 21 49 
1.40627 1.18254 8.03852 8 13 33 
1.56924 0.83976 8.09705 17 23 49 
1.56923 0.747812 8.12414 22 26 55 
1.41538 0.72791 8.17956 21 26 56 
1.44985 0.702257 8.14045 16 23 49 
1.42311 0.701717 8.19232 18 24 56 
2.02463 0.520616 7.70381 27 33 65 
2.04976 0.310637 7.56421 21 25 54 
1.42405 0.152372 8.28559 13 17 46 
1.41966 0.122977 8.29175 18 20 45 
2.34692 -0.0341834 6.49746 26 30 55 
-3.06009 0.52159 9.86023 28 44 80 
2.23568 -1.78797 8.26444 20 4 77 
2.36396 -0.165733 6.42267 33 36 77 
2.26699 -1.78951 8.32289 153 148 206 
1.58745 -0.212356 8.35159 11 14 45 
2.3397 -0.217414 6.4772 21 30 61 
2.59892 -0.265348 5.30844 35 40 62 
1.57067 -0.332818 8.31694 29 38 77 
1.43529 -0.351993 8.44364 23 35 73 
1.5874 -0.702696 8.43245 34 46 86 
-2.15007 -1.39643 10.5631 87 121 158 
-1.62837 -0.86789 10.4931 96 130 158 
-3.34028 -1.64933 9.95988 64 105 161 
2.33334 -0.964043 6.75127 30 35 73 
-2.479 -1.48419 11.1781 38 70 131 
-2.25232 -1.57467 11.1688 195 214 255 
-2.27903 -1.58734 11.1618 58 91 136 
0.807425 -1.45096 9.25843 108 131 165 
-2.31138 -1.62184 11.1857 192 220 255 
0.809872 -1.5658 9.28738 81 89 125 
2.59855 -0.259012 5.32843 28 26 50 
-3.36951 -1.55648 10.0091 25 41 74 
2.37346 1.28863 6.06703 13 28 67 
-2.29597 -1.63359 11.3172 154 171 215 
2.37539 1.26367 6.09144 94 112 174 
2.31953 -0.0232841 6.48862 23 38 67 
2.63309 -0.869233 4.94727 77 86 81 
2.5689 -0.421419 5.55457 25 31 57 
2.57796 -0.441239 5.60212 24 28 53 
-2.97179 0.53049 9.91689 32 36 71 
-2.06025 0.554483 10.0873 31 36 66 
1.44323 1.33825 8.02054 24 24 48 
-2.07524 0.764748 10.1301 25 31 67 
-3.20138 0.66404 8.19481 52 40 54 
1.44328 1.28042 8.04819 20 18 40 
1.5387 -0.786354 8.42724 39 52 96 
2.38655 0.858827 6.23965 34 37 72 
1.42276 1.2526 8.10343 16 19 38 
1.44603 1.22283 8.06362 20 20 46 
2.35835 -0.866479 6.67123 28 31 62 
-2.59612 -1.26022 10.9468 29 35 85 
-2.26372 -1.58071 11.2347 195 214 255 
0.807398 -1.45005 9.26859 105 128 162 
-2.32084 -1.62068 11.2236 200 224 255 
-2.32434 -1.67404 11.2407 191 214 255 
1.5396 0.282578 8.25844 17 18 48 
2.27005 -1.79694 8.35705 164 165 222 
2.24824 -1.92053 9.06852 102 125 179 
1.43911 -0.7436 8.54592 36 48 88 
1.44295 1.31112 8.03531 11 17 41 
2.0621 0.489379 7.57546 28 37 66 
-2.69617 1.66794 9.57777 22 18 43 
-2.9256 0.702079 9.89128 26 51 92 
1.18139 -1.33767 9.03316 76 92 126 
1.18627 -1.32182 9.01888 70 95 125 
-2.07584 0.652052 10.1459 30 40 75 
1.47778 -0.718847 8.52711 36 45 86 
1.55038 -0.70719 8.4845 44 53 96 
-3.09135 0.594409 9.94482 42 65 107 
-1.60862 -0.856038 10.2893 96 130 158 
1.52172 0.770706 8.09829 19 23 52 
1.4103 0.789723 8.15995 19 25 51 
1.4506 0.800922 8.15917 19 25 51 
-2.22686 0.75409 10.0676 31 39 76 
1.56544 0.257701 8.19975 12 14 37 
1.53876 0.253513 8.25549 16 18 41 
2.01948 -0.822227 8.01601 29 29 57 
1.54152 0.221895 8.26951 17 19 44 
2.63631 -0.946141 5.06027 14 13 21 
2.33661 -1.16692 6.81227 37 42 80 
1.43067 0.186287 8.34948 14 18 45 
1.42759 -0.295019 8.40291 23 32 71 
1.54334 0.16104 8.28012 15 16 44 
2.05537 0.111389 7.63351 27 33 65 
2.35142 0.0613938 6.35619 57 61 98 
1.43227 0.12485 8.35981 17 19 44 
2.37135 1.30452 6.0889 89 115 172 
-1.98663 0.0323314 10.3019 55 49 75 
1.27393 -1.20124 8.76242 20 26 38 
1.44446 1.37237 8.01006 20 23 54 
2.35406 -0.259105 6.41393 31 32 62 
1.41308 1.37673 8.07188 29 35 67 
1.44685 1.25204 8.0563 15 22 41 
1.53162 -0.216061 8.31576 33 45 87 
1.42201 -0.229152 8.37214 28 37 76 
0.734472 1.34831 7.96805 35 46 78 
1.42331 -0.350963 8.41665 27 39 77 
1.4166 1.28591 8.0927 18 23 45 
2.36892 -0.0597354 6.40066 30 32 57 
2.35291 0.146351 6.29643 19 26 44 
1.49152 -0.788923 8.60443 30 39 78 
1.53668 1.36043 7.84678 18 23 42 
1.44921 1.36828 8.02985 25 26 47 
-2.73696 1.62083 9.56885 17 29 67 
-2.40467 -2.17246 11.1834 110 148 210 
2.59168 -0.349742 5.31738 25 30 50 
1.42348 -0.30102 8.38589 22 35 70 
2.34983 -0.860626 6.6393 28 37 68 
2.62871 -1.04262 5.03148 18 20 43 
2.3837 -0.172901 6.45512 29 31 54 
-2.14583 -1.42443 11.2135 184 193 236 
-2.07489 0.647266 10.1404 29 38 71 
-2.89559 0.589093 9.81445 26 47 94 
-2.97878 0.586733 9.91387 33 41 80 
0.812682 -1.45606 9.28893 105 128 162 
1.54604 0.279903 8.27328 12 13 41 
2.03575 0.181973 7.71136 36 41 70 
2.3622 0.0604835 6.33604 24 31 50 
1.45012 1.25179 8.075 16 21 41 
1.5798 0.15956 8.25385 19 23 48 
-3.09952 0.59168 9.9849 32 54 95 
-2.3179 0.63052 10.0817 29 47 85 
-3.06345 0.635935 9.84021 30 46 82 
2.3327 0.0240777 6.28664 25 30 49 
1.4621 -0.716809 8.44109 32 46 81 
-2.77112 1.65852 9.53749 25 41 77 
1.55551 0.767336 8.05276 16 24 45 
2.53036 -0.300041 5.51212 26 24 46 
2.31706 1.33734 6.18597 32 38 60 
2.03705 -0.893836 7.94202 29 40 72 
2.62466 -0.888461 5.02246 112 132 167 
-1.99787 0.0304476 10.3616 55 43 65 
-3.18643 0.0313714 8.19624 49 32 38 
-2.28546 -1.58285 11.1242 55 93 132 
2.26257 -1.91216 9.07862 195 219 255 
-2.72151 1.61087 9.52065 12 20 57 
-2.34594 -2.17238 11.3005 75 117 159 
2.5568 -0.324962 5.43926 30 35 65 
-3.28247 -1.66598 10.0744 136 165 221 
0.81539 -1.46587 9.32011 112 132 169 
-2.15585 0.641517 10.0653 35 52 95 
-2.2366 -1.46428 11.1304 83 116 151 
2.32662 0.236452 6.46835 27 33 59 
1.45205 0.195891 8.23288 11 16 36 
1.47318 1.38894 8.15434 22 26 51 
2.60211 -0.349166 5.34232 34 40 66 
2.55641 -0.302141 5.5692 35 32 61 
-3.17565 -0.0112782 7.93381 36 29 37 
1.57858 0.840781 8.15018 17 24 53 
1.43122 -0.245786 8.4261 21 31 66 
2.3446 -0.143145 6.60163 32 34 59 
-3.00981 0.975244 9.92791 38 54 88 
-2.06905 0.707177 10.0679 33 39 71 
1.44349 1.29697 8.03785 13 15 36 
2.36211 -0.0644 6.37787 28 29 49 
-3.1673 0.234781 8.99337 32 29 40 
2.63464 -1.06459 5.02747 95 114 147 
-2.30476 0.692291 10.0001 30 45 78 
1.42283 0.133617 8.32172 21 25 52 
-2.83696 0.594501 9.96318 30 46 72 
1.46453 -0.301987 8.40515 23 36 68 
1.48152 -0.789516 8.55519 30 42 80 
0.844205 1.38099 8.16205 15 18 33 
1.5393 -0.712685 8.4149 34 46 88 
-3.54935 -0.582658 7.53352 43 32 48 
-3.19394 -0.14823 9.45392 51 47 70 
1.56482 1.31614 7.98996 16 23 42 
-1.01225 0.75088 3.80477 3 12 17 
-2.42022 -2.18208 11.3075 72 109 164 
1.72903 -1.25084 8.42978 31 36 58 
1.16122 -1.67176 9.05026 193 214 255 
0.850078 1.39163 8.21902 14 21 37 
0.795981 1.32851 8.10371 32 43 75 
0.798326 -1.53398 9.21454 102 120 156 
1.51267 0.816951 8.04337 16 23 42 
-1.39884 1.06155 10.1818 39 55 89 
-2.06297 0.702981 9.99581 30 39 68 
-3.09533 0.685653 9.9677 19 40 71 
-2.17982 0.716617 10.1762 26 48 89 
-2.28765 0.622778 9.95391 23 37 72 
2.34647 0.237338 6.52287 30 34 59 
-2.63782 -1.17503 10.7894 107 110 151 
1.52857 0.267631 8.23968 51 56 85 
1.4073 0.256554 8.22084 10 15 37 
1.4067 0.195728 8.22009 12 14 37 
1.40677 1.36164 8.03798 25 27 52 
1.4357 0.139968 8.20074 13 18 38 
2.05037 -0.90693 8.01498 29 34 63 
2.31051 -0.0826935 6.51824 31 27 52 
-3.18211 -0.0103376 7.94964 32 32 44 
2.0297 -0.900208 8.05818 24 28 55 
2.32284 -0.145275 6.55151 32 32 56 
2.3403 -0.17368 6.36798 33 34 65 
2.0425 -0.528189 7.82657 109 131 168 
2.54625 -0.984419 5.73225 97 116 149 
-2.30047 -2.12878 11.1741 147 162 221 
2.77044 -1.09795 4.54082 104 99 79 
-2.29274 -2.04762 11.3567 180 203 255 
2.73181 -0.970489 4.69587 46 39 31 
-2.20636 2.11555 10.7932 54 68 115 
2.74873 -0.913117 4.65678 98 94 85 
-2.12868 -1.38101 10.4463 88 124 160 
-2.24338 1.85484 10.88 17 31 60 
1.54132 -0.866001 8.46612 41 50 93 
1.42687 -0.854406 8.51998 39 51 91 
1.42604 -0.82289 8.52849 61 70 111 
1.46963 -0.813902 8.48443 45 56 101 
1.41855 -0.401485 8.42048 40 54 93 
-3.18851 -0.145604 9.48311 49 38 68 
-2.06577 0.565796 10.1514 33 41 78 
1.44994 0.123819 8.27618 21 28 57 
-2.31385 -2.15623 11.3476 184 205 255 
-2.06427 0.65695 10.1218 35 47 89 
-2.22161 0.76282 10.0856 34 43 86 
-2.12041 1.9895 9.93646 15 21 47 
-1.59103 1.72512 9.78482 22 27 57 
-2.27736 -1.59795 11.2315 80 102 151 
1.52973 1.20591 7.98876 11 18 44 
1.46785 -0.871396 8.50972 36 45 88 
1.43752 0.727565 8.13072 26 29 60 
1.53924 -0.809657 8.45077 50 62 102 
2.66799 -0.878235 4.98954 117 121 106 
-2.27767 0.576647 10.0913 41 50 83 
-1.98264 0.518308 9.14114 38 51 83 
1.53087 0.16489 8.21625 14 18 45 
1.52904 0.129511 8.23036 26 29 60 
-2.32184 -2.15966 11.3762 179 200 255 
-2.32288 -2.16872 11.3015 84 111 164 
2.75108 -0.51245 4.78782 42 42 70 
1.40016 1.21084 8.04143 26 26 52 
1.40707 0.780628 8.14176 33 37 66 
1.41377 -0.22765 8.36687 42 52 88 
1.54997 1.34717 7.95413 33 34 62 
1.5249 1.28237 7.96736 25 27 50 
1.46456 -0.847684 8.50745 32 46 83 
-2.18098 -0.560677 10.3795 107 119 161 
1.40646 1.30484 8.03018 13 19 41 
1.44443 0.788181 8.13466 23 26 57 
1.45094 0.762368 8.14055 17 22 52 
1.44794 0.73181 8.15358 23 27 56 
-1.45846 0.692423 10.2905 34 47 91 
1.45549 0.274958 8.21815 7 14 43 
1.52617 0.250334 8.1875 14 16 37 
1.45246 0.243295 8.23138 10 16 40 
1.45428 0.214071 8.24093 8 14 40 
1.45905 -0.226238 8.36517 25 37 77 
2.70876 -1.13496 4.71614 30 42 56 
1.42967 -0.745035 8.49928 36 49 91 
-2.33431 -2.16811 11.4207 178 199 254 
-2.28679 -1.62585 11.262 154 171 215 
-2.21153 0.581402 10.0608 36 45 78 
-2.3157 0.54585 10.0871 26 42 78 
-2.3014 -1.65047 11.2578 64 81 135 
-2.26555 -1.58245 11.2489 195 214 255 
-3.22461 -1.42386 10.2471 33 22 82 
1.4155 0.243139 8.25118 10 12 35 
-2.34045 -2.17881 11.3455 73 114 158 
1.44356 0.735286 8.13496 19 23 50 
1.43575 1.30727 8.0057 11 17 41 
-2.91779 0.501554 9.93625 19 39 76 
1.51535 1.31197 7.9556 15 20 42 
1.43019 -0.831126 8.52317 36 49 94 
1.55997 0.776298 8.09057 21 27 51 
1.557 0.25731 8.16696 12 14 37 
1.56073 0.200486 8.18584 14 16 39 
1.51487 1.19194 7.96198 13 14 32 
1.45504 -0.249869 8.36905 29 39 74 
-2.29802 -1.59243 11.2086 55 93 132 
1.46483 -0.781199 8.49061 30 39 78 
1.51742 1.37388 7.95445 16 21 41 
-0.930335 0.595305 3.84718 1 16 45 
1.51998 0.82317 8.06569 15 22 41 
1.57134 -0.217718 8.27765 11 16 38 
1.45533 0.192189 8.24053 12 17 39 
1.41886 0.200085 8.25707 13 15 36 
1.56626 0.28402 8.19128 10 15 37 
1.53146 0.276937 8.21434 12 13 41 
1.40554 1.29576 8.0512 15 17 42 
-3.08047 0.642861 9.90993 30 46 82 
1.4476 0.753645 8.13382 17 23 49 
1.55829 0.766525 8.06346 16 24 45 
1.27553 -1.20649 8.77625 21 27 43 
1.57808 -0.705774 8.40362 34 46 88 
-1.64976 1.69394 9.85335 26 42 76 
1.56625 -0.217173 8.28996 13 16 47 
0.796501 -1.44867 9.19306 112 132 169 
1.42302 0.196815 8.27504 11 13 34 
1.43731 1.36441 8.00699 22 26 51 
-2.30416 0.628217 10.0538 23 37 72 
1.42769 -0.734574 8.49257 37 49 87 
-2.31738 0.696494 10.0763 30 45 78 
0.827496 1.3642 8.06292 15 18 33 
1.54205 -0.714124 8.42649 34 46 88 
1.55551 1.31151 7.95386 16 23 42 
1.43938 0.265103 8.20745 16 23 42 
1.42305 0.256983 8.28754 10 15 37 
-3.19205 1.08797 7.70995 19 25 39 
1.44337 0.199302 8.22927 12 17 39 
-3.31544 3.99685 17.6103 19 38 78 
1.71349 -3.04478 9.36189 124 160 212 
1.6954 -2.98737 9.37274 166 184 232 
-3.22732 3.8251 17.5809 44 46 87 
2.55627 -2.22985 6.97907 65 80 137 
-2.30894 -2.18021 11.3106 192 213 255 
-2.30875 -2.03426 11.3816 101 122 189 
-2.30504 -2.00612 11.2771 181 205 253 
-2.29004 -2.02733 11.4018 191 200 255 
2.38357 1.29046 6.09976 23 29 79 
2.35419 -0.143487 6.54176 29 42 76 
2.35564 -0.148514 6.49477 50 67 110 
-2.33296 -1.58033 11.2191 160 199 242 
-3.22435 3.54071 17.6506 51 49 89 
-2.65767 -1.17989 10.8368 101 96 136 
-2.92086 -1.13466 10.7093 99 102 135 
2.77153 -0.350058 4.69761 38 40 78 
2.78665 -1.10278 4.56401 108 110 89 
2.78218 -0.369281 4.6835 26 34 73 
2.78802 -0.39102 4.68887 34 59 100 
2.79506 -0.994223 4.53468 32 31 36 
2.75795 -0.388361 4.75446 33 30 59 
2.3468 0.0589305 6.47876 30 48 84 
1.5873 -0.268538 8.34194 22 34 72 
2.84727 -0.409469 4.50401 42 56 103 
1.46 1.22779 8.06302 19 21 42 
2.78856 -0.414584 4.73571 37 33 66 
2.78096 -0.433647 4.69058 42 54 96 
-1.30877 1.08462 10.253 29 41 79 
2.82901 -0.450944 4.48677 37 51 80 
2.8141 -0.458316 4.57446 25 29 67 
2.75622 -0.480026 4.8048 31 44 88 
-2.06172 0.566608 10.1428 54 58 95 
2.01628 0.525963 7.70714 29 41 81 
2.06479 0.511194 7.69488 30 38 77 
2.76722 -0.502763 4.77893 31 40 83 
1.43694 -0.711538 8.48575 40 53 97 
2.76315 -0.515562 4.80073 30 31 62 
2.81542 -0.663253 4.62901 23 37 66 
2.76732 -0.551485 4.72619 33 55 94 
2.80209 -0.556477 4.77853 14 25 57 
2.78858 -0.557004 4.83275 23 34 64 
2.834 -0.639006 4.55405 16 31 62 
2.82204 -0.570477 4.50381 96 113 139 
2.79677 -0.604366 4.58135 30 33 68 
2.84318 -0.598826 4.53799 21 32 62 
2.8019 -0.594762 4.69166 17 28 73 
2.76393 -0.574 4.77584 101 114 146 
2.79329 -0.582485 4.7467 13 33 66 
2.04992 1.62466 7.42729 37 52 95 
-1.30449 0.70359 10.3133 46 54 93 
-3.21779 3.68456 17.5417 53 61 107 
2.49958 -0.120637 4.03087 86 98 138 
2.07188 1.5537 7.41564 40 52 102 
1.42929 -0.802379 8.52687 42 55 99 
-1.65036 1.69179 9.79814 61 84 118 
-3.26427 3.06446 17.7757 28 54 91 
0.796121 1.31764 8.05387 17 20 51 
2.79605 -0.992931 4.55367 42 31 25 
2.3658 0.962461 6.2505 45 67 108 
1.54329 0.12963 8.24316 39 44 74 
-2.85741 -1.13129 10.7316 99 122 156 
-2.12833 0.652971 10.114 42 57 100 
2.3603 -0.214786 6.57275 46 52 84 
-2.87552 -1.14473 10.7628 27 49 88 
2.34195 -0.939966 6.78193 53 61 98 
-2.81213 0.60408 9.89182 41 53 91 
2.05854 1.58915 7.34478 97 119 169 
2.36926 1.28463 6.11596 24 34 83 
2.77372 -0.362298 4.72992 30 48 84 
-2.68304 1.65857 9.55532 27 21 55 
2.81867 -0.452354 4.5458 38 50 88 
2.51365 0.3769 4.38641 169 140 132 
2.52302 0.370699 4.3821 237 217 218 
1.43773 0.156632 8.32215 12 21 52 
1.4303 0.121551 8.3454 20 26 60 
2.24861 -1.95717 8.2311 25 36 98 
2.78295 -0.376779 4.71639 29 34 76 
2.79687 -0.39616 4.53504 25 25 61 
2.80504 -0.409958 4.51712 20 33 75 
2.74055 -0.513306 4.77126 30 31 62 
2.74652 -0.479624 4.79409 25 34 77 
2.77576 -0.554536 4.74217 22 38 72 
2.79909 -0.556148 4.49086 42 61 103 
2.78032 -0.581859 4.73154 7 22 53 
2.80125 -0.59707 4.69418 9 19 70 
2.80758 -0.604066 4.66085 33 38 78 
2.7792 -0.635653 4.71698 28 31 62 
2.76481 -0.411906 4.70411 35 34 65 
2.64293 -1.03652 5.08143 43 42 76 
2.77655 -1.09965 4.55867 99 103 86 
-2.66048 -1.18118 10.8518 101 96 136 
2.80466 -1.14819 4.4135 107 112 142 
-2.5659 -1.25836 10.8751 47 52 108 
-3.30553 3.8175 17.5417 21 20 51 
-2.29263 -1.64269 11.2314 61 77 136 
-3.17289 3.71737 17.7033 23 57 95 
2.36916 1.27895 6.08889 95 100 155 
2.81991 -0.578382 4.49615 16 23 49 
1.45384 0.162763 8.28959 10 23 57 
1.44668 0.123882 8.26231 23 26 57 
2.76609 -0.379712 4.66419 106 132 167 
2.80929 -0.445066 4.51581 88 104 130 
2.80272 -0.591749 4.56044 31 43 85 
2.82566 -0.610988 4.55556 12 22 47 
-2.31128 -1.61713 11.1971 147 184 228 
2.79167 -0.629639 4.72236 76 79 110 
2.03543 -0.678393 8.0287 27 32 62 
1.46102 -0.71088 8.4907 44 58 103 
-2.31205 -1.58466 11.1741 63 107 156 
2.56976 -0.236968 5.57149 34 41 83 
2.63377 -1.04098 5.01881 50 69 101 
2.36286 -0.153063 6.507 33 47 84 
1.44184 0.820724 8.14232 35 48 80 
1.46249 0.733114 8.17047 27 31 60 
1.40314 0.723977 8.14935 24 27 58 
1.46313 -0.847099 8.50065 33 47 82 
1.47767 -0.876204 8.55097 33 45 87 
0.79787 -1.46114 9.28432 39 53 88 
-2.17423 0.789426 10.0899 40 64 108 
2.04723 1.24589 7.49987 35 54 87 
-3.22103 3.63872 17.5991 51 50 94 
1.41176 1.26021 4.0292 96 116 143 
2.36061 -0.143826 6.55459 29 42 76 
2.5682 -0.352407 5.59152 37 49 91 
2.33072 -0.224366 6.59136 28 34 66 
-3.23547 3.70808 17.662 38 45 89 
-2.92086 -1.13466 10.7093 99 102 135 
1.56937 1.21382 7.9944 21 32 62 
2.33337 -0.936446 6.76042 38 44 80 
2.37749 1.30756 6.03255 28 42 81 
2.77846 -0.98817 4.52832 45 32 26 
1.47234 0.280189 8.29669 15 23 62 
2.81891 -0.568405 4.58714 39 37 84 
2.83022 -0.560212 4.5353 17 32 71 
2.79337 -0.53697 4.76873 12 19 48 
2.82104 -0.458285 4.58239 24 24 62 
1.45692 0.827262 8.15294 18 27 60 
2.53705 0.366591 4.43293 133 136 127 
2.53523 0.374978 4.40923 255 251 246 
2.81253 -0.420376 4.56416 39 40 84 
-1.87264 -1.1421 10.4965 26 48 95 
2.83774 -0.399758 4.58922 46 48 89 
2.79402 -0.38271 4.69985 106 132 167 
2.86119 -2.23735 7.72742 188 203 246 
0.65911 -2.3434 10.8848 77 94 146 
2.26857 -1.80799 8.36401 36 36 98 
2.838 -0.612413 4.57378 8 16 37 
2.81272 -0.624553 4.53823 86 109 141 
2.79747 -0.631002 4.73273 80 86 120 
2.80046 -0.639597 4.74818 18 32 67 
-2.16477 0.580904 10.0934 29 51 92 
1.47146 0.158805 8.32047 13 20 48 
2.37288 1.27815 6.0984 105 116 170 
2.84101 -0.655427 4.57952 15 19 46 
-3.22448 3.50465 17.8062 32 46 93 
2.8168 -0.605033 4.67463 47 52 90 
2.37013 1.2988 6.11595 24 37 81 
2.83395 -0.598092 4.5272 21 32 62 
2.81987 -0.668177 4.6426 8 20 36 
2.82683 -0.596165 4.59388 41 46 84 
2.7845 -0.337588 4.74428 41 49 88 
2.78036 -0.351652 4.772 37 40 83 
0.808949 -1.5613 9.26654 80 95 124 
1.55235 -0.217961 8.3677 28 42 81 
2.81257 -0.370136 4.72731 40 44 79 
2.79094 -0.36567 4.75461 29 48 81 
2.79368 -0.381263 4.7318 34 39 77 
1.52682 1.28666 7.97514 22 20 42 
2.8311 -0.58045 4.51265 11 16 38 
2.78651 -0.390545 4.79353 42 38 71 
2.81777 -0.406721 4.46505 31 53 90 
2.82675 -0.570446 4.51646 69 90 117 
2.3667 -0.808613 6.65182 37 52 93 
2.77787 -0.414883 4.71977 29 24 56 
2.77676 -0.558932 4.77717 22 18 51 
2.80307 -0.431868 4.7254 26 31 69 
2.64309 -1.02774 5.05621 34 27 58 
1.57063 0.841563 8.08688 13 25 63 
2.81892 -0.445049 4.52801 78 98 125 
2.84799 -0.456085 4.58482 22 32 57 
1.41508 0.70156 8.16203 17 27 63 
2.57776 -0.238583 5.58812 39 44 86 
2.59738 -0.443662 5.6384 24 31 60 
-2.16999 0.650165 10.1055 32 58 109 
2.78383 -0.51038 4.82634 100 119 152 
2.78867 -0.506467 4.81071 41 43 81 
2.68165 -0.886122 5.0148 95 98 87 
1.54291 -0.868183 8.4535 35 47 89 
-2.83298 0.609616 9.98851 21 35 72 
2.03049 -0.829908 8.04101 32 36 61 
-1.892 -1.15378 10.468 148 169 216 
1.66788 -2.96008 9.27843 128 146 196 
2.77983 -0.64683 4.59507 85 110 141 
2.76541 -0.557739 4.76009 22 18 51 
2.84886 -0.56148 4.5628 7 15 52 
2.73957 -0.528988 4.69992 12 19 48 
2.76848 -0.453195 4.51231 12 15 46 
2.35956 1.2762 6.04682 16 23 65 
2.79806 -0.450781 4.52418 11 17 39 
2.79533 -0.447593 4.47813 16 14 36 
2.78583 -0.418442 4.53065 23 25 66 
2.81164 -0.40893 4.49469 24 24 62 
2.75938 -0.398608 4.72734 19 22 53 
2.76718 -0.364794 4.66554 23 28 66 
2.80632 -0.356996 4.54608 58 56 103 
-2.29505 -2.01891 11.2883 86 99 167 
1.40916 0.813341 8.12408 14 24 51 
-2.31063 -1.59312 11.2121 57 101 148 
0.79338 1.31413 8.03815 17 20 51 
2.05017 1.24808 7.53314 28 35 61 
1.55305 0.747255 8.06556 23 25 50 
0.799907 -1.55421 9.22136 88 105 135 
2.03117 0.523169 7.73478 24 33 66 
2.79653 -0.651757 4.69689 9 17 36 
2.33492 0.245023 6.5026 33 43 79 
-2.3852 1.60654 10.3909 3 19 42 
1.59022 -0.704432 8.44218 40 52 100 
1.44332 -0.718334 8.53127 28 43 86 
2.74845 -0.597614 4.74177 19 16 33 
2.79711 -0.57682 4.47145 11 16 38 
-2.07388 0.764957 10.1201 29 34 66 
1.54253 1.20944 8.05289 9 14 36 
1.39821 1.21112 8.02508 26 24 46 
2.06312 0.164614 7.64389 33 33 57 
1.43526 -0.317248 8.44172 24 37 72 
-1.61859 -0.861292 10.3922 83 117 145 
2.75798 -0.348241 4.67765 28 28 62 
2.07306 1.22508 7.4464 30 36 62 
1.55873 1.38572 7.94455 12 19 48 
1.40615 1.36976 8.04257 25 30 62 
2.79361 -0.35727 4.78569 29 30 61 
2.82911 -0.422543 4.58422 26 21 61 
2.78506 -0.427937 4.70281 26 31 69 
2.83659 -0.457469 4.6032 24 24 62 
2.78884 -0.52462 4.83133 20 16 39 
2.76472 -0.532591 4.73823 12 13 33 
2.81457 -0.58695 4.78251 11 23 47 
2.82422 -0.602321 4.72607 14 17 52 
2.82954 -0.612237 4.61941 34 33 67 
2.83372 -0.62677 4.56636 71 98 127 
2.83165 -0.654234 4.66166 72 95 127 
1.43298 -0.720203 8.51822 32 47 88 
2.2486 -1.78309 8.29297 186 200 249 
-2.3136 -1.66501 11.1699 181 210 252 
2.62663 -0.26447 5.5456 38 47 80 
1.43378 0.148216 8.33791 16 23 52 
2.34479 -0.028317 6.57931 30 34 61 
1.57399 0.260278 8.23424 12 16 41 
1.56194 1.36216 7.98096 17 19 40 
2.8042 -0.364517 4.71432 22 27 59 
2.8023 -0.384853 4.74374 33 37 74 
2.81242 -0.399843 4.72734 17 33 58 
2.80752 -0.415369 4.76027 35 34 65 
2.02771 1.23762 7.47261 27 39 65 
-3.2303 3.4973 17.7896 27 36 79 
2.77774 -0.382583 4.67514 113 139 176 
-2.22138 0.588466 10.1084 32 38 72 
-2.06881 0.648495 10.0963 28 37 76 
2.80035 -1.15535 4.56071 84 108 142 
2.79693 -0.562089 4.80419 42 39 70 
2.79974 -0.593593 4.82563 42 39 68 
2.86385 -0.605106 4.63869 15 15 43 
2.80616 -0.60365 4.81915 21 18 37 
2.34943 -0.210888 6.5178 28 26 48 
-1.46367 1.06691 10.1734 28 41 75 
2.82363 -0.655649 4.73516 11 14 29 
2.84365 -0.662776 4.63323 20 20 48 
2.84366 -0.677872 4.59657 14 14 26 
2.7271 -1.13122 4.81841 40 29 45 
1.56542 -0.7305 8.5187 39 53 92 
-2.71945 2.17572 9.4725 15 13 34 
2.69777 -0.888074 5.03278 111 117 103 
2.37641 0.947911 6.20779 49 63 102 
1.51545 0.76606 8.07255 16 23 51 
2.76715 -0.511437 4.76892 13 15 38 
2.76043 -0.413176 4.6891 20 18 42 
2.74725 -0.582149 4.69279 18 35 65 
2.80614 -0.609645 4.65036 10 15 45 
1.59941 -0.217317 8.38946 11 15 42 
1.2019 -1.8334 9.20947 194 213 255 
1.58217 1.39082 8.02166 11 17 39 
2.78988 -0.400226 4.69609 17 33 58 
1.41533 -0.727986 8.44059 34 46 84 
1.5778 0.213708 8.24152 15 17 40 
1.20843 -1.35253 9.15186 71 84 116 
2.82163 -0.663707 4.60157 13 13 37 
2.64053 -1.05565 5.00334 115 131 165 
2.77778 -0.654016 4.6278 15 12 31 
1.4258 0.814927 8.20683 23 28 58 
2.05625 0.522586 7.80948 29 40 72 
1.57085 0.757544 8.11363 21 23 48 
2.08135 0.172939 7.70829 29 34 66 
-2.0795 0.652714 10.1715 24 37 72 
-2.74292 1.62918 9.39475 26 33 61 
2.7813 -1.15023 4.53259 107 130 164 
1.3983 1.29061 8.021 14 20 42 
2.58852 -0.453275 5.60746 22 23 43 
2.36542 0.109143 6.34219 31 39 62 
2.35511 0.167615 6.43791 30 39 70 
2.68042 -1.11796 4.74858 34 23 39 
2.37979 1.17116 6.13093 37 41 68 
1.48452 -0.7307 8.56396 34 52 90 
2.72616 -0.579298 4.67009 11 23 47 
2.36302 -0.118162 6.3999 34 32 56 
-2.08599 0.714944 10.188 27 36 65 
2.58714 0.401497 4.51765 135 132 99 
2.32253 -0.145313 6.55065 29 31 52 
-2.09307 0.65166 10.229 25 40 73 
2.70485 -0.521775 4.67098 9 15 29 
2.75297 -0.52422 4.77847 15 12 29 
2.80523 -0.648601 4.63302 54 78 106 
2.78505 -0.419856 4.70997 15 17 38 
2.64187 -1.06968 5.03805 104 120 154 
1.56344 1.37515 7.98052 15 18 37 
1.43054 0.198742 8.30694 11 16 38 
2.06984 0.107655 7.67315 32 39 68 
1.40943 -0.247421 8.36862 22 32 68 
2.72765 -0.384946 4.71324 24 24 50 
1.55317 -0.234915 8.3984 33 47 84 
2.65338 -0.92911 5.0539 113 131 169 
-2.83916 0.662857 9.97792 23 29 53 
-2.92836 0.975491 9.84563 26 54 94 
1.75086 -1.26101 8.51288 37 41 68 
-2.36934 0.00456025 10.1194 38 48 83 
1.57167 0.274907 8.22282 12 17 39 
1.4492 0.267731 8.2489 10 17 43 
1.54538 0.817292 8.03742 16 21 43 
0.64881 -2.3543 10.9342 110 135 191 
-2.64367 -1.18109 10.8077 100 108 147 
2.36922 1.33522 6.20543 38 50 76 
2.31517 0.23438 6.44988 33 44 72 
2.03253 1.2405 7.50137 28 38 63 
2.01571 -2.24418 8.76945 60 97 142 
-2.16566 1.02357 10.0348 37 56 96 
1.51745 -0.234833 8.27823 25 38 72 
2.33095 0.979102 6.09272 36 43 71 
-1.40058 1.06265 10.1973 36 52 85 
-2.31186 -2.1566 11.3249 185 202 255 
-2.28734 -1.66453 11.2405 160 165 220 
-2.33156 -1.57768 11.1984 160 199 242 
1.46673 0.184243 8.27752 33 34 62 
0.792233 -1.45714 9.24415 39 55 89 
-2.73412 1.62221 9.52206 59 84 115 
1.27318 -1.20097 8.74483 27 29 50 
2.65471 -0.95208 5.07497 29 28 44 
-1.30923 1.08269 10.2328 29 41 79 
1.4234 -0.822975 8.51288 34 53 93 
1.5399 -0.791619 8.46031 46 58 100 
1.5564 -0.758649 8.44845 35 50 93 
1.42359 -0.714181 8.49137 31 46 89 
-1.45233 0.694266 10.2701 66 73 125 
2.04157 1.62064 7.4082 37 52 95 
2.56236 -1.25728 5.79665 49 58 99 
1.55282 -0.863465 8.46937 38 50 92 
-2.7327 1.61324 9.52916 17 39 80 
2.33964 -1.0479 6.7915 35 44 85 
2.24931 0.990952 4.58 71 85 112 
1.68303 -3.00353 9.35416 79 96 152 
-2.68109 1.65652 9.53791 27 21 55 
2.03285 0.265796 7.80598 25 36 68 
1.53927 0.284265 8.20392 23 35 75 
1.41041 0.272775 8.25324 28 44 80 
1.41365 0.237789 8.27135 18 23 55 
1.41407 -0.261726 8.37649 12 18 52 
2.64409 -1.03759 5.08242 43 42 76 
0.806251 -1.44468 9.2364 101 122 153 
-2.29243 -1.64071 11.2248 61 77 136 
1.28174 0.191447 7.50162 18 27 60 
1.4649 -0.794012 8.49231 32 46 85 
2.05467 0.246995 7.73482 22 31 64 
-2.71749 1.62988 9.54884 58 53 83 
1.432 -0.878591 8.53389 38 51 86 
1.42821 -0.402442 8.45264 23 37 76 
-1.30956 0.817873 10.3003 30 36 72 
1.41577 0.783507 8.13603 30 31 59 
2.35456 0.95858 6.23141 45 67 108 
-2.32085 0.640726 10.0695 32 56 92 
1.42704 0.271997 8.27344 7 13 47 
-2.16579 0.581699 10.1121 29 51 92 
1.46115 0.157445 8.28942 13 20 48 
-2.28207 -1.61825 11.2359 148 164 213 
2.07291 0.115743 7.68864 32 38 72 
1.47438 -0.797755 8.54423 37 52 91 
-1.62109 -0.864414 10.4271 83 117 145 
1.27501 -1.20158 8.75945 23 25 40 
2.35255 1.15962 6.19184 33 51 89 
1.56648 -0.2411 8.30097 12 16 43 
1.58141 -0.211944 8.31958 12 18 54 
1.45768 0.275059 8.2519 9 13 42 
1.52837 0.2798 8.19795 10 14 41 
-2.28129 -1.58808 11.1723 58 89 135 
-2.33374 -1.58383 11.1887 185 214 255 
-2.3179 -1.67042 11.2487 192 220 255 
2.57823 -0.261048 5.46027 40 55 96 
2.34187 -0.879475 6.7514 32 33 64 
-2.29263 -1.63944 11.1928 63 85 145 
1.40058 1.36359 8.00043 24 25 56 
-2.21459 0.641362 10.0692 48 51 96 
1.56495 0.257314 8.19689 14 16 39 
1.41572 0.147956 8.26314 17 22 51 
2.57217 -0.323859 5.47335 41 52 84 
1.57814 -0.7265 8.42978 31 45 84 
2.33519 -0.0125213 6.469 41 44 75 
1.5842 0.287842 8.23836 17 24 68 
1.54117 0.278303 8.24685 7 11 40 
1.42172 0.205896 8.2899 9 16 44 
1.42266 0.191375 8.29558 14 16 41 
0.809851 -1.4513 9.25471 110 129 162 
2.06257 0.112113 7.66041 32 39 68 
1.42545 0.147689 8.31255 16 23 52 
1.47827 -0.782442 8.52745 27 41 78 
1.4144 1.24372 8.07688 13 20 46 
-2.28324 -1.5845 11.1619 55 88 129 
1.42851 -0.314358 8.41854 21 34 68 
1.53473 0.139217 8.25376 18 22 51 
-2.34617 -1.5818 11.2193 186 218 255 
1.41735 -0.725401 8.44893 34 46 84 
1.56648 0.831618 8.08669 16 22 46 
1.52421 0.824373 8.09539 11 16 36 
-2.22785 0.644592 10.106 28 43 82 
-2.18697 -0.560925 10.4143 105 117 157 
1.51725 1.35619 7.968 16 17 38 
1.41026 0.7409 8.14694 16 24 47 
2.60183 -0.349148 5.34028 34 40 66 
1.45796 -0.299028 8.36916 23 36 68 
-1.40335 0.74634 10.2588 28 47 80 
-1.98896 0.0295443 10.3158 47 40 58 
1.44129 0.804004 8.11335 18 25 51 
1.56367 0.267767 8.19995 11 16 38 
-2.18349 -0.553698 10.3542 110 122 164 
2.32169 1.34049 6.20904 33 38 60 
-2.08366 0.711637 10.1392 27 36 65 
-2.3572 -1.58911 11.2719 189 219 255 
-1.32094 0.697821 10.3683 28 41 73 
0.801228 -1.54048 9.24295 95 111 145 
1.27509 -1.20303 8.79373 19 23 32 
1.41214 0.194674 8.25023 11 16 38 
-2.72712 1.61113 9.54068 25 34 75 
1.54564 0.754943 8.0514 20 24 51 
-1.46867 0.676434 10.2089 24 39 70 
-2.16209 1.01482 9.97147 37 56 96 
2.33149 -0.801775 6.69806 28 30 55 
-1.47726 1.06053 10.1742 28 43 76 
-2.31997 0.632205 10.0943 22 45 77 
-2.3066 -2.14906 11.3152 189 209 255 
-2.21926 1.90841 9.99596 35 45 80 
1.51241 1.28361 7.98474 26 31 63 
-1.40638 0.69731 10.2879 27 51 97 
-2.19484 1.73678 10.0656 93 84 111 
-2.22133 2.01582 9.97034 35 46 92 
1.71798 -3.00078 9.34063 54 71 127 
-2.19687 1.95918 10.0058 26 61 99 
-2.19159 1.89476 10.027 12 41 75 
1.43016 0.120832 8.30567 27 32 61 
1.71039 -2.97888 9.33271 127 147 197 
-2.22271 1.95849 9.98099 30 39 80 
1.422 0.270186 8.25783 7 13 47 
-2.16697 2.10026 10.5074 38 43 73 
1.45843 0.187133 8.29045 18 22 49 
1.62251 -0.828366 9 37 52 91 
1.43469 -0.830672 8.52845 31 45 82 
1.7091 -3.04728 9.34466 185 207 254 
-2.2858 -1.6686 11.2595 187 190 245 
1.40053 1.30161 8.0131 11 18 44 
-2.16766 2.27283 10.4687 22 30 53 
-2.22679 1.95259 9.98884 16 22 48 
-2.18752 1.88207 9.99876 15 34 66 
-1.3143 0.7506 10.3186 38 43 72 
-1.6743 1.94309 9.86771 8 17 46 
2.51725 -2.10779 7.08392 123 128 184 
1.46439 -0.781255 8.48446 27 41 78 
-2.18336 1.94276 9.97293 9 23 50 
1.4266 -0.730935 8.47633 34 46 84 
1.4362 1.36068 7.98803 21 22 42 
-1.31641 1.06986 10.2308 23 34 62 
1.40492 1.29507 8.04075 14 20 42 
1.55321 0.824806 8.05925 15 21 43 
1.19167 -1.3427 9.09041 71 84 116 
-2.83643 0.657434 9.95454 23 29 53 
1.41555 -0.238047 8.37183 16 26 61 
-2.90458 0.589552 9.88462 28 46 82 
2.85089 -0.656731 4.58926 32 42 78 
1.43287 1.27194 4.06336 132 139 167 
2.9989 0.751946 3.52735 40 64 110 
3.0535 0.748785 3.52266 31 37 87 
2.38516 1.34565 6.20056 44 61 107 
3.0108 0.735006 3.48876 31 37 87 
2.07946 1.59714 7.41856 31 44 97 
2.38663 1.29226 6.10507 30 36 96 
3.03408 0.704389 3.47969 23 26 81 
3.03779 0.700474 3.49521 99 110 164 
-0.87638 2.00897 9.41089 90 112 159 
2.8705 -0.627775 4.6117 51 70 102 
3.0312 0.676431 3.51988 33 38 93 
2.98849 0.663481 3.4858 44 45 91 
1.43675 0.729375 8.20552 50 55 87 
1.43897 0.704795 8.16229 32 50 88 
-1.30854 1.08654 10.2628 46 53 99 
3.03558 0.554928 3.47477 34 48 87 
1.55404 1.3845 7.93082 21 33 75 
2.37221 0.963773 6.26197 57 80 124 
-1.65031 1.68839 9.78621 74 100 135 
1.46577 0.737942 8.17082 36 39 74 
1.45274 0.733476 8.18712 40 54 89 
2.317 -1.70216 8.22457 25 37 77 
-1.45687 1.07126 10.1762 62 64 112 
2.04187 0.530087 7.76784 33 46 88 
2.06769 0.526715 7.79574 31 39 75 
2.36959 0.228105 6.43296 55 72 118 
2.38945 0.208514 6.34999 37 52 95 
2.07183 0.360198 7.74446 37 40 81 
2.37224 -0.104267 6.51408 43 53 89 
2.38132 0.95134 6.20915 49 68 110 
2.35847 -0.188898 4.22978 116 135 167 
-1.45299 0.604278 10.2955 54 56 104 
2.80012 -1.12902 4.47971 50 57 103 
3.04921 -0.359392 3.81829 53 75 125 
2.79124 -1.10525 4.56825 114 111 96 
1.46256 0.12762 8.32099 17 31 66 
3.05016 -0.381874 3.69388 51 64 109 
2.7776 -0.287235 4.69404 39 44 82 
2.34952 -0.13652 6.57615 62 75 117 
2.38258 -0.163869 6.45944 39 50 96 
2.78213 -0.328537 4.76985 50 49 91 
2.38322 -0.18025 6.35276 55 56 87 
1.44251 -0.852394 8.53263 47 60 102 
2.36731 -0.221377 6.6652 45 57 99 
2.3559 -0.23108 6.6062 23 31 67 
2.82869 -0.398002 4.73963 21 40 82 
2.78933 -0.404764 4.76202 36 43 85 
1.45488 -0.827073 8.56474 39 50 96 
2.86252 -0.450915 4.5305 22 28 64 
1.46969 -0.798787 8.53465 56 73 116 
1.57054 -0.786986 8.49508 44 57 99 
2.07354 -0.869503 7.83506 28 32 67 
1.44618 -0.770562 8.52646 47 60 104 
1.46168 -0.220106 8.36811 46 59 111 
1.46406 -0.742811 8.49465 42 59 103 
2.82657 -0.568858 4.59622 39 39 89 
1.55285 -0.739185 8.47759 55 72 118 
2.74776 -0.571416 4.75671 99 112 144 
1.48057 -0.311852 8.42199 39 47 86 
2.82209 -0.620711 4.79673 22 37 78 
3.03206 -0.704155 3.82867 52 54 93 
2.04914 -0.513018 7.93334 34 43 86 
3.01358 0.566444 3.52327 36 54 94 
3.01334 -0.805158 4.00541 37 49 89 
2.04634 -0.59207 8.01193 38 42 79 
3.00277 0.362241 3.55742 38 53 96 
2.83085 -0.286363 4.4608 49 66 110 
2.65465 -1.05829 5.07426 24 32 68 
2.81779 -0.653877 4.64875 105 118 152 
2.84283 -0.62769 4.57735 96 119 151 
2.83632 -0.613487 4.6278 34 35 79 
2.79395 -0.59602 4.68358 33 46 99 
2.84295 -0.596676 4.60948 25 32 74 
2.76775 -0.367944 4.67109 33 46 91 
2.82446 -0.450723 4.52066 22 22 56 
2.84897 -0.415515 4.57301 11 24 69 
2.7848 -0.401682 4.75872 21 25 62 
2.81721 -0.456547 4.57814 28 28 66 
2.2554 -1.96037 8.24748 47 72 129 
2.36697 -0.236886 6.58527 26 36 71 
0.806725 -1.55947 9.25325 99 111 149 
2.33224 -1.70766 8.26023 29 42 84 
0.776317 -1.44976 9.19167 50 58 104 
1.54527 1.29967 8.01983 32 32 58 
1.44001 -0.227699 8.40941 27 40 85 
1.287 -1.21458 8.78433 56 70 99 
1.43073 0.180622 8.29558 32 37 69 
2.37455 1.26701 6.09307 116 135 194 
1.42095 0.828225 8.19622 50 68 108 
3.01687 0.69343 3.47695 107 118 174 
-0.874837 2.01402 9.43405 90 108 154 
1.57238 0.748127 8.10744 30 35 67 
1.43427 0.707495 8.20952 20 29 68 
2.76388 -1.14743 4.78809 31 32 53 
2.79902 -0.63112 4.73431 90 104 143 
3.01175 0.700317 3.48242 11 18 70 
2.02496 0.52651 7.73483 33 46 88 
3.00529 -0.692685 3.86331 22 36 73 
2.05642 0.527842 7.77852 30 38 75 
2.08345 1.57844 7.3752 32 39 91 
1.43111 0.217146 8.33007 32 47 88 
2.66445 -1.02872 5.0754 61 68 112 
1.44526 -0.380514 8.45749 53 67 106 
1.45532 -0.871099 8.48162 48 59 105 
1.47866 -0.846184 8.51905 43 52 95 
1.57942 -0.859885 8.44474 49 57 104 
2.08038 -0.914316 7.92003 35 43 80 
1.45751 -0.827626 8.57604 39 50 96 
2.06768 1.59452 7.3947 41 57 109 
1.58768 -0.732176 8.47019 60 77 120 
2.3477 -0.130574 6.61266 49 66 110 
1.55666 0.251054 8.26239 30 33 68 
1.42947 0.124262 8.34403 21 33 71 
1.44871 -0.749029 8.53188 41 54 98 
1.54164 -0.73573 8.44229 44 56 104 
1.46031 -0.826559 8.51455 35 52 95 
2.39845 -0.249156 6.40698 34 38 73 
1.56883 -0.73035 8.48137 40 51 96 
2.793 -1.15205 4.54478 149 167 205 
-0.884812 2.05099 9.38339 89 97 143 
3.03363 0.711841 3.48767 95 124 184 
3.03934 0.705396 3.50619 11 18 70 
1.44008 1.33907 8.02671 21 24 55 
2.3895 1.30853 6.12492 114 136 196 
2.83788 -0.392927 4.55599 39 55 91 
2.8218 -0.321593 4.71823 126 148 189 
1.52844 1.23522 8.02101 16 21 51 
1.54127 0.807123 8.11431 19 16 43 
1.44489 0.823614 8.11713 23 36 80 
1.44644 0.792003 8.14405 27 33 65 
2.08528 -0.977325 7.94822 20 28 64 
2.0592 -0.901538 8.00364 33 35 73 
2.39278 0.197225 6.30657 30 42 82 
1.45697 -0.794659 8.48982 36 50 95 
1.45739 -0.768169 8.46921 34 44 93 
1.44485 -0.747235 8.55759 37 56 99 
1.57448 -0.730214 8.42359 37 51 98 
1.47277 -0.712525 8.48841 38 46 95 
2.08037 0.2289 7.68738 29 42 84 
1.57339 -0.698485 8.39849 37 49 99 
2.05979 -0.670227 7.96841 46 59 91 
1.44346 0.273478 8.3231 7 15 52 
1.55292 0.223742 8.26436 12 17 47 
1.57918 0.198209 8.25358 23 29 63 
1.58886 0.168161 8.27202 26 36 72 
3.0499 -0.697926 3.90689 28 35 64 
2.8724 -0.325564 4.51489 36 44 83 
2.82835 -0.33807 4.72775 19 32 67 
2.79748 -0.330593 4.79143 74 78 123 
2.79024 -0.336026 4.74989 27 35 74 
2.83567 -0.359496 4.58154 46 48 97 
2.79735 -0.590012 4.81663 23 24 55 
2.38198 -0.258404 6.48773 46 61 104 
1.55259 -0.218599 8.36808 24 39 78 
2.79609 -0.534897 4.77162 11 20 59 
2.84197 -0.561868 4.5541 13 24 70 
2.79925 -0.558879 4.85509 21 25 60 
1.47091 1.35172 8.07122 20 19 50 
2.34236 -0.226665 6.62797 37 45 84 
3.04465 0.700851 3.52429 42 45 96 
2.06474 0.0662687 7.80007 39 45 77 
2.85551 -0.660168 4.64952 37 42 84 
-1.63583 1.67993 9.80953 30 37 83 
1.43474 -0.40865 8.45619 31 44 88 
2.35631 0.229292 6.46361 39 51 91 
1.56294 -0.819534 8.50311 38 50 98 
1.55756 -0.763198 8.47509 36 50 97 
2.0389 -0.565637 8.00504 39 44 76 
1.56291 -0.846363 8.52445 39 57 103 
2.03684 -0.606716 7.92942 44 49 81 
1.40057 1.33156 8.02568 36 37 68 
2.81052 -0.603626 4.82142 20 20 44 
2.83433 -1.15722 4.45513 126 138 176 
2.03779 -0.830843 8.05896 40 45 74 
2.81544 -0.350217 4.75066 45 50 88 
3.04096 0.363998 3.5892 34 46 88 
1.47517 -0.882029 8.54631 40 54 99 
2.74372 -1.13313 4.84077 63 50 67 
1.58416 1.3973 8.01037 22 35 79 
1.54335 0.832821 8.13029 10 17 45 
1.57484 0.811768 8.11658 21 20 52 
1.58857 0.288759 8.24112 29 34 76 
1.53107 0.277092 8.20501 9 18 49 
1.43322 0.242989 8.31793 12 20 56 
1.47313 0.21528 8.30959 9 14 46 
1.45321 0.153619 8.37819 14 23 54 
2.80177 -0.324208 4.7237 20 28 67 
2.77882 -0.357272 4.76657 26 29 70 
2.82936 -0.393855 4.57493 22 23 67 
2.78767 -0.38424 4.72539 20 28 67 
2.81281 -0.417904 4.54169 10 13 54 
2.81753 -0.600282 4.58201 15 20 50 
1.45384 -0.719851 8.56397 41 59 107 
1.467 -0.773853 8.49637 32 45 90 
1.43149 1.37852 8.0925 24 36 74 
1.46345 1.35245 8.08251 21 24 55 
1.54967 1.26686 8.06199 11 17 49 
1.54273 0.811426 8.15113 15 20 50 
1.59203 0.227197 8.28243 8 21 56 
1.41822 0.186283 8.2832 14 19 51 
1.57762 0.164454 8.25236 28 38 74 
1.54871 0.162144 8.2803 23 31 68 
2.3668 -0.204119 6.62761 37 44 73 
2.58664 -0.446935 5.61995 29 32 63 
2.8075 -0.56952 4.49477 114 133 163 
2.77324 -0.590519 4.79201 25 26 56 
2.78716 -0.601676 4.795 31 32 62 
1.45786 -0.745833 8.58168 35 53 99 
1.43988 -0.781025 8.53325 39 53 98 
2.8273 -1.13774 4.51327 39 45 81 
2.0672 0.203906 7.88852 35 39 68 
2.99583 0.722773 3.46413 100 122 182 
2.35005 0.180945 6.54965 45 53 92 
2.03648 -0.737164 8.04351 36 40 69 
2.97118 -0.670557 3.95032 39 39 73 
2.78218 -0.657109 4.64696 27 28 58 
-1.64115 1.66536 9.72634 30 37 83 
2.97972 0.705647 3.46323 25 32 86 
2.98685 0.693164 3.43512 15 15 65 
2.98812 0.6951 3.47171 20 22 73 
2.0719 -0.601411 8.09225 33 39 73 
1.48513 -0.73871 8.54462 35 52 96 
1.57093 -0.780505 8.41984 42 56 103 
1.53296 1.20412 8.02543 16 20 49 
2.64563 -0.950741 5.06844 43 40 59 
2.7121 -0.96133 5.16164 30 24 38 
2.35373 0.179436 6.53486 46 55 88 
2.36436 0.0770221 6.46952 43 57 94 
2.7695 -0.414282 4.71 29 28 60 
2.80706 -0.579219 4.4829 36 42 74 
3.00671 0.669792 3.50091 38 40 89 
3.04939 0.755504 3.57719 26 41 72 
2.0275 -0.516455 7.87429 44 51 95 
3.07344 0.723278 3.52044 90 120 182 
2.37931 1.29752 6.1373 64 74 123 
2.84921 -0.672937 4.68138 10 16 38 
2.87599 -0.669546 4.66877 27 26 58 
2.86388 -0.66231 4.73557 27 28 58 
2.82111 -0.630695 4.80944 14 15 36 
1.56014 1.36546 7.97561 15 25 52 
1.43428 1.36689 7.99425 27 31 68 
2.88514 -0.632721 4.62395 81 102 133 
3.03823 -0.675784 4.01253 35 35 69 
2.85176 -0.613843 4.70751 17 15 54 
1.46614 1.36315 8.09224 19 26 55 
2.83179 -0.595236 4.84892 17 18 39 
2.86079 -0.591913 4.83803 16 21 43 
-1.64118 1.66864 9.73777 17 24 70 
2.82506 -0.568389 4.81975 15 17 40 
1.57489 -0.234298 8.33483 4 15 43 
3.04765 0.687286 3.51629 99 123 185 
1.55504 0.835764 8.06561 14 28 73 
2.82925 -0.514109 4.84944 24 28 65 
1.52983 0.26094 8.21604 6 17 47 
1.46256 -0.74459 8.59218 36 53 99 
1.43232 0.263354 8.31025 7 18 48 
2.07521 -0.917481 7.93975 26 34 70 
-0.883398 -1.16094 11.372 183 212 254 
2.37678 -0.247986 6.56094 28 33 63 
1.44786 0.152477 8.26497 9 18 49 
1.44697 0.134271 8.26706 10 21 51 
1.42176 0.127595 8.3065 17 23 59 
2.37579 -0.183754 6.3605 33 34 65 
2.82813 -0.360211 4.54515 14 18 53 
2.8395 -0.350433 4.77516 45 50 88 
2.8281 -0.386827 4.73556 124 149 189 
1.55629 -0.711375 8.48973 46 60 105 
3.02458 -0.720921 3.70286 23 25 46 
3.05564 -0.436106 3.97388 54 57 92 
2.81907 -1.15357 4.53524 32 31 73 
1.53808 -0.776846 8.44836 32 51 94 
3.08034 -1.05659 3.80813 59 63 110 
2.76071 -1.14453 4.51334 137 161 199 
2.80647 -0.658209 4.6669 20 18 42 
3.03079 -0.558935 3.78374 31 32 62 
2.37221 0.223395 6.46407 38 48 83 
2.39347 0.20707 6.38294 40 52 90 
1.39641 0.80394 8.11799 20 31 59 
1.59584 0.842472 8.17011 7 22 55 
1.48175 0.274651 8.3244 7 16 47 
1.49354 0.206584 8.37393 8 14 46 
1.42306 0.196993 8.30034 10 19 52 
2.84301 -0.318656 4.49768 22 27 49 
2.80272 -0.339616 4.69977 32 46 85 
2.86926 -0.386493 4.54443 27 26 57 
2.79474 -0.36115 4.78409 26 28 66 
2.80967 -0.449521 4.49366 25 26 56 
2.78722 -0.526529 4.82274 19 16 43 
1.41538 -0.24211 8.36929 28 43 82 
2.81001 -0.608698 4.71162 11 15 50 
3.03105 -0.717342 3.74363 20 21 52 
2.64319 -1.03921 5.06873 22 18 45 
2.26971 -1.96219 8.25512 19 39 100 
2.15706 -1.88987 8.81538 219 228 255 
2.83284 -0.674795 4.6682 18 25 51 
2.81145 -0.651328 4.73904 16 19 34 
2.35438 -0.236951 6.62616 33 33 59 
1.58714 0.215003 8.26836 17 23 55 
3.04738 -0.725123 3.72791 29 31 54 
1.46475 0.136855 8.3017 15 18 49 
1.49745 -0.299516 8.49031 28 42 81 
2.37998 -0.14074 6.66044 37 50 85 
2.04753 -0.510006 8.02232 31 45 82 
2.42331 0.115503 6.44812 34 49 82 
1.54368 1.37116 7.91342 20 23 54 
2.03436 -0.891925 8.07483 37 42 72 
2.39674 -0.273293 6.48989 22 32 57 
1.45357 -0.730303 8.56186 35 49 94 
1.44957 -0.719119 8.43218 38 50 92 
1.55418 -0.716957 8.4666 40 52 100 
-1.31744 0.689853 10.296 37 45 82 
2.59406 -0.250621 5.60955 44 54 90 
1.57302 0.758355 8.11983 24 30 62 
0.817309 -1.55555 9.30205 104 118 155 
1.45978 -0.78401 8.47633 33 44 89 
2.70533 -1.0181 5.08388 51 53 78 
2.99687 -0.567937 3.67875 30 37 63 
2.76677 -1.02811 4.42929 116 128 166 
2.97712 0.665484 3.43349 103 123 184 
2.34959 0.186556 6.23386 37 46 77 
2.88187 -0.419591 4.56144 17 15 36 
2.37333 -2.04422 9.01721 23 25 63 
1.19951 -1.86464 9.24546 31 26 49 
2.76173 -0.571277 4.75023 17 19 40 
1.56822 -0.227375 8.31064 9 14 43 
2.86228 -0.676357 4.65065 19 17 39 
2.77476 -0.607277 4.67592 13 16 47 
1.45076 0.263906 8.35553 8 19 49 
2.0152 -0.836124 7.92785 37 42 74 
2.78102 -0.352654 4.68945 26 32 54 
2.82084 -0.389234 4.83304 65 68 111 
2.87881 -0.677808 4.7259 29 29 53 
2.03087 -0.515286 7.96971 34 43 74 
0.821723 -1.55561 9.32758 94 107 142 
1.4525 -0.726151 8.46492 36 53 96 
2.35386 -0.142301 6.61076 40 49 80 
1.74546 -1.25904 8.49401 34 50 75 
2.98494 0.741731 3.52431 28 44 70 
2.35568 0.2383 6.53088 37 51 80 
2.03286 0.516616 7.75484 30 39 68 
2.79859 -1.15032 4.51206 44 50 86 
2.69469 -0.960369 5.16488 23 20 41 
2.96293 0.667027 3.42728 104 122 188 
1.42979 0.134983 8.31715 16 19 50 
2.36728 0.108054 6.36411 36 49 81 
1.46354 -0.237266 8.39816 31 46 87 
1.39848 1.3561 8.02985 29 33 68 
1.47407 -0.301434 8.44321 31 46 87 
2.61436 -0.352432 5.36478 36 45 76 
1.44023 1.29603 8.04058 15 25 50 
-1.41332 1.06325 10.2259 47 78 122 
1.58508 0.76607 8.16388 17 30 64 
2.01674 0.501821 7.64132 30 39 72 
2.05747 0.481964 7.58808 29 43 78 
1.48628 0.272798 8.36057 55 72 100 
2.8328 -0.31886 4.56049 26 23 52 
2.78572 -0.310194 4.76206 29 28 59 
2.79093 -0.376181 4.52591 19 19 45 
2.82803 -0.444918 4.58891 34 30 67 
1.61156 -0.222454 8.43639 31 48 76 
2.25991 -1.84645 8.42419 62 71 130 
2.845 -0.61964 4.6213 21 18 37 
2.82611 -0.612028 4.74089 26 29 64 
2.37996 0.939733 6.20703 43 53 89 
1.29215 -1.20975 8.83554 24 27 44 
2.81493 -0.962235 4.50725 106 129 171 
2.70354 -1.00694 5.16287 61 37 69 
2.87768 -0.691717 4.66649 17 16 30 
-1.47788 1.04953 10.097 34 42 78 
2.77841 -1.03266 4.45523 130 145 188 
2.63024 -0.352398 5.39611 53 62 95 
-1.32552 0.687071 10.2736 26 40 75 
1.58122 -0.231901 8.46827 58 76 114 
1.58105 0.277247 8.24958 19 27 63 
-1.39702 0.762992 10.322 30 48 84 
1.72935 -3.01249 9.36349 117 130 182 
1.68975 -2.98055 9.34797 150 168 204 
2.37933 1.26235 6.14576 53 66 118 
2.52749 0.37433 4.41469 199 190 185 
1.53781 0.224336 8.25837 14 28 63 
1.57131 0.844637 8.08683 30 47 91 
1.41919 0.274438 8.28438 14 31 74 
2.60179 -0.249186 5.54898 44 57 101 
2.8299 -0.351086 4.53859 25 39 86 
2.61269 -0.344206 5.41739 23 32 61 
1.4468 -0.825034 8.5454 39 50 96 
2.8261 -0.451128 4.52309 22 22 56 
2.78947 -0.48326 4.85614 43 50 96 
2.82965 -0.638788 4.55334 37 51 88 
2.66125 -0.954033 5.08558 54 54 80 
2.39065 1.26999 6.11591 117 139 199 
1.55902 0.239847 8.24883 106 121 154 
2.77283 -0.351916 4.76038 23 31 80 
2.82841 -0.398319 4.57603 31 35 80 
2.8354 -0.409128 4.52526 57 63 113 
2.83591 -0.451958 4.53213 22 22 56 
2.78744 -0.352519 4.72202 78 86 125 
2.63387 -1.02333 5.03955 61 68 112 
2.06224 0.128952 7.77088 43 53 89 
2.35004 1.36184 6.27795 46 59 103 
2.81807 -0.386918 4.53357 12 26 55 
2.38969 1.30628 6.15044 60 72 122 
