ply                 
format ascii 1.0    
element vertex 1278
property float x    
property float y    
property float z    
property uchar red  
property uchar green
property uchar blue 
end_header          
-3.29267 0.241315 13.1323 90 112 133 
-0.919725 6.06537 14.3609 86 83 94 
-4.33396 5.36356 15.308 179 193 206 
-2.90864 1.57729 12.1861 75 78 93 
-0.1064 -0.474893 13.7978 117 117 119 
0.304442 5.4283 15.5762 32 31 29 
1.44312 1.63906 13.1668 148 114 89 
-3.82397 5.80975 14.3801 74 81 97 
1.51236 0.468361 13.8037 139 122 112 
0.0615673 -0.254807 13.8468 59 59 57 
2.569 -2.65448 10.8732 62 65 46 
0.549841 1.70775 12.9389 208 184 150 
-1.15169 1.85051 12.019 194 179 156 
0.198074 6.13256 14.4005 109 107 94 
-1.2442 -3.16031 11.1045 19 21 34 
0.317588 0.662976 14.1208 162 42 78 
-0.227236 5.56741 15.7819 160 144 131 
-1.0641 1.37424 13.0705 178 116 43 
0.454759 -0.523927 13.8313 152 141 135 
0.642817 -0.587143 13.8575 158 137 134 
-1.51663 1.04062 13.1546 169 143 110 
-1.28862 -2.83427 10.9571 166 47 66 
-2.63434 6.01096 13.7795 199 197 198 
-0.0426816 6.48152 12.8512 158 75 21 
0.310528 0.00256982 13.974 34 44 53 
-3.40693 6.17378 13.1688 57 81 115 
-1.31956 5.99522 13.6965 200 176 152 
-0.906211 6.17774 13.7017 237 196 54 
-1.98759 0.430043 13.4842 200 178 157 
0.305802 -0.588989 13.8034 167 132 136 
-1.89431 5.90895 13.8434 219 191 66 
-0.172145 0.614586 14.1256 90 85 115 
-1.41067 5.78959 14.6089 168 154 143 
4.14441 -0.380676 12.1647 223 200 169 
0.0404487 -0.462473 13.8334 101 101 99 
0.310835 0.00266913 13.9928 24 33 42 
-3.8231 5.85369 14.2245 76 82 96 
-1.37197 -2.81482 11.112 28 18 19 
0.202985 -0.409568 13.8601 147 148 142 
-0.422668 1.19202 14.2186 231 194 139 
4.31379 8.76715 15.6562 205 189 166 
1.36251 -4.34013 10.9077 133 121 131 
-3.68901 5.89655 13.3243 80 97 107 
-0.969861 6.15058 14.0596 234 184 23 
-0.147642 6.35648 14.4764 156 109 83 
-3.53309 6.11731 13.1281 89 102 110 
-4.16518 5.63411 13.7288 109 178 237 
-2.03384 1.76715 11.4678 66 62 76 
-1.17013 -2.94035 11.1095 14 12 23 
0.190856 -0.397664 13.8519 147 148 143 
-3.77725 5.86354 14.3983 77 82 101 
1.33667 -2.87384 11.4208 184 159 32 
-3.38723 6.16554 13.1758 51 87 123 
1.05257 0.65912 14.0549 119 46 75 
0.210094 -0.774088 13.766 122 79 89 
-3.03805 1.41148 12.3417 44 64 88 
-1.01847 6.05305 14.146 167 125 7 
-3.72597 5.82668 13.7671 75 85 97 
-0.071628 6.46201 12.7959 171 90 37 
-2.56079 0.884255 12.0215 118 116 119 
-1.99051 0.436572 13.6134 201 179 158 
1.94649 -2.52613 11.1806 224 186 17 
-1.1985 -2.82755 11.1289 177 15 26 
0.5912 -3.5009 10.8384 63 40 32 
4.17923 -0.321443 12.1579 207 192 159 
-1.21008 -2.92761 11.0891 16 15 20 
0.0620216 6.4299 12.7827 204 168 10 
0.440708 -0.292877 13.8323 146 145 141 
4.12988 -0.388976 12.2368 147 124 116 
0.440621 -0.580357 13.7538 155 141 138 
0.705444 -2.79802 11.1554 42 23 19 
0.943778 0.592173 14.2138 60 11 33 
-1.06523 -3.8171 12.1649 30 31 51 
-1.1059 1.2284 13.0841 173 156 138 
-1.07463 1.39189 13.0474 191 129 56 
0.876762 0.381635 14.2162 110 44 82 
0.334102 0.550163 14.0555 68 6 27 
0.605477 -3.53317 10.9317 63 38 31 
1.93522 -2.51285 11.1532 224 185 20 
3.93117 0.232171 12.132 42 45 28 
0.849444 -0.57943 13.9746 101 47 60 
4.23867 8.9394 15.5953 199 186 167 
0.256905 -0.596196 13.8144 163 121 131 
-3.44333 6.02326 13.6153 69 135 195 
-0.374254 0.412896 13.899 187 174 158 
-0.520699 5.95088 14.2926 226 182 57 
0.437906 -0.72975 13.8059 143 143 131 
0.0180513 0.632045 14.0591 138 61 81 
-0.00958897 -0.435165 13.8245 143 144 139 
0.36072 -0.470797 13.9885 147 147 135 
0.961316 -0.204623 14.0687 141 142 134 
0.548791 0.740557 14.1252 194 177 159 
1.48182 -4.03869 11.1881 55 50 46 
0.733469 -0.57565 13.8986 100 48 60 
-1.36929 5.90206 14.2485 159 125 64 
0.59337 -3.52031 10.8993 64 39 32 
-1.41029 5.78535 14.5984 168 154 143 
-1.84791 -2.99333 10.4667 233 186 46 
1.01978 1.26876 14.3494 82 48 49 
1.68117 -2.47043 11.2194 134 112 39 
4.26263 7.05993 14.8857 207 194 177 
0.55819 0.310157 14.0409 162 155 149 
-1.35819 6.53501 12.7714 179 176 157 
-3.72458 5.92532 13.8495 58 73 80 
-1.69122 -2.78067 10.6139 57 54 47 
0.740527 0.678395 14.2315 145 67 106 
0.736592 0.723914 14.1689 154 79 110 
4.11205 -0.412831 12.1437 172 150 136 
0.456196 6.30531 13.6173 51 42 35 
1.43389 0.841672 14.4827 179 155 127 
-2.22525 5.93172 13.7128 113 144 87 
2.33362 -2.77068 11.0906 140 82 45 
-2.16158 5.92924 13.9394 146 139 67 
-1.79399 5.82884 14.7822 225 178 46 
1.51219 0.467782 13.7929 162 146 133 
2.32045 -2.33654 10.6586 12 12 2 
-0.068693 -0.424096 13.8568 150 151 143 
-0.202264 0.479258 14.1168 79 65 101 
-1.31818 1.46541 12.801 204 137 32 
-0.111049 -0.113523 13.958 148 147 142 
4.10772 5.24661 14.0908 204 191 175 
-1.25868 0.900524 13.253 168 143 113 
-1.6625 6.10094 13.2208 67 79 39 
4.32714 0.0233225 12.1624 109 115 67 
0.485852 -0.667565 13.8339 149 142 132 
-3.71642 5.94793 13.3897 64 78 89 
0.212277 -0.840012 13.7464 143 143 133 
-2.72051 -2.88853 11.1272 41 40 45 
0.646145 -0.669447 13.8497 150 143 133 
-3.09887 0.60255 13.291 180 180 178 
-0.279856 1.49752 13.0494 184 169 148 
0.0775319 6.27961 14.6009 61 66 44 
-3.9343 5.46369 14.7511 71 121 180 
-1.30333 0.930799 13.2069 200 169 125 
4.12415 -0.407026 12.2595 206 190 174 
-0.653146 6.49544 12.8142 192 146 11 
-2.20056 1.16338 11.2523 139 140 135 
-2.16023 6.04453 13.477 29 38 47 
2.34964 -3.04265 11.3169 146 133 101 
-0.84617 -3.01567 11.4802 35 1 17 
3.53385 2.46692 12.0484 20 25 18 
-0.71532 5.94036 14.7762 145 136 157 
-0.139894 0.980291 14.2092 203 170 151 
4.19642 -0.323193 12.1793 214 195 165 
1.25058 0.676249 14.2353 38 25 34 
-3.46285 6.08462 13.4341 41 66 88 
0.143351 -0.31016 13.8451 144 144 144 
0.67853 1.07111 14.1579 162 111 110 
-1.62799 6.16697 13.4595 128 107 28 
2.31463 -2.77257 11.065 143 78 40 
0.0807054 -0.485996 13.8311 143 142 138 
-1.24247 -3.05184 11.174 65 53 55 
1.63791 -2.90383 11.0907 229 199 49 
0.513386 -3.25374 10.9682 56 20 22 
3.60973 3.26977 13.3078 205 190 167 
-0.5535 6.22382 13.5113 120 117 82 
-0.116223 -2.70236 10.7578 46 17 13 
-2.78127 1.64626 12.0526 94 89 95 
-1.26618 5.94206 14.2515 153 132 101 
1.86416 -2.54147 11.148 212 183 30 
0.257461 -0.175549 13.8811 148 147 142 
0.379964 -0.288087 13.8758 147 146 141 
-3.79477 5.8291 14.3083 55 62 78 
-0.150571 -0.215977 13.9094 147 146 141 
0.301104 -0.460044 13.83 134 134 124 
-2.97988 -0.367581 12.4906 183 183 193 
-3.78335 5.75949 13.7405 69 81 95 
-0.664217 6.41393 12.7636 185 143 5 
-0.18254 -2.72066 10.7024 68 39 35 
-0.219241 0.629604 14.1002 88 87 95 
1.98765 1.75071 13.2858 129 120 91 
-1.16046 -2.95216 11.1665 15 15 27 
0.350544 6.38607 13.3302 81 94 84 
1.2274 1.15044 14.3668 147 88 90 
-1.55386 1.56078 12.5137 194 143 62 
0.609612 9.00345 15.494 60 47 39 
1.15223 -3.71079 10.6948 72 55 48 
0.842167 -0.471774 13.8509 140 137 132 
1.69217 9.60509 15.7436 115 90 70 
1.62087 -2.88463 11.0769 222 189 34 
-0.234254 -0.439594 13.7947 142 143 138 
2.53003 -2.25889 10.6776 20 21 15 
4.50009 11.3004 17.9854 150 140 130 
-0.396693 1.18567 14.2369 232 195 150 
1.36109 0.256933 14.273 117 39 61 
-3.85275 5.7833 13.6796 139 148 165 
-3.86132 5.7147 14.3362 66 76 86 
-3.24351 6.17967 13.104 53 98 137 
0.443489 0.87216 14.1364 110 97 117 
2.73951 5.83055 15.2331 63 60 53 
1.58617 -3.06428 11.215 157 139 67 
2.31314 -1.63539 11.3985 81 69 55 
0.480691 8.78514 15.6743 58 43 40 
4.10081 -0.404997 12.1921 203 187 171 
-0.765354 6.17393 13.5144 107 101 79 
-0.240918 -0.725091 13.7094 145 144 139 
-0.585752 5.99071 14.388 45 42 49 
4.30243 -0.597636 12.0117 26 32 18 
-1.0704 -2.97334 11.1475 53 46 53 
3.93913 1.76836 13.0317 212 194 170 
-0.182462 0.778152 14.0525 200 186 160 
2.32153 -1.67377 11.4892 81 69 55 
3.00499 4.42074 13.1856 96 96 94 
4.011 3.27807 13.4369 205 190 167 
1.90492 -2.59417 11.0935 226 195 9 
-0.398003 1.17726 14.1376 230 197 146 
-3.2031 5.79291 14.1866 6 18 32 
-0.101608 0.587351 14.0898 63 18 41 
1.66179 -2.74601 11.2106 217 182 26 
-1.35994 -2.76881 10.8764 30 27 34 
0.0445357 -0.852499 13.6937 142 144 133 
3.76577 -0.60937 11.7881 36 45 28 
-0.721172 6.20193 13.579 79 66 47 
1.9428 -1.53984 11.9591 98 86 72 
0.30928 6.62288 13.0431 96 100 85 
-2.1383 1.84509 11.4911 18 27 42 
1.65641 -3.37248 11.3299 205 174 22 
-2.43145 6.03903 13.5314 102 103 107 
1.71804 -2.81722 11.3095 225 197 51 
-1.09434 6.06611 14.0888 174 138 78 
-0.0389829 -0.239071 13.9091 145 144 139 
-0.286691 -0.228824 13.8862 151 147 144 
0.281204 6.23876 14.9007 82 86 69 
-3.43612 0.0672647 13.1229 186 198 210 
0.202996 -0.701454 13.7775 142 123 119 
1.71551 -2.70249 11.1051 176 151 58 
-0.246682 0.289555 14.0793 25 29 66 
4.07925 -0.417315 12.1291 172 155 145 
-0.945542 5.9894 14.8856 90 76 101 
0.0277884 0.498477 14.0505 42 14 29 
-1.09233 1.17008 12.8739 172 155 139 
1.90666 9.96542 16.0934 131 104 74 
3.06359 -1.58356 11.0051 18 23 16 
4.50215 11.3015 18.0114 151 141 131 
-0.966093 -4.12685 12.1017 46 45 59 
0.0426147 -0.318462 13.8372 149 148 144 
0.235526 6.36441 13.8022 81 90 63 
-1.63553 -4.67582 12.1594 203 177 150 
-0.126239 -0.1758 13.847 147 146 141 
-0.0377043 1.7331 12.6614 26 45 122 
1.76283 -2.86327 11.0359 200 166 40 
-5.03326 -4.26818 17.6471 157 211 245 
-1.00737 -2.68973 11.6282 61 62 64 
-0.263129 0.287297 13.9385 108 109 127 
2.96702 1.3747 14.7227 193 177 151 
-0.169516 0.47084 14.0893 49 17 41 
-0.152317 -0.519164 13.7965 148 149 143 
-3.16298 0.45524 13.1976 129 131 146 
2.21317 -3.18403 11.1326 236 211 23 
0.479131 8.69757 15.5212 58 43 36 
-4.06835 5.54748 14.6766 151 193 218 
0.0581083 -0.49656 13.8625 146 151 145 
-0.189185 0.505305 14.1546 79 57 93 
-0.0378778 1.71631 12.6606 19 42 120 
-0.320201 0.585679 13.825 197 185 163 
-1.43759 -2.98279 10.9104 34 33 38 
1.35317 0.261873 14.2606 107 38 59 
2.19948 -1.6186 11.5063 234 185 64 
-0.0348454 -0.267557 13.896 80 81 76 
-0.0380447 1.72103 12.6938 20 43 121 
-4.76372 5.36379 14.9083 89 99 111 
-0.107485 -0.54985 13.7897 148 147 142 
-0.149703 -0.51861 13.7727 147 148 142 
-3.68518 0.600575 13.7491 202 206 217 
-0.1 -0.556715 13.7878 149 144 140 
0.188239 -0.293864 13.958 132 132 130 
2.27407 -2.82619 11.1678 149 88 44 
1.43045 -3.51296 11.6705 130 103 32 
2.22626 -3.0293 11.1665 182 150 5 
0.984783 -0.0940453 14.0736 139 142 131 
0.485167 -0.272171 13.8526 144 144 132 
1.67857 -2.99479 11.053 212 179 26 
-0.0607961 0.528145 14.1281 116 35 67 
-1.44855 1.67739 12.6293 147 111 53 
-7.02423 3.3502 21.4585 153 227 255 
-1.08783 -3.54881 11.9877 30 42 56 
1.73854 -2.86604 11.1033 197 167 57 
-1.48824 1.77809 12.5941 92 82 73 
-1.2284 1.48759 12.8253 198 139 23 
-3.60143 0.783598 13.7714 203 204 206 
1.53501 -2.45844 11.2546 176 153 37 
-0.187336 0.817798 14.7158 197 182 163 
-0.119333 0.0949272 14.0341 27 35 48 
0.363821 6.4828 13.1846 104 114 103 
4.06067 -1.07977 11.8803 72 86 53 
-1.07523 -3.52836 12.1452 23 37 48 
-0.0573613 -0.498615 13.832 148 149 143 
2.202 -2.9634 10.8789 221 192 26 
1.30663 -3.33892 11.3948 98 66 45 
2.03288 6.85633 13.9079 50 46 45 
0.54797 -0.462354 13.7824 149 149 137 
3.08203 0.196631 11.6903 38 44 34 
1.82465 -2.56143 11.0653 182 152 4 
0.549715 0.492101 14.0553 85 68 84 
2.22181 -2.99328 10.9923 218 188 14 
-1.11506 -2.75305 11.1971 2 8 24 
-3.9774 5.62428 14.529 57 70 78 
1.65919 -3.37819 11.3492 205 174 21 
-1.1768 5.83306 15.1659 56 55 87 
-1.38534 -2.92023 10.8383 46 43 54 
0.662914 0.801738 14.218 148 80 105 
-0.233258 0.287161 13.9423 31 35 70 
-3.65716 0.833223 13.6186 203 207 218 
0.241915 0.898374 14.1935 167 75 88 
1.63022 -3.40738 11.365 186 156 22 
0.319998 6.12417 14.6724 59 65 51 
2.17957 -2.9311 10.7573 223 194 28 
0.625567 1.25014 14.284 174 133 113 
0.506752 -0.259893 13.9655 31 31 29 
-1.7115 5.91192 13.8429 223 187 67 
1.29642 -2.97854 11.7699 89 53 17 
-0.272189 0.657539 14.4439 192 181 161 
1.11791 1.16866 14.41 168 107 112 
-3.38237 1.13882 12.0706 66 68 81 
0.159191 -0.847848 13.7627 143 143 133 
-2.92732 0.0629136 13.6854 153 156 163 
-0.1546 0.567732 14.1034 125 43 81 
0.210948 0.876562 14.2333 150 66 79 
-1.30873 1.43427 12.7982 205 141 44 
-0.980028 5.83618 12.9575 176 144 57 
-1.18999 8.91911 15.892 120 115 111 
-0.441499 5.98338 13.7692 224 172 37 
0.901487 1.32901 14.3923 160 122 121 
-0.321999 1.21866 14.2208 225 176 146 
-1.74896 -2.65589 10.4421 215 165 52 
-0.966005 -3.02087 11.8426 22 1 10 
-0.578819 6.42289 12.7834 184 145 8 
3.92341 1.67796 13.0313 57 51 35 
0.408045 1.28799 14.0377 202 165 123 
0.653806 0.79267 14.2227 147 78 107 
-0.0468772 0.483352 14.1293 34 13 32 
0.614461 -0.345933 13.9597 140 141 136 
-1.08009 -3.53052 11.9252 33 45 59 
0.624528 1.24785 14.2593 174 133 113 
-1.34062 -2.69477 11.0581 110 38 41 
-2.8477 6.14585 13.2945 80 131 178 
-1.18772 5.96567 14.3354 156 114 64 
3.91389 2.27519 13.1725 208 190 166 
-1.15037 -2.78606 11.3151 9 7 18 
-1.09189 6.4068 12.8312 230 222 175 
3.16264 4.5443 13.518 204 192 170 
-6.02618 5.17402 21.1732 254 254 254 
2.64798 4.95713 14.1809 176 166 156 
1.75576 -2.46833 11.0177 178 151 8 
1.23175 1.0276 14.3913 120 63 70 
0.850044 -4.10634 10.3553 240 221 181 
-3.13304 -1.6881 11.9685 104 108 111 
0.132458 -0.891654 13.773 143 143 133 
1.78363 -2.59947 11.0116 193 163 33 
4.09947 6.86027 14.6242 205 194 174 
2.8092 6.51621 13.1458 127 119 108 
-3.73316 5.94561 13.7309 76 90 103 
-7.37978 3.81319 21.4356 129 187 201 
-0.24821 -0.515019 13.6802 144 145 139 
-0.319477 0.240715 14.2636 157 150 142 
-0.253285 -0.51879 13.8009 144 145 139 
-0.195137 0.736993 13.998 192 184 161 
-0.499757 1.06523 14.4188 223 197 160 
3.29685 -1.60474 10.7815 62 65 44 
-0.184395 -2.78081 10.6856 30 6 22 
0.684011 0.754339 14.1519 118 54 88 
2.93104 -0.224999 14.026 143 129 116 
0.305512 -0.178224 13.9872 145 147 142 
0.480349 0.693696 14.1197 121 115 143 
0.431675 6.33999 14.0154 46 42 39 
-2.54331 9.11744 15.9234 131 125 125 
-0.245068 1.22905 14.1485 225 170 140 
5.02221 7.22256 17.6086 203 189 176 
-0.193623 -1.80609 13.5456 125 119 107 
-0.162173 6.47511 13.3111 213 192 3 
-4.84704 4.64044 16.697 133 144 148 
-0.191437 -1.79912 13.491 126 120 108 
-3.36008 1.7802 11.4016 76 84 103 
-0.815393 5.89207 15.0347 85 82 101 
1.78445 -2.4859 11.2596 175 147 21 
0.404535 0.405459 14.0526 100 20 55 
-4.82304 4.61766 16.6168 133 144 148 
0.00689501 6.36687 14.548 79 83 48 
-2.65647 1.08669 12.1163 104 124 89 
2.71473 6.91073 13.0379 89 87 90 
1.47298 -0.96598 14.0467 164 147 127 
-3.36559 0.31008 13.3206 171 190 204 
-3.63075 5.92605 14.4477 34 47 63 
1.34584 -2.99164 11.3954 108 86 13 
-2.07667 5.90326 13.8627 120 112 27 
-0.339068 0.368789 13.9647 175 165 153 
-0.32911 0.379257 13.8183 175 165 153 
1.68097 -3.38423 11.3438 205 173 13 
-0.424242 0.236916 13.9535 160 143 125 
2.30066 0.425941 14.5152 157 139 115 
-0.117433 0.0939762 13.9608 45 53 64 
-2.86241 1.51391 12.1592 87 86 102 
3.99736 -0.468448 11.9884 207 194 152 
-0.509038 5.81824 15.347 34 33 41 
-3.34901 1.77345 11.3606 77 85 104 
0.429121 0.868692 14.1364 111 96 119 
-0.280359 0.765384 14.0961 203 189 163 
-3.95943 5.55693 14.3792 81 101 112 
-0.450678 -1.63289 13.3724 167 151 136 
-3.5685 0.552272 13.8191 186 190 202 
2.53782 3.93485 15.815 136 136 136 
1.30547 0.211604 14.292 46 25 34 
-0.0183231 -0.221633 13.9334 147 146 141 
0.370773 0.561706 14.0648 86 7 38 
1.25089 -2.70453 11.4952 78 51 21 
-3.86218 5.71284 13.2753 154 189 211 
-0.166431 6.34225 14.553 100 62 39 
-2.71053 -0.477177 10.8275 38 109 163 
3.03252 4.3528 12.963 205 190 171 
-5.28683 4.28265 18.636 255 253 255 
1.09222 1.89949 12.619 39 22 15 
-1.30597 6.26108 12.5873 230 218 194 
-1.78083 1.34499 12.6365 96 24 36 
4.1126 -0.486816 12.1402 213 198 169 
1.14763 1.86229 12.5866 249 227 188 
-1.65712 5.94272 13.343 207 206 162 
-1.78267 1.34687 12.6467 97 26 34 
-1.33851 1.38618 12.71 106 31 25 
-0.709833 5.99733 13.7067 134 129 125 
4.01396 -0.0248744 12.0912 39 45 31 
-0.709793 5.99234 13.6972 134 129 125 
3.25027 3.63136 13.2612 25 36 22 
1.05603 1.78342 12.662 132 108 84 
-1.4507 1.38583 12.6656 105 32 25 
-2.85668 5.72711 14.0179 126 125 121 
-2.02063 5.98526 13.2009 207 206 186 
-0.610524 5.91659 13.735 148 144 141 
-2.17377 5.95295 12.8551 25 33 46 
-0.383796 1.40217 13.0631 204 180 156 
-0.195998 -0.384405 13.7935 93 93 95 
4.2325 -0.534279 12.0595 35 47 25 
-1.69087 5.89028 13.3604 36 33 24 
-1.94068 6.0277 13.1503 192 197 105 
1.21078 -3.90196 10.9625 65 46 39 
0.412981 -0.341534 13.844 93 92 90 
-3.07592 -1.53764 12.1093 88 49 54 
-0.929942 6.21373 12.6686 237 235 186 
-1.0458 0.968565 13.2242 46 32 21 
4.0965 -0.323169 12.1621 210 189 160 
-1.93568 5.99777 13.1931 89 92 75 
0.519771 1.82456 12.8181 177 159 139 
4.1934 -0.0279598 12.2163 211 194 166 
0.797602 1.80242 12.6737 83 47 25 
0.271697 -0.260107 13.8663 123 121 122 
2.41265 -2.61562 10.9443 10 9 7 
4.15597 -0.440595 12.1004 30 32 19 
-0.72482 5.94734 14.1106 50 50 50 
0.642785 -0.216066 13.8667 104 103 101 
1.28433 -3.99769 10.94 182 103 98 
1.99085 5.23477 15.6366 5 9 18 
-3.11104 -0.907737 12.1645 178 186 199 
0.75572 -0.557614 13.8164 162 125 132 
-1.67201 6.00865 13.0353 193 191 166 
0.207743 -0.348008 13.8464 38 37 35 
4.02824 0.469234 12.3703 214 193 162 
-0.746812 5.80691 14.6604 38 39 44 
-3.08043 -1.1718 12.1927 67 18 40 
-3.03855 -0.979481 12.0972 10 42 91 
0.606779 -0.6046 13.767 104 40 54 
-3.03562 -0.979375 12.0872 10 42 91 
0.410655 -0.61977 13.773 99 34 58 
-2.78941 5.65789 13.969 138 140 135 
2.92934 4.33963 13.0473 22 32 24 
-0.59568 5.87176 14.1326 41 42 47 
-0.59632 5.87994 14.1489 45 46 50 
2.55964 -2.38901 10.8122 97 100 57 
0.546663 -0.227037 13.8426 106 105 103 
4.33082 -0.422111 12.0982 216 195 166 
-1.6051 0.92652 12.8915 214 175 136 
1.31637 -4.19038 10.8892 235 206 176 
0.0858302 -0.262109 13.8366 122 122 122 
0.543717 0.645038 14.0347 182 175 165 
0.223594 5.61015 15.6449 148 135 118 
3.99288 -0.463953 12.0558 42 43 25 
2.53426 -2.41758 10.7863 91 94 63 
-0.607249 5.89852 14.1159 39 43 46 
0.0475752 -0.775631 13.6259 90 42 56 
1.18612 -3.93322 10.9162 233 208 178 
1.18279 -3.92308 10.8819 234 209 179 
-1.72852 6.04015 12.8784 149 148 130 
-0.30768 6.25811 12.8741 184 70 60 
-0.844593 5.91863 14.4296 60 41 63 
1.31431 -4.12244 10.9618 235 209 176 
-0.0194052 -0.728531 13.6507 94 47 63 
0.62248 -0.213386 13.8558 95 94 92 
0.830982 -0.523395 13.827 89 47 57 
-1.22574 5.8595 14.783 34 34 46 
0.597336 0.64178 14.0541 67 52 71 
-1.59145 5.95594 13.2337 33 53 18 
0.744484 0.163535 14.0569 31 34 53 
-1.29487 5.9047 13.9316 107 73 27 
0.090268 -0.361311 13.7979 123 123 121 
-1.60221 0.92454 12.878 214 175 136 
-0.715121 5.86424 14.1005 160 158 179 
4.39664 0.00310779 12.2142 84 102 42 
4.2635 -0.246639 12.1527 216 194 170 
2.54275 -2.42144 10.8077 97 103 67 
-0.0869309 -0.6091 13.7047 149 146 139 
-1.67004 5.8758 13.4286 73 76 47 
-6.70407 2.91043 21.8085 88 96 115 
0.299352 -0.751249 13.6973 166 130 132 
2.26674 -2.63229 11.0176 126 66 32 
0.0334191 6.42117 12.6183 150 22 23 
-0.0124368 -0.787077 13.6473 98 37 55 
0.517443 -0.228856 13.8418 129 129 127 
-0.819197 5.86202 14.5343 130 120 145 
-0.082603 6.25286 12.9374 102 118 117 
1.43771 0.389649 13.7525 170 152 132 
-1.78448 5.85878 13.5692 180 170 72 
-3.07772 -0.930454 12.2191 181 183 196 
4.26851 -0.392369 12.1142 52 57 34 
-1.07958 5.91603 14.6468 35 35 47 
4.48671 -0.315307 12.1664 216 195 164 
0.360739 -0.741531 13.7214 156 137 130 
0.405754 -0.548847 13.7739 99 47 60 
0.0386806 6.23474 12.6073 134 78 63 
0.0926641 -0.755339 13.6617 95 32 53 
1.43485 0.384809 13.7049 172 154 130 
4.27961 -0.413154 12.1492 61 63 41 
-0.0397705 -0.76194 13.647 159 124 130 
1.33445 1.22691 14.3406 201 158 123 
-1.06224 6.17354 13.3561 167 111 24 
-1.57232 1.72357 12.394 185 170 151 
-0.242369 0.481043 14.0298 31 30 61 
0.828692 1.81861 12.6673 233 128 109 
0.863668 -3.9565 10.6842 238 215 183 
-1.53913 1.6111 12.3891 229 206 172 
4.18514 11.4673 17.1049 133 124 107 
0.925233 1.84433 12.6679 151 61 37 
0.47843 0.648587 14.0381 60 22 63 
2.20549 -2.83911 11.2846 143 114 20 
-1.17817 1.42969 12.8633 204 133 43 
-1.41042 5.58711 14.5722 176 153 145 
-1.06702 5.96397 14.066 201 168 89 
0.814086 -0.547741 13.8476 175 125 136 
0.518304 0.70897 14.0581 90 92 117 
0.347888 -0.554896 13.7798 89 55 56 
0.475837 0.704132 14.0437 118 111 142 
0.921627 -4.17376 10.6794 242 219 185 
-0.535332 5.83862 14.1095 221 182 77 
-2.07685 6.00348 13.2165 27 36 41 
0.164463 0.672998 14.0421 171 88 104 
-0.966498 6.01586 13.879 220 173 41 
-0.108795 -0.676543 13.6698 103 72 77 
0.721767 -0.31521 13.8604 120 119 124 
1.73237 -3.35169 11.4479 170 129 3 
-2.01547 5.94563 13.2483 35 52 42 
-1.6073 6.00455 13.1186 157 169 93 
1.00762 0.133973 14.101 36 30 40 
-2.38438 5.85938 14.1653 179 131 46 
-1.95686 0.553799 13.4953 201 177 149 
-2.19319 5.67218 14.5211 46 58 82 
0.180949 -0.249178 13.8542 135 135 133 
0.289549 -0.346443 13.8385 151 150 145 
2.28516 5.34924 15.4607 165 156 141 
0.870127 -0.554125 13.8545 146 131 124 
4.00476 -0.398002 11.9634 208 191 161 
1.21122 -4.04814 10.848 223 199 161 
0.477088 -0.267546 13.8579 148 147 142 
0.461075 0.0852468 13.9521 28 36 47 
-0.108938 -0.777003 13.6005 134 116 116 
-0.103112 -0.773905 13.621 117 97 98 
-0.0974967 -0.616958 13.7256 148 148 140 
0.33324 -0.752583 13.7163 103 34 53 
0.153019 -0.642445 13.7279 162 142 141 
1.29351 0.982734 14.2796 66 56 54 
-0.559899 5.8182 14.2237 218 176 76 
0.572317 0.211183 13.9512 150 150 142 
0.575187 -0.570658 13.7803 156 127 123 
-1.947 0.549326 13.4548 199 178 151 
0.0779654 -0.80504 13.6485 147 144 137 
0.631203 0.7647 14.1028 101 58 85 
0.154795 -0.661416 13.7284 146 143 134 
0.600882 0.273553 13.9627 36 48 70 
0.660996 0.600516 14.1835 99 45 77 
1.55378 -3.34697 11.6368 65 50 31 
3.75332 3.98263 13.2943 17 16 11 
4.04173 -0.431411 12.0896 213 192 163 
0.337521 -0.549886 13.7843 89 53 55 
0.612371 -0.262053 13.835 142 143 135 
0.173583 0.304843 13.9776 127 37 75 
0.509934 0.185345 13.9688 23 22 36 
-1.03142 1.43615 13.1949 160 92 55 
1.73544 -3.55812 11.5774 198 168 12 
0.143949 -0.551325 13.7675 154 147 141 
0.0283668 -0.729203 13.6419 150 149 145 
0.519205 -0.293859 13.8226 145 142 135 
-1.62454 5.85133 13.6068 224 180 57 
-1.8399 5.86554 13.3799 184 184 150 
0.265796 -0.654666 13.7497 149 144 140 
0.354268 -0.293824 13.8505 148 148 138 
-1.08259 5.97481 12.9925 221 205 172 
-1.79575 5.91876 13.2461 202 194 171 
0.0145036 -0.762873 13.6807 156 136 138 
0.324076 -0.238803 13.8818 125 123 126 
-2.02768 6.041 13.1513 28 37 42 
0.0290187 -0.728953 13.6675 147 144 139 
4.3077 -0.213331 12.1818 61 55 31 
0.320565 -0.720914 13.743 106 45 61 
0.364489 -0.312025 13.8379 150 149 145 
-0.896508 6.03544 13.9262 24 25 20 
0.503551 0.184705 13.96 23 22 40 
0.180844 0.299722 13.9649 123 37 76 
-1.31368 5.94848 13.3692 214 198 165 
-1.65051 5.95194 13.2218 113 117 82 
-1.55116 5.87453 13.5535 141 139 124 
-0.0210724 6.43819 12.6065 171 92 79 
0.265909 -0.654908 13.7369 149 144 140 
0.249382 -0.316928 13.8398 150 150 140 
-2.08192 5.76296 14.0477 180 147 70 
-0.677129 6.15822 12.8987 230 213 12 
-0.0195899 6.43265 12.5975 179 101 88 
-0.899176 6.06773 13.9882 37 40 33 
0.305643 0.505857 13.9992 56 29 48 
0.475692 0.23848 14.0195 52 10 32 
-0.92475 6.10068 13.6111 235 193 29 
-0.905424 6.12003 13.9254 31 29 30 
0.0201665 -0.594425 13.7359 161 135 136 
0.953682 -0.557065 13.8815 98 59 62 
2.7511 6.87155 12.8071 76 74 77 
-0.999022 -2.51042 10.9584 40 42 39 
0.366468 -0.648749 13.763 148 138 136 
-3.22456 5.29415 15.2532 174 168 170 
3.50079 3.26542 13.3187 42 44 31 
0.22365 0.725706 14.0747 64 22 36 
0.121101 -0.310543 13.6769 144 144 142 
1.38566 0.210139 14.1775 95 49 59 
2.74607 6.86297 12.7933 74 72 75 
-0.707976 5.76808 15.0755 149 114 58 
0.228143 -0.293596 13.8654 148 147 143 
0.455618 0.763818 14.0699 67 66 97 
-0.230487 0.216392 13.9837 24 23 55 
2.3847 -2.85232 11.1683 16 8 6 
0.370341 -0.294849 13.8299 150 149 144 
0.0780919 -0.596346 13.7644 158 133 137 
0.183349 -0.79745 13.6679 151 140 138 
1.34975 0.977523 14.295 171 160 138 
0.526277 0.760443 14.1011 197 181 156 
0.530735 0.771747 14.1945 187 177 150 
-1.45736 6.06582 13.1669 224 161 32 
0.113707 -0.455049 13.7964 130 130 128 
0.127335 -0.40333 13.8251 147 147 145 
0.371009 -0.531203 13.7867 150 140 131 
0.292454 6.23615 13.5491 48 46 34 
0.142069 -0.532579 13.7672 143 143 141 
0.00942458 -0.266389 13.8411 121 121 119 
-0.0626744 -0.690609 13.6733 154 142 144 
-1.60565 6.12129 13.1068 134 92 52 
-3.35169 2.05489 11.3055 74 85 103 
-1.39607 1.43205 12.6937 220 153 40 
-0.020424 -0.529298 13.76 146 145 140 
-1.44905 0.959599 13.2808 106 74 49 
-0.000986718 -0.534313 13.7427 148 149 144 
-0.959117 6.07556 13.6361 171 126 11 
0.615076 -0.34548 13.8419 148 149 141 
-3.27485 0.134964 13.1826 165 213 235 
-0.138694 -0.32675 13.7927 151 152 147 
0.0141306 0.899703 14.0191 135 65 76 
-1.69767 1.3069 12.6226 175 154 127 
-0.106487 0.678386 14.0402 108 95 123 
-0.525262 1.10128 14.2479 112 95 79 
-0.00552627 -0.327954 13.8088 152 151 147 
0.230374 -0.394189 13.8193 146 145 140 
0.099916 0.713193 14.0841 68 24 39 
3.15049 -1.08171 13.9097 25 10 13 
-1.02331 5.9811 14.2477 123 118 122 
-0.924522 5.93567 14.5118 126 106 131 
1.30592 -3.91992 11.0548 105 84 63 
1.06249 1.28068 14.278 91 57 58 
0.298982 -0.679422 13.7025 145 142 135 
0.58153 0.700389 14.1053 191 122 115 
3.02194 -0.570799 14.1036 37 19 35 
-0.272758 0.580433 14.1935 193 183 156 
0.160816 5.95544 14.8664 118 115 110 
0.758655 -0.602664 13.8155 106 77 81 
-0.0639717 6.31131 14.0679 65 55 30 
-0.926477 6.10571 13.6205 235 193 29 
-1.39586 1.44872 12.7069 210 147 16 
3.90061 11.3358 17.6329 71 64 54 
-0.198924 -0.347682 13.8013 147 147 145 
2.15055 -2.41903 11.1065 137 117 30 
0.0581005 -0.733583 13.6575 152 134 134 
0.319954 -0.28348 13.8349 149 149 139 
0.286576 -0.620304 13.781 103 62 70 
-0.965334 5.82356 14.9249 130 132 147 
1.23373 -4.01595 10.896 235 216 183 
-0.0837238 0.898163 14.1037 143 82 100 
0.754 0.599421 14.1353 87 50 81 
-0.575253 -2.44218 11.0684 28 23 27 
0.271343 -0.0325015 13.9016 121 130 129 
-0.105669 -0.336775 13.8116 147 147 145 
-2.77926 1.56223 12.0247 80 80 92 
-1.10697 0.946954 13.32 172 152 125 
-0.0787231 -0.406252 13.7749 141 142 136 
0.230309 -0.394786 13.8033 151 152 146 
-0.209675 0.604711 14.1065 66 71 101 
0.337082 -0.400357 13.8244 146 146 134 
-1.09432 5.86396 14.7438 92 95 114 
-1.57763 6.01847 13.2737 161 164 73 
0.757152 -0.512064 13.8182 103 71 76 
4.2504 -0.16851 12.1782 68 74 48 
0.0599793 0.486835 14.0088 37 14 32 
1.34297 -0.797998 13.9131 119 121 110 
-0.934911 5.85869 13.2552 181 130 5 
2.21946 -2.7659 11.3262 129 105 15 
-0.161491 -0.81024 13.6409 89 45 58 
0.679511 -0.31961 13.8681 37 38 33 
0.615903 -0.369576 13.8699 146 148 135 
1.55385 0.822339 14.4964 192 167 136 
-2.22441 5.85025 13.7742 159 158 104 
1.23132 -4.01218 10.8842 235 216 183 
-0.272366 0.389868 13.9663 58 70 92 
0.930179 -0.499194 13.9001 144 131 123 
0.615095 -0.280207 13.8209 144 145 140 
1.27381 0.132588 14.1387 67 31 41 
1.36483 0.783796 14.2795 43 39 36 
4.90855 11.3427 17.6792 158 144 133 
2.18072 -2.87277 11.2128 223 189 21 
-2.10226 5.88837 13.6556 162 169 135 
0.827122 0.589108 14.0562 56 23 42 
-1.52284 1.32714 12.6303 171 152 138 
-0.252708 0.173056 13.9982 147 147 145 
-3.30124 5.49173 13.9947 16 26 36 
0.317773 0.663139 14.046 162 42 78 
1.34516 -4.29228 10.9643 224 197 168 
-0.157918 -0.383956 13.8 55 55 53 
-0.775386 6.39161 12.4861 58 17 0 
1.08338 -0.153597 14.0053 105 106 90 
0.176447 -0.387144 13.8073 137 137 135 
0.0641336 -0.251024 13.8135 59 59 57 
-2.11929 5.87248 13.6285 157 161 126 
0.456303 -0.519186 13.7951 152 141 135 
-1.50565 1.04293 13.0796 169 143 110 
-0.0205379 6.27939 12.6247 234 186 60 
0.493227 0.880969 14.0747 201 188 156 
-5.13373 -1.042 18.9568 121 127 143 
-0.0390545 6.38274 12.5919 158 75 21 
-1.06856 5.83111 14.771 28 30 43 
1.29432 0.798507 14.2537 165 71 87 
-0.169588 0.619522 14.0354 90 85 115 
4.12693 -0.372258 12.0933 223 200 169 
0.0430455 -0.454984 13.7756 101 101 99 
0.312442 0.00791026 13.9372 24 33 42 
-3.06368 1.97887 11.3052 86 96 108 
4.03923 3.52601 13.5183 210 195 172 
4.95173 11.4824 17.6501 154 140 129 
-3.08311 -1.38673 12.1014 117 40 50 
-0.0926376 -0.416412 13.7808 146 147 139 
0.670524 0.981997 13.7125 144 97 107 
0.191285 -0.392797 13.8131 147 148 143 
-6.55556 3.79658 21.0499 75 95 102 
0.0077375 5.74419 15.5268 42 41 46 
-0.0662734 6.37174 12.5592 171 90 37 
-2.86573 -1.10262 12.042 174 173 179 
-1.96097 0.450375 13.4187 201 179 158 
-1.81923 5.82135 13.7082 197 157 36 
-2.50362 5.73091 14.6057 9 39 67 
-0.846635 5.95624 14.3618 110 97 117 
0.867049 -0.490094 13.8539 142 142 130 
2.17277 -2.86768 11.1887 228 196 17 
4.19622 -0.328665 12.2035 207 192 159 
0.442044 -0.290569 13.812 146 145 141 
-2.75829 5.71873 14.0649 1 13 29 
0.943982 0.59464 14.1633 60 11 33 
-1.06705 1.39213 12.9829 191 129 56 
0.335266 0.553043 14.0037 66 7 27 
0.842837 -0.558668 13.8217 101 47 60 
0.611348 -0.575822 13.7932 96 37 55 
-3.09184 0.606378 13.2647 180 180 178 
0.259328 -0.589727 13.7668 154 111 121 
0.438193 -0.722332 13.7553 143 143 131 
2.71758 6.20958 13.7785 30 28 31 
0.0201054 0.634226 14.0186 137 58 79 
-0.00850298 -0.429499 13.7806 143 144 139 
4.97929 11.4533 17.6741 157 143 130 
0.359503 -0.453694 13.8552 147 147 135 
0.447653 -0.344989 13.8632 63 59 58 
0.548628 0.742955 14.0706 194 177 159 
-2.90122 -1.14101 12.1649 175 174 180 
3.76287 11.7023 17.6673 137 125 113 
-1.42031 5.71978 14.2977 186 166 139 
0.734976 -0.572952 13.878 100 48 60 
-1.18108 6.29761 12.5781 231 223 184 
2.24219 -2.75933 11.1047 229 174 58 
2.79261 6.41792 12.866 129 120 105 
3.9428 5.73255 14.0958 19 20 15 
0.579307 -0.179506 13.8463 145 144 139 
-1.50479 5.76939 13.7688 208 155 51 
-1.3276 6.43049 12.5 179 176 157 
0.736323 0.726091 14.1195 156 80 116 
4.12162 -0.417001 12.165 172 150 136 
0.0665987 -0.350339 13.7988 107 107 105 
-2.20353 5.88345 13.5575 113 144 87 
2.34408 -2.78501 11.1275 140 82 45 
-8.33271 -3.04411 30.777 124 129 148 
4.0923 -0.399028 12.1324 155 139 126 
1.06753 0.0174582 14.1482 140 139 134 
0.259696 -0.647541 13.7182 150 145 141 
0.780709 -0.518808 13.8419 102 67 73 
-8.30783 -3.03776 30.6892 126 131 150 
0.891792 -0.472131 13.8906 135 137 126 
-0.249542 -0.341024 13.8025 151 151 149 
4.28576 -0.612522 12.0323 47 48 32 
-1.62893 6.01228 12.9601 67 79 39 
0.70581 -0.245086 13.8708 139 140 134 
0.657284 0.309913 14.0495 61 52 81 
0.212825 -0.827727 13.6678 150 145 141 
4.20824 -0.267889 12.2033 141 128 109 
-1.72872 5.9835 13.1622 186 185 155 
-3.30476 0.251939 13.1535 184 212 233 
-1.29043 5.82452 14.5316 189 137 62 
-0.142661 6.24518 14.3913 135 94 64 
-1.29472 0.933326 13.1417 207 180 137 
4.09587 -0.393785 12.1561 206 190 174 
-0.633676 6.40072 12.567 192 146 11 
0.253716 -0.193422 13.8898 148 147 143 
0.41398 -0.69806 13.7206 142 144 131 
-0.084196 6.44237 12.5776 177 89 75 
-1.42452 5.83418 13.8656 213 177 103 
-0.700661 5.86852 14.5333 145 136 157 
2.57941 -2.29916 10.8076 16 17 12 
-0.137782 0.983243 14.1114 203 170 151 
4.12401 -0.374362 12.1914 165 146 131 
0.145825 -0.30737 13.8209 144 144 144 
2.32872 -2.79708 11.131 143 78 40 
0.0827682 -0.480825 13.7917 143 142 138 
-0.104695 0.623667 14.0766 85 30 69 
0.428231 -0.276521 13.8111 143 142 138 
-0.0306107 -0.406599 13.8087 146 147 142 
4.42244 11.0948 17.5484 152 138 129 
-1.29575 5.84596 14.5732 189 138 57 
1.11682 1.17622 14.3398 169 108 113 
-2.4794 5.87114 14.3778 39 17 38 
0.243755 6.54606 12.7838 42 46 31 
0.356254 6.46676 13.151 104 114 103 
-0.760526 5.90941 14.2383 62 59 78 
1.06805 0.0166228 14.1375 140 139 134 
2.60609 6.82745 12.8787 59 55 54 
-3.98457 5.19981 13.7174 110 134 160 
-0.632851 6.40952 12.5814 193 146 14 
-2.18938 5.76844 13.9899 200 158 72 
-0.649395 6.32406 12.5254 185 143 5 
0.592817 8.79218 15.0494 60 47 39 
-0.144623 0.61759 14.0512 99 49 87 
-0.232077 -0.433572 13.7489 142 143 138 
4.40705 11.0912 17.5949 150 140 130 
-0.390784 1.18706 14.139 232 195 150 
-0.163877 6.26121 12.5316 243 211 15 
3.65886 3.76737 13.3442 205 190 167 
0.443729 0.875255 14.0473 110 97 117 
-3.03953 -1.22285 12.18 113 45 56 
4.08079 -0.395407 12.1149 203 187 171 
-0.236193 -0.72045 13.6771 145 144 139 
0.356706 6.42617 13.0821 106 116 105 
3.99266 1.7715 13.2031 212 194 170 
-3.23737 -0.22287 12.2079 148 62 75 
2.56722 4.92494 15.6666 136 136 136 
-1.14766 5.91319 13.5553 181 146 82 
0.405198 6.03236 14.1805 5 12 20 
0.044485 -0.84231 13.6301 149 148 143 
-2.77336 -0.555823 11.1065 40 107 159 
-1.52186 1.4406 12.6505 208 141 28 
-0.704352 6.11349 13.3186 79 66 47 
3.65077 4.26853 12.9574 203 189 176 
-6.56368 3.45716 21.2442 79 95 111 
-0.571274 5.95972 13.285 77 68 63 
4.38994 -0.498873 12.0823 94 97 68 
-0.266444 1.20935 14.0802 224 173 142 
3.06297 0.623722 14.1491 174 159 140 
-2.38807 5.94655 13.2483 102 103 107 
-3.2332 1.29924 12.7789 37 51 64 
-0.284285 -0.220176 13.8111 148 149 143 
0.375573 0.786099 14.0216 119 43 73 
4.0867 -0.420476 12.1431 172 155 145 
4.38627 11.0386 17.5201 151 141 131 
-0.325338 1.22485 14.1056 225 176 146 
-0.993034 5.89391 14.664 108 94 120 
0.046222 -0.309684 13.7631 149 148 144 
0.105444 -0.1947 13.807 148 147 143 
-6.57942 3.46888 21.2992 76 89 105 
-0.165511 0.475372 14.0168 49 17 41 
3.62157 5.34318 12.9003 13 14 8 
-0.151155 -0.51097 13.736 148 149 143 
0.353505 6.1324 14.1486 62 67 60 
2.77788 5.47848 13.8674 35 36 40 
2.23221 -3.22227 11.2274 236 211 23 
-0.186413 0.512001 14.0465 79 57 93 
4.20112 -0.31722 12.1904 207 192 163 
0.13544 -0.354783 13.8532 98 99 94 
0.785556 1.21424 14.2433 188 132 131 
2.78557 6.48577 12.9071 169 161 142 
0.493391 8.97677 14.0422 117 118 120 
-0.0981543 -0.549772 13.738 149 144 140 
3.2451 3.37505 13.0563 90 83 67 
3.59176 0.945024 11.9714 48 52 38 
-1.46477 5.69014 14.3537 191 178 161 
-3.67063 0.60721 13.724 202 206 217 
0.97848 -0.0891898 14.03 139 142 131 
2.6973 6.57179 13.0043 66 62 59 
-0.0568044 0.532846 14.0477 116 35 67 
-6.82777 2.91385 21.8283 169 226 245 
-6.10633 5.48132 19.3018 108 135 152 
0.142117 -0.448875 13.7848 101 101 99 
-0.998006 6.16576 13.5182 193 152 73 
0.423228 0.922444 14.1041 139 123 134 
-1.21858 1.48736 12.7519 198 139 23 
0.803064 6.64473 13.3401 83 80 73 
4.29795 4.20671 14.0386 206 191 170 
0.110194 6.67886 12.679 88 74 63 
2.97499 1.88521 12.1352 80 70 58 
0.602243 0.222786 13.9248 134 135 139 
-0.495842 6.34597 12.53 175 135 1 
-0.00887646 -0.227891 13.8311 145 144 139 
-4.8751 3.86797 16.9521 125 138 147 
0.662052 0.804234 14.1537 148 80 105 
0.237094 0.901856 14.1017 167 75 88 
1.23637 -4.24317 10.7867 218 191 161 
-1.43682 5.61713 14.3268 152 152 162 
-2.17519 5.90069 13.5389 105 135 85 
-1.68727 5.84187 13.6174 223 187 67 
1.99525 1.60665 13.1112 189 167 143 
-2.92922 0.0618206 13.7057 153 156 163 
-0.148862 0.573651 13.9962 125 43 89 
0.209331 0.880466 14.1245 150 66 79 
-0.426794 5.87403 13.4287 224 172 37 
-0.321933 1.22087 14.0809 225 176 146 
0.648678 0.796161 14.1456 147 78 107 
-0.043232 0.489678 14.0258 34 13 32 
-4.19572 3.95743 14.6993 254 254 255 
0.889411 -0.39788 13.8969 141 143 132 
2.14485 1.58991 13.0324 177 152 132 
-2.9853 -0.751108 12.2558 181 183 196 
0.643844 -0.691869 13.8108 143 143 131 
5.11013 3.58942 17.5531 208 192 167 
-7.3857 6.46955 23.0833 250 255 255 
3.78091 5.63463 13.0936 202 190 176 
-0.244113 -0.512384 13.6596 144 145 139 
-0.248198 -0.510112 13.736 144 145 139 
-0.19642 0.733988 14.0713 192 184 161 
-0.491247 1.06894 14.2589 223 197 160 
-4.28352 3.41116 14.9947 125 138 147 
-0.228005 0.614803 14.0776 112 107 111 
4.18929 6.48359 14.974 199 185 172 
-1.35073 -2.78317 10.8939 28 27 35 
2.79937 -2.53225 10.8312 5 10 16 
2.28005 -3.13407 11.2186 223 195 59 
-0.19133 -1.79853 13.5129 125 119 107 
-3.24155 -0.635739 12.8809 44 102 142 
-0.149542 6.24516 12.6853 213 192 3 
0.409495 0.132348 13.9338 116 23 52 
-3.53135 0.556548 13.6985 189 191 203 
-0.189501 -1.79609 13.4779 126 120 108 
1.79047 -2.49299 11.2789 175 147 21 
0.320939 -4.46232 11.1452 166 140 123 
-0.303253 -0.225984 13.8519 149 148 143 
-5.48801 -0.539865 20.3732 127 135 154 
-0.0458571 0.479222 14.0135 32 13 32 
0.813994 -4.22104 10.6004 236 219 175 
2.98344 4.4502 13.1324 91 92 94 
2.74438 -2.53609 10.9392 38 39 41 
-0.278369 0.759087 14.2748 204 190 164 
0.301437 6.34052 12.9697 84 97 88 
-0.502424 5.7514 15.1055 34 33 41 
0.436576 0.846178 13.8248 98 91 124 
1.47229 -0.966114 13.9663 162 145 125 
0.429695 0.842682 14.0407 104 93 127 
-0.274102 0.773355 13.9111 203 189 163 
-4.90647 4.34707 17.2538 254 254 254 
0.299976 6.3919 13.0571 81 94 85 
-3.07766 -0.390118 12.5057 188 189 207 
0.374944 0.564624 14.0068 86 7 38 
-0.353937 0.768781 14.01 198 186 160 
-4.70626 3.74224 16.1876 122 134 156 
1.79452 -3.05124 11.208 220 185 19 
0.198516 6.04927 14.6764 67 69 55 
-8.61499 6.63804 27.0808 242 249 255 
3.29679 -4.57682 12.0022 90 77 71 
0.550423 9.28946 12.5027 231 213 189 
0.93759 9.13537 13.3056 228 207 176 
3.88842 0.10346 12.0528 208 192 158 
4.00649 -0.0308289 12.1219 38 48 37 
-0.701891 5.95164 13.5788 134 129 125 
1.05321 1.78272 12.6152 132 108 84 
3.60805 -4.70184 12.0293 247 233 186 
3.33559 -4.18312 12.0358 76 71 68 
-0.193671 -0.37612 13.716 93 93 95 
-0.00822003 9.44676 12.3384 216 200 177 
1.13306 6.36079 13.0195 100 101 106 
0.0871191 -0.590836 13.6626 152 135 127 
0.742959 -0.305016 13.8131 64 63 68 
-0.939803 5.97216 13.9844 52 41 39 
0.797874 1.80216 12.6542 83 47 25 
0.270827 -0.252276 13.7916 123 121 122 
0.640361 -0.208785 13.797 56 57 59 
0.309128 9.39767 12.4441 226 207 192 
0.752091 -0.548739 13.7495 162 125 132 
0.20692 -0.338647 13.763 38 37 35 
1.91072 5.24096 15.5125 4 8 20 
0.603637 -0.595205 13.6965 112 40 60 
4.17109 -0.450598 12.1586 36 43 25 
-0.75592 5.97951 13.9926 171 168 163 
0.408929 -0.610089 13.6997 109 36 53 
3.23059 -4.30583 12.0121 61 55 57 
-2.76198 5.61881 13.8528 138 140 135 
0.82341 1.86374 12.6554 58 8 7 
4.2188 -0.210161 12.2084 208 192 169 
0.303853 9.38198 12.4286 228 209 194 
0.441004 9.02676 13.7635 187 171 156 
0.888848 9.0595 13.8087 196 178 154 
-0.206166 -0.278458 13.7445 123 132 139 
-0.035447 -0.595875 13.6489 112 34 58 
3.40264 -4.12138 12.0706 40 35 32 
3.38191 -4.64883 12.0298 88 71 61 
-3.24216 9.38626 13.5631 195 183 171 
-2.66227 1.6584 11.9545 51 52 72 
0.546208 -0.221929 13.7895 106 105 103 
-0.0346416 -0.594201 13.6644 112 43 61 
0.0869305 -0.256 13.7736 122 122 122 
-0.598741 5.86405 14.0093 39 43 46 
0.183776 0.0529424 13.8544 19 17 30 
-0.0173336 9.15543 12.9668 224 204 177 
0.447366 9.28896 12.5779 154 123 77 
0.45021 9.29692 12.5859 144 113 69 
0.053205 -0.619054 13.6514 95 42 52 
0.536444 -0.223585 13.7819 65 75 77 
0.027184 9.18837 12.9621 226 203 172 
-1.12622 1.43961 12.8735 131 47 13 
0.583805 -0.313046 13.773 64 77 85 
0.041182 -0.523881 13.6819 98 47 62 
-0.836783 6.0627 13.5004 34 35 27 
-0.0185453 -0.720973 13.5934 94 47 63 
0.155787 -0.350459 13.7535 105 105 103 
0.619941 -0.206552 13.791 95 94 92 
0.596826 0.643909 13.9976 67 52 71 
-0.603957 5.87093 13.9414 39 40 35 
4.27495 -0.246426 12.1917 216 194 170 
-0.0854057 -0.600525 13.6346 145 147 136 
0.382356 9.22711 12.5932 156 114 64 
-3.20588 -0.0724259 12.3141 189 196 212 
-3.1739 9.53582 13.0864 223 219 220 
0.516342 -0.222872 13.7807 129 129 127 
-0.809927 5.82488 14.4145 130 120 145 
1.43938 0.387109 13.7924 170 152 132 
0.834929 -0.577069 13.7816 88 45 54 
0.0969767 8.83267 13.9176 70 54 41 
0.404402 -0.542008 13.7182 106 43 62 
0.646051 8.85856 13.8687 43 61 21 
0.558403 -0.319657 13.7632 118 118 118 
-0.177025 -0.276287 13.7546 111 111 111 
0.215298 9.20818 12.6975 154 112 64 
1.43811 0.381213 13.7699 170 152 130 
-3.55681 5.81136 13.1682 33 55 68 
0.308351 9.19048 12.6051 157 115 67 
-0.03975 -0.751227 13.5725 159 124 130 
-0.239311 0.484111 13.9597 31 30 61 
4.279 -0.257616 12.1916 217 193 169 
-0.0682976 -0.735276 13.5855 102 34 57 
0.827204 1.81852 12.6343 233 128 109 
0.37165 -0.575934 13.6986 159 129 129 
0.94626 1.81408 12.6293 208 184 86 
0.921579 1.84337 12.6215 151 61 37 
-1.52979 1.60754 12.3164 229 206 172 
0.670936 -0.51725 13.7181 90 43 61 
-3.60584 5.75833 12.8009 144 157 174 
3.60622 -4.04582 12.1403 59 58 54 
0.299031 -0.743103 13.6283 166 130 132 
-1.11051 1.86558 11.8701 106 94 80 
0.810757 -0.539194 13.7823 175 125 136 
-0.825227 5.93689 14.0589 131 131 141 
0.345684 -0.545063 13.7031 89 55 56 
0.720165 -0.308434 13.7973 120 119 124 
0.458944 0.0922123 13.866 28 36 47 
-0.0972497 -0.605106 13.6328 146 148 137 
0.331571 -0.74196 13.6424 103 34 53 
-3.37358 6.02516 12.7596 96 110 123 
0.227282 -0.283118 13.7725 121 130 139 
-0.552335 5.78627 14.1249 218 176 76 
0.6932 -0.546015 13.7177 156 111 118 
-0.991081 5.93932 13.9306 195 172 92 
0.485709 -0.601238 13.7081 94 58 62 
0.509562 0.190849 13.8908 23 22 36 
0.352789 -0.286229 13.7778 148 148 138 
-1.49952 5.8097 13.3008 143 140 131 
0.322982 -0.22984 13.7944 125 123 126 
0.592645 -0.257384 13.787 149 150 144 
4.31096 -0.210146 12.1957 61 55 31 
0.607102 0.28403 13.8925 43 47 76 
-3.49519 5.87423 13.858 122 140 152 
-0.88082 5.97532 13.7468 24 25 20 
0.502977 0.191013 13.8776 23 22 40 
0.249654 -0.310111 13.7758 150 150 140 
0.306252 0.507712 13.9582 56 29 48 
0.123054 0.492559 13.9624 38 6 27 
0.222446 0.72775 14.0119 59 29 53 
3.66384 -4.17228 12.132 4 1 10 
3.40465 -4.3625 12.0414 160 145 142 
0.0788711 -0.585242 13.6785 158 133 137 
0.164912 0.61236 13.9786 178 90 104 
-0.916267 5.91845 14.1168 48 45 56 
3.20083 -4.35402 12.0141 230 213 185 
0.144618 -0.52669 13.7113 143 143 141 
0.00973163 -0.259111 13.771 121 121 119 
2.89633 6.51117 13.6817 78 79 84 
-3.32032 6.07993 12.684 118 153 159 
-0.0187171 -0.51937 13.6766 146 145 140 
0.358835 -0.197016 13.7923 147 148 140 
-0.0661257 -0.680778 13.6022 154 142 144 
2.88198 6.47816 13.6361 79 79 87 
-0.136574 -0.321457 13.7423 151 152 147 
0.164499 0.75182 14.0181 48 36 58 
0.0135575 -0.360739 13.7335 102 103 98 
-0.00388806 -0.322384 13.7507 148 149 144 
0.231441 -0.385978 13.7466 151 152 146 
0.101473 0.715391 14.0152 58 34 60 
0.433238 6.26714 13.005 133 139 127 
-1.0081 5.92796 14.085 123 118 122 
-0.914042 5.89395 14.3804 126 106 131 
-3.92799 5.66002 12.2515 74 83 92 
0.297709 -0.672545 13.6495 149 149 139 
-2.71393 1.62941 11.9359 178 161 153 
0.428875 6.25227 12.9844 134 140 126 
3.36423 -4.32508 12.0521 154 140 139 
0.318251 -0.27666 13.7731 149 149 139 
0.286012 -0.609025 13.6939 103 62 70 
0.498413 9.13714 13.3795 217 195 171 
0.268456 -0.0273174 13.8449 102 118 133 
2.72773 6.61023 12.6649 90 91 93 
0.117546 -0.222749 13.7843 146 145 141 
0.295396 -0.670129 13.6614 142 141 136 
3.54001 -4.3446 12.0566 77 66 70 
0.698395 -0.498395 13.7387 153 137 137 
2.72167 6.29712 13.6833 100 99 95 
0.368812 -0.50895 13.7192 151 149 136 
-1.00445 5.96785 13.7398 234 188 43 
-1.37583 1.33746 12.6035 186 158 136 
3.63302 -4.10032 12.122 153 141 127 
0.67649 -0.311347 13.7948 37 38 33 
0.612197 -0.35678 13.7642 146 148 135 
-2.03676 5.76562 13.7207 163 139 67 
-0.988668 6.01577 13.631 223 178 23 
0.603827 -0.352921 13.7592 152 153 145 
-2.80103 5.62646 13.8341 147 144 137 
-1.40607 5.63844 14.2224 140 138 141 
0.172596 -0.280803 13.7753 139 139 137 
-0.101861 -0.461696 13.6902 127 128 123 
-3.46258 5.93946 12.6544 90 100 109 
0.176523 -0.381132 13.7538 120 127 137 
0.0646653 -0.248178 13.7788 82 82 84 
0.545335 1.70248 12.6988 208 184 150 
-1.13246 1.84343 11.8852 194 179 156 
-0.045635 -0.695654 13.596 151 135 135 
3.58289 -4.35769 12.0835 62 56 58 
0.299492 6.05858 13.8785 89 97 76 
0.305452 -0.575238 13.7001 167 132 136 
-0.167767 0.62119 13.982 75 78 121 
0.455036 9.15909 13.4536 215 193 169 
4.16365 -0.38427 12.2165 223 200 169 
3.55081 -4.14625 12.0816 26 22 21 
0.883161 0.0261429 13.9905 141 142 134 
0.725622 -0.338685 13.7912 138 139 134 
-3.27211 6.00736 12.7345 51 87 123 
0.21014 -0.750624 13.6073 122 79 89 
3.48643 -4.55615 12.0453 184 167 157 
-0.192707 0.607768 13.9697 60 64 99 
4.20151 -0.326326 12.221 207 192 159 
0.635026 8.98209 13.4337 120 84 60 
0.44123 -0.285879 13.7661 146 147 141 
0.684718 9.21845 12.6877 150 106 69 
-3.98158 5.27368 14.8988 180 182 195 
0.258869 -0.579761 13.6879 163 121 131 
0.0198193 0.635917 13.9671 137 58 79 
-0.197504 9.39458 12.4926 146 110 74 
-0.00593913 -0.422589 13.7171 124 133 142 
1.01561 1.26989 14.2399 82 48 49 
0.686819 9.20233 12.6731 151 107 70 
-1.39426 5.77393 13.6657 215 184 117 
-0.0530653 -0.40047 13.7075 146 147 141 
-0.125532 -0.115402 13.7945 149 150 144 
-3.55841 5.79765 13.8702 62 74 88 
1.05929 0.0302568 14.012 140 139 134 
0.887614 -0.463626 13.8182 135 137 126 
0.7025 -0.238391 13.8098 118 129 135 
0.361548 6.58894 15.3587 57 65 44 
-2.45285 -4.41384 11.8454 47 46 52 
3.31789 -4.20759 12.0388 41 33 31 
0.74216 0.637769 14.0379 129 57 95 
-2.55101 5.5609 14.1136 31 42 44 
0.301721 -0.445541 13.7088 134 134 124 
-3.68301 5.64282 13.3749 69 81 95 
2.35587 11.1004 14.3564 74 74 72 
-0.144323 0.619772 13.9982 99 49 87 
1.34872 0.26816 14.1317 117 39 61 
-3.72596 5.64086 13.2347 139 148 165 
-0.611448 5.80759 14.5603 212 171 53 
3.0463 2.34761 12.0712 110 110 98 
0.790839 9.06467 13.4393 132 98 60 
0.676787 8.9818 13.431 122 87 57 
3.45734 -4.60654 12.0955 184 165 150 
0.358833 6.31749 12.9566 83 95 85 
-0.0343782 -0.224734 13.7697 129 133 142 
0.0466187 -0.307957 13.7366 148 149 144 
-0.122132 -0.169456 13.7799 147 146 141 
1.24353 9.3277 12.865 167 128 87 
1.01632 9.1258 13.452 228 201 174 
-0.163913 0.478088 13.9568 52 17 47 
-0.148869 -0.502673 13.6681 148 149 143 
0.353783 6.08778 14.0129 62 67 60 
-0.183334 0.515008 13.9751 79 57 93 
4.21964 -0.320517 12.2556 207 192 163 
0.135447 -0.345521 13.7669 98 99 94 
-0.158319 0.560576 13.9587 123 55 92 
0.49718 8.95699 14.0042 117 118 120 
3.53257 -4.18648 12.0678 40 36 27 
0.5907 0.219078 13.8859 145 144 140 
0.205376 -0.442532 13.7319 108 109 103 
0.0328179 0.470567 13.985 25 14 30 
0.17173 9.02416 13.4926 123 89 52 
-2.35866 5.89203 13.0921 79 80 85 
-0.120739 0.11064 13.8619 27 35 48 
2.97078 1.8885 12.1193 80 70 58 
0.601705 0.226074 13.8815 134 135 139 
1.97511 6.68265 13.4438 50 46 45 
-2.16572 5.69457 14.0287 181 142 67 
1.10903 -1.03217 13.8268 168 151 131 
-0.540402 5.89001 13.8991 44 39 45 
-0.007744 -0.221309 13.7602 149 149 147 
-0.471767 5.90591 13.6206 72 58 11 
0.317934 6.00028 14.2771 59 65 51 
2.92058 4.70261 13.1777 94 94 96 
2.9098 4.67625 13.1355 94 94 96 
0.210941 0.882788 14.0454 150 66 79 
4.40998 -0.0109423 12.1917 81 102 46 
-1.06316 9.23636 13.3253 217 200 172 
-0.153604 -0.545192 13.6355 149 137 137 
0.610266 -0.32488 13.7792 140 141 136 
-0.0403389 -0.417074 13.7197 146 147 141 
-2.16212 5.68623 14.0165 171 132 57 
-4.29452 -3.32045 14.491 133 204 248 
1.05025 9.12699 13.5283 135 96 57 
-0.245495 -0.503403 13.6715 144 145 139 
0.432945 0.848583 13.906 104 93 127 
-0.162088 1.03352 14.0704 209 176 143 
0.257062 6.33128 12.8773 81 95 82 
1.39586 1.89489 12.7691 213 177 1 
0.477153 6.26206 13.744 30 29 35 
4.127 -0.0999235 12.2312 104 104 68 
0.627928 8.80577 14.4302 36 61 22 
0.43422 0.843909 13.891 98 91 124 
0.67086 -0.641616 13.7343 136 123 117 
1.29496 0.223389 14.1429 46 25 34 
-0.157598 6.22487 14.2004 100 62 39 
-3.60019 5.61175 13.8274 68 70 85 
-0.703272 8.89669 13.1794 29 29 29 
-3.1757 9.23346 12.9166 51 57 55 
-1.69599 9.03122 13.0772 27 29 28 
-3.25722 9.10538 13.4056 41 41 41 
-3.34068 8.97509 13.911 39 39 47 
-2.2663 8.96976 13.5159 26 31 35 
-0.988938 8.86305 13.3986 17 21 24 
1.0886 1.89599 12.5242 39 22 15 
0.102278 10.9525 13.2167 199 187 163 
-1.27779 6.12206 12.2101 230 218 194 
0.534549 9.06777 12.1355 231 213 189 
-1.62537 5.82589 12.9874 207 206 162 
-1.30837 -2.77891 11.2475 180 109 19 
0.913882 8.94053 12.9562 228 207 176 
0.576397 9.10829 12.1404 234 217 201 
-4.42574 13.3239 13.3704 185 149 137 
-0.253158 -3.23319 10.7668 175 164 102 
-1.62744 -3.97822 12.2477 147 146 144 
-0.0136467 9.22269 11.9773 216 200 177 
0.04617 6.18177 12.2511 233 202 15 
-2.14067 -3.89738 12.1199 165 169 152 
0.331166 9.16075 12.0507 224 207 191 
0.638386 9.11659 12.1778 68 55 23 
0.429484 8.82241 13.3795 187 171 156 
0.865719 8.85875 13.432 196 178 154 
-1.37128 -3.09495 11.1267 6 16 15 
