ply                 
format ascii 1.0    
element vertex 1310
property float x    
property float y    
property float z    
property uchar red  
property uchar green
property uchar blue 
end_header          
0.0942062 -3.73146 10.9149 133 110 60 
-0.406959 1.5618 12.7678 62 60 97 
-1.95377 0.795376 13.2689 111 95 82 
-0.130344 -0.354941 13.8459 109 110 112 
-1.9653 5.73375 13.6901 136 107 31 
-2.54117 8.80305 14.0804 128 126 131 
-3.23112 -0.139876 12.3741 186 190 202 
-0.997147 0.909478 13.3104 99 79 55 
0.174708 1.66391 12.9632 25 16 35 
-1.99965 0.382165 13.2909 116 103 97 
-2.06699 -2.82327 11.0202 34 34 42 
2.02822 -0.6754 11.569 230 175 58 
-0.369244 6.13201 12.5808 220 210 175 
0.121574 6.45289 12.6161 50 55 49 
-0.390493 -4.8183 11.1881 47 48 40 
2.75238 2.01577 12.8102 207 154 112 
-3.62985 5.79673 12.7846 42 53 73 
-1.5561 1.40724 12.6478 93 27 13 
2.72195 1.85449 13.2765 20 15 22 
1.55968 1.67896 13.2529 80 65 62 
2.78541 4.26696 15.4076 174 162 148 
-3.84454 5.27256 14.0833 0 34 46 
2.10881 2.08702 12.7742 59 35 9 
4.09378 -5.17713 12.7836 109 28 84 
2.31973 -3.29371 11.5728 138 117 24 
-3.31783 6.09606 12.6003 119 158 163 
-0.598175 5.8093 13.7922 31 32 34 
0.390585 6.1421 12.9321 113 116 109 
0.392405 6.13864 12.9273 110 113 104 
0.120062 6.45268 12.6158 48 53 47 
-3.79888 5.43585 13.576 150 180 216 
1.05454 -3.60483 11.3995 97 71 46 
0.751519 -2.7295 11.5598 77 35 21 
-2.80394 0.678762 13.2831 151 151 151 
-1.73748 6.28596 12.0631 221 204 174 
1.11118 -6.10149 11.4649 196 48 48 
-3.73151 5.58906 12.7414 151 156 196 
-0.641759 5.65724 14.7317 129 95 49 
0.0690778 -3.6123 11.0856 47 29 15 
-3.1115 5.98895 12.7005 178 236 255 
-1.60262 -2.58067 11.1797 15 22 30 
-0.0808139 6.40281 12.312 47 47 35 
-3.657 5.77275 12.1814 39 46 64 
0.150416 -3.7907 10.9924 44 26 4 
-3.14939 6.12187 12.219 125 156 161 
1.94022 2.02692 12.6876 234 182 8 
0.30077 -0.724085 13.7984 153 114 119 
-1.95594 6.24574 12.0665 180 171 156 
-0.0662093 -0.706014 13.7039 93 43 54 
-3.1867 -0.192092 12.3543 145 53 64 
-1.68492 5.77817 13.2566 119 127 106 
-1.63644 1.5236 12.3127 222 196 169 
-0.826168 5.83566 14.1962 44 30 55 
4.48729 10.4438 16.6531 13 12 20 
0.450492 6.20705 12.8419 118 122 108 
0.833141 -0.561539 13.9001 89 52 60 
-3.50447 1.08028 12.9018 62 76 87 
1.61359 -2.44052 11.5723 161 147 84 
-1.92924 1.03244 13.0677 13 24 18 
1.41722 -3.97181 11.3249 216 193 162 
-1.15565 1.70827 12.5711 110 98 76 
-2.07881 -2.81777 11.0261 33 34 39 
4.46229 10.4692 16.6866 18 22 25 
2.39139 -2.93617 11.5091 128 75 35 
2.4268 10.6139 16.5042 140 136 125 
-3.52381 5.81682 12.5381 37 47 57 
-0.719057 5.69804 14.5892 29 31 43 
-1.46842 0.90729 12.9549 99 67 52 
-3.17985 -1.27121 12.3774 70 28 42 
-0.0829969 6.21015 12.3838 230 205 17 
-1.18773 5.93242 13.2634 200 153 63 
1.35209 0.595838 13.7683 144 131 112 
-0.808812 6.01385 13.0942 32 27 33 
-1.37386 0.972466 13.2246 130 103 74 
0.458009 6.5469 12.8418 108 114 104 
0.618484 -3.67733 11.3209 56 36 11 
1.04068 1.39104 14.1962 149 86 94 
-1.88744 5.82822 13.1077 145 148 131 
-2.63225 8.66306 14.5715 119 117 122 
0.979176 -3.51928 11.3431 88 61 31 
4.16186 -5.84872 12.5832 117 36 95 
-3.63712 5.80632 12.1435 43 51 64 
1.29455 -3.23166 11.7349 84 42 26 
-1.0868 5.9454 13.474 168 161 133 
-0.815216 6.04945 13.1593 40 31 34 
-0.245794 6.11087 12.3565 226 164 149 
2.70203 2.16582 12.2203 19 20 22 
-1.47055 5.85883 13.119 216 197 165 
0.474107 -0.246556 13.9409 139 140 135 
-1.40869 -2.94554 11.307 196 166 93 
-1.73238 1.0051 12.7242 137 102 70 
2.30106 1.49169 13.3626 152 133 119 
3.21193 -4.74248 12.3281 223 206 178 
1.30993 1.21767 14.251 200 154 121 
-0.408691 1.57493 12.8339 58 58 96 
-2.48488 0.860131 12.0572 77 80 85 
-1.91682 6.23094 12.1089 50 48 51 
0.0366344 -3.5349 11.0044 31 16 11 
-1.07029 5.94275 13.3396 82 66 53 
0.474625 6.27981 12.0747 130 132 119 
-3.6433 5.7501 12.1415 40 46 62 
-3.06431 -0.992116 12.3637 17 46 86 
-1.19167 5.73337 14.4538 23 29 45 
-2.93899 5.77821 13.2671 83 124 156 
2.91243 -0.674986 14.1734 122 109 93 
-3.54447 8.80539 14.6981 123 122 127 
-2.6646 0.564224 13.3373 144 145 140 
-2.96906 -3.01959 11.5319 99 97 98 
-1.54441 1.51649 12.2202 225 201 177 
0.516329 0.719393 14.0733 81 80 96 
0.0946082 -0.728382 13.7429 93 41 53 
0.866295 -0.528116 13.943 134 124 122 
-1.81538 1.12152 12.66 220 199 170 
4.34748 -0.264861 12.4097 212 188 160 
-3.71889 5.6417 12.6551 150 121 107 
0.623628 1.92748 12.8158 133 124 119 
-0.903476 5.73717 14.8005 108 107 123 
0.319456 -4.45812 11.3746 157 141 126 
2.9751 -0.672632 14.1937 117 104 88 
-1.47108 5.84807 13.0993 214 201 169 
-1.08145 5.8004 14.1038 31 32 50 
-1.59897 6.26519 12.2165 45 46 48 
3.07481 2.35843 12.1622 56 55 50 
2.25168 1.45909 13.4162 47 38 29 
-1.65962 5.79985 13.1783 26 36 38 
4.47254 -2.94995 12.658 214 191 159 
2.77822 -3.32825 11.7753 5 7 0 
-0.196326 -3.43476 10.9259 46 38 17 
-2.14026 6.24967 12.0447 126 132 130 
-0.822189 6.06587 12.6054 226 203 162 
-0.0574265 -4.99373 10.7246 132 88 53 
4.01265 10.6767 16.1617 114 109 106 
1.07646 2.00574 12.711 194 105 73 
0.624863 0.781634 14.1744 87 51 79 
0.053474 -3.54422 11.0369 28 13 8 
1.27753 1.85714 12.8712 215 176 10 
0.186327 -3.6918 11.0071 77 55 42 
-2.03949 0.528773 13.5492 82 71 67 
4.09612 -5.65424 12.6001 98 40 62 
-0.90887 6.0342 13.0194 209 165 60 
0.407419 -0.522356 13.885 86 41 48 
-3.58018 1.16426 13.0931 68 76 89 
-3.17943 -0.378231 12.5119 33 70 114 
-0.680266 6.01442 13.4228 34 35 37 
4.07935 -5.74298 12.5776 96 22 73 
-0.811994 5.87074 13.8901 115 117 132 
0.868829 1.83939 12.6917 200 105 77 
1.4379 -2.79003 11.7614 19 15 12 
-1.62072 -2.51503 11.3367 180 137 6 
-1.12366 6.14618 12.4652 134 136 99 
0.724353 -3.3811 11.3162 124 106 66 
-0.189169 -3.8669 10.7692 29 18 14 
3.0401 1.44675 14.5957 159 148 126 
-2.04685 5.94266 13.1647 85 110 71 
0.596031 0.291001 14.0058 36 43 69 
2.94189 -0.863447 14.1313 28 13 32 
-0.980854 5.88577 13.8005 201 161 91 
-0.758757 5.864 13.9039 35 35 43 
-1.6189 5.81144 13.127 27 36 31 
4.12569 -5.28303 12.8177 109 35 88 
-1.85103 5.84714 13.04 206 202 175 
-0.48146 5.73978 13.8105 142 106 48 
0.0435002 -3.67481 10.9227 119 112 83 
-1.23425 -4.1132 12.3984 36 37 42 
2.6873 5.52042 14.853 167 157 145 
1.3091 5.05928 15.3856 117 107 98 
-3.8012 5.45156 13.6283 157 184 214 
2.04994 2.09995 12.2034 220 192 153 
4.50699 -2.96648 12.755 212 191 160 
-1.65224 5.9324 12.7433 131 135 112 
2.29444 1.48702 13.3857 159 140 126 
-0.0675442 -3.47729 10.9034 49 36 4 
-0.196833 -0.446216 13.822 105 112 105 
0.448802 6.18497 12.7737 118 122 108 
-0.34254 -3.74232 10.7821 30 19 17 
-1.95906 0.786168 13.2899 105 93 81 
0.119503 -0.730573 13.7242 94 47 57 
-1.08703 1.01219 13.3208 41 42 37 
3.27826 -7.17636 12.6637 153 86 60 
-0.0122685 -3.58934 10.9396 37 27 17 
-0.0567732 -5.00143 10.7434 132 88 53 
-1.92064 1.03105 13.0802 9 22 30 
-0.820238 6.06906 12.5912 224 202 163 
1.10584 1.98339 12.6947 69 47 36 
2.42535 -3.47967 11.635 235 205 23 
0.701227 -3.22171 11.3839 137 110 83 
0.803813 -2.78085 11.4775 63 18 13 
-3.15651 5.6672 13.543 7 16 33 
-2.17562 -3.87827 12.225 66 73 79 
-1.2516 -4.15653 12.5554 33 33 41 
-2.18054 5.77139 13.4428 29 51 39 
0.374672 -0.560619 13.8822 155 125 127 
-0.228255 -4.67586 10.9543 56 21 0 
-0.904851 6.01429 13.3821 219 170 42 
0.428582 -0.319497 13.8613 117 118 112 
-0.770824 5.95164 13.4863 21 21 19 
-1.8709 5.97671 12.1554 159 176 204 
-1.86453 5.87206 13.0043 201 197 170 
0.145861 -3.79747 11.1115 88 77 59 
1.11445 -5.77841 11.3019 88 129 87 
0.0179863 -0.735906 13.7677 144 125 127 
3.54129 -4.09103 12.5102 61 56 50 
-3.32375 5.98842 12.6642 90 105 108 
2.99614 1.41292 14.39 161 148 129 
-0.674998 6.0665 12.8367 87 79 43 
3.68377 -6.58663 12.4395 171 146 115 
-1.00811 8.70695 13.7031 107 106 112 
-1.02323 0.867264 13.2996 220 197 165 
-1.00619 5.89507 13.9223 107 103 104 
-0.904226 6.00813 13.3672 213 163 42 
-2.69793 1.69247 11.9487 150 143 137 
4.11324 -5.2688 12.7778 111 36 92 
-3.45737 5.92416 12.6077 32 42 54 
-3.72155 5.53581 13.3765 54 66 78 
0.807732 -3.28589 11.3222 59 36 44 
-1.14343 -4.55013 12.5585 43 43 43 
-2.08633 5.71068 13.4459 213 181 82 
-3.27308 1.85251 11.2451 61 73 89 
-2.30918 5.73289 14.3512 172 128 55 
-1.85835 -3.05631 10.9768 179 81 6 
-1.17473 5.68361 14.2463 32 35 52 
-1.49957 -2.77343 11.4819 19 22 27 
-0.606165 5.94141 13.0095 41 33 22 
1.0363 1.89292 12.669 173 113 105 
4.34422 -0.264695 12.4061 211 190 161 
-0.830948 6.08061 12.5181 216 209 183 
1.43128 5.08573 15.311 7 10 19 
0.771805 -3.73801 11.3034 140 119 74 
-2.13898 0.556937 13.4888 179 161 139 
-1.0383 0.914814 13.2606 96 80 65 
0.735233 0.17954 14.0659 31 41 66 
-4.17238 5.51029 14.8094 103 201 250 
0.630593 0.781911 14.1786 89 50 79 
-2.22601 5.72679 13.4829 179 163 101 
0.123636 -0.301222 13.8808 134 135 130 
1.30236 0.527877 13.755 29 27 38 
-1.12725 5.82564 13.6064 123 114 99 
0.350969 -0.24917 13.9034 138 138 136 
-1.44532 1.73948 12.5483 46 41 38 
-2.95682 1.43436 12.3049 93 114 143 
0.269423 6.22334 13.159 40 31 32 
-1.55197 5.4401 14.3743 44 54 81 
-1.35074 5.77987 13.2338 124 120 109 
-3.24625 0.0988056 13.2 127 141 154 
3.46385 -1.61068 11.2587 72 76 49 
2.62051 6.33992 12.6238 147 140 130 
0.0312423 -0.70273 13.7001 134 134 132 
3.01949 -0.677284 14.2351 111 98 81 
3.49375 -4.42837 12.3926 150 143 133 
-1.61273 6.32224 12.0902 217 202 183 
0.349001 -0.528971 13.8677 83 57 58 
2.04516 1.72333 13.2106 42 19 13 
-0.209252 -3.67771 10.7719 60 49 21 
2.05035 1.75584 13.2175 125 98 89 
-2.23453 5.75137 13.5311 179 163 101 
-0.936975 5.89362 13.6106 209 160 39 
1.11457 -2.71846 11.8222 24 12 12 
-3.56082 0.865875 13.6659 124 131 147 
0.651815 -3.80626 11.2542 159 129 67 
4.02631 -0.40365 12.1494 212 186 159 
-1.9108 6.25373 11.9985 182 179 174 
-2.0285 5.65744 13.7609 159 129 67 
1.28237 1.72409 13.0684 227 184 56 
4.10169 -0.355632 12.3525 207 184 152 
0.752312 -3.23064 11.4334 43 17 18 
1.41078 0.388701 13.6129 161 144 124 
-3.11532 5.81727 13.3587 84 147 201 
-3.08503 6.18139 12.1608 145 178 187 
1.41296 1.85348 12.9982 222 185 16 
0.601908 -0.235395 13.9126 136 137 132 
0.655241 -5.41397 11.4904 156 154 142 
3.25633 -7.17922 12.6359 155 83 59 
0.289713 -0.323053 13.8884 143 143 143 
0.848265 -3.46781 11.3218 83 68 35 
-0.169327 -3.40615 10.9299 35 25 0 
-0.636767 5.64082 14.6852 129 95 49 
1.01616 1.77576 12.8289 144 164 69 
0.0205975 -3.61753 10.9197 40 28 14 
0.26676 6.22605 13.1142 20 18 19 
-2.02769 0.75812 11.5387 197 196 191 
-1.36912 0.96828 13.1949 109 78 50 
-1.08579 8.60462 14.2243 94 93 101 
-2.3446 -4.36285 12.1791 88 91 106 
0.514616 -0.331357 13.8694 134 133 128 
-3.67382 5.66409 13.2211 22 36 49 
-1.86 5.82562 13.1884 159 159 131 
4.07509 -1.40179 12.14 38 39 21 
-0.906986 6.04712 13.2529 145 107 22 
-0.315499 -4.72465 11.1081 86 48 29 
0.977296 -0.528351 13.9815 89 52 59 
3.27444 -7.26832 12.7661 153 81 56 
1.41944 1.74396 13.0325 191 96 66 
4.08936 -1.23655 12.1426 32 41 24 
-3.25842 0.102552 13.2487 125 141 156 
-4.05173 8.76266 14.9497 166 156 147 
0.029805 6.3411 12.3668 122 18 27 
0.358227 -4.32417 11.3946 75 52 46 
0.154976 -0.6355 13.7728 133 136 129 
-2.99035 0.57721 13.2259 172 172 172 
-0.993857 5.84193 13.8692 119 118 136 
1.23927 0.905237 14.1761 53 47 51 
-1.40436 6.29117 12.1529 223 207 182 
-0.221555 -3.40657 10.9545 83 68 37 
0.739152 -3.41944 11.3194 71 59 21 
-0.946131 5.92465 13.6355 197 148 29 
-3.42977 5.98112 12.8851 85 96 102 
-0.20519 6.1452 12.4127 185 54 60 
-1.93069 5.76844 13.5504 215 182 66 
-1.51519 5.78391 13.3088 123 116 106 
1.4553 1.87459 12.866 222 184 13 
-0.161563 -0.602778 13.7509 103 34 55 
-2.07558 5.79258 13.4023 135 137 115 
-2.60461 -3.36878 11.4842 20 23 32 
-0.306151 -4.69983 11.0308 85 45 19 
4.11616 -5.67854 12.6614 138 80 102 
-3.37019 5.92433 12.8595 74 110 142 
1.81727 1.78328 13.0172 119 116 99 
-2.15627 -4.43599 12.2363 97 107 117 
-1.13814 1.73544 12.1825 218 207 189 
-3.32266 5.99319 12.6516 93 111 111 
0.154016 -0.616818 13.7677 140 134 134 
1.26239 -4.10562 11.2911 234 211 177 
-4.19596 5.07452 14.4598 247 255 255 
1.45036 5.14069 15.4475 7 10 19 
-0.28054 -2.52574 11.4979 62 66 78 
3.3885 -4.00899 12.5404 69 62 54 
-2.8258 6.09202 11.9519 35 52 70 
-0.108934 6.26754 12.2867 196 121 115 
-3.09961 6.02685 12.5025 79 123 168 
3.03161 1.68528 12.4664 32 40 29 
-1.41948 -2.9508 11.3474 47 31 5 
4.18209 -6.59356 12.4111 115 27 85 
-1.29031 -2.77337 11.4634 215 141 32 
2.96347 -0.471898 14.2171 31 18 38 
-3.17394 5.82294 13.5071 25 28 43 
0.981683 0.0861737 14.1256 45 42 51 
3.89096 10.6897 16.143 121 111 102 
-1.11495 5.88419 13.5401 101 80 61 
-1.39853 1.08279 13.3025 198 174 146 
-2.07773 5.78236 13.3771 133 135 114 
2.35364 -2.44776 11.0948 12 10 15 
-3.42628 5.96534 12.8701 90 101 107 
-0.0506159 -4.61487 10.9824 167 133 108 
-1.58952 5.75661 13.3526 213 168 53 
-3.44873 5.86371 11.6548 139 170 201 
4.07182 -5.65835 12.6204 110 33 85 
-3.70108 -3.88991 11.585 113 0 40 
-3.40098 5.81841 11.6958 49 61 77 
0.518934 -0.538258 13.8777 111 59 71 
-0.0544759 -0.786715 13.7339 81 46 53 
-2.88241 -4.62961 12.4812 124 113 109 
-0.293674 -3.65005 10.8658 28 15 22 
1.26295 -4.07768 11.2609 242 215 185 
1.41903 1.33695 14.5819 60 56 53 
-1.41195 5.82463 13.3279 140 136 125 
2.04818 -2.26303 11.5153 188 157 14 
-3.50412 5.95058 12.2521 41 39 60 
-1.7614 5.8605 13.0671 178 183 153 
-1.86937 5.89503 13.1061 204 198 162 
-0.0442679 -3.59664 10.8228 29 15 28 
-0.699116 5.76055 13.8269 122 120 141 
-0.104712 -0.749886 13.694 118 102 105 
-2.33273 5.7796 13.9312 165 125 40 
-2.30473 -6.15452 11.2016 149 16 33 
0.945286 -2.74902 11.5704 54 16 3 
-3.79052 5.3666 14.1035 29 44 63 
0.477205 0.663002 14.0829 60 29 60 
-2.20714 5.70837 13.4676 189 165 103 
-1.28675 8.68514 13.9338 104 103 109 
-3.42726 5.97385 12.1539 118 133 138 
4.17682 -5.7198 12.7141 106 25 84 
2.30099 -3.3285 11.5043 141 117 53 
0.472972 1.40396 14.215 168 137 109 
-1.16185 6.09158 12.7066 223 207 158 
-2.86555 -4.60462 12.401 120 107 99 
-3.78033 5.34724 14.062 31 48 66 
-1.83084 0.904257 12.9397 101 83 63 
-3.08578 6.07409 12.2078 98 144 144 
-1.38683 5.8181 13.3213 131 127 116 
3.24232 -7.21199 12.6605 156 82 57 
4.2178 -3.16295 11.7339 32 43 11 
-2.60397 5.83491 13.2113 199 200 204 
-2.20447 -4.49984 12.1398 32 39 55 
0.0336414 -0.69705 13.7678 134 134 132 
-0.218724 0.802444 14.0211 195 183 157 
4.16895 -5.85793 12.6057 122 41 100 
-0.309384 6.13768 12.3449 217 148 106 
-0.794653 5.76574 14.3227 109 104 127 
-0.877853 6.07307 12.5745 208 188 151 
-1.98691 5.70392 13.6953 215 186 94 
-0.169896 -4.6424 11.077 46 30 30 
0.509824 1.72828 12.5561 172 148 120 
0.523108 1.4078 14.2057 177 140 122 
1.77335 5.09448 15.4757 119 120 115 
-1.37097 6.09708 12.6387 216 210 176 
0.756005 -3.22777 11.4613 44 15 17 
-0.359393 -4.88004 11.0209 46 41 38 
-1.38535 -2.91098 11.4369 207 165 55 
-3.31094 0.103022 13.2585 174 190 203 
0.149217 -3.6803 11.0196 89 66 25 
0.919874 -4.19312 11.153 234 214 179 
-2.9155 6.00913 12.0935 77 156 212 
1.26067 -4.10364 11.2849 234 211 177 
-1.94238 5.75072 13.5182 208 181 68 
1.26246 1.16396 14.2712 199 147 110 
0.474283 -4.4233 11.2406 219 195 157 
1.10943 -3.25013 11.5278 65 27 14 
-1.89951 5.86926 13.2271 136 140 115 
-1.03485 5.8332 14.0161 27 27 35 
-3.03921 -1.25932 12.3835 86 52 66 
0.474667 0.662999 14.0825 60 29 60 
-0.911223 5.93621 13.2055 192 150 38 
-1.00581 5.74535 14.6466 24 27 42 
3.30885 -4.47727 12.4574 220 205 176 
-2.23852 5.64223 13.987 118 82 30 
-0.432072 -4.9747 11.118 61 49 35 
0.98232 1.3857 14.1454 156 101 106 
0.497958 0.200434 13.9707 26 18 33 
0.70929 -3.48166 11.3211 50 26 24 
1.18032 0.860814 14.0125 56 36 48 
-1.78772 0.908811 12.8009 170 134 112 
0.219098 5.47842 15.2981 111 101 92 
-1.01937 6.03783 13.1047 220 170 71 
2.04188 1.82587 13.0135 195 177 51 
-4.12469 5.2753 14.7274 93 110 128 
-1.51475 6.03173 12.9191 129 97 58 
-2.05013 6.09121 12.0192 24 46 57 
-0.252899 6.11287 14.1938 97 95 82 
-1.25376 -4.41735 12.5177 34 34 42 
0.266734 6.23135 13.1236 20 18 19 
-0.25277 6.10799 14.1843 99 97 84 
-1.01396 -4.52671 12.5529 34 38 39 
-0.0669927 1.65379 12.5909 43 46 79 
1.14168 -3.59206 11.4247 61 18 9 
0.212319 6.01117 14.0395 86 87 73 
-1.93941 0.57647 13.5598 189 168 137 
0.16702 0.685164 14.0674 167 86 101 
-0.0133817 -0.305295 13.8804 137 137 135 
-2.60084 -3.39063 11.5053 21 24 33 
-0.915098 5.8504 13.9265 30 33 38 
3.92472 -0.950313 12.1633 33 37 22 
0.219953 6.02029 14.0678 101 99 86 
-1.47458 5.78337 13.2452 123 119 108 
-0.289994 -5.02933 10.8423 145 116 100 
3.55621 -4.08849 12.6122 62 55 49 
-0.77165 6.02236 12.804 76 66 64 
-1.02333 5.98577 14.102 156 126 98 
-1.84835 5.99858 12.7332 71 75 84 
-1.18967 5.88132 13.4474 180 144 86 
1.10835 -4.05267 11.1979 209 127 133 
4.6805 11.0875 16.951 141 128 119 
3.70253 -4.11122 12.5117 54 48 48 
1.10245 -4.25688 11.1305 239 219 186 
0.266501 -0.613059 13.8073 139 136 131 
-3.21117 6.02663 12.7665 89 145 194 
0.112551 -3.6963 11.0037 48 32 7 
-1.29952 5.87597 13.165 220 193 166 
1.15992 1.95256 12.7882 193 170 138 
-0.260018 -3.81794 10.7674 29 18 16 
-3.26427 1.21302 12.9578 27 33 57 
-3.56822 5.76877 13.3212 49 61 75 
3.98346 -1.26969 12.0496 41 48 30 
-0.322785 -3.78558 10.8184 40 26 26 
2.80804 4.36002 12.9839 21 31 22 
-1.5722 5.84151 13.0752 42 51 34 
-0.0130073 -3.48508 11.0007 117 94 50 
3.36858 2.24792 13.1193 102 101 96 
0.366728 -0.622296 13.8469 134 131 124 
1.05124 1.28721 14.2966 59 38 43 
1.74076 -2.89241 11.4682 156 135 30 
-3.44376 5.82105 13.3063 48 63 70 
0.894701 -4.79764 11.1496 100 53 61 
3.39131 -4.70118 12.3461 80 71 54 
-1.30515 -4.49434 12.5505 34 38 49 
0.70985 -5.4231 11.4408 75 104 99 
-2.00681 5.86044 13.0244 94 123 77 
-1.02309 5.75635 14.6721 24 32 45 
1.34642 2.03476 12.5808 210 173 103 
0.160994 6.06892 14.0119 88 90 79 
0.808659 -0.522471 13.9067 142 104 115 
-3.75662 5.62967 12.7063 51 64 72 
3.90214 -2.03127 11.6522 50 44 30 
3.85634 3.74767 14.7423 194 178 163 
0.204349 -0.566922 13.8008 91 43 55 
-0.326826 -4.78223 11.0007 147 119 97 
2.38421 -3.31582 11.5339 200 173 30 
0.386226 1.90679 12.477 184 152 93 
3.85139 -1.06887 12.087 94 96 74 
4.18742 -6.55419 12.3678 106 33 78 
-3.62722 5.74738 12.7863 12 26 39 
2.58774 5.74665 14.3847 71 68 63 
-1.56229 5.87459 12.8138 132 158 93 
3.17057 1.90934 12.414 23 24 18 
-1.37043 5.66552 13.9754 120 84 48 
-0.936122 5.61663 13.1394 183 148 56 
-0.0425629 -0.34454 13.8505 129 128 126 
0.427155 6.2445 12.9699 120 126 112 
-0.204338 -4.72434 10.8805 143 109 71 
4.13409 -5.43685 12.7238 111 34 88 
-1.90761 0.556379 13.3745 193 169 141 
-0.775091 5.84711 13.9875 42 41 55 
1.28487 1.84745 12.8395 215 177 8 
0.695378 -3.25971 11.3588 104 93 63 
0.1718 -3.8318 11.0012 31 15 16 
4.14049 -5.53777 12.6858 115 36 93 
-2.27034 1.2312 11.379 129 134 138 
-3.73111 5.45726 13.4588 55 64 81 
-1.3441 -2.95253 11.4303 27 23 24 
2.17519 -1.72007 11.3887 231 183 59 
-1.57571 5.78958 13.3595 213 170 66 
1.1689 -3.38437 11.5866 144 124 65 
2.20944 1.69584 13.0352 193 170 139 
1.15346 -3.88581 11.3029 72 59 43 
-1.57141 8.6419 14.1348 101 100 106 
-1.24837 -4.46337 12.4771 38 44 44 
-3.6289 5.74985 12.1614 53 58 64 
-0.344728 -4.68535 10.969 151 125 112 
2.40764 -2.41559 11.042 66 75 46 
-0.0129226 -3.49892 10.9679 124 104 54 
-3.51888 5.78141 13.2606 40 57 65 
2.40792 -2.41555 11.0409 66 75 46 
-0.0991107 -0.747327 13.6568 113 93 95 
-3.82523 5.39055 14.1065 71 97 114 
1.25503 -5.2742 11.3586 219 193 158 
2.81084 -3.23843 11.7596 116 105 85 
3.91064 -4.76886 12.5083 28 25 18 
3.11204 4.1767 13.1843 193 180 163 
-0.32944 -4.6822 11.0195 85 50 31 
-1.03811 5.84466 14.0393 28 28 38 
-3.12715 6.03822 12.3859 61 80 87 
4.3569 -0.454593 12.3974 70 73 54 
-1.1263 1.30143 12.858 166 134 96 
-0.0253478 6.27147 12.3364 132 56 33 
0.755172 -3.21851 11.4424 46 17 19 
2.65891 6.70528 12.5132 66 64 69 
4.21219 -6.22967 12.5684 110 30 89 
4.58498 -2.89863 12.9656 75 71 42 
-1.37294 5.48454 14.286 162 139 125 
1.28133 0.992434 14.3042 59 53 53 
0.0290515 6.34706 12.3575 120 19 23 
-1.40787 0.947122 13.2248 141 115 88 
0.853787 -2.77738 11.5438 53 18 0 
0.0651895 -0.272741 13.8826 135 135 133 
1.11223 1.72008 13.0691 64 69 65 
-2.81191 0.56394 13.4541 158 155 146 
-0.73904 5.98791 13.3947 55 54 59 
2.78522 2.07846 12.4996 195 154 110 
-1.83639 5.69829 13.3907 216 181 65 
-3.12163 6.13787 12.2984 113 151 154 
3.27366 -4.40885 12.3436 222 205 177 
4.86564 -2.82826 12.8741 80 93 39 
2.97133 -0.464355 14.2274 30 16 39 
4.23605 10.7761 16.6346 125 112 104 
1.27104 1.06151 14.3043 180 117 100 
-0.124014 -0.223388 13.9064 135 135 135 
-0.274143 6.35069 12.3128 78 15 0 
-3.45117 5.83831 13.781 103 121 131 
1.39483 0.431219 13.7971 154 137 119 
4.33679 -0.456644 12.3408 77 80 61 
-3.66906 5.81087 13.4836 45 59 72 
4.16373 -5.56362 12.7523 118 37 95 
0.666543 -3.84307 11.2654 83 67 52 
-0.235889 0.496537 14.0667 35 38 71 
2.27126 -2.01266 11.3911 225 180 51 
-3.45773 5.82391 13.7375 95 116 121 
-3.4272 5.95148 12.1206 127 137 146 
-2.08441 1.67277 11.356 12 21 38 
0.705557 -3.26203 11.4066 44 28 5 
-2.17807 5.90446 13.1066 22 30 43 
-0.507189 1.77971 12.1055 180 132 109 
-1.24528 -4.19142 12.4987 19 22 27 
3.71223 -4.1202 12.5451 54 48 48 
0.211435 6.00945 14.0349 86 87 73 
2.28297 -3.34334 11.5409 221 197 45 
-3.08489 6.09105 12.259 104 148 151 
-3.59821 5.78975 12.7972 19 29 41 
-0.161742 -3.73951 10.864 175 153 96 
0.785936 -3.71703 11.28 78 65 23 
1.98882 5.2056 15.133 87 89 88 
-1.08944 0.966721 13.3737 157 145 121 
-1.98278 5.93917 12.899 19 27 38 
2.41904 -2.87073 11.4474 10 6 5 
-1.19384 1.33039 12.8296 170 140 106 
-0.521329 5.71062 13.8701 134 111 44 
2.38962 10.7222 16.5008 27 25 28 
2.68293 1.95631 13.2135 166 72 86 
4.10634 -5.841 12.5957 107 40 81 
-3.85331 5.41559 13.7112 106 146 171 
-3.6096 5.74648 11.943 45 51 63 
0.444036 1.91916 12.7532 189 156 111 
-0.059449 6.11679 14.0795 143 95 59 
-3.18448 6.04426 11.7424 136 174 185 
-1.33022 6.28099 12.2646 35 37 32 
2.01391 1.65709 13.2112 116 100 77 
-3.15851 5.79165 13.4464 19 21 36 
0.106168 -3.77145 11.0192 145 119 68 
2.41752 -2.86954 11.4411 10 6 5 
4.30189 -3.1244 12.7691 59 59 35 
-3.46622 5.89405 12.5967 71 80 95 
2.21916 2.09016 12.7233 117 64 24 
4.28804 10.3183 16.6194 180 151 143 
-2.46224 -4.65384 11.695 157 140 124 
-3.40717 5.83453 13.4037 102 124 137 
4.13239 -5.33627 12.7917 100 23 75 
4.32306 -1.60952 12.1338 26 34 10 
-1.37188 5.49693 14.1938 157 145 133 
-1.91516 1.85486 11.4472 10 22 34 
1.2446 -5.24287 11.2825 221 195 158 
-1.56784 6.31748 12.0959 191 193 179 
-1.1158 1.23522 12.7951 168 151 135 
2.86315 -3.25814 11.84 106 99 81 
-0.156121 1.69402 12.5955 15 35 94 
0.703798 -3.84245 11.2263 87 73 60 
4.09717 -6.04419 12.4726 106 34 82 
3.62987 0.837942 13.008 26 33 26 
3.67777 10.5836 16.6889 123 116 110 
-1.85527 1.54294 11.4778 64 70 84 
2.43057 2.11346 12.9057 136 65 47 
-0.841958 8.62696 13.986 100 99 104 
0.583097 0.794058 14.1612 184 166 146 
-3.44075 5.91715 11.9828 18 30 44 
-1.03516 5.80881 14.1268 81 83 96 
-1.56019 5.89002 12.837 132 154 81 
3.43843 -4.35831 12.3517 138 126 114 
-3.16864 0.21815 13.502 127 150 158 
0.0536105 -0.286632 13.8813 127 128 123 
-2.84657 0.660296 13.2747 130 130 132 
-1.91425 1.85145 11.4342 10 22 34 
-1.88176 -3.08919 10.925 228 180 20 
-3.1358 6.0587 12.4209 63 83 90 
0.679681 -3.67614 11.5443 28 5 11 
0.340981 1.91447 12.6877 182 135 93 
-2.94485 0.577719 13.4313 170 166 165 
2.20331 -1.70226 11.4079 238 193 66 
-0.924334 6.06263 13.215 210 171 44 
-0.0693437 -0.662279 13.7352 135 136 131 
-3.13148 -1.45499 12.2723 47 39 50 
0.368856 -0.2712 13.8965 138 139 134 
-1.45454 5.98085 12.8678 195 136 60 
-0.218097 -2.7382 11.15 35 9 12 
3.42544 -4.75714 12.3977 227 213 184 
0.61915 0.878426 14.1641 113 63 72 
-1.07217 1.39058 12.9271 153 97 36 
-3.41048 5.82085 13.7793 23 40 56 
2.66566 2.15265 12.6483 170 131 88 
1.05073 -3.99344 11.1496 240 155 134 
-3.08579 5.08307 14.6762 162 160 163 
0.0128608 -0.244183 13.8818 135 135 135 
-0.258516 -5.02008 10.8202 99 58 40 
-2.71322 1.6606 11.9716 153 144 135 
-3.32995 -0.276811 12.5731 125 53 67 
2.34992 10.7364 16.4618 21 22 24 
1.89979 -2.80802 11.5149 158 123 21 
1.69024 -2.52173 11.4575 91 78 26 
-0.00495726 1.88523 12.27 145 119 102 
1.98075 -2.55402 11.5016 223 188 22 
2.21713 2.09101 12.7261 119 65 27 
-0.954546 6.01656 13.3588 207 166 42 
0.577918 0.712286 14.1313 185 127 123 
-3.18984 6.14048 12.2801 124 164 166 
1.40957 -4.56515 11.4779 76 95 127 
-1.70488 5.8714 12.7659 137 129 110 
3.81346 -1.30016 11.9293 31 41 30 
-3.5397 5.82405 13.186 45 59 72 
2.1055 1.80071 13.2405 93 57 25 
-0.911654 8.44076 14.3779 93 90 99 
-2.94216 1.00836 12.2538 123 147 157 
2.667 6.73652 12.4623 76 75 71 
4.07527 -5.42179 12.717 105 30 89 
1.16441 -3.37592 11.55 61 41 0 
-3.51107 5.78371 13.4044 100 99 97 
-3.75773 5.55773 13.3207 153 212 244 
-3.52412 5.82177 13.2934 79 91 105 
-1.32003 5.75982 13.5366 206 180 129 
0.125837 1.60627 12.9258 37 34 65 
-2.00503 5.70935 13.5723 152 128 56 
-3.61564 5.7556 11.959 45 51 63 
-3.31409 6.13125 12.0051 100 127 136 
-1.01227 1.04346 12.9683 67 63 34 
1.9769 -2.55479 11.5215 225 190 26 
4.18836 -6.10829 12.5624 117 37 96 
-0.684551 5.66595 14.3633 21 30 39 
0.126339 6.32036 12.8537 58 68 60 
1.15373 -3.62098 11.5393 70 22 22 
-2.05568 5.6006 14.0831 199 157 59 
-4.04406 5.63916 13.6195 54 75 92 
-0.560953 5.68807 14.0822 206 160 49 
0.99817 1.8558 12.7898 211 182 104 
1.46262 -4.08816 11.4445 226 202 164 
3.30385 -2.6297 11.3172 10 12 11 
-1.23711 5.92379 12.9004 217 147 33 
-4.04179 5.48546 13.4535 104 191 244 
0.573979 0.711584 14.1305 191 138 132 
-1.92628 -3.09441 10.9959 226 178 20 
0.67168 -2.72572 11.5458 65 25 23 
-1.82498 -3.03671 11.0164 223 110 50 
1.39406 -4.49676 11.3676 80 93 112 
-1.86587 -3.03926 10.9711 242 133 66 
-0.282829 -4.80626 11.0591 84 52 31 
0.413337 -4.31736 11.4031 191 169 146 
-1.2849 5.81945 13.3667 202 186 163 
-1.09349 5.95277 13.3794 126 114 98 
1.39256 0.666456 13.7707 165 145 118 
-1.29416 1.59817 12.6758 198 147 40 
-0.497058 5.72164 13.9201 131 105 56 
-0.569008 5.71817 14.1234 206 162 53 
0.274486 -0.739312 13.7662 92 40 52 
-3.68678 5.60981 13.296 34 42 55 
3.69876 -2.79646 11.6375 11 17 7 
-3.42784 0.935839 13.4058 135 156 185 
-3.77802 5.43866 13.516 153 184 212 
1.27923 0.992091 14.3012 58 52 54 
0.269607 -0.732926 13.8082 96 40 53 
2.29712 -2.91401 11.3896 111 55 22 
1.61464 1.69086 13.238 164 136 122 
-3.80422 5.35246 13.6952 143 193 218 
-0.157289 1.69046 12.5789 16 36 95 
0.842554 -2.71967 11.5634 60 19 1 
-0.279073 -3.6818 10.8301 124 100 36 
4.0709 -5.60619 12.6358 106 27 84 
-1.20261 1.84588 12.017 202 188 162 
-1.08802 1.50123 13.0038 187 129 32 
3.89966 -4.55553 12.3479 87 76 58 
-1.12483 1.36798 12.8817 173 115 42 
0.458952 0.220526 13.6304 41 9 24 
-1.05246 1.22848 12.8285 173 147 130 
-1.3156 1.60528 12.7304 185 139 43 
-1.07229 -2.61732 11.8429 33 38 31 
1.27435 -3.64991 11.5997 57 15 3 
4.627 -2.9285 13.0736 82 73 44 
-3.01479 6.03488 12.5008 41 77 113 
-3.39443 5.81602 13.3714 102 124 137 
0.0660762 6.19115 12.3927 226 201 49 
1.82071 1.78844 13.0415 162 160 139 
1.12675 -3.3642 11.4853 119 108 80 
3.32098 -4.59754 12.3595 53 43 42 
3.98244 -2.06065 11.6974 93 92 64 
1.24084 -3.985 11.2466 238 214 190 
3.98968 -1.32546 12.2007 33 42 23 
-2.87212 6.01907 12.1392 42 95 147 
3.29851 -2.62736 11.3046 6 7 9 
0.948403 -0.546375 13.9605 92 51 59 
-1.96288 5.67374 13.6702 217 184 71 
-2.10558 1.72944 11.3817 20 29 44 
-3.02 5.78836 13.2176 96 149 199 
-0.0535815 6.29663 12.3256 192 118 117 
1.33786 -4.16712 11.3072 234 210 172 
-0.680243 6.3395 12.3536 41 4 0 
-3.21103 5.92161 11.4619 53 66 85 
-1.86569 -3.03853 10.9674 242 133 66 
4.07679 -5.46301 12.6197 112 65 75 
-3.17076 5.98075 12.6196 96 152 209 
1.89529 -2.80411 11.4934 158 123 21 
0.538793 0.478155 14.0876 38 25 43 
-1.99512 0.32247 13.3754 105 95 86 
1.49 0.782539 14.0993 181 160 131 
-1.06529 6.31333 12.0711 55 46 37 
-1.2312 1.84595 12.0372 179 161 151 
-0.0238651 6.31491 12.3474 150 70 71 
-1.21277 5.80559 13.6732 193 155 82 
4.12567 -5.44733 12.7114 119 50 95 
-4.23696 5.2014 14.7635 126 143 169 
0.778857 0.964591 14.1461 132 82 94 
1.34107 0.992444 14.3584 158 150 137 
-1.98685 5.63405 14.0587 213 165 65 
-0.187096 -3.28544 10.9993 26 15 23 
-0.22145 -3.83997 10.7821 30 13 5 
-0.18986 -3.29359 11.0324 28 17 25 
2.56158 2.04352 13.145 188 87 95 
3.32523 -4.33707 12.4089 193 190 175 
2.29895 -1.9986 11.4099 214 169 68 
0.475534 -4.43354 11.2712 217 194 153 
3.8886 -6.32623 12.4518 165 149 116 
2.03808 -3.48497 11.5403 231 203 94 
-2.67689 1.46737 12.0888 71 72 74 
1.09045 -3.8295 11.3781 200 193 138 
2.63505 -2.44418 11.1448 90 96 70 
0.176438 -5.15036 12.5718 70 66 55 
-1.69425 5.96209 12.7101 126 130 113 
-1.98777 5.93712 12.9037 18 27 36 
1.86159 1.80144 12.9156 210 192 144 
1.37603 0.22973 14.24 84 44 52 
-1.77416 5.93294 12.5328 116 120 105 
1.70708 -3.24752 11.5231 216 177 12 
1.51947 0.813265 14.3533 185 161 133 
-3.06356 0.628056 13.2687 179 173 175 
3.69704 -2.79468 11.6246 10 16 6 
4.16179 -5.75737 12.6212 107 30 86 
0.129118 -0.725452 13.7514 83 43 51 
-0.189302 1.30032 14.1002 171 128 111 
-2.03531 5.82492 13.3401 61 74 64 
0.139347 -3.43249 11.1308 22 4 4 
0.130458 0.818011 13.48 121 53 68 
-0.720378 5.96272 13.1879 35 33 36 
-1.0624 1.26767 12.8997 167 130 101 
-2.49802 -4.59245 12.1574 35 38 45 
3.68996 -4.19838 12.2866 1 2 7 
-1.23855 -4.53558 12.5479 42 42 52 
2.50753 1.70476 13.1775 160 135 115 
-1.37812 1.45918 12.709 210 140 28 
-1.96708 5.85205 13.0048 34 59 53 
-0.600114 -2.49669 11.6618 23 17 21 
-0.302366 -3.65707 10.9319 27 14 23 
-0.10271 -3.54072 10.926 114 102 64 
0.0180599 6.16141 12.5287 147 59 81 
-0.201807 6.28187 12.2985 141 21 30 
-1.23083 -4.53116 12.5849 38 42 43 
3.81535 -4.29509 12.6879 0 0 12 
-1.42236 5.96913 12.9239 205 139 45 
-0.0591372 -0.664544 13.7188 137 131 131 
-0.962885 6.16805 12.3253 221 212 171 
0.443936 6.13997 13.0162 43 39 38 
-2.02096 5.97814 12.2065 125 156 177 
4.13151 -5.61173 12.6717 105 38 73 
0.22565 0.732702 14.0608 65 24 40 
1.72936 -2.87538 11.3768 155 133 31 
4.0185 -0.96906 12.204 31 36 30 
-1.82125 5.79015 13.2391 85 90 70 
-0.000854274 -3.39799 10.888 40 26 0 
-1.58169 1.42179 12.6353 212 137 79 
1.11355 -3.2425 11.5789 71 20 19 
3.12693 3.75469 13.1693 197 182 163 
3.48374 -4.62448 12.4366 90 69 64 
-3.18231 6.11659 12.2409 124 163 168 
0.524037 1.37311 14.2111 91 56 37 
0.0972359 -3.25635 11.1598 28 9 5 
-0.0344634 -4.72475 11.0061 143 105 82 
-3.67892 5.59462 13.2663 31 39 52 
4.52315 10.2659 16.6256 133 90 84 
-3.12225 6.17052 12.2326 126 156 164 
2.02242 -2.64187 11.5262 225 187 16 
-1.76281 5.84391 12.9758 141 144 117 
-2.30363 -4.45663 12.0924 34 40 54 
3.7229 -5.618 12.2106 39 37 40 
-1.26382 5.80888 13.179 184 170 143 
-1.3317 0.994177 13.2158 122 90 65 
0.233133 -0.203503 13.9304 135 136 131 
0.881829 -3.49238 11.1836 97 76 29 
-3.43297 -3.86283 11.2062 93 0 22 
2.72393 4.49358 13.1368 52 56 57 
2.27957 -1.7814 11.3912 73 64 49 
0.135654 -0.752538 13.7429 120 80 89 
-2.4266 5.75486 14.1742 39 24 43 
-1.16241 5.81602 13.6678 156 149 133 
-0.994952 5.89496 13.5991 217 174 46 
0.175284 -0.674934 13.7835 139 128 122 
-3.22034 1.19967 12.0191 127 203 255 
-3.17787 -2.99125 11.5616 48 37 43 
3.43172 -4.36718 12.3357 142 132 122 
-2.63859 0.823037 11.981 159 187 208 
-0.940866 6.00326 13.4324 152 116 22 
4.39332 10.3466 16.6082 128 121 111 
-0.190185 1.3072 14.1433 169 126 109 
-0.766361 6.05057 13.0465 39 34 28 
-0.384682 1.76791 12.6853 77 74 93 
-1.42907 6.21662 12.5015 131 127 90 
-2.97305 0.930604 12.2933 32 51 65 
3.86226 -4.81163 12.3911 20 15 12 
-1.67397 1.31234 12.5848 165 144 127 
-0.0950414 -0.618406 13.6981 139 129 127 
0.0168169 0.900319 13.9683 126 61 81 
1.98156 -2.55773 11.5523 216 183 18 
1.11622 -3.24969 11.6122 66 12 10 
-2.43962 5.74434 14.1441 44 20 42 
-2.24724 5.20581 14.0782 40 53 87 
-2.69808 1.48865 12.0774 48 49 53 
-2.24356 -5.6456 11.487 176 138 129 
2.3925 10.6355 16.4725 28 26 29 
-3.57897 5.77039 13.7473 96 95 91 
3.81646 4.1992 13.5953 11 11 11 
-0.180112 -0.225697 13.8958 133 133 133 
-1.29173 1.88496 12.0689 74 70 69 
-0.159935 -2.80418 11.1377 33 12 9 
-3.11227 6.16001 12.1787 136 169 176 
-3.44273 5.77423 13.1745 55 69 78 
1.34786 0.887248 14.3595 57 56 62 
-0.43722 5.73715 13.8448 203 160 66 
0.217109 0.0120582 13.9619 24 33 42 
0.17402 0.3181 13.9753 120 36 70 
-1.53021 5.74697 13.4256 183 173 171 
-2.9162 6.0272 12.2653 71 154 206 
0.231552 -0.369442 13.8948 132 132 130 
0.700303 -0.580104 13.8298 134 124 122 
1.39362 -4.29755 11.3553 143 63 88 
0.550409 0.328392 13.9081 154 149 143 
0.897012 -0.565354 13.9258 82 49 56 
3.7617 -4.21573 12.5064 0 0 10 
-0.878819 5.94306 13.6848 15 25 26 
4.20365 -5.7597 12.7098 114 40 89 
-3.25871 5.97605 12.7875 78 137 181 
-3.06714 -1.14005 12.404 53 21 45 
-2.09991 5.80741 13.4131 73 79 65 
-0.117628 -0.295263 13.8589 138 138 138 
0.794414 -0.478081 13.8889 134 124 123 
2.24372 -2.05657 11.2893 236 190 70 
0.543776 0.310625 13.7083 152 149 142 
-3.30457 6.02917 11.8558 37 64 75 
4.10024 -5.7118 12.5702 161 116 136 
-0.888609 5.93775 13.699 18 25 31 
-3.02028 6.1531 12.2297 55 74 78 
3.72024 -6.46025 12.4716 5 4 10 
-3.12778 -3.00673 11.5479 52 43 48 
0.164899 0.759284 14.0758 53 40 50 
-2.48911 -4.58231 12.1576 32 32 44 
0.94678 -0.532161 13.923 91 49 59 
0.0953722 -0.697046 13.7628 81 44 51 
-3.75913 5.4065 13.6275 46 63 73 
-3.25267 6.21666 12.2053 145 182 191 
0.185405 0.320105 14.0453 117 38 70 
-1.02826 1.69358 12.5818 109 89 78 
-3.80222 5.40111 13.7579 154 195 213 
2.70958 6.72762 12.5357 178 166 152 
0.591816 1.76772 12.8711 217 192 162 
-0.679893 5.7446 13.966 127 125 146 
2.77882 2.06763 12.9344 195 149 97 
-3.79461 5.31703 13.5054 61 108 128 
-1.23888 5.8838 13.5358 98 75 41 
-2.4887 -4.58415 12.1641 32 30 43 
-0.32452 1.5527 12.9029 80 71 66 
0.53979 1.3323 14.1725 195 155 130 
0.845069 -3.4844 11.3381 101 80 49 
0.147199 -3.73108 11.0396 44 27 11 
0.0235652 -0.568778 13.8002 135 123 123 
0.0802011 -0.570973 13.8116 150 125 128 
2.33637 2.09668 12.7744 171 93 70 
4.12803 -5.60303 12.7089 210 157 187 
-1.23173 5.88345 13.4644 89 69 36 
0.551666 1.32691 14.1844 192 152 127 
0.348737 -4.42368 11.3038 207 183 155 
-1.51251 5.63421 13.286 220 205 166 
2.71346 6.71244 12.5153 177 165 151 
-2.27693 5.657 13.9781 192 146 58 
-2.69397 1.56342 11.9278 171 161 152 
1.11947 -3.23556 11.7298 79 17 20 
-0.682385 5.8692 13.7268 26 31 35 
3.63378 -0.0338566 11.9826 74 75 61 
0.413242 6.10353 13.1217 70 59 63 
1.50327 1.68436 13.2221 148 129 115 
3.76901 -4.22278 12.5319 0 0 10 
-2.16507 5.63253 13.9193 125 99 40 
0.418138 6.10032 13.0068 73 64 55 
2.64068 -2.7109 11.2842 57 58 42 
3.24376 3.06184 13.0641 187 178 161 
0.436365 1.9491 12.3397 119 95 69 
1.36307 2.01741 12.7281 208 172 88 
1.00205 -3.61413 11.3914 80 71 38 
-2.57595 -4.53654 12.0896 28 29 34 
-2.25897 -5.68494 11.5777 174 140 130 
-3.46252 5.80483 13.2336 34 51 61 
-1.34577 -2.92418 11.4698 177 43 52 
4.13926 -5.75772 12.6833 200 155 176 
0.0679629 6.16381 12.5025 182 164 114 
-0.0853378 -0.680765 13.7344 138 123 120 
0.942442 -3.43158 11.3355 80 60 27 
1.18358 -3.6946 11.4369 35 26 0 
4.11895 -5.25458 12.8012 105 25 86 
4.08788 -5.33385 12.7017 157 95 134 
-1.22644 -3.16998 11.7264 72 66 70 
-0.100164 -0.81191 13.7051 93 64 68 
2.44519 -3.55 11.731 234 208 61 
0.803046 -0.583018 13.8775 132 125 119 
0.130662 -0.571582 13.8202 99 43 56 
-3.56096 5.6313 12.6837 126 138 152 
4.07014 -5.6108 12.6413 105 26 83 
4.09064 -5.73753 12.6636 105 26 83 
-0.681724 5.77697 13.8797 139 138 156 
0.273439 -4.46137 11.4101 78 38 36 
-2.48633 -4.57875 12.1468 32 32 44 
-1.51588 5.52582 14.4101 185 136 121 
1.79442 -2.90308 11.359 180 155 26 
-3.13526 -1.46506 12.2792 48 45 56 
-0.263809 0.584435 14.1295 184 172 156 
-0.761366 6.03613 13.0436 40 35 29 
-1.40234 5.6867 13.6908 152 103 26 
2.71398 6.71409 12.5179 177 165 151 
-2.04144 0.423923 13.2626 178 163 140 
2.63752 -2.70848 11.27 56 57 41 
0.779016 -2.7166 11.6007 62 21 0 
-1.04097 6.16081 12.42 227 213 176 
2.06321 -2.59985 11.5523 232 202 10 
3.96885 -5.09035 12.7086 37 32 36 
1.57356 -3.7153 11.9679 146 118 18 
0.675771 -0.559497 13.8661 97 51 62 
2.33798 2.14137 12.1815 126 105 100 
-1.38103 1.73911 12.4471 95 94 89 
0.446809 1.89659 12.8 65 50 43 
2.097 1.69029 13.0742 198 174 148 
0.695188 -0.524681 13.9028 146 108 119 
0.642107 -0.603588 13.8135 140 132 129 
-1.0666 5.75487 14.4515 79 82 101 
-1.69411 5.54411 14.8996 115 104 86 
0.548159 1.31264 14.0954 191 150 122 
-1.09677 5.7733 14.3399 43 46 65 
-3.37838 5.823 13.0366 99 203 254 
0.418224 6.18291 12.8514 120 126 114 
1.3425 0.782438 14.1997 41 35 37 
0.947137 -2.75902 11.5634 52 17 11 
2.70356 1.81137 13.3062 98 76 65 
2.40719 -2.61669 11.4141 8 2 6 
-2.11528 5.7473 13.4448 140 158 98 
0.117223 -0.536216 13.792 77 44 51 
-0.522714 -2.44383 11.3617 18 13 17 
3.01414 -0.544449 14.2148 32 18 31 
-0.262046 -3.82704 10.7176 28 17 21 
4.45442 10.7292 16.8731 133 120 111 
4.07507 -5.04501 12.7797 114 33 89 
0.248844 -5.07812 12.4507 144 125 82 
-0.249984 0.563548 14.0021 181 175 163 
-1.98604 5.7324 13.3658 145 136 67 
3.49285 2.98218 13.0284 196 179 163 
-1.01728 1.34135 13.353 129 89 53 
-1.51018 1.18578 12.9205 187 143 104 
0.444775 6.30732 12.8536 123 129 117 
0.453446 0.774782 14.0925 69 63 91 
2.72585 2.11861 12.2178 133 95 82 
0.66395 -4.0038 11.1763 78 67 63 
-1.45096 -3.02642 11.3875 39 39 37 
-1.09197 -4.50686 12.5511 35 34 40 
-0.357327 6.13867 12.3012 223 203 140 
0.442249 -0.265422 13.9155 138 139 133 
-1.48324 5.81247 13.1257 161 153 134 
-1.74136 5.45733 14.5475 120 108 82 
2.82159 -3.91234 12.881 125 112 96 
-1.04631 5.86873 12.9582 124 105 73 
0.15835 5.84967 14.5893 85 90 84 
3.00966 -0.795496 14.1933 32 16 29 
-3.38079 5.81832 13.6261 22 49 66 
-1.22077 0.905941 13.0596 171 145 118 
0.0168649 -0.341982 13.843 121 121 119 
2.37297 -2.5303 11.394 241 190 45 
-3.02881 6.05603 12.3604 52 83 114 
-1.33227 5.80496 13.3535 116 111 105 
2.28722 -3.44576 11.4948 241 216 35 
-3.51447 5.77223 13.9198 74 86 98 
-4.10592 5.29246 14.5898 103 179 229 
-3.5441 5.79799 13.4398 98 100 99 
-0.634781 6.01479 13.0433 94 88 64 
-1.24933 5.80377 13.5652 67 48 16 
0.0356164 -4.40681 11.0427 109 92 74 
-1.38777 5.59404 14.0948 122 121 127 
0.539934 -0.248233 13.8972 138 139 133 
1.57343 -3.10533 11.5844 94 76 4 
-0.765382 6.29058 12.265 35 5 3 
0.412893 6.18465 12.8737 112 118 106 
3.93175 -1.03456 12.0912 49 59 32 
0.955163 1.78748 12.714 200 222 88 
4.10212 -0.446204 12.3885 208 187 170 
-0.0908948 -0.680925 13.6899 151 130 129 
1.18003 -3.76732 11.3337 96 81 48 
-0.898219 6.02607 13.3854 212 168 35 
-0.743584 6.09997 12.526 208 207 187 
1.8998 1.6079 13.1534 189 165 139 
-0.100802 0.690398 14.0623 105 89 115 
-3.29312 5.78193 13.3217 98 130 151 
-2.29995 -4.46364 12.099 37 45 58 
-1.7485 -2.95927 11.0382 217 165 43 
2.28243 -3.44106 11.4754 241 216 35 
1.56576 -3.08496 11.5375 92 75 3 
0.754568 -0.576718 13.8849 74 51 57 
-1.47261 5.62672 13.3529 210 169 79 
2.52896 2.09459 13.0134 141 66 70 
-0.161539 -4.88733 10.8449 101 75 50 
4.24913 -0.29141 12.4535 211 196 167 
2.53145 -2.1951 11.228 60 67 33 
3.77989 0.915082 12.2581 167 155 133 
-1.66119 8.57537 14.7529 92 91 96 
0.320028 -0.607016 13.8529 85 49 53 
1.99223 9.90297 15.9303 26 26 28 
-1.3747 1.33182 12.6476 172 153 136 
-0.759018 5.96163 13.6265 40 39 47 
0.606192 -4.53818 11.2328 231 213 149 
1.03136 -3.50458 11.3167 149 120 106 
1.31725 1.73999 12.7373 222 194 154 
-0.936989 5.71829 14.6392 105 106 126 
3.08455 0.848517 14.3799 192 172 145 
-0.480973 5.86717 13.7163 211 169 71 
-0.316669 6.16111 12.7309 230 198 175 
-1.77815 5.68577 13.249 220 179 63 
4.0839 -0.411536 12.2569 116 103 87 
-0.90079 5.82233 14.2156 107 92 115 
1.89563 6.3941 13.3114 10 10 20 
0.282521 6.12395 13.2806 40 39 34 
0.144314 1.95135 12.0651 130 99 81 
3.94836 -4.06262 12.2959 101 90 68 
-3.15983 8.7591 14.5775 124 122 125 
-0.130416 -5.09623 10.8198 125 85 50 
-1.06459 -3.95946 12.5166 22 25 40 
-3.47937 5.82029 13.401 104 105 107 
-0.359838 -4.98058 11.041 132 114 102 
-1.02885 6.01766 13.1567 206 157 55 
0.491102 -4.0252 11.2594 72 59 50 
-3.37232 5.95566 11.8322 122 145 153 
-1.55576 5.74995 13.2075 207 168 73 
-3.48253 5.79693 13.3746 99 101 98 
0.305265 0.523677 14.0643 43 22 37 
-0.228019 -5.13766 10.8442 113 71 55 
0.229825 -0.372092 13.8223 134 134 132 
-0.939921 5.72352 14.6507 104 105 125 
-1.85172 1.66818 11.5625 33 31 45 
-0.834057 6.21086 12.2602 207 169 8 
2.52973 2.09674 13.0221 139 64 68 
1.13817 -5.90521 11.4301 66 99 54 
0.525472 0.778265 14.1815 185 172 153 
3.81968 -1.11471 12.0484 46 48 34 
3.67596 -4.18571 12.4792 22 20 21 
-1.50625 1.34022 12.6402 163 145 133 
-0.156249 1.82718 12.5803 17 28 82 
3.77197 -4.56777 12.2719 37 33 32 
1.94513 -2.56542 11.6165 153 119 12 
0.616888 -3.25423 11.3975 40 10 10 
-3.32292 1.29656 12.3614 142 187 218 
0.369913 -0.490908 13.8774 139 139 129 
-2.10234 5.68078 13.7107 214 177 70 
3.9612 -4.07142 12.3259 101 90 70 
1.42498 -4.61576 11.4252 162 150 136 
-0.822317 5.83348 14.0492 84 72 92 
-1.51617 -2.481 11.3956 95 7 21 
-1.87067 5.77324 13.2511 78 86 71 
-3.46898 8.9069 13.6055 174 163 157 
2.23585 -1.65885 11.4961 240 191 62 
0.921489 -3.48244 11.2963 127 97 45 
2.43528 -3.37103 11.6338 210 184 1 
-1.97051 5.75876 13.4277 165 158 88 
-2.23388 -3.97275 12.2782 45 62 69 
-1.56063 6.25579 12.5712 121 117 70 
1.3383 -3.24735 11.5916 110 86 40 
0.685264 1.74306 12.7794 198 127 107 
2.65121 2.16028 12.7234 191 148 103 
-0.121526 1.88512 12.5491 153 91 76 
3.93105 -4.60184 12.2928 37 30 20 
-2.56798 -4.52515 12.0539 28 29 34 
3.65747 -4.00322 12.313 56 52 51 
2.20575 -2.04644 11.588 58 49 40 
3.66631 -1.10102 11.7779 3 9 5 
-1.87149 -2.49868 11.1232 189 143 8 
-0.17089 -3.28497 11.0055 25 19 23 
-1.84484 1.66152 11.5327 27 25 39 
-3.68652 5.68498 12.5789 129 116 108 
0.421168 -4.07735 11.2398 155 137 127 
-1.5459 5.95232 12.9004 120 100 29 
3.61086 -4.68107 12.5638 177 160 150 
0.593525 0.237992 14.0398 136 138 137 
3.16472 -7.16213 12.7693 192 156 106 
1.76967 -2.70814 11.3846 144 126 42 
0.273791 -0.0128155 13.9393 121 125 126 
-1.75051 5.74019 13.1988 69 84 55 
0.0472031 -5.03684 10.9811 39 35 34 
-1.86933 -2.51021 11.1445 190 144 7 
0.20648 6.25607 13.1594 78 86 63 
-3.2866 5.78319 13.6984 19 22 39 
3.98826 -5.13442 12.76 40 39 37 
2.77041 -2.94084 11.4332 26 23 14 
0.32299 6.16134 13.0184 24 18 18 
-2.69981 -4.18703 12.0596 21 21 29 
3.69937 -4.46045 12.5232 53 50 45 
1.41005 -3.32894 11.9065 113 82 25 
2.68819 -6.93576 12.6588 192 155 111 
-3.00409 0.580697 13.1697 97 97 99 
-3.0213 6.17231 12.0802 133 166 173 
-1.72942 5.82067 13.1122 159 160 128 
4.10157 -6.08971 12.4635 108 40 91 
-2.80201 8.79031 14.1936 170 163 157 
0.321341 -0.259887 13.9037 136 137 131 
1.72054 -2.51053 11.6079 128 110 46 
0.190382 5.99924 14.0024 86 86 74 
-0.341479 6.19868 12.6014 84 86 47 
3.93811 -4.57121 12.3464 92 81 61 
-0.988559 5.79397 14.5917 95 95 121 
4.10369 -5.0426 12.8995 106 33 76 
3.68556 -4.43122 12.4809 52 49 40 
-0.758253 6.07283 12.7389 149 108 0 
0.408412 1.91606 12.7827 191 146 107 
-0.327388 -4.80896 10.9571 155 127 106 
-1.66561 5.87699 13.1362 141 134 106 
-0.204076 0.619822 14.1487 63 64 95 
3.94534 4.56082 13.9137 27 28 30 
-0.012946 -4.72438 11.0044 147 113 88 
-2.75332 1.58094 12.0078 77 77 87 
-2.79984 0.881754 12.0674 50 53 62 
3.79008 -1.11147 12.0042 30 31 26 
-2.1292 -4.57986 12.2898 41 54 63 
-1.95711 0.844855 13.2711 200 176 138 
-2.50999 5.80843 13.2199 204 202 190 
-0.0264457 -0.290594 13.8556 134 134 132 
-2.07823 -4.49859 12.1209 43 60 76 
-2.01986 5.99691 12.0698 126 161 189 
-1.2615 1.32313 12.6877 177 160 140 
4.05717 -5.2958 12.6478 132 84 106 
2.43448 -3.33786 11.6923 182 155 26 
3.4216 -4.29252 12.4745 30 26 25 
-1.05323 1.40107 12.9881 182 126 67 
-1.86473 1.71845 11.4766 16 24 37 
3.39038 -4.51966 12.4098 151 140 136 
-1.71886 1.13961 12.5914 143 117 92 
-0.607889 5.89334 13.4551 30 31 35 
-1.15134 5.968 13.3793 189 142 70 
-1.35755 1.47558 12.6667 213 143 31 
1.79327 5.05712 15.458 128 119 114 
-0.185838 -4.59474 10.8133 136 92 65 
-3.50952 5.81322 13.7825 84 98 111 
2.66452 5.35638 14.1278 22 26 29 
-2.20348 -4.18408 12.2593 70 77 93 
1.09066 1.45621 14.2697 134 78 87 
-0.401714 1.13219 13.988 223 191 144 
-3.55358 5.76697 12.8884 53 65 77 
1.54215 -3.49771 11.9126 51 37 28 
-1.36094 -3.18817 11.4295 37 35 36 
-1.01198 1.20123 12.8856 158 130 108 
0.14312 1.94957 12.0579 130 99 81 
-2.44928 5.77082 14.0282 88 39 58 
-1.36443 -3.1892 11.4332 39 39 37 
0.691728 -0.526775 13.8191 149 109 120 
0.192234 -0.368213 13.8845 135 135 133 
-4.14574 5.20856 14.756 176 183 199 
0.319451 -0.367581 13.8643 136 137 129 
4.304 -7.00078 12.623 99 82 75 
0.159498 6.09864 13.913 30 30 22 
-0.787355 1.57821 13.9728 37 35 38 
0.946688 -0.488555 13.9756 83 59 59 
-3.88964 5.38895 14.1668 97 134 161 
1.3466 -2.37987 11.9732 119 94 14 
-1.43813 0.987579 13.2612 110 82 60 
-0.986476 5.78969 14.5825 98 98 124 
1.11373 -3.97854 11.2699 70 55 48 
-3.09509 -1.57121 12.196 50 36 51 
2.73195 -2.10541 11.4867 11 11 11 
1.17592 -3.11571 11.5656 75 24 21 
-3.56278 5.78332 12.9188 50 62 74 
-1.11267 -4.43648 12.447 31 31 33 
0.229236 -3.788 11.1745 34 3 9 
3.40044 -4.50262 12.4124 154 143 141 
0.507246 -4.89356 11.3693 201 184 158 
3.74849 -1.10901 11.9355 16 23 15 
-2.0945 5.65194 13.6531 216 180 70 
-0.423146 6.20273 13.3043 144 148 123 
4.08637 -5.0987 12.8114 103 32 74 
1.2104 -3.75787 11.413 83 71 57 
0.374894 -0.358151 13.8064 141 142 134 
-3.02244 -1.56977 12.2968 58 44 61 
3.35878 -4.41074 12.385 130 120 111 
3.63095 -5.52305 11.8656 29 26 33 
3.27968 -0.997747 11.6216 48 59 29 
1.17388 -3.15401 11.5341 74 21 17 
1.79028 8.99866 15.2447 86 73 65 
-1.1924 1.44817 12.7353 149 106 51 
-3.54326 5.81152 13.3593 25 38 47 
-3.47737 8.8976 14.4641 131 126 132 
-0.370461 6.15784 12.3531 224 204 153 
3.67811 -6.72127 12.6232 24 16 5 
2.64186 -2.25102 11.1036 55 62 28 
-0.113074 6.14509 12.5936 226 202 102 
-2.06671 6.28225 12.0291 67 62 59 
2.91244 1.32949 14.6645 187 171 145 
3.34945 -4.2951 12.2928 48 43 39 
-2.00576 5.83254 14.2842 217 175 67 
0.227559 -3.74028 11.1403 76 44 33 
-1.35779 -3.18708 11.4221 31 31 31 
1.43918 -2.73021 11.6732 21 18 13 
0.493029 -4.03652 11.2975 72 62 53 
-3.44024 5.77433 13.8845 76 89 106 
-0.148456 1.68427 12.6957 22 41 100 
1.51285 -4.1331 11.5635 64 60 49 
-0.162776 0.627645 14.0162 87 78 107 
-0.439078 1.1989 14.0818 224 188 140 
-2.12856 1.76745 11.3846 37 39 54 
0.92725 -0.47355 13.9905 132 123 116 
1.97232 -3.47081 11.5519 204 176 51 
-1.16225 5.88748 13.4056 157 112 44 
-0.925503 -2.85891 11.8601 86 54 43 
-3.66173 5.80061 11.9752 138 158 193 
-1.88583 1.58301 11.3974 11 18 36 
1.94162 -2.54893 11.5846 177 146 21 
1.98907 -3.4631 11.5781 211 184 43 
-0.824772 5.84655 14.0756 81 72 91 
0.101255 0.719473 14.0608 64 23 39 
0.00635416 -3.56594 10.9155 63 47 32 
4.11911 -5.88544 12.576 118 63 82 
-3.57425 5.77667 12.41 41 49 60 
-0.153272 -0.783698 13.636 105 75 83 
1.07041 -0.134695 14.0039 92 90 78 
-1.45458 5.82254 13.4239 122 118 107 
2.43102 -3.32668 11.6367 185 157 31 
4.03084 4.93488 14.367 202 190 178 
-2.13201 -4.58305 12.2994 42 54 66 
-0.0520239 1.5875 12.8714 53 42 38 
-0.00535323 1.87679 12.2341 152 129 113 
-0.480707 5.82307 13.6304 189 159 87 
-2.81033 8.82105 14.2369 169 162 156 
-1.07535 -3.88074 12.5323 23 27 39 
1.04992 1.85175 12.6463 143 69 58 
-0.210056 0.223103 13.878 36 37 58 
-0.651117 1.47373 13.6015 125 86 71 
-2.8436 1.4867 12.1528 103 106 123 
2.03599 -2.25746 11.8506 193 162 10 
4.07015 -5.80474 12.5642 110 36 85 
1.4243 -3.46129 12.2752 166 143 99 
-3.01531 6.18452 12.1998 110 141 146 
3.81383 -1.11314 12.074 29 30 25 
1.99215 -3.45307 11.5463 219 191 55 
-1.86838 -4.1222 12.3062 41 57 73 
3.40779 -4.29059 12.4863 32 28 27 
-2.41535 -5.15017 11.4826 135 8 29 
-3.16597 5.91276 12.9725 182 218 242 
-1.14865 6.15655 12.4323 210 206 169 
2.27797 -2.41642 11.2638 206 129 13 
-1.23575 5.77297 13.8003 95 83 59 
-1.8903 1.65065 11.4336 50 59 74 
-0.571212 5.60037 14.7282 21 18 27 
1.68876 -2.47859 11.3943 96 79 27 
0.420883 6.07594 13.1469 26 19 26 
