ply                 
format ascii 1.0    
element vertex 797
property float x    
property float y    
property float z    
property uchar red  
property uchar green
property uchar blue 
end_header          
-1.45108 -0.323704 5.33648 13 35 84 
-1.45541 -0.344581 5.33154 110 138 178 
0.764321 -2.71065 8.34126 144 162 202 
-1.41715 -0.342479 5.40162 27 28 72 
-1.91619 0.639787 4.61182 42 61 103 
0.650941 -0.481726 7.55465 34 39 79 
-1.45487 -0.341536 5.351 31 43 95 
-1.41809 -0.317196 5.37526 26 23 54 
-1.53359 -0.338045 5.23808 47 40 84 
-0.479741 -0.907157 6.63767 34 45 90 
-1.43006 -0.346968 5.34653 36 31 72 
-1.53854 -0.357214 5.23532 47 51 98 
-1.48999 -0.366566 5.30838 40 53 106 
-1.60947 -0.802957 5.10789 69 93 131 
-1.41227 -0.308143 5.36088 135 147 187 
-1.5038 -0.369835 5.28857 23 29 81 
-1.43149 -0.305015 5.3737 35 37 88 
-1.53119 -0.373134 5.2496 38 33 73 
-1.55014 -0.378961 5.22271 102 125 159 
-1.62316 0.345457 4.01907 31 37 73 
-1.45407 -0.391496 5.34128 17 31 80 
-1.47453 -0.398888 5.33694 111 111 145 
-1.46693 -0.407513 5.33072 46 42 77 
-1.51376 -0.40198 5.26263 109 135 172 
-1.4522 -0.797536 5.28513 33 40 58 
-1.09357 -0.105471 5.7308 47 58 103 
0.214393 -0.580542 7.45316 44 50 98 
-1.56688 -0.371588 5.19572 43 39 72 
-1.43743 -0.121084 5.3229 37 56 98 
1.95475 -2.07103 8.76467 156 170 207 
-1.93217 -0.113185 4.69169 69 77 126 
-1.95892 -0.383767 4.71873 22 46 82 
-1.91343 0.766808 4.58515 42 73 117 
-1.4264 -0.132491 5.34002 21 25 72 
-0.912375 -0.0810207 5.24102 54 66 108 
-1.00171 0.932139 5.66347 21 43 80 
-0.561514 1.01566 6.19656 39 57 95 
-1.88738 0.642902 4.63235 50 47 78 
-1.46095 -0.140553 5.29501 24 38 87 
-1.52511 -0.250164 5.22882 39 40 86 
-1.44851 -0.146812 5.31343 19 30 76 
-1.55187 -0.142512 5.18365 40 47 93 
-1.02107 0.90777 5.63303 116 138 198 
-1.5489 -0.243556 5.19296 44 49 91 
-1.02938 0.903118 5.6445 20 26 76 
-1.02343 0.905864 5.66846 37 42 100 
-1.02444 0.896689 5.65129 125 132 186 
0.781244 -0.0843981 7.49772 35 44 83 
-1.27323 -0.722696 5.53455 139 149 185 
-1.46434 -0.241336 5.31428 27 45 91 
-1.52242 -0.412046 5.26656 37 51 96 
-1.38246 -0.534144 5.37531 126 120 108 
-0.987136 0.94004 5.7111 41 47 81 
-1.43928 -0.224458 5.34417 36 48 90 
-1.55261 -0.20874 5.19889 52 46 92 
-1.42301 -0.213139 5.35742 49 44 76 
-1.43831 -0.171633 5.33335 48 60 108 
-1.46099 -0.200137 5.30922 141 160 202 
-0.580745 -0.707952 6.43393 48 50 88 
-1.46424 -0.208292 5.30688 36 61 115 
-1.53122 -0.203188 5.22995 25 27 68 
0.104028 -0.868299 7.39783 27 35 72 
-1.55321 -0.19355 5.19454 44 52 98 
-1.44956 -0.197258 5.32439 35 43 92 
-1.56735 -0.18917 5.17212 43 61 109 
-1.46188 -0.189835 5.30538 24 38 87 
-1.28055 -0.630218 5.50495 147 140 122 
0.122673 -0.861431 7.37372 34 47 82 
-1.60423 -0.596733 5.10895 126 133 152 
0.10344 -0.81395 7.35668 42 46 83 
0.79999 -0.503379 7.57089 30 43 78 
-0.583849 -0.849415 6.46798 52 57 95 
-1.06589 -0.223705 5.80882 47 47 81 
0.963813 -1.21008 7.7688 52 49 76 
0.215749 -0.795701 7.50037 41 49 88 
0.689083 -1.20016 7.70175 63 70 122 
-1.58881 -0.806824 5.12543 62 60 97 
-1.7183 -0.513839 4.95225 137 137 125 
-1.54887 -0.643733 5.18687 136 124 108 
-1.59842 -0.783629 5.12051 66 70 115 
-0.990674 0.0548471 5.86826 61 69 115 
-1.42338 -0.801854 5.34415 122 137 168 
0.70483 0.404743 7.3907 33 48 87 
0.101823 -0.0687759 7.23862 34 42 81 
-0.986515 -0.141362 5.88213 51 55 90 
0.816766 -0.124242 7.49455 23 29 65 
0.801032 0.424613 7.40015 30 43 85 
-1.47147 -0.389458 5.31897 42 37 67 
0.819713 -0.88178 7.65094 54 68 113 
-1.33462 -0.029747 4.76624 107 134 179 
-1.50353 -0.704326 5.24771 52 60 73 
-0.459684 -0.958241 6.6647 57 65 101 
-1.34704 -0.628568 5.42322 38 35 28 
-0.984029 -0.071602 5.86737 68 73 113 
0.689274 0.0535068 7.4578 36 42 78 
-1.40445 -0.70041 5.34668 70 59 75 
-0.582423 1.00467 6.12991 51 52 83 
-0.985715 -0.248356 5.89031 70 81 127 
0.801724 0.32818 7.43194 28 37 80 
-0.945853 -0.456979 5.93892 57 71 118 
-1.48263 -0.423402 5.33093 103 122 155 
-1.53259 -0.400851 5.25434 50 58 104 
0.136125 0.245004 7.22179 60 77 123 
-1.4608 -0.149429 5.30144 133 155 196 
-1.46661 -0.409209 5.33102 39 36 67 
-1.48479 -0.366745 5.29556 12 23 77 
-1.53018 -0.154302 5.21988 29 36 82 
-1.41862 -0.345541 5.38034 29 41 81 
-1.45056 -0.323819 5.33247 13 35 84 
-1.41925 -0.317787 5.37374 23 19 46 
-1.42735 -0.30487 5.35978 35 37 88 
-1.42324 -0.180284 5.33565 28 28 78 
-1.91189 0.629521 4.61385 23 40 92 
-1.52748 -0.250993 5.23425 39 40 86 
-1.55022 -0.24285 5.1948 44 49 91 
-1.44028 -0.221635 5.3464 22 40 80 
-1.02419 0.906876 5.67486 37 42 100 
-1.03132 0.903575 5.64607 6 17 63 
-1.0216 0.908001 5.63339 116 138 198 
-1.43035 -0.371354 5.37102 27 22 52 
-1.0381 -0.220089 5.8229 56 74 120 
-0.986215 0.938634 5.7011 41 47 81 
-1.06454 -0.223776 5.79921 47 47 81 
-1.91019 0.765372 4.57978 17 48 92 
-1.93425 -0.113948 4.6917 60 70 121 
-1.41372 -0.313014 5.37968 61 64 107 
0.214377 0.185214 7.32042 32 39 83 
-1.03602 0.896777 5.64426 20 31 77 
-1.02539 0.895858 5.65423 126 137 193 
-0.580794 -0.709079 6.43962 48 50 88 
-0.467652 -0.163854 6.52416 34 43 84 
-1.45009 -0.226924 5.33084 46 41 73 
-0.561309 -0.141396 6.41163 29 43 80 
0.1319 -0.811772 7.40738 44 48 93 
-1.56744 -0.109102 5.16118 49 71 120 
-1.27546 -0.627286 5.48839 151 148 131 
-1.46505 -0.240859 5.31682 27 45 91 
-0.476236 0.14316 6.48433 46 58 106 
-1.54521 -0.238183 5.20102 135 146 178 
1.3369 -0.819731 7.6202 58 62 110 
0.798657 -0.0686606 7.49545 51 63 101 
-0.581858 -0.763133 6.45163 48 59 91 
-1.4358 -0.185459 5.32894 50 70 120 
0.213096 -0.123843 7.38865 37 46 85 
0.816531 -0.124465 7.50768 22 25 58 
0.667614 -0.393366 7.54836 30 37 79 
-1.91384 0.640315 4.60782 32 54 95 
-1.00188 -0.319078 5.92665 39 44 84 
0.801743 -0.41621 7.5558 27 40 75 
-1.89902 0.626386 4.64586 102 127 191 
-1.91741 0.624213 4.63107 99 103 164 
2.06406 -1.63851 7.48713 81 96 117 
-1.27391 -0.724142 5.53398 119 122 157 
-1.90538 0.602416 4.63655 109 112 163 
0.780157 0.0600362 7.47674 14 26 64 
0.76882 -0.0826511 7.49493 29 37 74 
-1.64737 -0.695787 5.07227 159 143 128 
-1.56088 -0.326503 5.19977 40 56 107 
0.704148 -0.0619313 7.47592 41 53 91 
-1.55927 -0.154086 5.17178 40 48 97 
-1.91333 -0.306114 4.76266 34 52 98 
-1.5667 -0.335284 5.18894 109 120 152 
0.655729 -0.0495268 7.48857 27 36 79 
0.668299 0.482836 7.37168 28 35 64 
0.670929 0.50548 7.36489 27 35 71 
-1.53975 -0.357177 5.23683 47 51 98 
-1.56916 -0.355479 5.20444 24 38 75 
0.818173 0.0439146 7.46205 53 67 102 
-0.992639 0.640478 5.76755 27 41 80 
0.765456 -1.3141 7.72905 55 61 113 
-1.47654 -0.766481 5.2668 137 131 115 
-1.96915 0.390208 4.59045 39 43 80 
0.816369 -0.526856 7.56761 22 34 72 
-1.53372 -0.364978 5.24772 108 111 146 
-1.91925 0.399854 4.65527 35 64 108 
-1.52592 -0.371441 5.23694 51 46 87 
0.764925 0.0329067 7.45679 23 24 54 
-1.47062 -0.38889 5.32013 65 59 95 
0.167869 -0.58935 7.40765 71 85 130 
-1.47599 -0.400094 5.33935 111 111 145 
0.181694 -0.588071 7.43887 48 56 102 
-1.91266 0.469501 4.62952 45 76 120 
-1.60292 -0.80043 5.09432 43 67 105 
-1.53379 -0.402062 5.25585 42 49 95 
-0.946743 -0.457669 5.94177 57 71 118 
-1.59416 -0.809073 5.13811 52 48 83 
0.212264 -0.583382 7.47501 39 44 86 
-1.59024 -0.766444 5.13289 30 55 96 
0.181853 0.0561325 7.31161 33 38 70 
-0.484223 -0.166928 6.51482 65 80 123 
-1.44645 -0.147983 5.30709 19 30 76 
-1.53225 -0.203229 5.22692 19 26 68 
0.776247 0.0311316 7.46446 22 23 54 
-1.4509 -0.343334 5.3443 18 30 78 
-1.54916 -0.237841 5.20959 124 129 161 
-1.42787 -0.358047 5.35298 130 138 174 
-1.48705 -0.368176 5.30191 7 19 69 
-1.50119 -0.370235 5.28271 23 29 81 
-1.52869 -0.372824 5.24316 38 33 73 
-1.46952 -0.40029 5.32109 112 111 143 
-1.90476 0.611978 4.631 99 110 166 
-1.47112 -0.411284 5.33538 25 21 46 
-1.3042 -0.612047 5.47508 63 76 118 
-1.45648 -0.800094 5.30346 33 40 58 
1.17629 -1.97475 8.03723 82 108 169 
-1.57091 -0.336334 5.19965 109 120 152 
-1.42035 -0.346458 5.38857 16 25 66 
-1.55571 -0.109574 5.14068 20 33 77 
-1.42333 -0.304129 5.34658 35 37 88 
-0.465214 -0.692826 6.62796 41 43 84 
-0.575223 1.01168 6.19179 31 34 69 
-1.43742 -0.220995 5.3359 22 40 80 
-1.61002 -0.80218 5.11531 42 64 103 
0.65399 -0.0534385 7.46849 21 25 62 
-1.4226 -0.213855 5.35432 49 44 76 
-1.46143 -0.208508 5.30041 24 45 98 
-1.46109 -0.159735 5.28911 25 48 100 
-0.514812 -0.172489 6.45947 34 50 99 
-0.545389 -0.0880955 6.41715 32 41 82 
-0.472873 -0.166403 6.54026 35 40 80 
-1.90503 0.605147 4.61993 22 21 65 
0.656483 -0.484469 7.54287 24 26 64 
-1.44798 -0.2282 5.32295 55 49 83 
0.779576 0.0511973 7.45849 18 27 56 
0.815379 -0.0485436 7.49703 20 28 67 
-1.88583 0.633671 4.65676 21 45 83 
0.689079 -0.384507 7.54976 47 63 97 
-1.022 0.892754 5.64102 126 137 193 
-0.482028 0.07263 6.52317 23 28 60 
0.664997 -0.397184 7.54891 17 23 57 
-1.4151 -0.307498 5.35819 139 151 191 
-1.52889 -0.414861 5.28186 55 70 113 
-1.42115 -0.317663 5.38084 23 19 46 
0.704633 -0.457065 7.54491 20 33 67 
-1.45785 -0.394123 5.34873 28 50 97 
0.802802 -0.462199 7.56584 25 34 73 
-1.0354 -0.21928 5.81646 38 51 96 
0.800816 -0.095324 7.50958 22 28 62 
0.210933 -0.583393 7.47494 39 44 86 
-1.45767 -0.347715 5.33779 94 118 162 
0.764121 -0.404683 7.54009 36 40 75 
-1.51654 -0.404897 5.26823 98 116 154 
0.178502 0.248965 7.27886 32 45 89 
0.651341 0.510059 7.34921 24 30 66 
0.816695 -0.507833 7.58325 15 29 64 
0.816614 -0.840785 7.65798 36 49 94 
-1.90693 0.619578 4.61267 108 119 183 
0.77698 -0.0872689 7.47148 18 25 53 
0.701689 -0.496505 7.55619 18 26 62 
0.702566 -0.762486 7.6092 31 41 92 
0.101791 -0.605736 7.30655 22 27 57 
0.764763 -0.873666 7.62633 42 54 96 
1.92932 -1.50888 7.54988 65 89 123 
-1.29763 -0.627574 5.47176 53 65 87 
0.964592 -1.21151 7.77148 52 49 76 
0.766184 -0.91647 7.64071 46 54 101 
0.798218 -0.0206444 7.48508 38 48 84 
-1.59295 -0.767042 5.13865 30 55 96 
0.687515 -0.809295 7.62143 47 58 104 
-1.48408 -0.369762 5.29535 7 19 69 
-0.494665 -0.914975 6.60974 30 34 71 
-1.90495 0.614452 4.63152 109 128 187 
-1.02807 0.883618 5.64808 120 136 198 
-1.57345 -0.34287 5.19176 44 49 81 
0.65653 0.090524 7.47962 32 38 70 
-1.02476 0.891278 5.64949 117 133 195 
-1.57001 -0.11251 5.21275 28 28 56 
-1.44582 -0.226622 5.31508 47 44 73 
0.706764 0.0719119 7.4575 20 29 60 
0.667618 0.0902896 7.4439 39 52 96 
0.80372 -0.0514492 7.47716 21 27 61 
0.692889 -0.0655041 7.46122 21 25 54 
-1.60582 -0.800872 5.10721 20 38 76 
-1.60394 -0.792001 5.13203 40 43 84 
-1.45478 -0.799521 5.2994 57 67 94 
0.805452 -0.0998366 7.49329 18 22 49 
-1.45155 -0.10106 5.31127 18 26 72 
-1.44477 -0.151922 5.29895 19 20 64 
-1.9184 0.767441 4.60058 17 48 92 
-1.42385 -0.165343 5.34631 74 76 115 
0.76073 -2.72301 8.36695 92 128 178 
-1.43058 -0.183267 5.35867 23 26 71 
-1.43412 -0.191271 5.32169 16 39 80 
-1.5623 -0.206923 5.17668 23 35 83 
-1.55346 -0.210667 5.19094 28 22 56 
-1.46084 -0.238987 5.30722 15 30 71 
-1.56616 -0.239912 5.17857 21 36 77 
0.693243 -0.357248 7.51661 17 21 56 
0.771718 -0.785132 7.63124 39 47 96 
0.81655 -0.392778 7.55202 21 30 71 
0.806773 -0.392908 7.5504 17 21 56 
0.777776 -0.405665 7.54849 17 30 64 
0.768837 -0.430607 7.55503 21 24 57 
-1.42714 -0.306287 5.35867 31 28 73 
0.712715 -0.413597 6.91337 19 29 65 
-1.42004 -0.319292 5.37033 26 21 43 
0.701601 -0.471184 7.55542 17 26 59 
-1.55927 -0.327921 5.21025 28 35 87 
0.762959 -0.398431 7.54448 25 28 59 
-1.43715 -0.349829 5.35779 25 20 50 
0.657262 0.512707 7.38084 20 28 65 
-1.45673 -0.360691 5.33032 19 40 85 
-1.52652 -0.415543 5.27949 38 56 94 
-1.53535 -0.361031 5.21888 33 33 67 
-1.50809 -0.37387 5.29696 16 24 73 
-1.52138 -0.403398 5.28484 109 133 171 
-1.53027 -0.373071 5.24665 38 33 73 
-1.53547 -0.407179 5.25302 33 38 78 
0.701378 0.47659 7.40076 30 30 64 
-1.00604 -0.323586 5.93996 33 33 69 
-1.87889 0.630799 4.64696 15 35 62 
-1.29834 -0.610095 5.46032 60 69 108 
0.102503 -0.859823 7.30131 27 35 72 
-0.580217 -0.185344 6.39698 33 37 74 
0.806509 0.369342 7.41546 26 35 66 
-1.42059 -0.330121 5.37242 57 57 85 
-0.468164 -0.169343 6.53273 35 43 80 
0.208953 0.177121 7.29245 33 36 67 
-1.89706 0.624589 4.64088 98 126 189 
-1.59622 -0.770394 5.14915 39 64 105 
-1.59432 -0.807664 5.13263 45 40 72 
-1.53352 -0.366681 5.24635 108 111 146 
-0.478472 -0.769912 6.61735 21 35 70 
0.658498 -0.803377 7.61272 40 49 90 
0.700314 0.0068191 7.43932 26 36 72 
0.768309 -0.83122 7.64582 39 45 93 
-1.90911 0.623747 4.60216 23 32 89 
-1.41824 -0.112261 5.31786 38 33 65 
-1.45532 -0.22617 5.33488 27 25 47 
-1.4629 -0.136202 5.3036 8 25 69 
-0.506229 -0.172111 6.4892 33 45 85 
-1.56383 -0.137483 5.15801 19 36 79 
-1.45494 -0.153298 5.31871 18 33 76 
-1.46733 -0.165921 5.30505 59 87 134 
-1.42009 -0.212708 5.33991 33 30 59 
-1.4403 -0.220054 5.35442 17 31 70 
-1.52997 -0.223942 5.22972 28 21 62 
-1.57129 -0.344421 5.19546 31 36 68 
-1.55531 -0.237848 5.1949 23 21 45 
-1.56614 -0.237441 5.1785 16 34 74 
0.6529 -0.350764 7.53668 25 26 56 
0.766664 -0.382739 7.52412 22 23 54 
-1.43831 -0.306732 5.37733 20 27 73 
-1.4542 -0.323334 5.36054 8 25 69 
-1.44698 -0.345348 5.33422 11 21 56 
-1.53209 -0.336149 5.21017 29 29 57 
-1.43953 -0.360741 5.38189 100 99 131 
-1.53349 -0.361449 5.21486 33 33 67 
-1.48331 -0.371181 5.29026 7 20 62 
-1.50923 -0.376299 5.29625 13 24 70 
-0.550076 0.90257 6.25794 20 21 41 
-0.579518 -0.785862 6.47971 23 32 61 
-1.60354 -0.792014 5.12258 23 30 72 
-0.515507 -0.965758 6.6082 53 73 123 
-1.45123 -0.797581 5.29139 32 39 58 
-1.60954 -0.803669 5.1168 42 64 103 
-0.553404 0.805037 6.24211 25 31 55 
0.80108 -0.0553164 7.47029 25 32 61 
-1.91469 0.644013 4.6155 10 25 56 
-1.46968 -0.215003 5.3135 87 118 165 
0.694072 0.49589 7.36301 25 32 61 
0.699082 -0.466784 7.53854 17 27 54 
-1.54198 -0.365094 5.20339 27 39 77 
0.802734 -0.101732 7.48572 20 24 51 
0.698127 -0.776493 7.59089 31 46 89 
0.771315 -0.843476 7.62728 35 47 89 
-1.56906 -0.35302 5.20115 18 33 66 
0.807295 -0.0667992 7.47506 20 26 52 
0.654533 -0.0582352 7.48928 24 29 61 
-1.41409 -0.344929 5.37873 18 25 69 
0.769002 0.00480977 7.49094 28 32 69 
0.659991 0.489437 7.35868 25 28 47 
-1.52588 -0.374713 5.22949 37 31 67 
-1.52519 -0.418158 5.28184 29 47 83 
-1.59549 -0.810258 5.13416 50 46 79 
-1.47 -0.400099 5.31482 67 64 91 
-1.52671 -0.102284 5.20513 56 53 80 
0.662437 0.0691117 7.44961 27 32 61 
-0.581057 -0.857088 6.49681 31 41 77 
-1.59197 -0.76665 5.13547 30 55 96 
0.653195 -0.0118385 7.47393 30 39 72 
0.660562 -0.772045 7.62516 37 49 89 
1.34017 -0.824249 7.61843 42 47 87 
0.204324 0.207805 7.32729 34 37 68 
-1.86873 0.775063 4.66686 33 38 67 
-0.581051 0.961687 6.1828 30 29 45 
-1.52185 -0.403362 5.28416 109 133 171 
0.124536 0.122176 7.23368 27 31 60 
0.209851 -0.893988 7.52629 37 45 84 
0.699128 -0.364481 7.51407 16 20 49 
-1.45674 -0.15109 5.27577 144 163 206 
0.812689 -0.395097 7.54649 15 22 51 
-1.54257 -0.244529 5.22387 12 26 61 
0.656692 -0.350799 7.50085 18 22 47 
-1.56848 -0.238502 5.18357 31 50 92 
-1.55873 -0.238872 5.19836 22 22 46 
-1.91261 0.644358 4.61214 7 24 50 
-1.4587 -0.237766 5.30033 15 30 71 
-1.54139 -0.223963 5.21984 7 26 58 
-1.42856 -0.308645 5.35032 19 19 53 
-1.44124 -0.216825 5.36086 17 32 73 
-1.45884 -0.211229 5.33582 27 27 53 
-1.43159 -0.321385 5.39814 22 20 34 
-1.4452 -0.322967 5.33957 12 21 60 
-1.46831 -0.116306 5.2998 60 93 138 
0.700373 -0.467741 7.60291 21 28 54 
-1.53992 -0.12367 5.19892 15 35 72 
-1.61233 -0.81818 5.11349 148 150 189 
-0.473349 -0.173323 6.5265 33 42 73 
-1.5494 -0.327895 5.18327 26 33 75 
-1.45138 -0.346896 5.34436 8 23 64 
0.809195 -0.499065 7.57849 19 29 56 
-1.42197 -0.37118 5.32592 21 20 38 
-1.48097 -0.37306 5.29342 10 19 52 
-1.5121 -0.379211 5.30063 16 22 58 
-1.45473 -0.184273 5.2859 18 30 68 
-1.45072 -0.401005 5.342 9 20 50 
-1.51574 -0.38651 5.27977 23 48 89 
-0.482287 0.142084 6.4861 32 37 77 
-1.0198 -0.215306 5.83326 44 40 65 
-1.91929 -0.527059 4.79593 11 36 77 
-1.53899 -0.379906 5.26043 35 32 63 
-0.542338 0.120025 6.35756 27 38 84 
-1.86917 0.654589 4.68212 30 33 50 
0.132764 -0.858303 7.3847 36 48 88 
-1.47277 -0.415027 5.31597 14 19 39 
-0.509153 -0.257108 6.52619 33 40 68 
-1.85577 0.629128 4.6596 36 38 61 
-0.993899 0.935172 5.71509 28 35 54 
0.808784 -0.117628 7.51016 17 19 40 
-1.9778 0.493278 4.57805 22 21 39 
-1.48269 -0.411695 5.29957 25 41 75 
-1.54517 -0.376296 5.20082 119 139 174 
-1.09793 -0.229613 5.71353 40 51 81 
-0.470827 -0.84862 6.65837 33 39 71 
0.547035 -1.24269 7.69913 53 71 111 
-0.584721 1.00711 6.1917 35 36 56 
-1.43056 -0.310073 5.35771 20 17 44 
-1.62322 -0.690173 5.08038 44 44 52 
0.807828 -0.453147 7.55263 18 25 51 
-1.47524 -0.103768 5.30723 130 152 199 
-1.44149 -0.109908 5.35446 13 28 61 
-1.42687 -0.322728 5.36587 21 19 32 
0.809752 -0.0651446 7.49351 21 27 53 
-0.514001 -0.139588 6.45316 11 18 62 
-1.98721 -0.382919 4.66883 27 37 62 
0.768423 -0.798118 7.65685 39 51 91 
0.811631 -0.806695 7.66748 39 51 93 
-1.53538 -0.418015 5.23524 31 33 54 
-0.470017 -0.704829 6.63025 34 40 66 
-0.478108 -0.170077 6.54226 38 46 82 
-1.55952 -0.13472 5.18208 27 29 50 
-1.42737 -0.145909 5.32407 21 23 46 
-0.512061 -0.962806 6.6103 28 45 91 
-1.52161 -0.422291 5.28669 22 31 62 
0.208914 -0.598379 7.50186 37 46 77 
0.169766 0.239998 7.23233 51 66 107 
-1.458 -0.167113 5.2872 7 30 71 
-1.48816 -0.412121 5.31203 30 48 86 
-1.47379 -0.413551 5.32316 14 19 39 
-1.43393 -0.790423 5.26356 26 22 39 
0.209184 -0.848041 7.51146 33 43 78 
-1.55069 -0.328373 5.19071 29 35 67 
-0.500914 -0.739487 6.55971 23 34 56 
-1.30116 -0.618916 5.48033 54 65 87 
0.806323 0.457686 7.38671 26 33 59 
-1.92821 -0.540472 4.78834 119 125 161 
-1.92276 0.765684 4.61202 24 52 89 
0.775202 -0.487963 7.5583 21 32 60 
-1.86814 0.773127 4.6648 32 38 62 
-1.42515 -0.19223 5.33754 30 32 57 
-1.44795 -0.401592 5.33549 8 19 49 
-1.53699 -0.194681 5.24048 22 24 47 
-0.577587 -0.748314 6.45232 22 28 54 
0.807946 -0.0150655 7.47676 26 33 62 
-1.50531 -0.380278 5.2704 12 21 52 
0.809358 -0.496192 7.56702 18 28 53 
-1.05704 -0.383543 5.85622 104 110 142 
0.772799 0.472977 7.37652 20 22 43 
-1.45164 -0.213305 5.30624 22 27 47 
-1.56653 -0.377336 5.30105 27 38 68 
-1.56944 -0.215064 5.19605 14 29 60 
-1.53328 -0.37217 5.22809 32 36 63 
-1.49649 -0.37841 5.34144 6 22 56 
-1.43793 -0.375334 5.36327 19 19 31 
-1.45681 -0.231603 5.30392 14 27 61 
-1.53007 -0.226358 5.1979 16 21 40 
0.205716 -0.00551673 7.38629 32 39 68 
0.701715 -0.372118 7.57211 20 24 49 
0.658875 -0.355471 7.55787 18 22 47 
-1.57608 -0.348366 5.21793 25 32 61 
-1.45879 -0.36209 5.33222 32 56 102 
0.656692 0.502115 7.34655 24 26 49 
0.810903 -1.24743 7.74083 43 56 100 
-1.9719 -0.122094 4.7494 45 49 74 
-0.558991 -0.191516 6.44904 29 43 72 
-0.584863 -0.189787 6.36211 50 55 84 
-1.51496 -0.414544 5.28781 31 33 56 
-1.43424 -0.195191 5.34948 24 33 62 
-0.588802 -0.723931 6.49696 65 69 96 
0.172383 0.240013 7.20727 43 57 94 
-0.479096 -0.704087 6.6352 23 31 67 
-1.46127 -0.22801 5.31998 15 30 63 
-0.476656 -0.124748 6.48444 25 32 51 
-1.55082 -0.246218 5.26769 15 21 45 
2.113 1.03785 6.43317 24 28 55 
0.803064 0.044947 7.50838 22 25 56 
0.810456 -0.405501 7.57743 16 22 48 
-0.581129 0.999699 6.1465 39 40 60 
0.658072 -0.412436 7.54841 23 27 62 
-1.86707 -0.365334 4.80104 28 29 50 
-1.44029 -0.404041 5.32029 13 16 33 
-1.4348 -0.322327 5.37785 20 19 33 
1.10066 -1.36108 8.01883 127 141 186 
0.807029 -0.0656762 7.54544 19 24 56 
0.538887 -1.22476 7.69532 25 36 56 
-1.53021 -0.331857 5.17552 29 35 59 
0.655951 0.502374 7.41186 38 42 69 
-1.04958 -0.381129 5.82936 123 134 166 
0.966135 -1.216 7.78528 68 79 111 
0.768133 -0.0556665 7.45705 20 24 49 
-0.583654 -0.13768 6.34902 43 49 75 
0.802875 -0.107199 7.50623 19 23 50 
-1.52871 -0.336617 5.2215 47 40 84 
0.65302 0.0955604 7.42078 23 30 72 
-1.88937 0.631629 4.63737 18 32 81 
-1.54031 -0.243444 5.20874 17 32 71 
-1.543 -0.212492 5.21168 42 58 109 
0.263048 -0.014125 2.48607 27 40 74 
-1.03896 -0.373506 5.83789 12 29 72 
-1.4086 -0.29047 5.39175 53 63 112 
-1.91208 0.629505 4.61346 23 40 92 
0.762415 -0.065314 7.46457 48 59 91 
0.667654 0.092087 7.4367 39 52 96 
-1.41859 -0.307393 5.37113 139 151 191 
0.797071 0.0204065 7.44958 46 51 89 
-1.56339 -0.353516 5.18526 24 38 75 
0.763017 0.0316435 7.43689 23 24 54 
0.673253 -0.00143355 7.65269 24 28 66 
-1.54949 -0.378051 5.21064 122 138 172 
-1.88717 0.577346 4.66593 60 71 101 
-1.44004 -0.189496 5.33498 71 95 139 
-1.43884 -0.140991 5.33043 45 70 110 
0.766621 -0.0845599 7.48602 19 23 60 
0.210672 -0.582287 7.46601 39 44 86 
-1.59928 -0.819449 5.12416 58 76 116 
-1.44991 -0.17509 5.31958 30 29 60 
0.77326 0.0331029 7.45786 21 22 50 
-1.41613 -0.329717 5.3557 57 57 85 
0.655562 0.506481 7.37176 26 30 57 
-1.44955 -0.106252 5.29957 20 25 65 
-0.506366 -0.17304 6.49121 33 45 85 
-1.53791 -0.171148 5.2031 14 28 73 
-1.42922 -0.186666 5.34347 26 31 63 
-1.44888 -0.201887 5.31141 26 30 75 
0.80625 0.0280983 7.46454 23 27 54 
-1.54489 -0.365301 5.21315 27 39 77 
-0.470367 -0.16935 6.54042 34 40 76 
0.65626 0.0346787 7.44381 28 34 66 
0.662216 0.0699693 7.44792 27 32 61 
0.806502 -0.0207082 7.46859 24 33 64 
-1.4297 -0.111754 5.3181 20 26 58 
-1.57049 -0.137705 5.17458 29 50 95 
0.69666 0.0741733 7.41416 25 29 56 
-1.89038 0.76228 4.60924 20 22 45 
-1.42898 -0.373887 5.35236 21 20 38 
-1.45755 -0.183579 5.29576 18 30 68 
-0.518629 0.132446 6.42456 14 35 82 
0.695484 -0.0333223 7.476 27 30 61 
-1.87881 0.766151 4.63244 18 38 63 
0.767516 -0.00177585 7.44209 29 34 63 
-1.91638 0.574204 4.63343 18 24 60 
-1.92433 -0.539631 4.77904 119 125 161 
-1.54556 -0.371938 5.23089 27 38 68 
0.695152 0.484002 7.32577 19 30 52 
-1.53232 -0.244716 5.22463 18 19 39 
-1.62351 -0.813917 5.11664 115 107 146 
0.654774 0.0286687 7.41817 27 34 62 
-1.43192 -0.145477 5.34095 21 23 46 
-1.50896 -0.413322 5.26694 31 33 56 
-1.53549 -0.188951 5.21586 19 26 44 
-1.99403 -0.385638 4.6846 28 38 65 
-1.48387 -0.411343 5.32579 19 30 50 
-1.86516 -0.366085 4.82852 33 31 55 
-1.95421 0.755673 4.54937 19 31 45 
0.80142 -1.24027 7.68491 43 56 101 
-1.53832 -0.332457 5.20248 29 35 59 
0.748735 1.48744 7.21762 101 116 171 
0.732466 1.45672 7.15753 33 40 92 
0.721431 1.44263 7.19644 75 97 144 
-0.514357 -0.141297 6.44468 15 26 72 
-0.493639 -0.169265 6.4843 38 46 92 
-1.96613 0.756387 4.52848 30 37 79 
-1.45856 -0.100921 5.28712 132 155 197 
-1.9634 0.698298 4.53267 53 50 81 
-1.61177 -0.682877 5.07449 53 47 83 
-1.89554 0.645367 4.64621 32 27 57 
-1.66059 -1.73337 5.65095 106 130 168 
-1.52061 -0.33574 5.20933 47 41 87 
0.806204 -0.781307 7.5543 45 56 102 
0.139597 -0.97425 7.41523 24 37 72 
-0.777105 -2.33631 9.0737 187 201 240 
-1.4332 -0.372555 5.37678 22 18 43 
-1.89264 0.591263 4.6433 89 113 173 
-1.92021 0.586582 4.63448 102 117 174 
-0.542646 0.125526 6.3807 26 33 77 
-1.53654 -0.0943857 5.18679 23 38 69 
-1.54407 -0.0928699 5.17902 125 129 156 
0.655954 -0.742443 7.55247 45 55 104 
0.818407 0.00224646 7.41843 40 54 93 
-1.42828 -0.0803956 5.33045 35 48 93 
-1.46355 -0.08126 5.272 106 115 146 
1.24857 -1.43981 8.06717 76 103 133 
0.653106 0.0200363 7.41218 36 40 77 
-0.103115 -0.145506 1.55502 65 81 132 
-0.0258345 -0.310267 1.53193 63 77 126 
-0.982529 0.0539542 5.84293 62 73 118 
0.587103 -0.0563231 3.3783 35 49 88 
-1.46218 -0.0901159 5.28859 23 37 84 
0.692744 -0.352632 7.47411 16 25 66 
-1.46561 -0.360745 5.34444 25 48 92 
-0.555474 0.120919 6.33329 10 24 61 
-1.53404 -0.222571 5.24005 31 26 66 
0.751101 1.44409 7.19027 90 109 165 
-1.55299 -0.158967 5.19015 44 43 85 
-1.44024 -0.0908507 5.3251 26 45 88 
-1.52623 -0.171032 5.21997 53 50 93 
-1.42005 -0.081894 5.3153 21 25 70 
-1.44267 -0.124393 5.30153 67 63 98 
-1.51595 -0.0882087 5.20462 129 125 152 
0.688364 0.090994 2.305 45 58 103 
0.226604 -0.879786 7.44834 58 73 116 
0.132962 -0.786578 7.32807 25 38 72 
-1.04033 -0.375097 5.84376 7 25 61 
-1.05626 0.0387198 5.73361 56 64 113 
0.768911 -1.3442 7.65461 48 56 105 
0.669252 0.092243 7.42442 21 33 73 
0.766233 0.0313348 7.41007 39 43 80 
0.817405 -1.2485 7.64463 45 63 111 
-1.03633 0.0452694 5.77577 63 85 134 
-0.620833 -0.570776 2.53987 63 73 122 
-1.54924 -0.0948953 5.18781 125 133 169 
0.730606 1.4752 7.15825 87 112 168 
-1.54055 -0.142688 5.19245 47 67 104 
-1.53645 -0.0949796 5.22296 30 31 52 
0.767593 -0.825603 7.60623 34 45 91 
0.764002 -0.0846374 7.50722 22 27 69 
-1.55762 -0.157501 5.16099 5 17 59 
-1.91917 -0.166738 4.74542 39 61 108 
-1.32703 0.392675 4.99776 255 240 229 
-0.518892 -0.14295 6.45572 58 72 119 
-0.47462 -0.693889 6.58343 27 42 85 
0.655493 0.042817 7.43183 20 28 65 
0.804919 0.049566 7.39835 24 32 71 
-1.89145 0.562141 4.64887 17 21 48 
-1.44353 -0.174058 5.3094 40 39 71 
0.213415 -0.657236 7.47715 29 34 64 
-0.475814 0.141928 6.48511 27 33 67 
-1.51994 -0.249141 5.21672 30 31 75 
-1.55459 -0.387469 5.20892 36 49 84 
0.690961 0.0837297 7.41084 23 32 71 
-1.55275 -0.366466 5.22459 18 32 71 
-1.43213 -0.359626 5.36319 109 114 146 
-0.481684 0.0694614 6.50716 16 21 43 
-1.96434 -0.191342 4.69468 38 57 97 
-0.476791 0.0177471 6.5106 23 28 57 
-1.5715 -0.369613 5.18237 38 40 65 
0.362787 -1.41022 7.84656 16 32 58 
0.220871 -0.888617 7.49646 36 45 86 
-1.91075 0.586283 4.62538 103 118 177 
-1.09758 -0.23019 5.75676 44 43 74 
0.6871 0.0331262 7.46026 31 42 74 
0.801871 -0.0928753 7.4508 16 22 54 
-1.49288 -0.413979 5.2742 36 32 57 
0.217988 -0.851623 7.50871 43 51 88 
0.596084 -0.274283 3.42569 25 37 77 
0.817044 -1.25028 7.66388 45 63 111 
-1.5555 -0.207775 5.16246 16 27 72 
-1.54955 -0.362769 5.24982 11 15 44 
-1.49683 -0.372024 5.27126 19 17 57 
-1.88491 0.647527 4.65676 22 28 60 
-1.40735 -0.32804 5.34138 49 46 77 
-1.59033 -0.79089 5.10679 33 36 71 
0.74934 1.48435 7.20483 97 116 174 
-1.43021 -0.163096 5.35625 53 52 86 
0.751152 1.45927 7.16794 20 26 74 
-1.89304 0.576532 4.64903 23 16 49 
-1.90928 0.57519 4.61628 14 27 72 
-1.93876 -0.117306 4.70453 52 53 99 
0.815724 -0.0696584 7.39589 16 21 50 
-1.90602 0.589994 4.65251 100 123 190 
-1.42288 -0.114488 5.33609 59 58 92 
-1.47224 -0.21043 5.32083 46 72 123 
-1.52413 -0.122115 5.20579 37 35 75 
-1.29002 -0.608609 5.43965 50 60 96 
0.693812 -0.0648904 7.43324 19 23 52 
-1.58359 -0.765438 5.1227 31 50 90 
-1.52438 -0.149414 5.20277 29 28 62 
-1.4141 -0.157056 5.32246 34 27 58 
-1.93003 -0.167556 4.69401 37 31 65 
0.804306 0.465013 7.36854 25 34 65 
-1.57236 -0.185525 5.17872 54 76 123 
0.71954 1.4712 7.2257 25 29 56 
-0.506542 -0.172475 6.49138 29 37 74 
-1.89933 0.589792 4.63497 104 123 191 
-0.483321 0.138952 6.5068 26 33 62 
0.662409 0.0701105 7.4467 22 27 56 
-1.42377 -0.217431 5.31552 23 29 63 
-1.45413 -0.124494 5.31475 23 21 45 
-0.54966 0.123639 6.39865 20 25 67 
-1.53184 -0.123688 5.21764 31 32 63 
-1.8551 0.772881 4.64687 28 29 60 
-1.86355 -0.315798 4.82822 33 33 57 
-1.94988 -0.117371 4.71141 36 43 87 
1.09928 -1.84555 8.35393 65 62 105 
-1.4426 -0.351519 5.36826 24 21 42 
0.656909 0.0226336 7.49069 20 22 47 
0.169723 -0.591364 7.39796 31 38 82 
0.352528 -1.41212 7.86978 16 24 43 
-1.50431 -0.401134 5.24483 89 111 150 
0.653294 -0.0146093 7.47816 24 31 60 
-1.85761 -0.174886 4.79618 44 43 74 
-1.96412 0.749717 4.51359 12 11 29 
0.132966 -0.909722 7.40264 30 31 59 
0.699039 0.0744149 7.39554 18 20 43 
0.810957 0.0440888 7.40549 25 32 61 
-1.53956 -0.416217 5.25168 20 19 35 
-1.8639 0.770078 4.65936 28 27 45 
0.75172 1.45193 7.054 100 119 178 
0.771286 -0.380157 7.47964 19 22 53 
-1.94017 0.758438 4.56493 30 25 55 
-1.45668 -0.109216 5.31121 24 28 53 
-1.43042 -0.34971 5.33066 17 16 30 
-1.51561 -0.132239 5.19466 64 62 99 
-1.47593 -0.153059 5.31939 114 138 184 
-1.4248 -0.162676 5.31912 18 22 51 
-1.56389 -0.164396 5.16917 5 21 54 
-0.480843 -0.173529 6.56174 32 36 63 
0.259988 -1.91947 8.24875 49 44 85 
-1.45424 -0.214971 5.28635 23 47 93 
0.705806 0.492668 7.2822 22 29 58 
0.696791 0.483689 7.36433 26 30 55 
-0.645111 -0.0919863 2.44666 39 36 65 
-0.480928 -0.1236 6.52423 18 24 36 
-1.94401 -0.165581 4.71798 42 37 69 
-1.96889 0.495352 4.56331 18 16 30 
-1.86713 0.632432 4.67941 28 31 48 
-1.93958 0.617933 4.58591 29 29 55 
-1.97657 -0.336369 4.69983 31 38 66 
-1.91622 0.463465 4.64678 23 44 75 
0.702709 -0.0305871 7.41823 17 22 44 
-1.56473 -0.395205 5.24418 15 26 54 
-1.99097 0.748573 4.50849 9 20 40 
-0.557924 -0.0989333 6.43127 33 47 76 
-1.4615 -0.129239 5.29281 8 33 74 
-1.46298 -0.357606 5.35732 13 27 64 
-1.42038 -0.351778 5.2896 13 15 27 
0.665322 -0.350793 7.39924 15 21 47 
-1.54806 -0.334957 5.22873 16 13 30 
-1.44358 -0.325126 5.40503 19 17 31 
0.737599 1.43627 7.14014 91 121 185 
-1.52045 -0.243732 5.20679 30 27 54 
-0.545827 0.118697 6.35134 17 23 49 
-0.508105 0.129851 6.38377 6 15 44 
-1.89103 0.621632 4.60477 103 118 185 
-1.89256 -0.367672 4.78569 35 42 70 
-1.0693 0.032917 5.74782 40 50 85 
-1.95024 0.758364 4.57674 19 22 31 
0.184586 -0.592713 7.32013 31 35 62 
-1.50506 -0.418257 5.25726 21 20 36 
-1.91616 0.505126 4.64162 13 27 53 
-1.10733 -0.227184 5.73676 31 31 55 
-1.92634 -0.225639 4.76178 57 91 137 
-0.584251 0.104289 6.32242 22 29 55 
-1.87819 -0.322992 4.84879 32 33 54 
-1.93459 0.644491 4.5749 25 22 41 
-1.63275 -0.739161 5.09326 26 23 34 
0.658062 -0.0211397 7.44009 17 21 48 
-1.55146 -0.419629 5.27014 18 20 33 
0.776719 0.000653718 7.34218 20 24 49 
-1.97198 -0.383061 4.69544 26 31 53 
-2.00241 -0.385483 4.69428 35 59 87 
0.216318 -0.0533176 7.29576 33 42 75 
-0.540855 -0.101409 6.36218 33 47 74 
-1.97597 0.49303 4.52477 11 23 39 
-1.42606 -0.101185 5.32404 24 23 39 
-0.614246 -0.0605724 2.4801 40 71 115 
-1.44716 -0.125784 5.2629 4 23 56 
-1.47366 -0.173475 5.32634 12 36 74 
-1.57073 -0.176135 5.18539 7 26 59 
-1.51409 -0.18707 5.18368 24 26 41 
-1.41566 -0.211365 5.32638 23 24 44 
-1.55214 -0.219814 5.16495 20 28 49 
-1.44289 -0.359294 5.32373 12 18 34 
-1.90765 -0.223569 4.74658 23 34 56 
-1.90027 0.734318 4.6966 11 14 21 
-1.49793 -0.410956 5.24988 16 19 36 
