ply                 
format ascii 1.0    
element vertex 1270
property float x    
property float y    
property float z    
property uchar red  
property uchar green
property uchar blue 
end_header          
-1.44614 -0.323149 5.32367 13 35 84 
-1.45102 -0.344014 5.32055 110 138 178 
0.761817 -2.67213 8.2459 144 162 202 
-1.4124 -0.341848 5.38944 27 28 72 
-1.91724 0.63793 4.61101 42 61 103 
0.647599 -0.476472 7.49112 34 39 79 
-1.45034 -0.34097 5.33967 31 43 95 
-1.41274 -0.316483 5.36099 26 23 54 
-1.52959 -0.337623 5.22859 47 40 84 
-0.473404 -0.900271 6.59906 34 45 90 
-1.42568 -0.346359 5.3353 36 31 72 
-1.53452 -0.356727 5.22586 47 51 98 
-1.4856 -0.365957 5.29774 40 53 106 
-1.60575 -0.801171 5.10028 69 93 131 
-1.4079 -0.307668 5.34943 135 147 187 
-1.49949 -0.369236 5.27823 23 29 81 
-1.42693 -0.304567 5.36201 35 37 88 
-1.52707 -0.372573 5.23989 38 33 73 
-1.54615 -0.378413 5.21343 102 125 159 
-1.63028 0.345814 4.02525 31 37 73 
-1.44897 -0.390636 5.32826 17 31 80 
-1.46994 -0.398115 5.32579 111 111 145 
-1.46242 -0.406704 5.31971 46 42 77 
-1.50958 -0.401286 5.25272 109 135 172 
-1.45252 -0.797298 5.28789 27 34 50 
-1.08856 -0.105631 5.71302 47 58 103 
0.215879 -0.574759 7.39298 44 50 98 
-1.56305 -0.371099 5.18688 43 39 72 
-1.43344 -0.121393 5.31218 37 56 98 
1.93278 -2.03795 8.65248 156 170 207 
-1.93179 -0.113829 4.68995 69 77 126 
-1.95795 -0.383919 4.71661 22 46 82 
-1.91487 0.764831 4.5847 42 73 117 
-1.42232 -0.132747 5.32901 21 25 72 
-0.911231 -0.0808689 5.23186 54 66 108 
-0.998893 0.926945 5.64793 21 43 80 
-0.558816 1.00845 6.17096 39 57 95 
-1.88731 0.64024 4.62934 52 49 80 
-1.45705 -0.140801 5.28471 24 38 87 
-1.52081 -0.250027 5.21801 39 40 86 
-1.44451 -0.147027 5.30283 19 30 76 
-1.54798 -0.142823 5.17377 40 47 93 
-1.01831 0.902791 5.61804 116 138 198 
-1.5453 -0.243505 5.18423 44 49 91 
-1.0265 0.898104 5.6293 20 26 76 
-1.02044 0.900744 5.65278 37 42 100 
-1.02153 0.891683 5.63593 125 132 186 
0.776055 -0.0834494 7.43663 35 44 83 
-1.2678 -0.720072 5.51983 139 149 185 
-1.4581 -0.240749 5.29666 36 51 94 
-1.51694 -0.410886 5.25312 37 51 96 
-1.37787 -0.532697 5.36351 126 120 108 
-0.984132 0.934635 5.69471 41 47 81 
-1.435 -0.224355 5.33302 36 48 90 
-1.54898 -0.208816 5.19006 52 46 92 
-1.41851 -0.213922 5.34443 51 44 77 
-1.43418 -0.171743 5.32242 48 60 108 
-1.45691 -0.200154 5.29866 141 160 202 
-0.574697 -0.7032 6.40056 48 50 88 
-1.46016 -0.208281 5.29636 36 61 115 
-1.52745 -0.203263 5.22065 25 27 68 
0.106952 -0.859531 7.33866 27 35 72 
-1.54963 -0.193681 5.18579 44 52 98 
-1.44542 -0.197276 5.3136 35 43 92 
-1.5639 -0.18933 5.16373 43 61 109 
-1.45784 -0.189893 5.29489 24 38 87 
-1.2754 -0.628083 5.49085 147 140 122 
0.125342 -0.85277 7.31525 34 47 82 
-1.60074 -0.595606 5.10141 126 133 152 
0.106224 -0.805863 7.29883 42 46 83 
0.795 -0.497694 7.50653 30 43 78 
-0.577445 -0.843486 6.43359 52 57 95 
-1.06041 -0.223205 5.78941 47 47 81 
0.95749 -1.19532 7.69612 52 49 76 
0.217546 -0.787429 7.4383 41 49 88 
0.686072 -1.18608 7.63184 63 70 122 
-1.58433 -0.80469 5.11565 62 60 97 
-1.71582 -0.513262 4.94706 137 137 125 
-1.5449 -0.642279 5.17809 136 124 108 
-1.59465 -0.781869 5.11271 66 70 115 
-0.985632 0.0538215 5.84799 61 69 115 
-1.41853 -0.799396 5.33271 122 137 168 
0.699959 0.400518 7.334 33 48 87 
0.103502 -0.0686198 7.18573 34 42 81 
-0.981172 -0.141257 5.86137 51 55 90 
0.81123 -0.122813 7.43334 23 29 65 
0.795137 0.42027 7.34306 30 43 85 
-1.46705 -0.388733 5.30814 42 37 67 
0.814851 -0.871526 7.58313 54 68 113 
-1.33542 -0.0299287 4.76411 107 134 179 
-1.49919 -0.702508 5.23792 52 60 73 
-0.453347 -0.950831 6.62533 57 65 101 
-1.34216 -0.626624 5.41054 38 35 28 
-0.978873 -0.0718921 5.84698 68 73 113 
0.684938 0.0528797 7.39837 36 42 78 
-1.39979 -0.698343 5.33527 70 59 75 
-0.579858 0.997788 6.10569 51 52 83 
-0.9802 -0.247626 5.8693 70 81 127 
0.795911 0.324784 7.37371 28 37 80 
-0.940042 -0.454942 5.9167 57 71 118 
-1.47802 -0.422541 5.31986 103 122 155 
-1.52839 -0.400183 5.24455 50 58 104 
0.137054 0.242058 7.17003 60 77 123 
-1.45683 -0.149645 5.29104 133 155 196 
-1.4621 -0.408392 5.31999 39 36 67 
-1.48053 -0.366137 5.28514 12 23 77 
-1.52654 -0.154555 5.21076 29 36 82 
-1.41403 -0.344908 5.36852 29 41 81 
-1.44621 -0.323329 5.32146 13 35 84 
-1.41474 -0.317274 5.36206 23 19 46 
-1.42292 -0.304424 5.34834 35 37 88 
-1.41916 -0.180343 5.32468 28 28 78 
-1.91074 0.627314 4.60966 15 28 83 
-1.52363 -0.250887 5.22485 39 40 86 
-1.5466 -0.242803 5.18604 44 49 91 
-1.43598 -0.221545 5.33522 22 40 80 
-1.02115 0.901725 5.65906 37 42 100 
-1.02842 0.898552 5.63085 6 17 63 
-1.01883 0.903012 5.61835 116 138 198 
-1.42574 -0.37063 5.35934 27 22 52 
-1.0327 -0.219579 5.80321 56 74 120 
-0.983275 0.933279 5.6849 41 47 81 
-1.05913 -0.223276 5.78001 47 47 81 
-1.91169 0.76342 4.57938 17 48 92 
-1.93386 -0.114594 4.68996 60 70 121 
-1.40919 -0.312513 5.3679 61 64 107 
0.214757 0.182818 7.26573 32 39 83 
-1.03309 0.89178 5.62902 20 31 77 
-1.02246 0.890843 5.63881 126 137 193 
-0.574719 -0.704309 6.40612 48 50 88 
-0.462811 -0.163192 6.4895 34 43 84 
-1.44406 -0.226241 5.31473 46 41 73 
-0.556227 -0.140981 6.37962 29 43 80 
0.134473 -0.803583 7.34806 44 48 93 
-1.56416 -0.109537 5.15299 49 71 120 
-1.27046 -0.625186 5.4746 151 148 131 
-1.4586 -0.240242 5.29929 27 45 91 
-0.471874 0.141448 6.45108 46 58 106 
-1.54157 -0.238146 5.19216 135 146 178 
1.32598 -0.809615 7.55185 58 62 110 
0.793262 -0.0678635 7.43441 51 63 101 
-0.575651 -0.757917 6.41776 48 59 91 
-1.43122 -0.185501 5.31655 50 70 120 
0.213959 -0.123057 7.33137 37 46 85 
0.810993 -0.123038 7.44609 22 25 58 
0.663992 -0.389102 7.48523 30 37 79 
-1.91494 0.638474 4.60707 32 54 95 
-0.995957 -0.317936 5.90482 39 44 84 
0.796649 -0.411528 7.49209 27 40 75 
-1.8998 0.624476 4.64469 102 127 191 
-1.91827 0.622325 4.63005 99 103 164 
2.04519 -1.61758 7.41609 81 96 117 
-1.26847 -0.721513 5.51926 119 122 157 
-1.90622 0.600572 4.6355 109 112 163 
0.774837 0.0594228 7.41662 14 26 64 
0.763764 -0.0817342 7.43395 29 37 74 
-1.64391 -0.694443 5.06524 159 143 128 
-1.55653 -0.326103 5.1893 40 56 107 
0.699773 -0.0613036 7.41565 41 53 91 
-1.55589 -0.154359 5.16339 40 48 97 
-1.91213 -0.306355 4.75998 34 52 98 
-1.56241 -0.334861 5.17864 109 120 152 
0.651866 -0.049097 7.42808 27 36 79 
0.663723 0.477804 7.31577 28 35 64 
0.6663 0.500235 7.30921 27 35 71 
-1.53571 -0.35669 5.22734 47 51 98 
-1.56525 -0.355044 5.19545 24 38 75 
0.812464 0.0435323 7.40221 53 67 102 
-0.988912 0.636421 5.74985 27 41 80 
0.761649 -1.29843 7.6578 55 61 113 
-1.4721 -0.764371 5.25667 137 131 115 
-1.97006 0.388762 4.58988 39 43 80 
0.811219 -0.520884 7.50322 22 34 72 
-1.52961 -0.36445 5.23804 108 111 146 
-1.91968 0.398313 4.65397 35 64 108 
-1.52193 -0.370889 5.22745 51 46 87 
0.7598 0.0325881 7.3972 23 24 54 
-1.46619 -0.388165 5.30928 65 59 95 
0.169792 -0.583572 7.34881 71 85 130 
-1.47137 -0.399316 5.32816 111 111 145 
0.18352 -0.582256 7.37912 48 56 102 
-1.9156 0.468165 4.63283 35 66 110 
-1.59934 -0.798679 5.08694 43 67 105 
-1.52957 -0.401388 5.24602 42 49 95 
-0.940909 -0.455625 5.91948 57 71 118 
-1.59023 -0.807186 5.13002 52 48 83 
0.213811 -0.577544 7.41417 39 44 86 
-1.58641 -0.764707 5.12491 30 55 96 
0.182704 0.0550427 7.25689 33 38 70 
-0.479283 -0.166257 6.48038 65 80 123 
-1.44252 -0.148191 5.29663 19 30 76 
-1.52849 -0.203305 5.21768 19 26 68 
0.771001 0.0308382 7.40461 22 23 54 
-1.44587 -0.342686 5.3313 18 30 78 
-1.54543 -0.237808 5.20059 124 129 161 
-1.42343 -0.357386 5.34163 130 138 174 
-1.48272 -0.36756 5.29137 7 19 69 
-1.49695 -0.369637 5.27249 23 29 81 
-1.52463 -0.372266 5.23357 38 33 73 
-1.46449 -0.399419 5.3084 112 111 143 
-1.90564 0.61013 4.62998 99 110 166 
-1.46656 -0.410461 5.32427 25 21 46 
-1.29917 -0.61006 5.46151 63 76 118 
-1.4518 -0.797759 5.2927 33 40 58 
1.16763 -1.9484 7.95306 82 108 169 
-1.56706 -0.335972 5.19074 109 120 152 
-1.41569 -0.34582 5.37662 16 25 66 
-1.55266 -0.109987 5.13284 20 33 77 
-1.41902 -0.303687 5.33538 35 37 88 
-0.459312 -0.687766 6.58995 41 43 84 
-0.572454 1.00451 6.16633 31 34 69 
-1.43322 -0.220905 5.32491 22 40 80 
-1.61018 -0.801912 5.1173 51 73 110 
0.650147 -0.0529559 7.40857 21 25 62 
-1.41834 -0.213778 5.34303 49 44 76 
-1.45741 -0.208493 5.29 24 45 98 
-1.45721 -0.159908 5.2789 25 48 100 
-0.50985 -0.171798 6.42632 34 50 99 
-0.540469 -0.0880661 6.38507 32 41 82 
-0.467921 -0.165729 6.5052 35 40 80 
-1.90602 0.603348 4.61908 22 21 65 
0.653079 -0.479188 7.47966 24 26 64 
-1.44382 -0.228091 5.31215 55 49 83 
0.774275 0.0506962 7.39884 18 27 56 
0.809782 -0.0479493 7.43598 20 28 67 
-1.88657 0.631739 4.65551 21 45 83 
0.685209 -0.380316 7.48656 47 63 97 
-1.01916 0.887808 5.62582 126 137 193 
-0.477371 0.0714143 6.48887 23 28 60 
0.661408 -0.392878 7.48575 17 23 57 
-1.41075 -0.30703 5.3468 139 151 191 
-1.52447 -0.414116 5.2716 55 70 113 
-1.41657 -0.31715 5.36904 23 19 46 
0.700666 -0.452038 7.48163 20 33 67 
-1.45325 -0.393346 5.3374 28 50 97 
0.79774 -0.456986 7.50173 25 34 73 
-1.03147 -0.219112 5.80218 34 51 94 
0.79542 -0.0942381 7.44806 22 28 62 
0.212495 -0.577557 7.41412 39 44 86 
-1.45321 -0.347133 5.32667 94 118 162 
0.759438 -0.400183 7.47697 36 40 75 
-1.51229 -0.404189 5.25821 98 116 154 
0.179102 0.245939 7.22553 32 45 89 
0.646907 0.504782 7.29401 24 30 66 
0.811517 -0.502067 7.51849 15 29 64 
0.811745 -0.831012 7.59009 36 49 94 
-1.90798 0.617769 4.61187 108 119 183 
0.771845 -0.08628 7.41111 18 25 53 
0.697795 -0.491023 7.49247 18 26 62 
0.69894 -0.753862 7.54322 31 41 92 
0.104245 -0.599972 7.25059 22 27 57 
0.760536 -0.863626 7.5594 42 54 96 
1.91186 -1.4896 7.47838 65 89 123 
-1.29265 -0.625518 5.45825 53 65 87 
0.958258 -1.19673 7.69872 52 49 76 
0.761982 -0.90589 7.57324 46 54 101 
0.792783 -0.0203669 7.42448 38 48 84 
-1.58906 -0.765293 5.13057 30 55 96 
0.68411 -0.800118 7.555 47 58 104 
-1.47981 -0.369142 5.28493 7 19 69 
-0.488306 -0.908102 6.57181 30 34 71 
-1.90584 0.612599 4.63051 109 128 187 
-1.02514 0.87868 5.63274 120 136 198 
-1.56965 -0.342491 5.18299 44 49 81 
0.652509 0.089438 7.41974 32 38 70 
-1.02185 0.8863 5.63413 117 133 195 
-1.56629 -0.112954 5.20371 28 28 56 
-1.44174 -0.226519 5.30444 47 44 73 
0.702221 0.0711065 7.3981 20 29 60 
0.663473 0.0892568 7.38501 39 52 96 
0.798259 -0.050824 7.41668 21 27 61 
0.688639 -0.0648418 7.40137 21 25 54 
-1.60212 -0.799092 5.09962 20 38 76 
-1.60004 -0.790192 5.12404 40 43 84 
-1.45014 -0.797196 5.28872 57 67 94 
0.800016 -0.0986887 7.43224 18 22 49 
-1.44761 -0.101459 5.30074 18 26 72 
-1.4409 -0.152111 5.28862 19 20 64 
-1.91968 0.7654 4.59995 17 48 92 
-1.4197 -0.165465 5.33516 74 76 115 
0.758287 -2.68411 8.27073 92 128 178 
-1.42628 -0.183324 5.34731 23 26 71 
-1.43008 -0.191296 5.31094 16 39 80 
-1.55882 -0.207016 5.16821 23 35 83 
-1.54989 -0.210738 5.18225 28 22 56 
-1.45637 -0.23918 5.29559 15 30 71 
-1.56261 -0.239894 5.17006 21 36 77 
0.689296 -0.353373 7.45442 17 21 56 
0.76732 -0.776122 7.56439 39 47 96 
0.811268 -0.388346 7.48845 21 30 71 
0.801601 -0.388487 7.48691 17 21 56 
0.77294 -0.401133 7.48506 17 30 64 
0.764125 -0.425799 7.49137 21 24 57 
-1.42272 -0.305835 5.34725 31 28 73 
0.708626 -0.409399 6.86708 19 29 65 
-1.41554 -0.318774 5.35869 26 21 43 
0.697682 -0.465993 7.49181 17 26 59 
-1.55539 -0.327574 5.2012 28 35 87 
0.758283 -0.394002 7.48125 25 28 59 
-1.43207 -0.349132 5.34455 25 20 50 
0.652769 0.507335 7.32478 20 28 65 
-1.45232 -0.360059 5.31931 19 40 85 
-1.52213 -0.414795 5.26927 38 56 94 
-1.53147 -0.360537 5.2097 33 33 67 
-1.50369 -0.373255 5.28649 16 24 73 
-1.51699 -0.402689 5.27456 109 133 171 
-1.52618 -0.372511 5.237 38 33 73 
-1.53127 -0.406492 5.24325 33 38 78 
0.696468 0.471593 7.34398 30 30 64 
-0.999999 -0.322416 5.91783 33 33 69 
-1.87975 0.628913 4.64583 15 35 62 
-1.29345 -0.608134 5.44702 60 69 108 
0.105242 -0.851352 7.24492 27 35 72 
-0.574992 -0.184614 6.36522 33 37 74 
0.800609 0.36555 7.3578 26 35 66 
-1.41607 -0.329558 5.36075 57 57 85 
-0.463277 -0.168639 6.49784 35 43 80 
0.209352 0.17484 7.23853 33 36 67 
-1.89789 0.622701 4.63977 98 126 189 
-1.59223 -0.768613 5.1409 39 64 105 
-1.59044 -0.805794 5.12464 45 40 72 
-1.52942 -0.366148 5.23671 108 111 146 
-0.472403 -0.764232 6.57948 21 35 70 
0.655419 -0.794319 7.54663 40 49 90 
0.695907 0.00672338 7.38024 26 36 72 
0.763994 -0.821643 7.57843 39 45 93 
-1.91029 0.621966 4.60153 23 32 89 
-1.41439 -0.112582 5.30723 38 33 65 
-1.45103 -0.226076 5.32386 27 25 47 
-1.45892 -0.136471 5.29315 8 25 69 
-0.501209 -0.171418 6.45533 33 45 85 
-1.56058 -0.137815 5.14987 19 36 79 
-1.45086 -0.153495 5.30801 18 33 76 
-1.4633 -0.166079 5.29458 59 87 134 
-1.41596 -0.212635 5.3289 33 30 59 
-1.43595 -0.21997 5.3431 17 31 70 
-1.52619 -0.223941 5.22043 28 21 62 
-1.56746 -0.344033 5.18663 31 36 68 
-1.55168 -0.237825 5.18614 23 21 45 
-1.5626 -0.237432 5.17 16 34 74 
0.649395 -0.347001 7.47403 25 26 56 
0.761933 -0.37849 7.46148 22 23 54 
-1.43368 -0.306283 5.36556 20 27 73 
-1.44962 -0.322838 5.34906 8 25 69 
-1.44261 -0.344768 5.32319 11 21 56 
-1.52833 -0.335745 5.20113 29 29 57 
-1.4348 -0.360065 5.37002 100 99 131 
-1.52966 -0.360954 5.20575 33 33 67 
-1.47909 -0.370558 5.27993 7 20 62 
-1.50484 -0.375677 5.2858 13 24 70 
-0.547055 0.895877 6.23088 20 21 41 
-0.573178 -0.780411 6.44514 23 32 61 
-1.59972 -0.790225 5.11474 23 30 72 
-0.508913 -0.958477 6.57022 53 73 123 
-1.44667 -0.795279 5.28084 32 39 58 
-1.60574 -0.80186 5.10905 42 64 103 
-0.550302 0.799052 6.21525 25 31 55 
0.795653 -0.0546476 7.40999 25 32 61 
-1.91584 0.642162 4.61492 10 25 56 
-1.46552 -0.214971 5.30287 87 118 165 
0.689216 0.490774 7.30732 25 32 61 
0.695187 -0.461659 7.47545 17 27 54 
-1.53821 -0.364601 5.19446 27 39 77 
0.797331 -0.100562 7.42486 20 24 51 
0.694566 -0.767743 7.52543 31 46 89 
0.766981 -0.833784 7.5604 35 47 89 
-1.56519 -0.352596 5.19223 18 33 66 
0.80181 -0.0660011 7.41458 20 26 52 
0.650693 -0.0577122 7.42878 24 29 61 
-1.40954 -0.344297 5.36696 18 25 69 
0.763857 0.00477197 7.43034 28 32 69 
0.655491 0.484359 7.30317 25 28 47 
-1.52195 -0.374154 5.22014 37 31 67 
-1.52078 -0.417397 5.27158 29 47 83 
-1.59158 -0.808377 5.12613 50 46 79 
-1.4656 -0.399333 5.30406 67 64 91 
-1.52326 -0.102716 5.19626 56 53 80 
0.65837 0.0682943 7.3905 27 32 61 
-0.574538 -0.851032 6.46172 31 41 77 
-1.58812 -0.764908 5.12744 30 55 96 
0.649317 -0.0118126 7.41397 30 39 72 
0.657428 -0.76333 7.55877 37 49 89 
1.32921 -0.814078 7.55011 42 47 87 
0.204791 0.205154 7.27248 34 37 68 
-1.86953 0.772844 4.66545 33 38 67 
-0.578217 0.954863 6.15745 30 29 45 
-1.51746 -0.402654 5.27388 109 133 171 
0.12575 0.120431 7.18131 27 31 60 
0.211871 -0.884546 7.46322 37 45 84 
0.695124 -0.360519 7.45192 16 20 49 
-1.45301 -0.15129 5.26583 144 163 206 
0.807455 -0.390647 7.48311 15 22 51 
-1.53875 -0.244465 5.21464 12 26 61 
0.653138 -0.347044 7.43921 18 22 47 
-1.56488 -0.238491 5.17499 31 50 92 
-1.55506 -0.238848 5.18954 22 22 46 
-1.91368 0.642501 4.61136 7 24 50 
-1.45416 -0.237605 5.28835 15 30 71 
-1.53711 -0.223948 5.20918 7 26 58 
-1.4242 -0.308188 5.33904 19 19 53 
-1.43683 -0.216755 5.34944 17 32 73 
-1.45455 -0.211201 5.32482 27 27 53 
-1.42682 -0.320859 5.38601 22 20 34 
-1.44082 -0.322473 5.32845 12 21 60 
-1.46436 -0.116658 5.28942 60 93 138 
0.696466 -0.462557 7.53794 21 28 54 
-1.53644 -0.124037 5.19014 15 35 72 
-1.60853 -0.816334 5.10578 148 150 189 
-0.46844 -0.172592 6.49175 33 42 73 
-1.54579 -0.32755 5.17468 26 33 75 
-1.4469 -0.346308 5.33313 8 23 64 
0.804093 -0.493411 7.51388 19 29 56 
-1.41776 -0.370477 5.31505 21 20 38 
-1.47673 -0.372425 5.28303 10 19 52 
-1.50765 -0.378576 5.29009 16 22 58 
-1.45088 -0.184344 5.27576 18 30 68 
-1.44621 -0.400198 5.3308 9 20 50 
-1.51143 -0.385864 5.26956 23 48 89 
-0.477867 0.140371 6.4528 32 37 77 
-1.01446 -0.214806 5.81342 44 40 65 
-1.91687 -0.526662 4.79127 11 36 77 
-1.53473 -0.379319 5.25052 35 32 63 
-0.537967 0.118566 6.3272 27 38 84 
-1.86972 0.652553 4.68051 30 33 50 
0.135342 -0.849642 7.32591 36 48 88 
-1.46834 -0.414205 5.3052 14 19 39 
-0.503851 -0.25575 6.49132 33 40 68 
-1.85659 0.627244 4.65836 36 38 61 
-0.990835 0.929769 5.69865 28 35 54 
0.803324 -0.116287 7.44857 17 19 40 
-1.97886 0.491677 4.57758 22 21 39 
-1.47835 -0.410906 5.28905 25 41 75 
-1.54138 -0.375767 5.19192 119 139 174 
-1.09284 -0.229116 5.69593 40 51 81 
-0.464559 -0.842181 6.61935 33 39 71 
0.54575 -1.22827 7.6295 53 71 111 
-0.581884 0.999955 6.16624 35 36 56 
-1.42612 -0.309609 5.3463 20 17 44 
-1.6198 -0.688812 5.07325 44 44 52 
0.802704 -0.448039 7.4889 18 25 51 
-1.47122 -0.10418 5.29674 130 152 199 
-1.43725 -0.110276 5.34319 13 28 61 
-1.42238 -0.322206 5.35432 21 19 32 
0.804235 -0.0643729 7.43256 21 27 53 
-0.509111 -0.139147 6.42019 11 18 62 
-1.98665 -0.383134 4.66736 27 37 62 
0.764072 -0.788915 7.58924 39 51 91 
0.806783 -0.797318 7.59942 39 51 93 
-1.53131 -0.417301 5.22576 31 33 54 
-0.464051 -0.699669 6.59216 34 40 66 
-0.473102 -0.169379 6.50715 38 46 82 
-1.55608 -0.135064 5.17355 27 29 50 
-1.4234 -0.146109 5.31335 21 23 46 
-0.505492 -0.955542 6.57227 28 45 91 
-1.51718 -0.421507 5.27636 22 31 62 
0.21056 -0.592344 7.44021 37 46 77 
0.170385 0.237125 7.18024 51 66 107 
-1.45414 -0.167254 5.27704 7 30 71 
-1.48369 -0.411326 5.30129 30 48 86 
-1.4693 -0.41273 5.31225 14 19 39 
-1.42968 -0.788197 5.25351 26 22 39 
0.211133 -0.839158 7.44895 33 43 78 
-1.54701 -0.328024 5.18198 29 35 67 
-0.494929 -0.734186 6.52327 23 34 56 
-1.2961 -0.616889 5.46667 54 65 87 
0.799857 0.452259 7.3103 21 31 56 
-1.92651 -0.540209 4.78529 119 125 161 
-1.92388 0.763585 4.61116 24 52 89 
0.770478 -0.482493 7.4944 21 32 60 
-1.86898 0.770926 4.66345 32 38 62 
-1.42103 -0.192243 5.32655 30 32 57 
-1.4435 -0.400784 5.32439 8 19 49 
-1.53311 -0.194795 5.231 22 24 47 
-0.571428 -0.743208 6.41844 22 28 54 
0.802403 -0.0148318 7.41641 26 33 62 
-1.50114 -0.379652 5.26037 12 21 52 
0.804255 -0.490581 7.50276 18 28 53 
-1.05111 -0.382109 5.83571 104 110 142 
0.767155 0.468154 7.32027 20 22 43 
-1.44761 -0.21326 5.29573 22 27 47 
-1.5618 -0.376759 5.29044 27 38 68 
-1.56575 -0.215135 5.18725 14 29 60 
-1.52933 -0.371628 5.21875 32 36 63 
-1.49177 -0.377736 5.33019 6 22 56 
-1.43334 -0.374606 5.35172 19 19 31 
-1.45276 -0.231493 5.29345 14 27 61 
-1.52654 -0.226349 5.18911 16 21 40 
0.206515 -0.00599767 7.32933 32 39 68 
0.697692 -0.368044 7.50828 20 24 49 
0.655312 -0.351641 7.49459 18 22 47 
-1.57204 -0.347956 5.20872 25 32 61 
-1.45436 -0.361455 5.3212 32 56 102 
0.652211 0.496935 7.29143 24 26 49 
0.80648 -1.23249 7.66931 43 56 100 
-1.97076 -0.12278 4.74676 45 49 74 
-0.5537 -0.190724 6.41607 29 43 72 
-0.579755 -0.189026 6.33115 50 55 84 
-1.51056 -0.413783 5.27746 31 33 56 
-1.42998 -0.195203 5.33828 24 33 62 
-0.582389 -0.718951 6.46208 65 69 96 
0.172931 0.237183 7.15588 43 57 94 
-0.473032 -0.698932 6.59698 23 31 67 
-1.45707 -0.227917 5.30922 15 30 63 
-0.47195 -0.12439 6.45077 25 32 51 
-1.54658 -0.246148 5.25769 15 21 45 
2.09655 1.03215 6.39554 24 28 55 
0.797502 0.0444938 7.44725 22 25 56 
0.805246 -0.400919 7.51311 16 22 48 
-0.578494 0.992776 6.12193 39 40 60 
0.654576 -0.407964 7.48522 23 27 62 
-1.86562 -0.365388 4.79792 28 29 50 
-1.436 -0.403229 5.30947 13 16 33 
-1.43017 -0.321808 5.36607 20 19 33 
1.0925 -1.34336 7.93756 127 141 186 
0.801525 -0.0649309 7.48299 19 24 56 
0.537677 -1.21058 7.62587 25 36 56 
-1.52675 -0.331484 5.16708 29 35 59 
0.651489 0.497034 7.35493 38 42 69 
-1.04387 -0.379717 5.8094 123 134 166 
0.959775 -1.20112 7.71207 68 79 111 
0.763065 -0.0550237 7.39722 20 24 49 
-0.578674 -0.137297 6.31841 43 49 75 
0.797473 -0.105979 7.44484 19 23 50 
-1.52678 -0.336512 5.21709 47 40 84 
0.648785 0.0942674 7.35974 23 30 72 
-1.89037 0.629795 4.63655 18 32 81 
-1.53616 -0.243351 5.19822 17 32 71 
-1.53885 -0.212523 5.20113 42 58 109 
0.257264 -0.0104731 2.49811 27 40 74 
-1.03283 -0.372037 5.81526 12 29 72 
-1.40355 -0.290006 5.37793 53 63 112 
-1.91066 0.627283 4.60904 15 28 83 
0.757182 -0.0647249 7.40208 48 59 91 
0.663263 0.0908304 7.37517 39 52 96 
-1.41363 -0.306868 5.35768 139 151 191 
0.791418 0.0200912 7.3881 46 51 89 
-1.55918 -0.35302 5.17496 24 38 75 
0.757711 0.0311753 7.37571 23 24 54 
0.668765 -0.00183317 7.58284 24 28 66 
-1.54508 -0.377429 5.19985 122 138 172 
-1.8878 0.575506 4.66464 60 71 101 
-1.4356 -0.189087 5.32273 71 95 139 
-1.43434 -0.14123 5.31801 45 70 110 
0.761342 -0.083761 7.42271 19 23 60 
0.212035 -0.57611 7.39874 39 44 86 
-1.59481 -0.817275 5.11427 58 76 116 
-1.44539 -0.17519 5.30728 30 29 60 
0.767828 0.0326093 7.39598 21 22 50 
-1.41128 -0.329098 5.34256 57 57 85 
0.65091 0.500863 7.31378 26 30 57 
-1.44531 -0.10664 5.28779 20 25 65 
-0.501056 -0.172367 6.45376 33 45 85 
-1.53393 -0.171337 5.1928 14 28 73 
-1.4246 -0.186698 5.33074 26 31 63 
-1.44598 -0.201756 5.30364 26 30 75 
0.800479 0.0276936 7.4026 23 27 54 
-1.54051 -0.364724 5.20235 27 39 77 
-0.465164 -0.16868 6.50169 34 40 76 
0.652041 0.0340396 7.38177 28 34 66 
0.657897 0.0689384 7.38588 27 32 61 
0.800771 -0.0205717 7.40635 24 33 64 
-1.4254 -0.112105 5.30601 20 26 58 
-1.56663 -0.13805 5.16475 29 50 95 
0.691462 0.0735077 7.35919 21 26 48 
-1.89184 0.760355 4.60899 20 22 45 
-1.42403 -0.373081 5.33916 21 20 38 
-1.45318 -0.183648 5.2839 18 30 68 
-0.513921 0.130654 6.38969 14 35 82 
0.690904 -0.0331777 7.4128 27 30 61 
-1.88008 0.764147 4.63189 18 38 63 
0.762193 -0.00187365 7.38064 29 34 63 
-1.91723 0.572425 4.63251 18 24 60 
-1.92209 -0.539218 4.77453 119 125 161 
-1.54085 -0.370615 5.21907 27 38 68 
0.690164 0.478827 7.26959 19 30 52 
-1.52807 -0.244607 5.21382 18 19 39 
-1.61898 -0.811792 5.1068 115 107 146 
0.65059 0.0281213 7.35704 27 34 62 
-1.42736 -0.145692 5.32833 21 23 46 
-1.50423 -0.412475 5.25513 31 33 56 
-1.53226 -0.18863 5.2075 19 26 44 
-1.99271 -0.385745 4.68155 28 38 65 
-1.47876 -0.410432 5.31287 19 30 50 
-1.86688 -0.366148 4.8321 33 31 55 
-1.95606 0.753872 4.54974 19 31 45 
0.79665 -1.225 7.61066 43 56 101 
-1.53412 -0.332013 5.19196 29 35 59 
0.7423 1.47327 7.1691 101 116 171 
0.726197 1.4433 7.11127 33 40 92 
0.715306 1.42892 7.14823 75 97 144 
-0.508026 -0.140789 6.40526 15 26 72 
-0.487227 -0.168489 6.44356 38 46 92 
-1.96843 0.75463 4.52942 30 37 79 
-1.45367 -0.101344 5.27444 132 155 197 
-1.96557 0.696589 4.53347 53 50 81 
-1.60695 -0.68113 5.06434 53 47 83 
-1.89656 0.643419 4.64542 32 27 57 
-1.64702 -1.7226 5.62436 106 130 168 
-1.51564 -0.335201 5.19752 47 41 87 
0.801598 -0.771716 7.48212 45 56 102 
0.143903 -0.96222 7.34021 24 37 72 
-0.743572 -2.2842 8.89419 187 201 240 
-1.42704 -0.371635 5.3615 22 18 43 
-1.89359 0.589409 4.64244 89 113 173 
-1.92113 0.584717 4.63366 102 117 174 
-0.536873 0.12377 6.34407 26 33 77 
-1.53216 -0.094879 5.17593 23 38 69 
-1.53972 -0.0933738 5.16828 125 129 156 
0.653236 -0.733267 7.47832 45 55 104 
0.812846 0.00216688 7.35597 40 54 93 
-1.4232 -0.080896 5.317 35 48 93 
-1.45881 -0.0817681 5.25967 106 115 146 
1.2381 -1.41868 7.97311 76 103 133 
0.649467 0.0195876 7.34752 36 40 77 
-0.117366 -0.143804 1.55856 65 81 132 
-0.0390633 -0.31073 1.53512 63 77 126 
-0.976496 0.0528352 5.81944 62 73 118 
0.579821 -0.0542496 3.40697 35 49 88 
-1.45727 -0.09059 5.27588 23 37 84 
0.689076 -0.348594 7.40572 16 25 66 
-1.45692 -0.359723 5.32451 25 48 92 
-0.549879 0.11925 6.29816 10 24 61 
-1.52886 -0.222519 5.22773 31 26 66 
0.744678 1.43056 7.14284 90 109 165 
-1.54833 -0.159211 5.17898 44 43 85 
-1.43511 -0.0913129 5.31169 26 45 88 
-1.52143 -0.171201 5.20827 53 50 93 
-1.4152 -0.0823745 5.30226 21 25 70 
-1.4377 -0.124699 5.28857 67 63 98 
-1.51152 -0.0887135 5.19349 129 125 152 
0.681449 0.0960689 2.32795 45 58 103 
0.229677 -0.868939 7.37308 58 73 116 
0.136818 -0.777375 7.25759 25 38 72 
-1.03302 -0.373452 5.81869 7 25 61 
-1.05051 0.0377174 5.71262 56 64 113 
0.765366 -1.32649 7.575 48 56 105 
0.665349 0.0909625 7.3597 21 33 73 
0.761242 0.0308785 7.34728 39 43 80 
0.813119 -1.23227 7.56656 45 63 111 
-1.03039 0.0442099 5.75375 63 85 134 
-0.635973 -0.57352 2.55269 63 73 122 
-1.54475 -0.095399 5.17686 125 133 169 
0.72432 1.46164 7.11215 87 112 168 
-1.53599 -0.142989 5.18134 47 67 104 
-1.53168 -0.0954816 5.21129 30 31 52 
0.76353 -0.815208 7.53081 34 45 91 
0.75919 -0.083794 7.43932 22 27 69 
-1.55325 -0.157755 5.15045 5 17 59 
-1.91724 -0.16727 4.74121 39 61 108 
-1.32687 0.391146 4.99325 255 240 229 
-0.512437 -0.142432 6.41585 58 72 119 
-0.466971 -0.687999 6.53771 27 42 85 
0.651818 0.042088 7.36637 20 28 65 
0.80211 0.0502641 7.29616 24 32 71 
-1.89228 0.560316 4.64788 17 21 48 
-1.43838 -0.17414 5.29612 40 39 71 
0.216499 -0.649273 7.40106 29 34 64 
-0.470086 0.139969 6.44547 27 33 67 
-1.51505 -0.24897 5.20495 30 31 75 
-1.54928 -0.386722 5.19681 36 49 84 
0.686799 0.0825898 7.34706 23 32 71 
-1.54732 -0.365796 5.21219 18 32 71 
-1.42615 -0.358783 5.34828 109 114 146 
-0.475632 0.0681041 6.46644 16 21 43 
-1.96272 -0.191853 4.6911 38 57 97 
-0.470685 0.0168528 6.46964 23 28 57 
-1.56638 -0.368981 5.1708 38 40 65 
0.365522 -1.38955 7.75168 16 32 58 
0.224184 -0.877449 7.41884 36 45 86 
-1.91182 0.584466 4.62473 103 118 177 
-1.09078 -0.229593 5.73413 44 43 74 
0.683073 0.0325198 7.3939 31 42 74 
0.796602 -0.0918941 7.38617 16 22 54 
-1.48727 -0.413004 5.2609 36 32 57 
0.221341 -0.840908 7.43055 43 51 88 
0.589256 -0.274388 3.45371 25 37 77 
0.812763 -1.2339 7.58484 45 63 111 
-1.55103 -0.207822 5.15177 16 27 72 
-1.54388 -0.362089 5.23687 11 15 44 
-1.4913 -0.37125 5.2581 19 17 57 
-1.88586 0.645557 4.65584 22 28 60 
-1.40184 -0.327357 5.32721 49 46 77 
-1.5851 -0.788602 5.09585 33 36 71 
0.742885 1.47036 7.157 97 116 174 
-1.42148 -0.162791 5.3354 53 52 86 
0.744686 1.44586 7.12173 20 26 74 
-1.89389 0.57468 4.64804 23 16 49 
-1.91043 0.573421 4.61574 14 27 72 
-1.93732 -0.117972 4.70106 52 53 99 
0.810269 -0.0689191 7.33416 16 21 50 
-1.90679 0.588086 4.65143 100 123 190 
-1.41772 -0.114828 5.32246 59 58 92 
-1.46668 -0.210363 5.30703 46 72 123 
-1.51958 -0.122487 5.19452 37 35 75 
-1.28392 -0.606308 5.42318 50 60 96 
0.689792 -0.0643205 7.36789 19 23 52 
-1.57828 -0.763212 5.1115 31 50 90 
-1.51981 -0.149673 5.19151 29 28 62 
-1.40905 -0.15719 5.30909 34 27 58 
-1.92865 -0.168095 4.69064 37 31 65 
0.798419 0.459956 7.31002 25 34 65 
-1.56764 -0.185676 5.16765 54 76 123 
0.713416 1.45697 7.17632 25 29 56 
-0.499933 -0.171679 6.45025 29 37 74 
-1.90038 0.587962 4.63426 104 123 191 
-0.477356 0.136977 6.46627 26 33 62 
0.658631 0.0690542 7.38075 22 27 56 
-1.41862 -0.217296 5.30213 23 29 63 
-1.44894 -0.124813 5.30141 23 21 45 
-0.54368 0.121865 6.3613 20 25 67 
-1.5271 -0.124064 5.20606 31 32 63 
-1.85658 0.770839 4.64652 28 29 60 
-1.86065 -0.315845 4.82247 33 33 57 
-1.94828 -0.118049 4.70775 36 43 87 
1.09079 -1.81491 8.24014 65 62 105 
-1.43421 -0.350532 5.34857 24 21 42 
0.653292 0.0220941 7.42238 20 22 47 
0.173073 -0.584488 7.3253 31 38 82 
0.355487 -1.39124 7.77354 16 24 43 
-1.49896 -0.400259 5.23217 89 111 150 
0.649753 -0.0146949 7.41023 24 31 60 
-1.85541 -0.175342 4.79133 44 43 74 
-1.96659 0.748032 4.51475 12 11 29 
0.137239 -0.898612 7.32833 30 31 59 
0.694779 0.0734084 7.33257 18 20 43 
0.805438 0.0435417 7.34368 25 32 61 
-1.53384 -0.415283 5.23862 20 19 35 
-1.86517 0.767963 4.65873 28 27 45 
0.74523 1.43957 7.0125 100 119 178 
0.766687 -0.37576 7.41205 19 22 53 
-1.94217 0.75658 4.56543 30 25 55 
-1.45154 -0.109606 5.29798 24 28 53 
-1.42482 -0.348946 5.31656 17 16 30 
-1.51122 -0.13256 5.18367 64 62 99 
-1.47047 -0.153265 5.30574 114 138 184 
-1.4197 -0.162793 5.30575 18 22 51 
-1.55938 -0.164627 5.1584 5 21 54 
-0.474057 -0.172691 6.51828 32 36 63 
0.266041 -1.88667 8.12994 49 44 85 
-1.44918 -0.214879 5.27346 23 47 93 
0.700931 0.487412 7.22626 22 29 58 
0.692083 0.478221 7.30442 26 30 55 
-0.66168 -0.0905532 2.45948 39 36 65 
-0.474462 -0.123227 6.48229 18 24 36 
-1.94226 -0.166137 4.71413 42 37 69 
-1.97022 0.493755 4.5632 18 16 30 
-1.86459 0.629942 4.6735 26 29 46 
-1.94107 0.616163 4.58586 29 29 55 
-1.97453 -0.336528 4.69582 31 38 66 
-1.91676 0.461758 4.64551 23 44 75 
0.698535 -0.0304028 7.35384 17 22 44 
-1.55895 -0.39439 5.2312 15 26 54 
-1.99339 0.746856 4.50961 9 20 40 
-0.551277 -0.0988331 6.39203 33 47 76 
-1.45647 -0.129539 5.27992 8 33 74 
-1.45682 -0.356797 5.34237 13 27 64 
-1.41526 -0.351037 5.27652 13 15 27 
0.66193 -0.346881 7.334 15 21 47 
-1.54268 -0.334421 5.21633 16 13 30 
-1.43714 -0.324428 5.38911 19 17 31 
0.731267 1.42326 7.09493 91 121 185 
-1.51568 -0.24359 5.19526 30 27 54 
-0.540197 0.117033 6.31564 17 23 49 
-0.502678 0.128099 6.34737 6 15 44 
-1.89252 0.619879 4.60463 103 118 185 
-1.88989 -0.367619 4.78048 35 42 70 
-1.06331 0.0319212 5.72634 40 50 85 
-1.95209 0.756444 4.57707 19 22 31 
0.187474 -0.586016 7.25123 31 35 62 
-1.49953 -0.41729 5.24427 21 20 36 
-1.91683 0.503366 4.64051 13 27 53 
-1.10064 -0.226622 5.71464 31 31 55 
-1.92405 -0.22602 4.75713 57 91 137 
-0.578412 0.102732 6.28735 22 29 55 
-1.87494 -0.323011 4.84257 32 33 54 
-1.93627 0.642735 4.57507 25 22 41 
-1.62747 -0.737133 5.08248 26 23 34 
0.654433 -0.0211204 7.37404 17 21 48 
-1.54545 -0.418663 5.25659 18 20 33 
0.771622 0.000603497 7.28263 20 24 49 
-1.97369 -0.383086 4.69702 26 31 53 
-2.00019 -0.385536 4.69017 35 59 87 
0.218019 -0.0532607 7.23021 33 42 75 
-0.534861 -0.101259 6.32553 33 47 74 
-1.97775 0.491541 4.52523 11 23 39 
-1.42103 -0.101586 5.31071 24 23 39 
-0.630609 -0.0588461 2.49339 40 71 115 
-1.44256 -0.126081 5.25079 4 23 56 
-1.4681 -0.173583 5.31249 12 36 74 
-1.56596 -0.176322 5.17419 7 26 59 
-1.50973 -0.187166 5.17282 24 26 41 
-1.41047 -0.211248 5.31278 23 24 44 
-1.54764 -0.219809 5.15421 20 28 49 
-1.43724 -0.358498 5.30969 12 18 34 
-1.90565 -0.223944 4.7423 23 34 56 
-1.90085 0.732027 4.69513 11 14 21 
-1.49255 -0.410028 5.23712 16 19 36 
-0.53595 1.00876 6.16822 52 63 108 
0.212056 -0.046465 7.29029 39 52 94 
-0.471465 -0.0679155 6.48864 22 27 57 
0.809254 -0.00494612 7.39175 22 26 55 
-1.42522 -0.130362 5.32516 48 69 116 
0.208258 0.042646 7.25705 26 38 76 
0.686228 -0.395364 7.46432 13 25 65 
0.753063 0.0604548 7.34803 25 29 64 
-1.91782 -0.318484 4.76725 52 79 126 
-0.534838 0.883855 6.17858 63 63 99 
0.17051 0.24651 7.16269 33 50 96 
0.702023 -0.867637 7.56761 38 51 93 
0.665737 -0.876055 7.56533 41 48 90 
-1.72784 -0.517424 4.98188 115 110 106 
-1.3538 -0.623523 5.41736 108 110 97 
-1.35427 -0.633392 5.44355 52 52 44 
-1.32112 0.379888 4.98672 194 194 192 
-1.06684 -0.78356 5.88799 54 58 106 
-1.09682 -0.789845 5.84936 48 52 97 
-1.88693 -0.371773 4.81818 50 70 107 
-0.473715 -0.953304 6.61819 36 50 89 
-1.10494 -2.06491 14.9976 39 44 84 
-1.94006 -0.381094 4.75772 62 60 100 
-1.47549 -0.765131 5.26342 123 117 103 
-1.93653 0.622859 4.57666 37 48 93 
-0.510633 0.644415 6.25349 39 60 105 
-0.488846 -0.817087 6.58318 34 40 72 
-0.509996 0.715512 6.24422 47 68 115 
0.169387 0.8394 7.02555 36 57 100 
-1.05738 -0.222363 5.77058 57 56 90 
0.756887 0.0617851 7.36936 25 29 64 
0.127829 0.0982268 7.13196 32 41 82 
-1.43239 -0.220521 5.32176 18 37 69 
-1.95481 0.686353 4.53463 36 65 99 
-1.54024 -0.198101 5.20304 46 73 116 
0.645598 -0.406255 7.46352 34 43 74 
0.647594 -0.367197 7.44888 49 55 79 
1.9442 -2.04786 8.66654 89 105 157 
-0.509934 -0.140784 6.39787 17 29 71 
0.802896 0.411619 7.29128 28 37 76 
0.683332 -0.418076 7.4799 34 50 83 
0.812069 -0.522628 7.51085 20 25 57 
-1.89477 -0.315236 4.79748 31 32 78 
0.816962 -1.24895 7.67117 35 52 96 
-1.10163 -2.06407 14.9667 41 46 86 
0.652 -0.832285 7.56816 44 56 98 
0.314897 2.72193 20.3201 37 33 56 
-1.93302 0.759552 4.5442 43 54 100 
0.755035 0.330597 7.29298 23 33 68 
-1.86338 -0.367596 4.84879 43 37 71 
0.660373 -0.0519867 7.3772 19 23 58 
-1.93737 0.465363 4.608 70 87 130 
-1.33329 0.382086 4.98408 233 206 211 
-1.52681 -0.203537 5.21204 24 36 78 
0.658176 -0.413615 7.44949 21 25 60 
-1.9699 -0.121757 4.6594 29 36 82 
1.32204 -0.815926 7.54788 46 57 102 
-1.89721 -0.373781 4.81081 25 25 51 
-0.474154 -0.0525123 6.494 32 34 57 
0.772786 -0.491321 7.49021 23 32 63 
0.768965 -0.0393087 7.38443 22 28 62 
-1.91394 -0.112204 4.72555 32 59 106 
0.694386 0.491223 7.27469 20 26 58 
0.770352 -0.0651775 7.39646 28 34 66 
0.695407 -0.0437769 7.39055 36 40 77 
-1.60567 -0.8231 5.14933 47 69 108 
-1.62469 -0.688629 5.10577 37 29 53 
0.641852 0.499635 7.23719 30 30 56 
0.64268 -0.405349 7.45283 34 43 74 
0.205092 0.0608894 7.24555 28 34 66 
0.770822 0.441858 7.29784 35 40 72 
-1.8563 0.645133 4.65955 44 37 71 
-1.96606 0.456278 4.55945 28 37 78 
0.654339 -0.833841 7.57953 44 56 98 
-1.32027 -2.07141 14.8192 49 61 87 
-0.537511 1.00288 6.14553 54 59 101 
-1.03823 -0.777822 5.90357 37 57 108 
-1.90945 0.636445 4.59664 24 38 73 
-0.493073 -0.743372 6.55446 23 28 58 
0.811141 -1.24172 7.65454 27 40 85 
-0.494903 -0.910558 6.58132 21 30 61 
0.796038 -0.436396 7.47835 14 24 51 
0.652841 -0.439316 7.46889 18 23 52 
0.760692 -0.769117 7.49997 36 44 90 
-0.510976 0.135112 6.32599 14 35 82 
-1.4447 -0.341929 5.31611 16 29 73 
-0.456781 -0.736937 6.59527 54 54 92 
-1.43741 -0.382628 5.35168 17 17 41 
0.657951 -0.454121 7.47268 18 22 51 
0.75042 0.46927 7.25361 28 31 62 
-2.08025 0.772819 5.12726 15 32 58 
0.125393 -0.0639815 7.15064 28 40 78 
-1.85602 0.713742 4.64506 53 46 80 
-1.87257 0.765096 4.60576 18 34 67 
-0.508542 -0.701599 6.5601 55 82 129 
-1.89839 0.610629 4.61231 90 115 172 
-1.53236 -0.248694 5.24191 18 27 58 
-1.56224 -0.236904 5.1662 17 32 63 
-1.45721 -0.237255 5.28731 16 33 76 
0.795994 -0.436486 7.46058 17 23 47 
0.793918 -0.38927 7.4422 19 20 50 
-1.60075 -0.811247 5.11826 39 57 97 
-0.511342 0.133968 6.35442 12 34 81 
0.767642 -1.21893 7.67674 49 60 92 
-1.86277 0.648119 4.66671 30 28 52 
0.765371 0.0352752 7.39145 29 31 54 
-1.88912 0.641385 4.6182 25 21 46 
-1.61074 -0.817514 5.11282 137 147 182 
0.688124 -0.0353675 7.38184 23 30 59 
0.650281 -0.837155 7.54193 32 45 80 
-0.464286 -0.839505 6.64495 23 30 58 
0.752731 0.471233 7.27592 38 42 69 
0.652544 0.48322 7.27099 26 27 47 
-1.96165 -0.122006 4.68493 24 47 89 
0.792472 -0.0999184 7.38007 20 25 55 
-1.89207 0.414303 4.66087 16 17 35 
0.213589 -0.889049 7.48478 29 38 69 
-1.88841 0.625505 4.62508 27 46 102 
-1.53647 -0.224037 5.20674 7 30 64 
-1.53221 -0.12364 5.17571 13 27 62 
0.800033 -0.490317 7.47698 16 21 50 
0.769519 -0.522823 7.51058 17 22 44 
0.801927 -0.533236 7.49371 15 21 45 
-1.43285 -0.399173 5.28492 18 17 25 
0.800823 0.394261 7.30945 25 30 59 
-1.61837 -0.820633 5.13692 125 123 163 
0.80351 -0.883888 7.56817 33 45 83 
0.766764 -0.778389 7.54818 30 40 76 
-1.50389 -0.413147 5.2942 22 14 35 
0.758903 0.0520905 7.35047 19 19 43 
0.793406 -0.0204025 7.35856 21 21 47 
-1.86994 -0.105993 4.80462 34 44 79 
0.764815 -1.21746 7.65958 48 58 94 
0.752878 0.049224 7.33114 20 23 42 
-1.42219 -0.321771 5.3536 17 18 36 
-1.5483 -0.339466 5.2445 15 15 25 
0.802781 -0.794182 7.56151 33 47 84 
0.805222 -1.23228 7.65711 37 52 91 
-1.60613 -0.808791 5.13675 20 34 63 
1.0941 -1.53377 7.94618 210 225 255 
0.803365 -0.448133 7.49557 15 22 50 
-0.49883 -0.739691 6.57459 15 29 56 
0.692489 -0.758496 7.53453 25 36 68 
-1.45272 -0.361356 5.31536 17 37 74 
-1.91283 0.684839 4.59699 16 43 73 
0.773088 -0.838886 7.59488 31 45 84 
-1.89691 0.643886 4.63213 22 21 37 
1.91358 -1.49386 7.46001 82 104 141 
-0.548103 -0.140669 6.35022 65 75 111 
0.652838 0.440771 7.29727 24 29 58 
-1.63543 -0.73391 5.12254 41 36 40 
0.540355 -1.21564 7.663 24 32 45 
-1.50291 -0.384592 5.25044 11 18 47 
-1.86855 -0.322654 4.82182 29 26 45 
-1.86823 0.472559 4.70623 28 35 61 
1.32378 -0.829114 7.53532 34 50 86 
-1.30439 -0.646875 5.49172 127 145 191 
-0.469293 1.01893 6.27807 39 50 80 
0.802149 0.446818 7.31713 19 29 54 
-0.468546 -0.71843 6.53338 29 33 60 
0.641901 -0.0647872 7.34667 21 27 51 
0.776548 -0.0837657 7.41561 44 54 89 
-0.535553 1.00927 6.1739 52 63 108 
0.775011 -0.113308 7.41527 22 28 54 
0.72256 1.46562 7.1161 103 113 164 
0.72585 1.44686 7.12212 33 36 89 
0.686192 -0.059157 7.41805 41 51 87 
0.741209 1.4466 7.1266 30 39 98 
-1.88763 0.768691 4.61084 41 53 91 
0.719717 1.42807 7.12326 99 115 167 
0.664636 -0.389072 7.46808 20 28 67 
0.723557 1.46673 7.13233 90 98 145 
0.740765 1.42587 7.12877 87 113 174 
-1.54959 -0.110298 5.17425 40 39 81 
-1.89624 0.603184 4.63095 13 30 74 
-1.90927 0.583655 4.61829 98 109 171 
0.807466 -0.407802 7.47802 21 21 49 
-1.91439 0.55569 4.62321 19 49 87 
0.768083 -0.77208 7.53269 36 44 90 
0.723411 1.43018 7.13235 102 119 175 
0.658493 0.0688046 7.38695 20 25 45 
0.654945 0.0223386 7.38043 23 23 47 
0.802682 -0.84443 7.568 32 44 82 
0.760754 0.46557 7.3069 27 32 52 
0.656862 -0.0646966 7.3965 23 28 50 
0.810677 -1.22799 7.66656 38 52 89 
0.652544 0.495834 7.28371 25 27 48 
-1.48473 -0.376178 5.3142 3 18 49 
0.653167 0.942391 7.19107 16 19 34 
-1.2939 -0.688234 5.50104 34 51 79 
0.959835 -1.19688 7.69066 29 37 60 
-1.95549 -0.381122 4.73085 29 37 58 
0.759681 -0.784254 7.55581 42 53 81 
0.687003 -0.757947 7.55649 28 42 79 
0.762639 0.458414 7.32137 35 37 60 
0.802388 0.448431 7.3182 19 29 54 
0.688197 0.0722467 7.38832 16 27 55 
0.689721 0.0222589 7.40572 12 21 52 
0.651845 0.455184 7.29677 24 30 62 
0.657452 0.0227253 7.39202 23 23 47 
0.689568 0.0147894 7.36808 12 17 37 
0.743535 1.46214 7.11661 91 110 166 
-1.51689 -0.15419 5.12082 23 30 74 
-1.62421 -0.687349 5.08383 35 27 50 
-1.4934 -0.153135 5.09735 46 57 103 
-1.4625 -0.113208 5.28131 59 90 137 
-0.41912 0.578964 4.81134 58 59 89 
-1.91807 0.601503 4.63215 16 23 69 
0.649073 0.498897 7.25851 23 27 52 
-1.52509 -0.145619 5.20263 30 29 60 
-1.48117 -0.377312 5.29253 6 22 56 
-1.53358 -0.139074 5.2118 25 30 52 
0.72415 1.45702 7.17787 33 40 92 
-6.0432 1.87582 11.8 13 41 80 
-1.03454 0.923235 5.61648 38 55 109 
-1.05871 0.919127 5.59304 46 58 100 
-0.137833 0.730577 4.38058 38 57 99 
-0.734384 -2.26744 8.77179 99 112 164 
-1.91822 0.606526 4.64184 20 19 63 
-1.49534 -0.413444 5.28182 47 44 71 
-1.89747 0.562298 4.66093 35 46 78 
0.68862 0.0349482 7.31675 20 33 68 
-1.56946 -0.317616 5.1547 53 49 86 
-1.02715 -0.219387 5.78907 43 61 107 
-1.98896 -1.65145 4.72807 84 99 122 
-1.4653 -0.0812517 5.26917 119 128 161 
-1.90436 0.63169 4.65654 12 33 90 
0.799162 0.00236608 7.3323 23 33 69 
-1.86641 -0.158098 4.8121 49 53 91 
0.774966 0.0277797 7.33309 42 51 84 
-0.457037 -0.236564 6.48336 32 38 74 
-1.42916 -0.0883407 5.2993 35 57 107 
0.759658 -0.0372482 7.3369 33 36 77 
0.764059 0.0589801 7.31103 25 33 69 
-0.467196 0.0165021 6.45337 23 28 57 
0.772985 0.0305517 7.32392 32 37 69 
-1.03117 0.913124 5.62944 108 123 180 
-2.25269 0.909669 9.32511 37 49 89 
0.700975 0.0555143 7.31233 13 16 47 
-0.45578 -0.166325 6.46143 33 37 72 
0.764429 0.00675662 7.32135 23 28 60 
0.8083 -0.0219527 7.33607 22 26 55 
0.657282 -0.0565981 7.33517 16 23 51 
0.811135 0.0238228 7.31696 28 36 72 
0.692156 0.0274647 7.32401 24 29 58 
-0.531992 -0.0897126 6.35365 41 51 87 
0.759128 0.468654 7.27374 34 43 76 
-1.41847 -0.154959 5.33038 34 27 58 
-1.61024 -0.808591 5.08982 137 135 174 
-1.54636 -0.18669 5.17174 28 22 50 
0.803027 -0.0642881 7.35136 14 18 43 
0.695318 0.0578104 7.33469 12 17 39 
-1.07705 -0.22373 5.74964 27 40 74 
-1.43429 -0.11348 5.32143 15 30 69 
-1.43354 -0.32101 5.31122 7 19 57 
0.654723 0.089957 7.31436 18 26 62 
0.800899 -1.20998 7.54185 41 52 97 
-1.97126 -0.382709 4.70552 33 30 57 
-0.470523 0.139298 6.41862 21 30 63 
0.805495 0.0446808 7.33131 25 32 61 
-1.52076 -0.0922453 5.21473 125 127 166 
0.744785 1.4175 7.08768 84 113 171 
-1.45346 -0.216507 5.28373 23 47 93 
-1.89653 -0.370912 4.79758 42 48 80 
0.766909 -0.00585869 7.3229 19 25 49 
0.662299 0.440059 7.22713 26 32 56 
-1.01697 0.879299 5.62477 108 127 195 
0.217379 -0.0530751 7.23647 33 42 75 
-1.02083 0.911797 5.63326 108 126 190 
0.81451 -1.19792 7.47497 44 55 100 
-1.44134 -0.354241 5.33721 13 15 27 
-1.45292 -0.212282 5.30787 23 29 51 
-1.53165 -0.181813 5.1976 20 27 45 
0.366443 -1.75685 7.77644 32 30 79 
-1.51898 -0.132712 5.19633 38 37 71 
-1.08974 -0.227917 5.68402 31 31 55 
-1.89738 -0.296282 4.77947 20 26 42 
-0.982479 -0.211983 5.8504 61 66 98 
-1.01846 0.740079 5.6497 27 36 53 
-1.86444 -0.290659 4.82199 40 37 66 
-1.45744 -0.174257 5.28841 12 36 74 
-1.44481 -0.359478 5.32724 12 18 34 
-1.8725 -0.368624 4.83744 56 63 91 
-1.93352 -0.932188 4.82004 56 72 121 
-2.449 0.652646 4.028 19 22 75 
-2.50078 -0.211255 4.08819 45 69 115 
-2.47464 -0.206581 4.11643 72 80 129 
-1.8729 -0.17294 4.81949 44 47 82 
-1.4175 -0.130207 5.31646 24 34 83 
-1.94991 -0.117216 4.71659 47 60 104 
-3.1071 0.563902 3.26463 16 43 98 
-2.50932 0.669085 3.9659 46 77 123 
-1.09041 0.0346953 5.6947 41 54 99 
-1.02551 0.0444029 5.74519 43 49 99 
-0.460284 0.14307 6.4253 40 58 106 
-2.45531 0.624369 4.02158 7 26 84 
-2.46363 0.619469 4.02694 53 67 114 
-1.41727 -0.185344 5.33757 44 51 93 
-1.87223 -0.24225 4.83075 45 49 94 
-1.06975 -0.158162 5.72041 49 54 94 
-2.50671 -0.580664 4.13299 62 66 111 
-1.92637 -0.30695 4.77099 49 67 113 
-2.53055 -0.51546 4.09423 25 41 90 
-1.56183 -0.36757 5.22599 51 63 105 
-3.13573 -0.316299 3.38111 49 79 129 
-1.94958 -0.185854 4.72762 59 67 113 
-2.4396 0.67187 4.04202 100 126 187 
-2.4525 0.667811 4.01793 116 128 186 
-1.0573 0.0406126 5.7326 52 68 117 
-1.93275 0.64197 4.63147 22 30 69 
0.149631 1.13297 6.95302 18 46 83 
-1.40874 -0.339264 5.37876 27 32 72 
-3.13648 -0.674479 3.43288 49 80 124 
-2.00791 -0.126476 4.65399 59 76 120 
-2.42306 -1.06762 4.29804 62 74 122 
-1.93162 0.628862 4.63475 29 42 94 
-3.20889 -0.456051 3.30645 49 74 115 
-2.43144 0.682601 4.05549 60 87 132 
-2.45469 0.307046 4.06872 40 67 112 
-2.01405 0.510872 3.70316 72 82 118 
-3.21995 -0.699143 3.3478 48 73 114 
-0.132834 1.3313 6.16361 85 105 130 
-3.11705 0.563858 3.26984 16 43 98 
-2.50399 0.66536 3.94765 62 83 128 
-2.43506 0.680263 4.04496 18 28 87 
-1.55699 -0.339527 5.16667 29 31 70 
-2.44681 0.654107 4.0403 28 48 111 
-3.13176 0.511316 3.25045 17 40 90 
-1.56864 -0.32748 5.2042 51 65 112 
-1.57823 -0.318557 5.16341 36 35 77 
-1.9485 -0.326278 4.7477 31 39 86 
-1.55079 -0.389448 5.21025 18 21 54 
-1.4278 -0.221922 5.31789 22 32 68 
-1.97216 -0.260862 4.71191 45 67 108 
-1.97355 -0.246413 4.70812 76 94 134 
0.234687 0.0446272 7.19512 23 42 82 
-1.54515 -0.143843 5.19421 56 68 108 
-1.92448 -0.167871 4.74846 56 70 115 
-2.40004 -0.562096 4.26341 51 54 97 
-2.5336 -0.573388 4.10488 30 53 97 
-2.47364 -0.575605 4.16888 40 41 85 
-0.531309 0.124086 6.32871 27 49 98 
-2.00685 -0.389253 4.6937 48 66 106 
-2.45625 0.645665 4.02353 24 38 87 
-3.18379 -0.693169 3.38362 44 72 111 
-2.53481 -0.216248 4.05151 37 58 103 
-2.45679 0.538462 4.03277 63 89 138 
-1.26274 -0.71735 5.5052 131 145 180 
-0.549013 0.705655 6.19657 33 47 84 
-2.44597 0.644993 4.03398 118 127 186 
-1.02657 -0.372044 5.80554 24 29 69 
-2.46262 0.667855 4.0262 116 128 186 
-2.47467 -0.507782 4.15816 45 36 83 
-2.49535 -0.508878 4.12981 30 46 95 
0.228574 0.0428225 7.21264 26 40 75 
-2.48036 0.669899 3.99035 24 29 67 
-1.08295 -0.158868 5.71047 43 47 82 
-1.46665 -0.191093 5.30367 60 71 116 
-1.9521 -0.242901 4.73811 35 37 75 
-1.05703 -0.0844394 5.74583 31 35 70 
-1.53821 -0.116049 5.1857 16 28 76 
0.157906 -0.840242 7.25025 18 37 70 
-1.06527 0.0373737 5.7417 42 55 87 
-1.93104 0.60648 4.6494 14 19 61 
-1.02213 -0.0953736 5.76202 35 42 88 
-1.92804 0.571193 4.63703 36 48 88 
-0.463524 0.000906413 6.44483 10 22 46 
0.235607 -0.757262 7.32984 21 32 64 
-1.91879 0.62349 4.66328 84 108 172 
0.11579 -0.775455 7.16377 45 36 63 
-2.4273 0.60827 4.04804 44 54 90 
-0.445869 -0.162345 6.44992 26 44 84 
-1.97077 -0.17497 4.69856 42 51 90 
-1.42853 -0.11581 5.33982 51 51 87 
-1.94851 -0.259539 4.73588 30 30 64 
-1.92302 -0.323209 4.77273 22 39 82 
0.382441 -1.74949 7.72013 31 30 100 
-3.11691 0.543401 3.25778 95 116 173 
-1.98275 -0.334635 4.71031 39 46 88 
-2.43484 0.623831 4.04795 32 33 81 
-1.44217 -0.793697 5.27277 50 50 74 
-2.49641 -0.564476 4.14103 22 41 83 
-2.43321 -0.555159 4.2189 34 35 66 
-1.57399 -0.37111 5.18545 31 34 67 
-1.58919 -0.357148 5.21842 41 54 89 
-1.97098 -0.333081 4.723 41 58 101 
-1.92239 -0.114144 4.74086 39 57 103 
-1.04601 -0.0117459 5.72171 53 65 103 
-1.97069 -0.31538 4.72055 46 59 103 
-1.90062 -0.300768 4.79216 31 30 61 
-1.4241 -0.0965026 5.2953 19 27 63 
-1.98245 -0.1766 4.68593 45 48 83 
-2.47672 -0.331359 4.13035 43 45 86 
-1.55916 -0.163035 5.18877 23 24 54 
-1.98392 -0.264327 4.69803 44 49 87 
-1.98362 -0.246733 4.6956 46 50 85 
-1.94682 -0.328854 4.73798 36 47 79 
-1.45916 -0.4108 5.30899 26 28 49 
-0.460217 0.140336 6.41038 11 25 60 
-1.9465 -0.307629 4.73504 39 36 63 
-1.91742 -0.301641 4.76454 13 23 59 
-1.45103 -0.137526 5.27445 23 27 65 
-1.53677 -0.150851 5.21704 28 28 56 
-1.56622 -0.159564 5.16911 32 42 93 
-1.56831 -0.163622 5.19593 17 21 50 
-1.52017 -0.228999 5.21274 23 30 59 
-1.05831 -0.172967 5.75373 35 44 77 
-1.05888 -0.011845 5.72898 34 36 57 
-2.43486 -0.503209 4.21246 36 41 71 
-2.42469 -0.49785 4.22924 35 48 92 
-3.12514 -0.318506 3.38047 27 51 95 
-1.87413 -0.22346 4.82731 38 39 67 
0.153876 -0.583398 7.21904 29 46 92 
0.235658 -0.823888 7.33583 17 28 50 
-0.474488 -0.218606 6.46102 33 43 78 
-2.44316 0.626741 4.05264 34 45 101 
-2.46376 -0.208613 4.15187 32 56 104 
-1.47134 -0.136239 5.30414 23 27 64 
-1.47518 -0.170637 5.30633 44 59 102 
-1.89056 -0.256359 4.8038 14 23 56 
-1.89019 -0.225825 4.79949 15 24 57 
-2.45085 -0.553463 4.19424 26 41 84 
-2.43616 0.664645 4.02435 115 135 198 
-0.454718 0.136034 6.4016 16 30 57 
-1.93514 -0.379495 4.73937 45 49 86 
-2.45034 0.654642 4.04976 13 19 69 
-2.44319 0.648967 4.01406 11 24 66 
-1.43255 -0.348527 5.32852 22 19 36 
0.238365 -0.781773 7.29974 18 23 43 
-2.43548 0.633354 4.03228 114 133 201 
-2.45114 -0.50346 4.18396 26 45 88 
0.821843 -1.20621 7.48071 32 49 92 
-1.98966 -0.384217 4.71908 36 42 68 
-1.90615 -0.370795 4.80545 43 46 77 
-1.94052 -0.542862 4.79685 107 117 152 
-1.89643 -0.259015 4.81292 18 23 52 
-2.44109 -0.505509 4.18259 30 37 65 
-1.54421 -0.14538 5.22195 24 25 43 
-1.51169 -0.382779 5.27993 18 23 53 
-2.49183 0.664192 3.96496 20 31 61 
-1.94321 -0.235514 4.71603 25 32 51 
-1.4408 -0.310366 5.3566 18 17 48 
-1.89459 -0.326308 4.78108 30 32 47 
-1.87333 -0.323506 4.80229 27 29 42 
-1.41401 -0.193828 5.31782 27 33 55 
0.807756 0.0447095 7.3227 11 16 36 
-1.56619 -0.217327 5.17661 20 33 68 
-0.473374 -0.170192 6.35627 25 32 58 
-1.93451 -0.264132 4.77442 10 29 69 
-1.87299 -0.29292 4.79799 19 25 41 
-1.54813 -0.23396 5.15277 20 28 64 
-1.88053 -0.367521 4.84557 45 52 81 
-1.609 -0.697405 5.09361 148 165 208 
-2.40313 -0.49804 4.24659 34 41 69 
-1.09259 -0.152799 5.71116 33 35 48 
-1.44257 -0.172347 5.27258 24 29 48 
-1.0188 -0.217188 5.77428 46 50 95 
-1.06179 -0.222876 5.75719 37 39 62 
-1.4644 -0.318089 5.37375 15 17 55 
-1.50991 -0.326907 5.15535 20 18 40 
-1.54923 -0.339856 5.17546 20 19 33 
-1.54646 -0.377603 5.23096 18 21 40 
-2.53146 -0.523698 4.10317 32 37 66 
0.737714 1.45015 7.07001 83 113 173 
0.224948 -0.574412 7.3039 33 42 73 
-1.46538 -0.408521 5.29195 24 23 37 
-1.45505 -0.407964 5.34598 16 21 51 
-1.05914 -0.0731114 5.7358 28 33 53 
-1.07419 -0.044544 5.72497 23 29 53 
-1.93746 -0.269382 4.71879 37 37 61 
-0.46377 -0.127314 6.46561 28 33 52 
0.215585 -0.0523373 7.24103 31 41 76 
0.810294 -1.20181 7.4918 43 46 91 
