ply                 
format ascii 1.0    
element vertex 523
property float x    
property float y    
property float z    
property uchar red  
property uchar green
property uchar blue 
end_header          
-1.44863 -0.324051 5.33517 13 35 84 
-1.45401 -0.344552 5.33336 110 138 178 
0.760038 -2.69437 8.30338 144 162 202 
-1.41565 -0.342425 5.40293 27 28 72 
-1.91633 0.639049 4.61835 42 61 103 
0.647884 -0.480165 7.53433 34 39 79 
-1.45342 -0.341503 5.35265 31 43 95 
-1.4166 -0.317218 5.37662 26 23 54 
-1.53226 -0.338058 5.24046 47 40 84 
-0.478504 -0.904709 6.62742 34 45 90 
-1.42866 -0.346929 5.34825 36 31 72 
-1.5372 -0.3572 5.2377 47 51 98 
-1.48856 -0.366511 5.31029 40 53 106 
-1.60813 -0.802387 5.11063 69 93 131 
-1.41089 -0.30816 5.36255 135 147 187 
-1.50238 -0.36978 5.29056 23 29 81 
-1.43004 -0.305032 5.37524 35 37 88 
-1.52982 -0.373091 5.25185 38 33 73 
-1.54879 -0.37892 5.22512 102 125 159 
-1.62525 0.34529 4.02911 31 37 73 
-1.45318 -0.391521 5.3447 17 31 80 
-1.47304 -0.398768 5.33858 111 111 145 
-1.46548 -0.407385 5.33246 46 42 77 
-1.51238 -0.401891 5.2648 109 135 172 
-1.4507 -0.796808 5.28677 33 40 58 
-1.0922 -0.105771 5.73023 47 58 103 
0.213267 -0.578642 7.43417 44 50 98 
-1.56558 -0.37157 5.19833 43 39 72 
-1.43618 -0.121393 5.32506 37 56 98 
1.94203 -2.05753 8.71997 156 170 207 
-1.93176 -0.113553 4.69721 69 77 126 
-1.95826 -0.383917 4.72381 22 46 82 
-1.91372 0.766061 4.59196 42 73 117 
-1.42512 -0.132781 5.34204 21 25 72 
-0.91213 -0.081364 5.24447 54 66 108 
-1.00104 0.930181 5.66495 21 43 80 
-0.561089 1.01291 6.19414 39 57 95 
-1.8875 0.642151 4.63883 50 47 78 
-1.4597 -0.140836 5.29728 24 38 87 
-1.52403 -0.250691 5.232 39 40 86 
-1.44724 -0.147083 5.31558 19 30 76 
-1.55088 -0.143486 5.18722 40 47 93 
-1.02041 0.905886 5.63472 116 138 198 
-1.54769 -0.243714 5.19575 44 49 91 
-1.02869 0.901225 5.64609 20 26 76 
-1.02271 0.90393 5.66983 37 42 100 
-1.02374 0.894792 5.65279 125 132 186 
0.777671 -0.0846063 7.47902 35 44 83 
-1.27157 -0.721872 5.53451 139 149 185 
-1.463 -0.241468 5.31631 27 45 91 
-1.52226 -0.41177 5.27224 37 51 96 
-1.381 -0.533786 5.37665 126 120 108 
-0.986424 0.938009 5.71223 41 47 81 
-1.43791 -0.224609 5.34602 36 48 90 
-1.55138 -0.208943 5.20165 52 46 92 
-1.42294 -0.21355 5.36333 49 44 76 
-1.437 -0.171866 5.33536 48 60 108 
-1.45969 -0.200331 5.31134 141 160 202 
-0.579459 -0.706387 6.42622 48 50 88 
-1.46294 -0.208476 5.30902 36 61 115 
-1.52998 -0.203394 5.23255 25 27 68 
0.103418 -0.865144 7.3788 27 35 72 
-1.55201 -0.193774 5.19736 44 52 98 
-1.44825 -0.197455 5.32643 35 43 92 
-1.56618 -0.189405 5.17508 43 61 109 
-1.46058 -0.190045 5.30753 24 38 87 
-1.27897 -0.629601 5.50528 147 140 122 
0.12198 -0.858335 7.35504 34 47 82 
-1.60299 -0.596454 5.11191 126 133 152 
0.102817 -0.81109 7.33835 42 46 83 
0.796255 -0.501691 7.55019 30 43 78 
-0.582467 -0.847357 6.45964 52 57 95 
-1.06439 -0.223754 5.80742 47 47 81 
0.959047 -1.20459 7.74335 52 49 76 
0.214645 -0.792774 7.48022 41 49 88 
0.685743 -1.19489 7.67759 63 70 122 
-1.58647 -0.805951 5.1254 62 60 97 
-1.71731 -0.513759 4.95618 137 137 125 
-1.5475 -0.64333 5.18929 136 124 108 
-1.59706 -0.783073 5.12318 66 70 115 
-0.989351 0.0542247 5.86683 61 69 115 
-1.42179 -0.801056 5.34534 122 137 168 
0.701664 0.402578 7.37454 33 48 87 
0.10107 -0.0690918 7.22349 34 42 81 
-0.985095 -0.141573 5.88027 51 55 90 
0.813039 -0.124276 7.47571 23 29 65 
0.797477 0.422365 7.38383 30 43 85 
-1.47003 -0.389361 5.32077 42 37 67 
0.815795 -0.878188 7.62815 54 68 113 
-1.33483 -0.0301461 4.77248 107 134 179 
-1.50206 -0.703777 5.24965 52 60 73 
-0.458476 -0.95558 6.65408 57 65 101 
-1.34551 -0.628013 5.42411 38 35 28 
-0.982663 -0.0719617 5.86574 68 73 113 
0.686121 0.0527156 7.44002 36 42 78 
-1.40295 -0.69979 5.34802 70 59 75 
-0.582013 1.00203 6.12806 51 52 83 
-0.984245 -0.248332 5.88824 70 81 127 
0.798135 0.326289 7.415 28 37 80 
-0.944307 -0.456455 5.93611 57 71 118 
-1.48112 -0.423244 5.33256 103 122 155 
-1.53119 -0.400764 5.25653 50 58 104 
0.13519 0.243511 7.20758 60 77 123 
-1.45953 -0.149699 5.30367 133 155 196 
-1.46515 -0.409077 5.33273 39 36 67 
-1.4834 -0.366695 5.29757 12 23 77 
-1.52898 -0.154576 5.2226 29 36 82 
-1.41716 -0.34549 5.38179 29 41 81 
-1.44916 -0.32382 5.33427 13 35 84 
-1.41783 -0.317784 5.37531 23 19 46 
-1.42594 -0.304892 5.36145 35 37 88 
-1.42195 -0.180503 5.33763 28 28 78 
-1.91515 0.630121 4.62701 23 40 92 
-1.5262 -0.25113 5.23674 39 40 86 
-1.54901 -0.243009 5.19758 44 49 91 
-1.43892 -0.22179 5.34825 22 40 80 
-1.02345 0.904932 5.67618 37 42 100 
-1.03063 0.90168 5.64766 6 17 63 
-1.02094 0.906109 5.63503 116 138 198 
-1.42888 -0.371264 5.37251 27 22 52 
-1.03663 -0.220141 5.82137 56 74 120 
-0.985521 0.93662 5.70232 41 47 81 
-1.06306 -0.223829 5.79792 47 47 81 
-1.91049 0.76463 4.58661 17 48 92 
-1.93383 -0.114316 4.69722 60 70 121 
-1.41229 -0.313017 5.3812 61 64 107 
0.213158 0.183911 7.30485 32 39 83 
-1.03531 0.894886 5.64581 20 31 77 
-1.02469 0.893958 5.65571 126 137 193 
-0.579502 -0.707505 6.43185 48 50 88 
-0.466794 -0.163915 6.51657 34 43 84 
-1.44945 -0.227752 5.33517 46 41 73 
-0.560292 -0.141539 6.40516 29 43 80 
0.131159 -0.808872 7.38843 44 48 93 
-1.56633 -0.10944 5.16431 49 71 120 
-1.27394 -0.62669 5.48888 151 148 131 
-1.46369 -0.240991 5.31881 27 45 91 
-0.475485 0.142217 6.47772 46 58 106 
-1.54399 -0.238346 5.20376 135 146 178 
1.33051 -0.816349 7.5971 58 62 110 
0.79501 -0.0689347 7.47677 51 63 101 
-0.580525 -0.76137 6.4436 48 59 91 
-1.43259 -0.185267 5.32489 50 70 120 
0.211918 -0.123927 7.37156 37 46 85 
0.812794 -0.124496 7.48867 22 25 58 
0.664488 -0.392212 7.52837 30 37 79 
-1.914 0.639581 4.61438 32 54 95 
-1.00028 -0.318883 5.92412 39 44 84 
0.798016 -0.41493 7.53548 27 40 75 
-1.8991 0.625629 4.65226 102 127 191 
-1.9175 0.623466 4.63751 99 103 164 
2.05362 -1.63045 7.46129 81 96 117 
-1.27224 -0.723316 5.53393 119 122 157 
-1.90547 0.601678 4.64299 109 112 163 
0.77661 0.0592189 7.45865 14 26 64 
0.765301 -0.0828677 7.47629 29 37 74 
-1.64609 -0.695396 5.07531 159 143 128 
-1.55938 -0.32623 5.2017 40 56 107 
0.700917 -0.06224 7.45761 41 53 91 
-1.55813 -0.154365 5.17477 40 48 97 
-1.91263 -0.306316 4.76762 34 52 98 
-1.56588 -0.335804 5.19302 109 120 152 
0.652695 -0.0498916 7.4702 27 36 79 
0.66529 0.480387 7.35598 28 35 64 
0.667914 0.502951 7.34931 27 35 71 
-1.53839 -0.357161 5.23917 47 51 98 
-1.56783 -0.355478 5.20698 24 38 75 
0.814477 0.0431685 7.44403 53 67 102 
-0.99172 0.638842 5.76785 27 41 80 
0.761716 -1.30816 7.70413 55 61 113 
-1.47505 -0.765819 5.26858 137 131 115 
-1.96919 0.389577 4.59683 39 43 80 
0.812559 -0.525054 7.54682 22 34 72 
-1.53235 -0.364946 5.24997 108 111 146 
-1.91918 0.399188 4.66141 35 64 108 
-1.52459 -0.371406 5.23929 51 46 87 
0.761457 0.0322048 7.43891 23 24 54 
-1.46918 -0.388793 5.32192 65 59 95 
0.166942 -0.587446 7.38923 71 85 130 
-1.47449 -0.399971 5.34097 111 111 145 
0.180709 -0.58615 7.42005 48 56 102 
-1.91269 0.468821 4.63586 45 76 120 
-1.60163 -0.799881 5.09719 43 67 105 
-1.53237 -0.40197 5.25799 42 49 95 
-0.945188 -0.45714 5.93892 57 71 118 
-1.59276 -0.808462 5.14064 52 48 83 
0.211148 -0.581452 7.4557 39 44 86 
-1.58886 -0.765899 5.13549 30 55 96 
0.180778 0.0553292 7.29584 33 38 70 
-0.483324 -0.166982 6.50732 65 80 123 
-1.44521 -0.148255 5.30934 19 30 76 
-1.53101 -0.203435 5.22955 19 26 68 
0.772725 0.0304366 7.44644 22 23 54 
-1.44997 -0.343257 5.34751 18 30 78 
-1.54791 -0.238002 5.21226 124 129 161 
-1.42646 -0.357988 5.35464 130 138 174 
-1.48564 -0.368119 5.30384 7 19 69 
-1.4998 -0.370184 5.28478 23 29 81 
-1.52733 -0.372785 5.24548 38 33 73 
-1.47089 -0.400539 5.33146 112 111 143 
-1.90485 0.611236 4.63743 99 110 166 
-1.46965 -0.411149 5.33707 25 21 46 
-1.30265 -0.611485 5.47564 63 76 118 
-1.45492 -0.799337 5.30493 33 40 58 
1.16993 -1.96413 8.0055 82 108 169 
-1.5696 -0.336362 5.20224 109 120 152 
-1.41888 -0.346404 5.38999 16 25 66 
-1.55468 -0.109912 5.14398 20 33 77 
-1.42197 -0.304158 5.34837 35 37 88 
-0.464104 -0.691139 6.61826 41 43 84 
-0.574778 1.00895 6.18945 31 34 69 
-1.43609 -0.221153 5.33783 22 40 80 
-1.60865 -0.801602 5.11799 42 64 103 
0.650977 -0.0537866 7.45038 21 25 62 
-1.42126 -0.214021 5.35615 49 44 76 
-1.46014 -0.208692 5.30259 24 45 98 
-1.45985 -0.159991 5.2914 25 48 100 
-0.513873 -0.172536 6.45251 34 50 99 
-0.544423 -0.0883873 6.4107 32 41 82 
-0.471981 -0.166454 6.53247 35 40 80 
-1.90516 0.604422 4.62645 22 21 65 
0.653408 -0.482901 7.5227 24 26 64 
-1.44664 -0.228349 5.32493 55 49 83 
0.776045 0.0504197 7.44058 18 27 56 
0.811661 -0.0489028 7.47838 20 28 67 
-1.88591 0.632909 4.66318 21 45 83 
0.685857 -0.383387 7.52972 47 63 97 
-1.02132 0.890873 5.64258 126 137 193 
-0.481199 0.0718756 6.51598 23 28 60 
0.661882 -0.396012 7.52889 17 23 57 
-1.41373 -0.307517 5.3599 139 151 191 
-1.52742 -0.41474 5.28384 55 70 113 
-1.41971 -0.317659 5.38235 23 19 46 
0.701345 -0.455616 7.52475 20 33 67 
-1.45637 -0.394006 5.35032 28 50 97 
0.79906 -0.460704 7.54529 25 34 73 
-1.03395 -0.219336 5.81501 38 51 96 
0.797146 -0.0954829 7.49065 22 28 62 
0.209822 -0.581466 7.45566 39 44 86 
-1.45623 -0.347676 5.33951 94 118 162 
0.760574 -0.403468 7.52006 36 40 75 
-1.51513 -0.404798 5.27033 98 116 154 
0.177409 0.247436 7.26399 32 45 89 
0.648412 0.507525 7.33384 24 30 66 
0.812874 -0.506115 7.56236 15 29 64 
0.812708 -0.837395 7.63522 36 49 94 
-1.90707 0.618849 4.6192 108 119 183 
0.773444 -0.0874649 7.45306 18 25 53 
0.698404 -0.494867 7.53575 18 26 62 
0.699235 -0.759548 7.5874 31 41 92 
0.101135 -0.603834 7.28935 22 27 57 
0.761126 -0.870153 7.60395 42 54 96 
1.91962 -1.50157 7.52412 65 89 123 
-1.29611 -0.626991 5.47237 53 65 87 
0.95982 -1.20601 7.746 52 49 76 
0.762528 -0.91273 7.61805 46 54 101 
0.794585 -0.0211227 7.46667 38 48 84 
-1.59156 -0.766491 5.14121 30 55 96 
0.684245 -0.806123 7.5994 47 58 104 
-1.48269 -0.369707 5.29735 7 19 69 
-0.4934 -0.912529 6.59976 30 34 71 
-1.90505 0.613711 4.63798 109 128 187 
-1.02736 0.88174 5.64957 120 136 198 
-1.57216 -0.342892 5.19441 44 49 81 
0.653499 0.0895745 7.46172 32 38 70 
-1.02405 0.889386 5.65097 117 133 195 
-1.56877 -0.112841 5.21549 28 28 56 
-1.44453 -0.226777 5.31717 47 44 73 
0.703538 0.0710456 7.43975 20 29 60 
0.664564 0.0893489 7.42641 39 52 96 
0.800068 -0.0517961 7.45876 21 27 61 
0.689716 -0.0657982 7.44309 21 25 54 
-1.60448 -0.800305 5.10996 20 38 76 
-1.60254 -0.791421 5.13461 40 43 84 
-1.45323 -0.798769 5.3009 57 67 94 
0.801777 -0.099977 7.47459 18 22 49 
-1.4503 -0.101398 5.31351 18 26 72 
-1.44355 -0.152189 5.30125 19 20 64 
-1.91865 0.766677 4.60732 17 48 92 
-1.42254 -0.165583 5.34822 74 76 115 
0.756449 -2.70654 8.3286 92 128 178 
-1.42922 -0.183478 5.36048 23 26 71 
-1.43283 -0.191476 5.32374 16 39 80 
-1.56112 -0.207134 5.17961 23 35 83 
-1.55226 -0.21087 5.19377 28 22 56 
-1.45725 -0.238902 5.30232 15 30 71 
-1.56496 -0.240079 5.18144 21 36 77 
0.690026 -0.356264 7.49705 17 21 56 
0.768049 -0.782052 7.60902 39 47 96 
0.812761 -0.391605 7.53179 21 30 71 
0.803029 -0.391737 7.53022 17 21 56 
0.774161 -0.404437 7.52828 17 30 64 
0.765256 -0.429265 7.5347 21 24 57 
-1.42575 -0.306308 5.36035 31 28 73 
0.709837 -0.412613 6.90069 19 29 65 
-1.4186 -0.319286 5.37188 26 21 43 
0.698319 -0.469667 7.53511 17 26 59 
-1.55796 -0.327959 5.21282 28 35 87 
0.759416 -0.397245 7.52443 25 28 59 
-1.43503 -0.349161 5.35709 25 20 50 
0.65429 0.510141 7.36512 20 28 65 
-1.4553 -0.360634 5.33206 19 40 85 
-1.52506 -0.415422 5.28148 38 56 94 
-1.53405 -0.361019 5.22138 33 33 67 
-1.50665 -0.373807 5.29892 16 24 73 
-1.51994 -0.403296 5.28684 109 133 171 
-1.52891 -0.37303 5.24894 38 33 73 
-1.53407 -0.407085 5.25522 33 38 78 
0.69822 0.474145 7.38467 30 30 64 
-1.0044 -0.323375 5.93727 33 33 69 
-1.87901 0.630049 4.65342 15 35 62 
-1.29683 -0.60955 5.46101 60 69 108 
0.101886 -0.856816 7.28358 27 35 72 
-0.579138 -0.185364 6.39053 33 37 74 
0.802917 0.367299 7.39882 26 35 66 
-1.41916 -0.330098 5.37395 57 57 85 
-0.467292 -0.169387 6.52502 35 43 80 
0.207756 0.175858 7.27721 33 36 67 
-1.89715 0.623838 4.64731 98 126 189 
-1.59479 -0.769824 5.15161 39 64 105 
-1.59293 -0.807059 5.13519 45 40 72 
-1.53215 -0.36665 5.24865 108 111 146 
-0.477305 -0.767969 6.60761 21 35 70 
0.655368 -0.800247 7.59084 40 49 90 
0.697125 0.00622433 7.42158 26 36 72 
0.764643 -0.827901 7.62332 39 45 93 
-1.9093 0.623032 4.60879 23 32 89 
-1.41703 -0.112582 5.32006 38 33 65 
-1.45394 -0.226319 5.33675 27 25 47 
-1.46162 -0.13649 5.3058 8 25 69 
-0.505282 -0.172153 6.4819 33 45 85 
-1.56274 -0.137785 5.16114 19 36 79 
-1.45364 -0.153559 5.3208 18 33 76 
-1.46605 -0.166167 5.30724 59 87 134 
-1.4188 -0.21288 5.3419 33 30 59 
-1.43892 -0.22021 5.3562 17 31 70 
-1.52873 -0.22412 5.23233 28 21 62 
-1.56999 -0.34444 5.19809 31 36 68 
-1.55409 -0.238015 5.19769 23 21 45 
-1.56495 -0.237612 5.1814 16 34 74 
0.649847 -0.349807 7.51696 25 26 56 
0.763118 -0.381627 7.5043 22 23 54 
-1.43684 -0.306745 5.37882 20 27 73 
-1.45275 -0.323328 5.36216 8 25 69 
-1.44558 -0.345316 5.33601 11 21 56 
-1.53082 -0.336173 5.21273 29 29 57 
-1.43802 -0.360665 5.38329 100 99 131 
-1.53221 -0.361438 5.2174 33 33 67 
-1.48194 -0.371127 5.29231 7 20 62 
-1.5078 -0.376235 5.29822 13 24 70 
-0.549584 0.89996 6.2548 20 21 41 
-0.578157 -0.784 6.47135 23 32 61 
-1.60217 -0.791442 5.12522 23 30 72 
-0.514153 -0.963129 6.5981 53 73 123 
-1.44972 -0.796843 5.29296 32 39 58 
-1.60817 -0.803089 5.11949 42 64 103 
-0.552886 0.802651 6.23894 25 31 55 
0.797444 -0.0556465 7.45194 25 32 61 
-1.91537 0.643449 4.62318 10 25 56 
-1.46835 -0.215176 5.31558 87 118 165 
0.690969 0.493398 7.34741 25 32 61 
0.695824 -0.465297 7.51848 17 27 54 
-1.54071 -0.365083 5.206 27 39 77 
0.799076 -0.101864 7.46708 20 24 51 
0.69483 -0.773508 7.56933 31 46 89 
0.767648 -0.840112 7.60498 35 47 89 
-1.56775 -0.353025 5.20374 18 33 66 
0.803627 -0.0670802 7.45661 20 26 52 
0.651504 -0.0585638 7.47093 24 29 61 
-1.41266 -0.344882 5.38025 18 25 69 
0.765491 0.00422157 7.47261 28 32 69 
0.657023 0.486974 7.34317 25 28 47 
-1.52457 -0.374678 5.23192 37 31 67 
-1.52372 -0.418032 5.28381 29 47 83 
-1.5941 -0.809651 5.13672 50 46 79 
-1.46856 -0.399987 5.31664 67 64 91 
-1.52557 -0.102627 5.208 56 53 80 
0.659399 0.0682564 7.43199 27 32 61 
-0.579647 -0.854971 6.48812 31 41 77 
-1.5906 -0.766104 5.13806 30 55 96 
0.650181 -0.0123616 7.45586 30 39 72 
0.657414 -0.769053 7.60315 37 49 89 
1.33376 -0.820846 7.59535 42 47 87 
0.203139 0.206412 7.31171 34 37 68 
-1.86885 0.774234 4.67332 33 38 67 
-0.580585 0.959059 6.18045 30 29 45 
-1.52041 -0.40326 5.28616 109 133 171 
0.123666 0.121134 7.21901 27 31 60 
0.208786 -0.890567 7.50554 37 45 84 
0.695886 -0.363464 7.49451 16 20 49 
-1.45556 -0.151362 5.27824 144 163 206 
0.808923 -0.393918 7.52637 15 22 51 
-1.5413 -0.244679 5.22645 12 26 61 
0.653644 -0.349854 7.48155 18 22 47 
-1.56727 -0.238671 5.18643 31 50 92 
-1.5575 -0.239036 5.20112 22 22 46 
-1.91277 0.643622 4.61871 7 24 50 
-1.45753 -0.237887 5.30283 15 30 71 
-1.54022 -0.224528 5.22282 7 26 58 
-1.42718 -0.308664 5.35205 19 19 53 
-1.43985 -0.216985 5.36261 17 32 73 
-1.45748 -0.211404 5.33775 27 27 53 
-1.43008 -0.321367 5.39947 22 20 34 
-1.4438 -0.322968 5.34134 12 21 60 
-1.46704 -0.116623 5.30205 60 93 138 
0.697064 -0.466217 7.58202 21 28 54 
-1.53876 -0.123986 5.2018 15 35 72 
-1.61095 -0.817577 5.11614 148 150 189 
-0.472466 -0.173355 6.51884 33 42 73 
-1.54818 -0.327943 5.18605 26 33 75 
-1.44994 -0.346856 5.34603 8 23 64 
0.80541 -0.497388 7.55764 19 29 56 
-1.42063 -0.371113 5.3278 21 20 38 
-1.47959 -0.373 5.29543 10 19 52 
-1.51064 -0.379138 5.30254 16 22 58 
-1.4535 -0.184495 5.28823 18 30 68 
-1.44927 -0.400881 5.34366 9 20 50 
-1.51431 -0.386434 5.2818 23 48 89 
-0.481515 0.141143 6.47945 32 37 77 
-1.01837 -0.215368 5.83174 44 40 65 
-1.91629 -0.526838 4.7959 11 36 77 
-1.53757 -0.379846 5.26256 35 32 63 
-0.541521 0.119176 6.35217 27 38 84 
-1.86919 0.653791 4.68838 30 33 50 
0.132029 -0.855206 7.36586 36 48 88 
-1.47134 -0.414895 5.31781 14 19 39 
-0.508137 -0.256889 6.51836 33 40 68 
-1.85589 0.628375 4.66605 36 38 61 
-0.993173 0.933146 5.71621 28 35 54 
0.80508 -0.11769 7.4912 17 19 40 
-1.97789 0.492609 4.58453 22 21 39 
-1.48127 -0.411571 5.30147 25 41 75 
-1.54389 -0.37627 5.20342 119 139 174 
-1.0965 -0.22967 5.71286 40 51 81 
-0.469624 -0.846361 6.64804 33 39 71 
0.544387 -1.23725 7.67507 53 71 111 
-0.584256 1.00439 6.18936 35 36 56 
-1.42915 -0.310087 5.35938 20 17 44 
-1.62198 -0.689786 5.08342 44 44 52 
0.804073 -0.451697 7.53223 18 25 51 
-1.47396 -0.104104 5.30946 130 152 199 
-1.44015 -0.11023 5.35636 13 28 61 
-1.42545 -0.32272 5.36748 21 19 32 
0.806062 -0.0654337 7.47493 21 27 53 
-0.513077 -0.13973 6.4463 11 18 62 
-1.98666 -0.383091 4.67417 27 37 62 
0.764751 -0.794955 7.63432 39 51 91 
0.807744 -0.803469 7.64471 39 51 93 
-1.53401 -0.417912 5.23755 31 33 54 
-0.468887 -0.703099 6.6205 34 40 66 
-0.477199 -0.170117 6.53444 38 46 82 
-1.55836 -0.135023 5.18503 27 29 50 
-1.42613 -0.146182 5.32624 21 23 46 
-0.51072 -0.960187 6.60019 28 45 91 
-1.52014 -0.422157 5.28863 22 31 62 
0.207813 -0.596363 7.48217 37 46 77 
0.168709 0.23852 7.21797 51 66 107 
-1.45677 -0.16736 5.28954 7 30 71 
-1.4867 -0.411991 5.31383 30 48 86 
-1.47233 -0.413416 5.32491 14 19 39 
-1.43253 -0.789734 5.26542 26 22 39 
0.208115 -0.844859 7.49105 33 43 78 
-1.54944 -0.328415 5.19341 29 35 67 
-0.499731 -0.737698 6.5506 23 34 56 
-1.29961 -0.618341 5.48087 54 65 87 
0.802759 0.45532 7.37063 26 33 59 
-1.92733 -0.540447 4.79294 119 125 161 
-1.92294 0.764894 4.6186 24 52 89 
0.771589 -0.486356 7.53782 21 32 60 
-1.86828 0.772306 4.6713 32 38 62 
-1.42385 -0.192431 5.33952 30 32 57 
-1.44651 -0.401468 5.33717 8 19 49 
-1.53572 -0.194897 5.243 22 24 47 
-0.576266 -0.746595 6.44428 22 28 54 
0.804279 -0.0155664 7.45849 26 33 62 
-1.50394 -0.380216 5.27254 12 21 52 
0.805582 -0.494536 7.54634 18 28 53 
-1.05539 -0.383228 5.85414 104 110 142 
0.769377 0.47056 7.36064 20 22 43 
-1.45035 -0.21348 5.30836 22 27 47 
-1.56495 -0.377263 5.30286 27 38 68 
-1.5682 -0.21526 5.1988 14 29 60 
-1.53196 -0.372139 5.23052 32 36 63 
-1.49494 -0.378317 5.343 6 22 56 
-1.43646 -0.375242 5.36481 19 19 31 
-1.45552 -0.231753 5.30605 14 27 61 
-1.52889 -0.226538 5.20069 16 21 40 
0.204552 -0.00608355 7.36949 32 39 68 
0.698422 -0.371046 7.55182 20 24 49 
0.655782 -0.354485 7.53787 18 22 47 
-1.57472 -0.34837 5.22038 25 32 61 
-1.45737 -0.362033 5.334 32 56 102 
0.653745 0.499616 7.33124 24 26 49 
0.806929 -1.24182 7.71586 43 56 100 
-1.97121 -0.122451 4.75441 45 49 74 
-0.557922 -0.19151 6.44208 29 43 72 
-0.583813 -0.189801 6.35604 50 55 84 
-1.5135 -0.41442 5.28974 31 33 56 
-1.4329 -0.195387 5.35136 24 33 62 
-0.587411 -0.722252 6.4885 65 69 96 
0.171315 0.238547 7.19322 43 57 94 
-0.477926 -0.702351 6.62535 23 31 67 
-1.45992 -0.228161 5.32197 15 30 63 
-0.475817 -0.124928 6.47732 25 32 51 
-1.5494 -0.246352 5.26988 15 21 45 
2.10608 1.03423 6.42526 24 28 55 
0.799393 0.0441889 7.4898 22 25 56 
0.806672 -0.40426 7.55686 16 22 48 
-0.580704 0.997042 6.1445 39 40 60 
0.654987 -0.411191 7.52831 23 27 62 
-1.86634 -0.365476 4.80585 28 29 50 
-1.43892 -0.403924 5.32213 13 16 33 
-1.43332 -0.322313 5.37932 20 19 33 
1.09488 -1.35431 7.98938 127 141 186 
0.803307 -0.0659634 7.52617 19 24 56 
0.536279 -1.21942 7.67136 25 36 56 
-1.52905 -0.331904 5.1784 29 35 59 
0.652966 0.499826 7.39577 38 42 69 
-1.04801 -0.380832 5.82755 123 134 166 
0.961338 -1.21045 7.75956 68 79 111 
0.764648 -0.0559975 7.43894 20 24 49 
-0.582631 -0.137839 6.34313 43 49 75 
0.799203 -0.107308 7.48742 19 23 50 
