ply                 
format ascii 1.0    
element vertex 1267
property float x    
property float y    
property float z    
property uchar red  
property uchar green
property uchar blue 
end_header          
-0.183494 1.80196 4.23736 39 39 41 
-0.321584 -1.35691 3.8393 154 153 159 
-0.36349 -1.3553 3.82643 151 157 155 
-0.361443 -1.34324 3.82744 155 155 153 
0.313307 0.580929 3.86125 135 75 21 
-0.199461 1.80463 4.23345 148 147 145 
-0.186087 1.80156 4.2222 169 168 163 
-0.173114 1.80715 4.17305 154 152 153 
0.587386 -0.932847 3.53355 126 85 0 
0.339439 0.58595 3.85863 41 0 0 
-0.806912 -1.27098 3.71493 120 118 121 
-0.746353 -1.37666 3.72073 132 141 158 
0.251111 0.546047 3.88847 232 223 158 
0.715668 -1.02153 3.52938 46 24 0 
0.271089 -1.07462 3.48633 191 173 127 
0.257524 -1.02586 3.4981 67 41 14 
0.0449279 -0.0945114 4.21636 20 20 18 
0.0556361 -0.0945801 4.21597 24 24 22 
-0.220411 1.82949 4.17021 171 167 164 
-0.74078 -1.1339 3.73705 148 161 170 
-0.316536 -1.16983 3.84821 137 138 140 
-0.226872 1.8442 4.08765 163 164 159 
-0.0289127 -0.0601604 4.22148 144 144 146 
-0.662828 -1.17683 3.76069 163 173 175 
-0.777052 -1.27167 3.71811 139 146 138 
0.171508 0.42918 4.31456 195 159 137 
-0.00394485 -1.09292 3.36601 138 131 102 
0.17066 0.440382 4.32095 180 144 128 
0.247149 0.555889 3.87863 235 226 169 
0.729586 -1.02837 3.54911 182 161 68 
0.260737 0.560089 3.8784 218 177 121 
-0.452859 0.548881 3.79334 158 153 147 
-0.59404 0.263287 3.47035 99 87 73 
0.248555 0.566645 3.87718 47 39 18 
0.2246 -0.0783344 4.22761 29 31 30 
-0.235354 1.84081 4.13206 130 133 126 
-0.348354 0.54065 3.70349 44 32 20 
-0.95166 -0.426388 3.76982 178 169 174 
0.357666 -1.14016 3.48279 228 220 173 
-0.362343 -1.26281 3.8287 157 159 158 
-0.778199 -1.24363 3.71465 166 166 166 
-0.698943 -1.27949 3.73715 163 170 176 
-0.310291 -1.37349 3.84212 194 195 187 
-0.0688977 -0.9881 3.37607 42 28 2 
-0.713381 -1.36024 3.73219 148 156 159 
-0.245974 1.83335 4.20917 184 176 174 
-0.266861 1.8298 4.22156 159 154 161 
0.347772 0.589877 3.85032 202 176 161 
-0.373976 -1.26542 3.82535 155 157 154 
-0.344511 -1.32861 3.83111 151 148 143 
-0.329953 0.584067 3.65216 98 87 69 
-0.0959015 -1.13079 3.31959 62 49 0 
-0.0987344 1.88152 3.82128 78 76 28 
-0.0476414 -0.0871514 4.21743 145 146 148 
-0.243132 1.85618 3.97375 46 34 12 
-0.230229 1.84511 3.98259 163 155 153 
-0.666541 -1.2139 3.76002 143 158 165 
-0.317508 -1.13945 3.85171 130 139 156 
-0.347651 -1.36061 3.83388 146 157 151 
-0.304655 -1.21248 3.84869 114 112 123 
0.153943 -1.36752 3.4534 136 56 45 
-0.246454 1.84932 4.11666 163 161 162 
0.293303 0.473082 4.33778 43 0 0 
-0.251924 1.84178 4.16398 154 146 144 
0.730386 -1.03158 3.53654 227 205 85 
0.0422652 -0.0526414 4.23807 43 43 43 
-0.741986 -1.13801 3.74709 149 162 168 
-0.355937 -1.33177 3.8292 164 164 156 
-0.663757 -1.2383 3.76194 160 173 181 
-0.394882 -1.28123 3.82187 131 136 140 
-0.237139 1.84567 4.08274 81 80 78 
-0.222784 1.82306 4.22418 35 34 30 
-0.0945743 1.88687 3.73396 100 91 22 
-0.30666 -1.35655 3.8448 150 149 154 
-0.694697 -1.18672 3.74368 139 154 161 
-0.22437 1.83208 4.08042 144 145 149 
0.349684 0.612173 3.88349 87 60 53 
-0.517391 -1.35104 3.78386 141 153 167 
-0.523542 1.78233 4.04332 138 160 121 
0.177785 0.523129 3.92525 175 156 139 
0.190853 -1.04691 3.49682 213 188 148 
-0.662299 -1.23493 3.74732 163 176 184 
1.02635 -1.25554 3.78323 46 42 31 
-0.613056 -1.31912 3.76631 172 187 180 
-0.508107 1.78503 4.03803 137 146 127 
-0.179166 1.8093 4.11883 116 118 117 
1.01932 1.09158 4.02219 55 48 42 
-0.345338 -1.34463 3.81958 32 30 31 
-0.257933 1.85848 3.7726 52 65 21 
-0.105861 1.87791 3.81091 220 209 164 
0.227073 -1.04368 3.49321 34 18 0 
-0.225103 1.85906 3.86047 137 96 6 
-0.0569045 -0.061407 4.22796 32 32 30 
-0.392881 -1.24447 3.81431 133 136 145 
-0.0865018 1.88526 3.82624 169 65 56 
-0.0565231 1.88418 3.82346 184 79 57 
-0.255313 1.87025 3.73132 69 83 24 
0.336961 0.599489 3.88447 31 4 0 
0.348143 0.607074 3.89354 25 14 10 
-0.456977 0.524332 3.78395 34 24 15 
1.05453 -1.25862 3.79243 28 19 22 
0.339419 0.604824 3.86095 31 13 9 
0.161318 0.574703 3.90749 126 118 107 
0.215065 -1.03646 3.4949 55 36 4 
-0.208931 1.83183 4.10366 146 146 148 
-0.493348 -1.20903 3.80379 137 147 148 
0.567008 -1.05915 3.62775 119 78 0 
-0.224195 1.83925 4.09985 123 124 128 
-0.251803 1.82912 4.22346 150 148 149 
-0.300416 1.87529 3.88526 75 55 44 
-0.503411 0.313563 3.91803 46 29 19 
0.361614 0.612216 3.87051 181 158 126 
0.379351 -1.21148 3.45269 198 169 153 
-0.692077 -1.35347 3.7327 168 174 172 
0.18939 0.580116 3.91087 169 143 126 
-0.23065 1.82898 4.23805 166 167 162 
-0.281434 1.82267 4.22439 35 34 39 
-0.229061 1.817 4.06878 36 37 31 
-0.772743 -1.26938 3.70749 140 146 136 
-0.253525 1.8634 3.85052 52 28 0 
-0.23064 1.84464 4.10862 154 155 149 
-0.337928 -1.34738 3.8363 150 149 145 
-0.89742 -0.370307 3.787 51 71 95 
-0.917573 -0.485029 3.77437 172 167 174 
0.718357 -1.03227 3.53568 39 17 0 
-0.10031 -0.995979 3.34812 82 65 47 
0.0198815 1.89674 3.76878 125 83 58 
-0.220508 1.86451 3.72074 48 90 66 
-0.277544 1.83334 4.23981 20 23 30 
-0.260889 1.83991 4.22988 135 133 121 
-0.175379 1.79807 4.10916 128 127 125 
-0.0293619 -0.112779 4.13027 40 41 45 
-0.2301 1.87585 4.29643 117 118 122 
0.292701 0.490303 3.66752 195 168 151 
0.302455 0.499873 3.68552 114 70 41 
-0.211354 1.89294 4.32621 137 137 135 
-0.226866 1.95172 4.41405 187 185 190 
-0.759329 0.188506 3.9064 203 194 179 
-0.22284 1.84891 4.25352 175 166 167 
0.298231 0.506002 3.7158 37 26 0 
-0.595405 1.93926 4.07714 141 140 119 
0.222588 0.501719 3.7067 51 32 17 
0.190423 0.489096 3.67407 200 188 130 
-0.538337 1.95553 3.94465 147 149 146 
0.310511 0.48174 3.65493 27 11 0 
-0.202606 1.92201 4.28307 85 85 83 
-0.322747 0.526871 3.50136 196 187 180 
-0.369362 1.98131 3.96609 99 84 65 
0.212748 0.479114 3.62979 65 29 15 
0.337614 0.482146 3.66213 247 197 172 
-0.191534 1.95223 4.42962 144 142 147 
0.00743915 0.514601 3.45487 237 220 190 
0.28958 0.557798 3.54996 46 33 17 
0.288267 0.481665 3.66577 168 168 114 
-0.17733 1.89656 4.35147 177 179 178 
0.331898 0.542885 3.66834 74 45 5 
-0.197627 1.92783 4.29387 160 161 163 
-0.439122 0.48617 3.66256 157 152 148 
0.298719 0.484476 3.67643 209 194 151 
0.299889 0.470684 3.64313 111 80 51 
0.256824 0.497826 3.67445 104 54 1 
-0.58121 1.91963 4.06165 156 157 152 
-0.179432 1.89906 4.36891 159 160 162 
-0.937577 -0.358576 3.89537 160 152 165 
-0.959085 -0.386769 3.79105 183 146 163 
-0.0747892 2.52017 3.36657 28 19 20 
0.216946 0.4761 3.6846 167 155 83 
-0.499031 1.94986 4.10279 165 171 169 
-0.299524 0.228377 3.78574 153 138 133 
-0.950216 -0.464845 3.94634 62 60 71 
-0.179153 1.90065 4.38507 52 55 60 
-0.244891 1.96814 4.28368 137 135 136 
-0.174017 1.90632 4.39608 158 162 161 
0.0848293 -0.0705899 4.16734 30 32 29 
0.15685 0.522692 3.63234 176 167 138 
-0.183663 1.95644 4.40223 144 143 148 
0.138625 0.538588 3.46588 98 77 50 
-0.0260632 0.454322 3.64656 152 153 207 
-0.176301 1.86641 4.34735 149 153 156 
-0.617515 1.88239 4.19201 40 43 50 
-0.555707 0.249345 3.79424 228 195 178 
0.148243 0.562761 3.51401 211 189 165 
-0.547233 1.89035 3.77788 178 192 203 
-0.243136 1.95293 4.10241 58 37 18 
-0.584488 1.90823 3.79435 178 205 226 
0.25989 0.502915 3.68064 210 171 102 
0.568564 0.508657 3.80382 94 97 40 
-0.587602 1.90136 3.7817 72 100 124 
-0.0267651 0.435458 3.63753 214 202 204 
-0.0415273 -1.05205 2.36092 210 196 170 
-0.0892232 1.95402 3.81694 109 92 22 
-0.586821 1.93413 3.81886 79 105 130 
-0.568707 0.272949 3.81298 88 81 52 
0.127561 0.556567 3.48785 104 75 41 
-0.234979 1.97547 3.9824 103 54 0 
0.127999 0.547446 3.46327 99 69 43 
-0.323169 0.284095 3.84287 119 128 109 
-0.566007 1.91452 3.78052 107 122 151 
0.143763 0.553022 3.47294 190 165 145 
-0.622711 1.9174 3.77892 171 206 238 
-0.590112 1.88109 3.72966 85 115 141 
-0.168324 1.90111 4.31169 149 147 150 
-0.561106 0.237749 3.67498 251 244 218 
-0.582217 0.247155 3.70204 43 25 15 
-0.243608 1.92877 4.35103 155 157 156 
-0.368132 2.00572 3.86212 83 77 61 
-0.487707 0.256822 3.72889 104 83 64 
-0.605989 0.165874 3.92452 209 200 191 
-0.243072 1.93478 4.21803 37 40 45 
-0.349773 0.484301 3.57215 77 64 47 
0.572203 0.481241 3.80009 189 156 87 
-0.20792 1.94176 4.27788 175 177 172 
-0.211577 1.94552 4.30706 163 163 161 
-0.246674 2.01074 4.36291 123 120 127 
-0.378009 1.97821 3.80122 151 153 148 
-0.370319 1.9836 3.80755 47 45 30 
-0.525324 0.276222 3.75492 81 55 42 
0.0387653 2.04041 4.05643 95 76 36 
-0.240227 1.96695 4.25329 168 172 183 
-0.296753 2.03388 3.85909 61 46 13 
-0.526728 1.91994 4.24825 44 49 17 
-0.775638 0.160476 3.93422 169 171 166 
-0.590292 1.87534 4.18813 127 126 134 
-0.630695 0.18368 4.02941 210 200 191 
0.534754 0.47222 3.79889 222 221 191 
0.173159 0.533287 3.55408 74 53 34 
0.25565 -0.96746 2.99165 184 144 118 
0.31466 0.524787 3.67712 164 135 129 
-0.781576 0.182598 4.02504 234 237 226 
-0.393132 0.292689 3.72362 65 37 25 
-0.452235 0.294163 3.72581 57 26 6 
1.03561 1.01817 3.99671 187 185 173 
-0.488716 0.300497 3.73797 45 14 12 
-0.224237 1.94337 4.20646 125 126 128 
-0.513668 1.87298 4.12069 170 174 177 
-0.493168 1.93022 4.20031 126 135 130 
-0.174509 1.89701 4.32752 193 193 191 
0.161613 -0.976138 2.9557 71 44 27 
-1.21113 1.72166 4.43421 147 194 220 
-0.374363 0.339935 3.81953 47 39 16 
0.135997 -0.976075 2.85113 82 63 33 
-0.237188 1.96493 4.22727 119 119 121 
0.208782 -0.983505 2.8997 62 57 25 
-0.219622 1.94508 4.19345 146 144 149 
-0.212259 1.9732 4.18728 34 34 34 
0.368155 0.137699 3.98843 133 123 114 
0.101999 -1.03364 2.69957 211 196 139 
0.280001 0.506582 3.66892 149 87 26 
1.02855 0.291393 3.59321 177 179 165 
0.442226 2.04386 4.05201 128 132 141 
-0.250318 2.00106 4.03515 71 48 0 
0.312212 0.51524 3.66985 33 2 0 
0.842547 1.67017 4.32269 153 158 161 
0.118444 -0.985438 2.81881 255 252 182 
-0.216247 1.93667 4.14423 151 147 146 
0.0511194 2.05768 4.09486 80 64 5 
-0.446457 0.495078 3.65239 160 152 149 
-0.589196 1.96934 3.68848 166 166 158 
-0.242575 2.00018 4.43387 153 152 148 
-0.24183 1.9516 3.574 186 166 175 
-0.562734 1.90511 4.1245 52 49 42 
-0.539336 1.99541 3.71073 81 76 70 
-0.109448 1.95104 4.16568 54 28 1 
-0.195653 1.92316 4.26609 167 171 172 
-0.577075 0.0375989 3.75406 121 107 94 
-0.281385 2.03398 3.73145 162 148 135 
0.909907 1.32972 3.97034 178 181 174 
0.117664 -1.02316 2.76955 251 232 155 
0.0744092 -0.0784944 4.07158 47 49 48 
0.176473 0.449519 3.68505 156 95 67 
-0.410139 0.279229 3.86289 174 147 130 
-0.534526 0.263832 3.81178 53 33 32 
-0.450059 0.303397 3.8948 40 23 16 
-0.230824 1.91268 4.21678 106 101 105 
0.209739 0.462899 3.66694 215 215 105 
-0.752471 0.218063 3.98081 199 197 184 
-0.565588 1.93819 4.00431 149 165 103 
0.21628 0.508252 3.67495 46 28 18 
0.187069 0.542575 3.57002 106 98 85 
0.00994838 0.421385 3.6621 184 187 206 
-0.300832 1.99491 3.80698 210 195 176 
0.167091 0.478736 3.67879 235 180 150 
-0.479139 0.269579 3.69136 56 31 11 
0.324702 1.84537 4.45325 101 104 113 
0.00808477 0.524555 3.45771 221 204 174 
-0.993939 1.8202 3.91852 153 181 202 
-0.259428 1.98752 3.94567 97 102 70 
0.16267 -0.977091 2.9223 45 18 0 
-0.518142 1.89872 3.91129 132 144 134 
-0.752118 0.172403 3.86922 242 231 213 
-0.458798 0.313743 3.7467 47 24 16 
0.136759 -0.971695 2.82832 49 37 13 
-0.54404 0.496017 3.66074 173 164 159 
-0.48631 1.93296 4.18623 129 149 112 
-0.0376973 0.441063 3.66026 159 149 160 
0.0296227 0.516227 3.56735 210 180 172 
0.166629 0.3716 4.123 87 49 40 
-0.256729 1.95974 3.83819 108 118 58 
-0.557617 1.91287 4.13745 164 161 156 
-0.50505 1.89423 4.18257 119 127 112 
0.290638 0.566188 3.57984 156 143 126 
-0.357876 0.274859 3.79564 25 7 0 
-1.07386 1.86884 4.03218 90 154 189 
-0.579467 1.89097 3.77827 150 176 193 
0.126436 0.349908 4.03274 85 54 33 
-0.544512 0.223948 3.71231 61 41 30 
-0.592128 1.8956 4.09367 182 187 181 
0.206321 0.495856 3.7523 224 219 138 
-0.214707 1.89921 4.39315 119 127 140 
0.137367 -0.0622718 4.1183 50 52 49 
-0.600894 1.98001 3.69419 150 141 132 
-0.494565 1.90431 4.1862 124 135 95 
0.12728 -0.983459 2.93415 86 61 39 
-0.506482 1.93615 4.07506 134 138 121 
-0.303872 0.251326 3.86534 36 31 28 
-0.519129 0.258429 3.68927 201 167 140 
-0.40339 0.288746 3.77736 110 87 69 
-0.536421 1.95708 3.69599 106 102 93 
-0.219621 1.92939 4.11958 43 42 40 
-0.501674 1.88972 4.14852 128 138 139 
0.132941 -0.9698 2.94772 86 58 19 
-0.00708793 0.428389 3.71497 166 160 164 
-0.862431 0.190126 4.10709 170 165 169 
-0.947887 -0.268123 3.8224 189 158 176 
-0.546597 0.241662 3.91679 42 31 27 
-1.19275 1.73847 4.42289 153 181 202 
-0.127807 0.486635 3.69718 41 21 32 
0.387354 2.07006 4.0425 107 110 117 
0.343445 0.452906 3.78691 117 73 34 
0.0579856 0.333341 4.0065 106 65 69 
-0.134472 2.88983 3.63213 136 122 122 
0.271306 0.495315 3.65699 243 215 115 
0.296908 0.506972 3.74358 221 228 116 
-0.862133 0.197439 4.03055 59 60 65 
0.254971 0.394875 4.08039 124 57 66 
-0.328531 0.511036 3.5683 169 160 155 
-0.51982 1.87939 4.17488 118 126 128 
0.180001 0.485009 3.68106 135 21 10 
-0.482291 1.91492 4.18544 40 54 3 
-0.0408121 -0.104442 4.13929 39 40 45 
-0.962658 1.90075 3.9156 153 191 230 
0.161185 0.498302 3.68179 171 151 127 
-0.595018 1.92205 4.28336 52 60 37 
-0.515868 1.89228 4.19788 122 122 112 
-0.594622 0.167923 3.92236 193 180 171 
-0.21482 1.96989 4.16783 171 169 170 
-0.283204 1.93093 4.39168 58 43 48 
-0.353265 0.309939 3.84142 50 44 18 
-0.598969 1.96566 4.09888 84 80 17 
-0.175258 1.92067 4.30609 72 74 71 
0.0229999 0.441209 3.71696 115 122 168 
-0.238192 1.92444 4.30432 128 122 122 
0.286875 0.458608 3.759 227 206 125 
-0.63425 1.95057 3.81313 95 136 166 
0.0350177 0.513169 3.47483 173 141 120 
-0.958337 -0.484051 3.7945 178 181 190 
-0.095277 0.449812 3.71076 38 51 96 
-0.163163 1.90082 4.28971 59 60 64 
0.314064 0.563676 3.61448 57 51 55 
0.0990255 -0.981093 2.91809 63 37 10 
0.158111 2.54674 3.49887 54 51 44 
-0.331142 0.505909 3.45677 168 158 146 
0.133003 -0.944763 2.91247 103 82 39 
-0.792689 0.210169 3.94766 75 98 116 
-0.976162 -0.10792 3.90795 118 121 152 
-0.063432 0.532809 3.44988 222 190 141 
0.338988 0.564842 3.71337 157 126 71 
-0.476538 0.308067 3.75379 51 28 10 
0.374826 0.486385 3.80737 188 106 30 
0.485573 0.477617 3.84595 93 49 36 
-1.17236 1.75522 4.20643 167 203 215 
0.511799 0.482225 3.78902 224 213 181 
-0.110435 0.439935 3.62388 102 110 159 
0.273313 0.48594 3.74217 130 107 13 
0.802451 0.562622 3.74719 207 152 113 
-0.0347683 -0.075345 4.13636 133 134 139 
0.368388 0.590764 3.56989 223 196 143 
-0.194571 1.92631 4.41548 144 144 146 
-0.318643 2.03439 3.75481 102 94 75 
-0.319402 2.05293 3.75549 109 104 75 
-0.191152 1.87711 4.33845 38 38 38 
0.13606 0.554511 3.4954 231 205 178 
-0.235438 1.98309 3.99328 118 70 21 
-0.254437 1.97063 3.99161 141 117 45 
0.281627 0.463797 3.6289 74 67 13 
0.312272 0.485608 3.66503 27 11 0 
-0.547196 0.479199 3.66694 118 116 103 
-0.303369 2.03727 4.08777 88 74 39 
0.124211 -0.954765 2.95493 202 184 134 
-0.438332 0.479608 3.64887 177 170 164 
0.0376519 2.00294 3.89607 91 61 0 
-0.266525 1.92226 4.36053 139 137 140 
-0.485325 0.241195 3.67983 105 86 69 
0.555048 0.488423 3.75305 85 100 57 
-0.584226 1.94365 4.09434 163 165 154 
0.205896 0.482583 3.7501 77 22 0 
0.338094 0.493907 3.65683 66 48 0 
0.209018 -0.978028 2.87721 61 46 27 
-0.491253 1.98127 4.16935 143 144 148 
-0.6235 1.88834 3.74691 49 83 111 
0.271216 0.475318 3.59353 255 240 181 
0.113999 -0.986255 2.83616 57 25 0 
0.290647 0.561489 3.54411 181 164 146 
0.288216 0.552286 3.52929 156 140 125 
0.317187 0.53433 3.68791 56 32 20 
-0.320383 2.00972 3.74937 203 183 174 
-0.255436 1.965 4.37078 67 69 64 
-0.117806 1.86548 4.07026 27 9 0 
0.0758655 -1.02357 2.6777 108 89 30 
0.143615 0.428474 3.66846 193 177 162 
0.895009 0.959815 3.81601 158 159 141 
0.0919155 -1.0394 2.79031 255 248 184 
-0.51717 1.89544 4.15211 192 194 193 
0.0973847 -1.03024 2.6714 211 196 139 
-0.32042 2.00629 3.71418 246 239 221 
-0.224978 1.96749 4.26208 176 173 180 
-0.0428983 -1.05016 2.34784 181 165 149 
-0.253493 1.96538 4.36153 185 185 177 
-0.242188 1.96406 3.58779 186 169 177 
-0.233995 1.92964 3.5449 172 157 160 
-0.984085 1.74759 4.30725 196 205 210 
-0.219841 1.93641 4.24235 136 137 142 
-0.0308132 -1.04741 2.40139 199 182 166 
-0.188367 1.98327 4.34856 20 23 28 
-0.204976 1.95827 4.27881 141 145 146 
-0.112685 0.42081 3.69687 169 176 205 
-0.598864 0.104658 4.00518 255 249 231 
-0.621681 1.90076 4.23762 134 137 128 
0.357774 0.122393 3.93177 128 115 107 
-0.615291 1.90378 4.22625 114 117 122 
-0.61796 1.89003 4.20397 40 43 50 
0.332407 0.548108 3.6899 197 169 132 
0.191111 0.540359 3.57916 147 131 115 
-0.481776 0.279786 3.72587 81 55 32 
-0.517544 1.91086 4.22224 129 130 116 
0.275996 0.435434 3.72873 81 53 5 
-0.105467 0.325075 4.03501 223 175 153 
-0.750434 0.164361 3.86114 178 170 159 
0.233108 0.494294 3.7072 253 217 159 
0.21048 0.466203 3.67511 215 215 105 
-0.50428 1.88519 4.16952 119 127 112 
-0.183659 1.9174 4.34583 158 156 159 
-0.492733 0.321981 3.80175 34 8 7 
-0.565166 1.89345 4.17278 186 182 171 
-0.76013 0.190135 3.92934 212 202 190 
1.28577 3.33837 4.91993 75 71 70 
-0.845265 1.80316 4.31999 117 119 134 
-0.783409 0.159124 3.94345 174 176 173 
0.0713449 -1.03238 2.64258 65 35 7 
0.351491 0.563625 3.7286 173 154 112 
0.222485 0.541607 3.71756 162 141 124 
-1.2217 1.7488 4.47637 153 210 239 
0.198085 0.46928 3.701 71 28 0 
0.0135846 0.438359 3.70776 180 182 195 
-0.408376 0.324965 3.83548 103 72 51 
-0.483665 1.93825 4.21045 34 44 0 
-0.157887 1.85392 4.20368 121 125 128 
-0.487523 1.94742 4.20553 129 149 112 
0.403821 0.568787 3.59612 99 85 59 
-0.281131 2.00966 3.70408 187 175 161 
-0.408593 0.266676 3.82492 161 134 117 
-0.0923187 0.437572 3.68634 187 188 208 
-0.327369 0.531887 3.52562 131 120 102 
0.0333017 0.542927 3.54108 67 37 9 
0.291678 0.460431 3.7401 96 88 39 
0.518202 0.509573 3.72326 124 73 0 
0.260779 0.47307 3.71853 100 73 28 
-0.484339 1.96958 3.71802 93 91 76 
0.127462 0.337744 4.00177 168 140 119 
0.260399 0.507514 3.69916 137 76 31 
-0.398671 2.0241 4.00168 114 113 93 
-0.259401 2.00703 3.96902 84 98 65 
0.0957544 1.58403 4.52704 43 42 37 
-0.284007 1.94964 4.41846 58 43 48 
-0.52456 0.223658 3.78418 35 21 20 
0.296817 0.513003 3.66238 213 151 140 
0.144969 -0.971363 2.84519 111 89 50 
0.342866 0.513932 3.66756 166 154 72 
-0.972109 -0.321896 3.78295 149 122 137 
-0.484505 0.271875 3.72028 91 64 45 
-0.0748147 0.444336 3.59067 108 117 174 
0.407694 0.480977 3.7672 133 111 36 
0.197058 0.505619 3.71697 200 188 130 
-0.601232 1.92609 4.12619 88 91 80 
-0.524512 1.86799 4.1733 103 111 64 
-0.500981 1.93477 4.23978 45 48 19 
0.898112 1.30823 3.9363 180 182 177 
0.923734 1.31626 3.95937 99 91 80 
-0.429881 2.00787 4.11242 181 161 126 
0.350176 0.479878 3.69533 131 103 0 
-0.568683 1.96132 4.03579 149 165 103 
-0.97085 -0.47756 3.8748 166 164 169 
-1.07666 1.83422 4.00651 90 148 185 
-0.582934 1.90141 3.76837 126 154 178 
-0.53334 0.257937 3.79115 53 33 32 
-1.08286 1.87454 4.05664 23 115 152 
0.225107 0.516028 3.70971 174 137 131 
1.15387 0.905095 4.00591 109 112 103 
-0.595512 1.87572 3.71228 198 232 255 
-0.255811 1.93021 4.37839 59 56 63 
-0.305089 0.234647 3.80497 24 23 19 
0.29014 0.505881 3.68971 237 221 162 
-0.0183081 0.441118 3.64284 200 197 208 
0.155153 -0.973778 2.88015 42 16 3 
0.297251 0.507047 3.69675 114 77 50 
-0.448927 0.290847 3.85362 40 23 16 
0.174857 -0.969451 2.84121 69 34 30 
0.200269 0.478359 3.70815 217 221 127 
-0.458577 0.310515 3.73582 47 24 16 
-0.512303 1.9465 4.08841 77 83 57 
-0.287632 0.276708 3.7739 85 67 45 
-0.589722 0.275147 3.78787 81 58 44 
-0.510355 0.25684 3.71656 88 68 59 
-0.593911 1.92498 4.05821 141 140 119 
-0.376838 2.02118 3.88873 82 79 70 
0.180661 0.462933 3.71891 149 88 60 
-0.285455 0.242155 3.80903 177 160 132 
0.00594599 0.51438 3.43634 237 222 189 
-0.370686 2.04552 3.99801 68 71 52 
0.471218 0.453932 3.78537 80 33 23 
-0.115389 0.496847 3.65255 155 136 122 
-0.429828 1.99385 3.73195 125 121 110 
0.13196 -0.969319 2.9418 86 58 19 
-0.532611 1.97127 3.68966 221 211 199 
-0.524997 0.223214 3.7104 65 43 30 
-0.598491 1.95743 4.08825 84 80 17 
0.438547 2.0351 4.03975 92 96 105 
-0.213181 1.94581 4.45913 104 112 123 
-0.359101 0.290074 3.84512 25 7 0 
-0.0529866 -0.119376 4.09674 62 63 67 
0.0329229 0.50649 3.45985 180 146 121 
-0.07849 2.01975 3.99936 169 71 60 
0.0396027 -0.104577 4.15924 50 51 53 
0.179926 0.476422 3.65269 204 115 109 
0.138927 -0.976698 3.01528 52 34 10 
0.369465 0.475617 3.77994 180 90 14 
0.0272796 0.458495 3.76801 130 137 181 
-0.786062 0.197871 3.906 56 77 96 
-0.769785 0.183238 3.91491 140 132 109 
-0.0579478 0.445159 3.68475 85 76 95 
0.161836 0.363032 4.0965 82 44 35 
-0.367682 1.97517 3.87142 87 81 55 
-0.348596 0.506345 3.53817 107 96 92 
-0.327362 0.32428 3.91979 34 24 0 
0.326208 1.85269 4.46407 101 104 113 
-0.213068 1.92989 4.16579 84 83 89 
-0.563963 1.96778 4.04409 61 74 21 
0.136228 -0.946503 2.96829 75 54 7 
-0.803977 0.178176 3.91404 183 197 206 
-0.587975 1.94244 4.18597 113 117 116 
-1.00788 1.8736 3.98768 127 161 186 
-0.900505 -0.298516 3.62034 13 45 86 
-1.08713 1.87353 4.12962 25 51 76 
-0.366959 2.05852 4.01164 177 177 153 
-0.462849 0.334222 3.78166 43 23 12 
0.0374932 2.00967 3.90623 88 61 16 
-0.211013 1.99721 4.22528 27 25 26 
-0.592671 1.90726 3.80352 143 165 188 
-0.614708 1.90139 4.21426 188 190 187 
-0.401877 0.308849 3.76571 57 38 21 
-0.407382 0.320473 3.8208 103 72 51 
-0.485942 0.281951 3.75255 66 43 27 
-0.396627 2.03446 3.93766 156 150 150 
1.06703 0.380154 3.68651 194 192 179 
-0.15782 0.352426 3.9826 111 56 59 
-0.590454 0.0744335 3.86866 111 99 83 
-0.114529 1.91142 4.1327 46 20 0 
0.146577 -0.972042 2.85303 111 89 50 
-0.285081 0.302019 3.83302 190 175 156 
-0.591793 1.94686 3.83541 45 73 97 
-0.4855 1.91669 4.16392 102 120 94 
-0.237177 1.9842 4.25231 125 124 129 
-0.514518 1.92742 4.18812 62 67 60 
-0.224345 1.99521 4.27461 135 137 136 
-0.939244 -0.469722 3.88954 62 60 71 
-0.48672 1.97773 4.27161 35 49 0 
0.214664 0.493862 3.69728 111 103 28 
-0.582942 0.255274 3.72694 26 7 9 
-0.574233 0.289004 3.84335 251 244 218 
-0.515306 1.87736 4.132 138 141 146 
-0.170435 1.94559 4.39115 154 153 151 
-0.609001 1.97187 3.86499 54 86 111 
-0.487898 1.92876 4.10018 149 149 147 
-0.57671 0.280127 3.83261 238 227 205 
-0.54731 0.247089 3.93401 42 31 27 
-0.623863 1.93802 3.80522 183 216 247 
-0.51734 0.245609 3.75349 55 35 24 
-0.506953 1.90506 4.19558 117 129 115 
-0.600242 1.99285 3.71396 177 169 158 
-0.283532 0.225141 3.77642 219 210 195 
-0.528034 0.239603 3.84078 35 21 20 
-0.63987 1.93991 3.65878 103 92 96 
-0.112693 0.411847 3.67269 201 204 221 
-0.169659 1.88943 4.29285 162 160 163 
-0.532212 1.87857 4.17749 123 142 110 
0.153927 -1.0059 2.84772 190 176 131 
-0.378749 2.00549 3.83296 166 166 158 
-0.204627 1.98381 4.31339 141 145 146 
-0.296836 2.0507 3.87794 50 36 10 
-0.246051 1.99177 4.33849 126 124 127 
0.251981 0.452071 3.66591 98 68 34 
0.00982847 0.416321 3.63538 49 52 87 
0.57941 0.49222 3.82657 211 181 91 
-0.0892955 0.449682 3.71974 191 192 210 
0.299053 0.48634 3.81152 117 97 24 
-0.226763 1.91387 4.2407 95 104 103 
-0.24853 1.89405 4.20587 53 49 48 
-0.527134 1.8885 4.20229 103 111 64 
0.391413 0.466529 3.73856 199 65 54 
-0.0255272 -1.05352 2.44372 211 192 177 
-0.614727 1.91491 4.27054 141 157 121 
0.600543 0.612425 3.78429 95 38 19 
-0.197755 1.89789 4.22726 183 185 182 
0.047894 2.05853 4.10706 183 170 102 
-0.251265 1.94215 4.30926 173 166 158 
-0.199765 1.89861 4.24712 168 170 169 
0.502105 0.496788 3.77588 62 62 34 
0.15393 0.0994244 4.02972 163 164 166 
0.559596 0.496341 3.7731 83 92 35 
-0.599555 1.90543 3.75127 198 232 255 
-0.247632 1.95479 4.34255 50 45 41 
-0.243907 1.98558 4.29176 33 36 41 
-0.239878 2.04832 4.23588 56 35 18 
-0.318006 1.9811 3.71714 208 183 179 
-1.01439 -0.0686175 3.90521 189 162 171 
-0.243492 1.91514 4.33072 155 157 156 
-0.499817 1.95669 4.11485 180 186 176 
0.24915 0.478978 3.67708 75 69 0 
0.0144193 0.55875 3.53444 248 231 205 
0.137679 -0.961235 3.03911 221 202 146 
-0.966656 -0.11179 3.84713 174 208 255 
-0.266369 1.94445 4.3908 162 160 163 
0.0617473 -0.0616981 4.16638 146 148 147 
-0.982412 -0.103209 3.93117 109 92 124 
-0.44837 0.457363 3.61304 57 44 36 
0.235184 -0.916795 3.03556 121 110 108 
0.130041 0.481455 3.66155 173 159 148 
0.51315 0.499978 3.70013 109 52 0 
-0.282796 1.98273 4.46427 37 26 24 
0.230362 0.50496 3.71607 64 12 0 
0.0209418 0.534374 3.53341 255 253 220 
-0.217704 1.90944 4.36773 156 156 154 
0.943582 0.69294 3.62751 177 179 166 
-0.547199 0.483587 3.67538 217 212 192 
0.0945626 -1.03808 2.68587 214 192 135 
0.0894497 -1.029 2.63944 168 155 85 
0.306531 0.499615 3.69462 179 165 126 
0.302599 0.483807 3.64294 169 147 134 
-0.48473 1.98994 3.70938 92 93 79 
0.0708792 -1.02392 2.64356 255 241 172 
-0.213001 1.90746 4.40431 114 122 133 
-0.3079 2.02011 3.73472 96 84 44 
0.331834 0.480771 3.62429 66 48 0 
-0.445407 0.501924 3.68634 22 11 17 
-0.541035 2.01711 3.73653 81 76 70 
0.987735 0.597953 3.70227 158 164 150 
0.140323 -0.974378 2.95689 70 36 8 
-0.989526 -0.31028 3.85863 192 170 183 
0.128709 -0.975056 2.95652 152 133 103 
-0.411856 1.98084 3.9814 58 45 26 
0.341252 0.515976 3.68634 64 53 21 
-0.979112 1.73368 4.28611 167 174 180 
-0.607429 1.96891 4.10325 140 142 120 
0.128103 -0.977955 2.93579 41 27 0 
-0.981365 -0.475699 3.91155 181 184 193 
0.150259 -1.00687 2.84804 54 36 0 
-1.02109 1.73007 4.48998 245 234 230 
-0.307072 1.99581 4.09849 91 74 54 
-0.253834 1.92882 3.93017 67 52 9 
0.213078 -0.98223 2.86998 85 53 40 
0.115386 -0.98692 2.8433 57 25 0 
0.123428 -0.987838 2.85179 255 255 173 
-0.244504 1.91589 3.53295 183 163 172 
0.346351 0.554384 3.70535 173 154 112 
0.356571 0.140158 3.93476 103 88 81 
-0.248341 1.99251 4.35498 167 156 154 
-0.599214 0.181598 3.98315 181 168 160 
0.0906363 -0.984318 2.89398 90 55 49 
-0.394033 2.02159 3.82358 52 57 53 
0.28139 0.450472 3.73403 237 214 118 
0.294193 0.46503 3.75268 96 88 39 
0.203956 0.486229 3.72855 221 214 134 
-0.586647 1.88204 4.21452 133 147 114 
1.0285 0.993118 3.99205 137 137 127 
0.223727 0.546397 3.72816 162 141 124 
-0.75833 0.179708 3.91914 178 170 159 
-0.240021 1.99577 4.03053 228 165 70 
-0.625038 0.165995 3.96731 197 184 176 
-0.114456 0.505682 3.67229 168 145 129 
0.221957 0.487822 3.70137 251 244 190 
-0.102948 0.400131 3.62913 198 185 179 
-0.797489 0.217988 3.9766 75 98 116 
-0.433151 0.473476 3.6602 49 40 31 
-0.519783 1.9025 4.20697 118 126 128 
0.149876 -0.113204 4.02244 23 25 22 
0.0376056 0.526464 3.50464 185 149 125 
0.0458648 -0.113143 4.04013 25 27 26 
-0.487387 0.29474 3.71665 34 8 7 
0.0579591 -0.100831 4.07808 44 46 45 
0.462952 0.440406 3.75018 80 33 23 
-0.356958 1.9745 3.74335 171 169 157 
-0.0723369 0.467031 3.6487 119 129 182 
-0.581289 1.89406 4.12019 131 133 128 
-0.304591 0.246485 3.84365 24 23 19 
-0.103696 0.339449 4.13463 90 44 18 
-0.550743 1.87784 4.08877 177 176 171 
-0.365544 1.99255 3.92681 177 177 153 
-0.530104 0.243057 3.77686 65 43 30 
-0.247524 1.98866 4.1548 192 157 91 
-0.49432 1.91875 4.20699 120 133 87 
0.29236 0.448813 3.76703 83 72 44 
-0.208032 1.93501 4.27381 172 173 168 
-0.212521 1.93274 4.28589 167 167 165 
-0.570687 1.97983 4.05843 130 147 95 
-0.221272 1.9324 4.34337 188 186 187 
-0.330304 0.512477 3.58123 135 123 109 
-0.430797 1.98185 3.71617 111 111 99 
0.190981 2.10702 4.23375 119 118 114 
0.604508 2.88048 4.32728 128 123 130 
0.0834657 -1.04671 2.67179 90 63 18 
-0.181097 1.87985 4.30246 94 93 91 
-0.216385 1.95112 4.20118 38 35 42 
-0.666999 1.90156 4.25438 35 52 36 
-0.354856 0.267697 3.75885 65 51 38 
0.232875 0.51044 3.72948 64 12 0 
0.333647 0.476075 3.64777 247 195 173 
0.296166 0.477295 3.66433 222 203 163 
0.274562 0.445695 3.58634 134 120 75 
-0.608174 2.035 3.95808 197 224 245 
-0.246747 1.98525 4.38683 50 45 41 
0.569544 0.510018 3.81432 75 96 55 
-0.0163271 0.461877 3.69834 199 196 203 
-0.0294568 0.404421 3.55405 203 196 188 
0.20967 0.476146 3.60962 184 145 138 
0.223524 0.495577 3.71486 240 232 183 
-0.605495 1.88412 4.05796 115 129 94 
-0.228456 1.93089 4.10532 153 155 152 
-0.226602 1.97487 4.24826 142 142 142 
0.545315 0.491849 3.85109 229 218 188 
-0.519074 1.90267 4.16693 188 190 185 
-0.3459 0.481708 3.55391 75 58 51 
-0.587004 1.95428 4.10756 161 165 142 
-0.75545 1.90614 4.21934 171 172 167 
-0.156672 0.397486 3.70482 182 164 154 
-1.0027 1.85779 3.97265 187 212 232 
-0.347377 2.02768 4.16021 49 34 27 
-0.977052 -0.477384 3.89196 179 182 189 
-0.172863 1.94057 4.30862 111 115 118 
-0.988021 -0.409164 3.9506 173 171 185 
-0.251363 1.97467 3.99497 56 34 0 
-0.162082 1.89159 4.26891 23 24 28 
-0.458882 0.302789 3.69307 34 13 8 
-0.193168 1.87238 4.31601 182 180 183 
-0.400536 0.302672 3.74749 48 31 15 
0.124408 -0.984497 2.88072 64 39 0 
-0.605539 0.204884 3.46571 198 179 183 
-0.635117 0.208112 3.4763 44 39 43 
-0.551988 1.90877 3.79901 168 182 191 
-0.606482 1.95459 3.84553 77 109 134 
-0.159222 0.34291 3.95414 46 7 10 
-0.620813 1.86551 3.71998 62 96 123 
-0.62285 1.9302 3.79748 197 230 255 
-0.591585 1.90347 3.76227 60 90 116 
-0.997522 1.80141 4.38777 150 157 163 
-0.627243 1.90558 3.75654 61 102 132 
-0.368325 1.97924 3.82988 83 77 61 
-0.772956 1.79549 4.42977 231 230 228 
-0.509043 0.251941 3.70648 40 25 20 
-0.372816 2.02305 3.85899 25 27 16 
-1.2158 1.72232 4.45047 0 50 76 
0.00861205 0.524369 3.4758 248 231 201 
0.304636 0.587629 3.60796 190 173 155 
0.358903 0.583261 3.55744 58 46 24 
0.143107 0.566028 3.50795 57 32 10 
0.0869906 -1.04029 2.75427 84 64 13 
0.937479 1.18329 3.99494 197 197 189 
-0.321057 2.05272 3.76767 251 246 224 
1.31617 3.45263 5.00003 44 29 36 
1.01227 0.99051 3.93827 203 199 187 
0.01086 0.421306 3.64814 49 52 87 
-0.237135 1.97317 4.23758 125 124 129 
0.35337 0.442342 3.6979 187 85 13 
-0.0966678 2.01252 3.98433 230 215 184 
0.0681563 -1.02803 2.62887 137 114 83 
0.0125376 0.440458 3.71386 174 173 181 
-0.0925001 0.430447 3.66969 187 188 208 
-0.21523 1.98974 4.27748 118 119 123 
0.0859761 -0.981765 2.86366 49 13 13 
-0.320742 2.00994 3.7337 71 64 48 
-0.7664 0.151045 3.90816 233 236 225 
-0.830879 0.150732 3.93194 54 53 58 
0.574429 0.539844 3.66991 70 33 0 
0.163304 0.165354 4.07562 65 52 61 
0.374313 0.138755 4.00777 153 140 131 
-0.483712 1.9765 3.69656 115 112 97 
-0.633269 1.89145 3.60368 159 145 145 
0.162885 0.541361 3.67949 176 167 138 
-0.292543 0.206434 3.72681 188 174 145 
-0.495928 0.219205 3.76461 56 28 14 
-0.642187 1.96208 3.69541 178 167 163 
0.145634 0.120428 3.99835 171 160 166 
0.224152 0.526703 3.72955 30 16 5 
0.301784 0.525084 3.69288 213 151 140 
0.31881 0.515789 3.60402 83 54 22 
-0.573234 1.88015 3.76408 39 61 75 
-0.522857 1.85129 4.15025 63 69 31 
-0.598131 1.89692 4.21959 169 171 166 
-0.227073 1.93053 4.26552 95 104 103 
-0.427278 1.9959 4.11363 51 27 3 
-0.531886 0.247743 3.75741 53 37 40 
-0.403149 0.283471 3.85327 108 82 59 
0.0913015 0.320144 3.97003 167 145 132 
-0.572966 0.266009 3.78988 249 238 218 
0.484779 2.08143 4.16002 165 168 173 
-0.236642 2.00184 4.04163 240 182 57 
-0.936695 1.80302 3.60305 123 157 167 
-0.579899 0.307641 3.90489 251 244 218 
-0.446098 0.504487 3.69656 20 11 16 
-0.177095 1.93244 4.31099 162 166 169 
-0.250451 1.916 4.27278 173 166 158 
-0.9396 -0.473298 3.87277 164 154 165 
-1.0068 -0.0848693 3.85293 173 149 162 
0.155136 -1.01009 2.87517 51 32 2 
-0.561918 1.94498 4.02887 171 178 101 
-0.286465 0.311406 3.86131 192 176 153 
-0.84754 1.81306 4.33633 84 87 104 
-0.223175 1.9577 3.99069 121 68 0 
-0.539343 1.99114 3.73773 106 102 93 
-0.634278 1.89078 3.73146 179 220 248 
0.156768 1.93726 4.00993 13 11 12 
-0.246997 1.97361 4.31471 72 70 71 
0.0155997 0.348632 3.93209 44 0 6 
-0.517946 1.91779 3.94295 142 151 134 
0.15713 -0.984212 2.81106 57 32 1 
0.212683 -0.990108 2.87092 62 33 25 
-0.623498 1.93012 4.26417 37 40 47 
-0.555478 1.88158 4.18205 153 162 145 
0.359694 0.546281 3.74648 153 139 76 
0.13198 -0.982128 2.88052 70 49 22 
0.195465 0.550698 3.60467 147 131 115 
-0.583148 0.250269 3.76678 89 74 67 
0.19359 -0.978533 2.83463 47 44 25 
-0.503643 1.92165 4.05038 133 140 122 
0.528227 0.496212 3.71472 178 124 36 
0.133992 -0.971916 2.8124 54 43 23 
0.0368743 2.05521 4.07613 96 81 52 
-0.432048 0.466917 3.64391 49 40 31 
0.116975 -0.968411 2.88147 152 133 103 
0.132016 -0.958257 3.00334 221 202 146 
-0.235664 1.98824 4.00001 103 54 0 
-0.282344 1.96666 4.44186 42 33 36 
0.12508 -0.965192 2.90544 69 40 6 
-0.247723 2.04185 4.22887 205 169 83 
-0.411529 1.96707 3.96653 41 28 9 
0.142759 -0.967279 3.00631 175 149 88 
-0.220015 1.96863 4.4222 147 137 138 
-0.779456 0.188532 3.9481 184 183 179 
-0.0796284 1.97645 3.94443 204 106 105 
-0.383724 1.92065 4.36486 114 80 19 
0.183772 0.450876 3.60871 203 199 126 
-0.0457407 2.01206 3.98869 202 104 77 
0.21777 0.471242 3.69904 143 137 61 
-0.337936 1.82269 4.45526 134 138 163 
0.0892654 -0.101749 4.15371 43 45 44 
-0.726857 1.91752 4.33239 89 101 89 
-0.363656 2.0453 4.01091 117 122 90 
0.168423 0.518439 3.52047 62 36 19 
-0.101703 2.02555 4.22429 88 77 59 
-0.0108183 1.97157 3.86559 184 63 52 
0.141001 0.569583 3.55896 255 238 169 
0.054419 2.07915 4.12705 63 49 0 
-0.358233 0.368615 3.72312 95 40 37 
0.78025 0.513615 3.86548 37 15 18 
0.203928 -1.00017 2.93557 58 46 34 
0.353679 0.488397 3.71712 128 96 0 
0.243289 0.561823 3.71723 179 148 117 
-0.21549 1.98522 4.25335 30 29 35 
-0.594333 1.93091 3.797 60 90 116 
-0.606156 1.92293 3.80065 44 76 99 
-0.584477 1.88498 3.75574 51 79 103 
-0.371819 1.99273 3.98371 104 87 71 
-0.371758 2.02898 3.86721 25 27 14 
-0.38002 2.0134 3.83969 187 187 177 
-0.346865 2.00619 4.13031 45 31 28 
0.143985 -0.984717 2.91951 247 230 174 
-0.615281 1.94356 4.10011 178 182 168 
-0.500021 1.93169 4.08733 185 186 168 
-0.227634 1.94851 4.13048 134 136 131 
-0.375019 0.339493 3.77962 21 26 20 
-0.758545 1.91772 4.23549 171 172 167 
0.926733 0.379486 3.60747 175 169 157 
-0.112107 0.40476 3.6572 212 211 227 
0.151359 0.450196 3.72476 218 201 181 
-0.454079 0.501599 3.72344 24 10 7 
0.897596 0.460292 3.52865 185 186 170 
-0.0194403 2.55134 3.40821 187 178 173 
-0.314476 2.07429 3.7819 244 236 187 
0.902191 0.961184 3.8341 204 197 181 
-0.565224 1.90307 3.7645 107 124 152 
-0.216877 1.97457 3.8561 61 98 54 
-0.369362 1.94327 3.82971 85 84 66 
-0.597822 1.94773 3.85296 180 205 227 
-0.151001 0.398546 3.68598 126 108 98 
-0.638629 1.92151 3.77513 182 222 248 
-0.400327 2.00088 3.95913 64 71 63 
-0.996459 -0.366609 3.93133 108 94 107 
-0.961002 -0.111521 3.8338 105 185 236 
-0.952263 -0.425494 3.77444 172 164 179 
1.148 0.898585 3.9922 162 162 150 
-0.0350404 -1.06037 2.43255 196 185 139 
-0.99694 -0.0858047 3.8879 147 190 225 
0.00967682 0.5458 3.50307 255 241 217 
0.288021 0.57451 3.59534 196 186 159 
-0.303025 2.02078 4.07372 78 64 38 
-0.178022 1.85905 4.33084 156 160 163 
-0.317025 0.513698 3.49921 229 216 200 
-0.329178 2.05878 3.7685 27 19 17 
-0.307006 2.03969 4.15827 85 69 53 
-1.01195 1.88917 4.01514 171 193 214 
-0.603737 1.94469 4.07147 140 142 120 
0.595693 0.602933 3.75882 72 26 10 
-0.347206 0.471219 3.45877 141 128 120 
0.207486 -0.97612 2.87523 41 28 19 
0.232549 0.540165 3.64757 193 157 125 
0.344052 0.548276 3.68583 186 163 111 
0.193154 -0.978876 2.83786 45 41 29 
-0.648866 1.9663 3.68943 25 22 31 
-0.608977 1.82059 4.11468 31 35 36 
-0.447374 0.521217 3.73877 19 9 17 
-0.250033 1.92092 4.35917 176 171 175 
-0.596477 1.9436 3.65931 204 196 173 
0.224061 0.492763 3.68181 83 41 27 
0.351985 0.513769 3.74109 247 199 179 
-0.239654 1.99869 4.17466 38 20 18 
1.29153 3.36468 4.94695 145 137 126 
-0.488151 1.94478 4.12988 193 195 181 
-0.210929 1.97118 4.17616 139 141 140 
-0.158532 1.93287 4.32714 16 17 21 
-0.535192 0.261803 3.92094 35 25 24 
-0.282605 0.239815 3.82416 219 210 195 
0.914037 0.493348 3.60671 61 59 47 
-0.514769 0.22687 3.69144 75 44 26 
0.4967 0.468303 3.71303 178 173 151 
-0.234154 2.02743 4.31367 144 139 145 
0.337884 -0.831449 3.20391 50 34 8 
-0.226508 1.90551 4.14707 135 137 136 
-0.600682 1.91632 3.77055 192 224 249 
-0.417589 0.294874 3.77543 76 55 36 
-0.205677 1.94083 4.25924 154 158 159 
-0.240244 2.04171 4.36127 137 141 150 
-0.227984 1.98125 4.28042 146 144 147 
-0.38285 0.307664 3.66547 64 46 24 
-0.609697 1.86549 4.16832 187 188 190 
-0.0294667 2.10032 3.84705 255 205 208 
-0.542473 1.86907 4.15395 38 46 35 
-0.2365 2.0258 4.07158 238 178 68 
-0.54294 0.229874 3.87707 46 35 31 
-0.0999589 0.425481 3.74633 67 59 57 
0.853361 1.78869 4.64265 64 59 53 
-0.519254 0.238297 3.90697 173 156 136 
-0.0992764 0.436509 3.75419 205 192 184 
-0.517003 1.96477 4.27834 111 125 108 
0.414694 0.456259 3.766 224 203 174 
-0.567054 0.282418 3.8513 117 109 88 
0.352439 0.476238 3.84764 110 57 39 
-0.190816 1.88981 4.20665 124 127 134 
0.275398 0.436912 3.70001 225 204 111 
-0.483162 1.92111 4.1935 40 54 3 
0.255277 0.458537 3.69232 108 68 58 
-0.410532 1.95161 3.94644 41 28 9 
-0.658911 1.91081 4.27283 164 172 157 
-1.08801 1.87402 4.11527 135 210 252 
-0.955548 1.87314 3.8846 182 221 255 
-0.529281 0.236 3.75798 52 35 27 
0.033863 2.02961 4.04194 96 81 52 
0.148178 -0.970279 3.03861 192 164 101 
-0.562277 0.271201 4.0123 168 155 146 
0.196596 -0.970829 2.9453 58 19 24 
0.018481 0.520481 3.50529 247 230 202 
-0.607554 1.97891 4.19844 59 65 55 
-0.570766 1.94857 4.02198 166 178 106 
-0.667443 0.288492 4.17892 77 62 59 
-0.629589 1.93828 4.12358 94 116 93 
0.133706 -0.972853 2.91714 83 56 27 
0.146332 -0.975 2.9179 54 27 6 
0.603839 0.564097 3.6688 104 68 36 
-0.0729344 2.03877 4.02172 181 57 59 
-0.394991 2.05188 3.86184 46 51 45 
0.245883 0.544673 3.65874 85 55 19 
0.586946 0.558121 3.71091 52 22 12 
-0.845463 0.175696 4.02214 56 57 62 
-0.112543 0.524382 3.71608 165 142 128 
-0.51608 1.98187 4.14172 59 62 43 
0.116099 -0.97933 2.88595 90 66 38 
0.156029 0.150986 4.02731 66 54 66 
-0.359218 0.381014 3.75713 97 41 40 
-0.605116 0.202858 4.06265 193 181 169 
0.189089 0.476024 3.64553 190 189 109 
-0.961625 -0.258454 3.88363 200 166 180 
-0.557183 1.89832 3.96837 173 180 103 
0.182242 0.466759 3.63549 101 51 24 
-0.361897 1.96753 3.89126 205 204 174 
0.340472 2.02577 4.05829 129 129 131 
-0.592627 1.92445 4.13749 146 152 152 
-0.250298 1.90742 4.2566 170 163 155 
0.0327233 1.97483 4.00351 200 190 95 
-0.305419 0.242866 3.82531 26 22 19 
0.527974 0.499352 3.87616 160 126 91 
-0.217262 1.96935 4.19467 174 170 167 
-0.59954 0.266591 3.86348 54 26 5 
0.800192 0.538044 3.92784 25 13 13 
-0.0917358 0.440525 3.6964 187 188 208 
-0.987706 1.76345 4.32965 197 204 210 
-0.305126 2.02078 3.71757 111 98 64 
0.396242 2.08816 4.0492 150 150 160 
-0.538457 1.97463 3.71722 106 102 93 
0.0694529 -0.0680922 4.14972 36 38 37 
-0.485028 1.98692 3.74108 80 78 63 
0.250733 -0.950735 3.03891 70 45 23 
-0.226867 1.97081 4.44754 93 94 98 
-0.394857 2.03118 3.94968 29 30 34 
-1.01399 1.76419 4.32737 93 102 99 
-0.163175 1.86745 4.21892 97 98 102 
-0.10349 1.8673 4.45352 143 134 119 
-0.494188 0.285873 3.76479 209 173 139 
-0.965715 -0.36665 3.95196 169 127 139 
-0.978662 -0.413757 3.89378 181 180 196 
-1.22117 1.73172 4.46901 7 66 96 
-0.603643 1.9123 4.24325 156 158 153 
-0.350335 1.81192 4.58486 248 247 227 
-1.03632 1.76809 4.54758 241 241 243 
-0.202988 1.98549 4.32635 155 159 158 
-0.971435 -0.482327 3.86513 186 189 198 
-0.959471 -0.486704 3.848 101 93 104 
-0.0743652 2.5293 3.37461 28 19 20 
-0.243792 1.93578 4.23821 173 169 168 
1.27219 3.33406 4.87742 36 21 28 
0.155482 2.56854 3.50167 225 216 209 
-0.234318 2.03179 4.35466 130 125 129 
1.18893 0.985074 4.1191 211 204 186 
-0.236222 1.93328 4.18365 142 140 143 
0.984979 0.651735 3.70845 188 186 174 
-0.711764 1.90903 4.12723 198 199 194 
-0.000775541 0.491137 3.39448 212 196 170 
-0.638787 1.88584 3.59727 48 43 50 
-0.322012 0.506319 3.46373 224 216 197 
0.410541 0.586694 3.64386 85 77 64 
0.245368 -0.845552 3.45007 59 28 34 
0.145094 0.0816192 3.97157 164 165 160 
-0.316447 0.498313 3.46668 208 198 188 
0.189496 0.560477 3.61893 43 40 23 
-0.227241 2.01228 4.22445 120 121 125 
-0.346761 0.457339 3.4267 141 128 120 
0.256963 0.571966 3.72868 76 50 25 
0.224429 0.520022 3.60679 204 169 127 
0.354138 0.570154 3.73829 192 166 105 
-1.08424 1.90053 4.0827 106 196 233 
-0.496542 1.8785 4.01936 194 196 175 
-0.378167 1.99314 3.81614 180 180 172 
-0.574904 1.95692 4.12524 186 181 175 
-0.536931 0.204199 3.79142 92 74 62 
-0.635638 1.90204 3.74391 178 222 251 
-0.292624 0.184165 3.6421 218 203 172 
-0.596683 1.8334 3.6608 56 86 110 
-0.396661 2.01077 3.89159 178 174 163 
1.02453 0.550317 3.74689 99 104 84 
0.32849 0.493265 3.61831 86 75 43 
0.150793 -0.946438 2.98496 47 18 0 
-0.585451 1.93121 4.06719 179 185 125 
0.897555 0.459256 3.53053 200 201 185 
0.349538 0.508612 3.70997 93 64 34 
0.302547 0.49145 3.66577 220 194 159 
0.217865 0.486387 3.66345 74 46 34 
-0.442063 0.48546 3.67911 203 195 184 
-0.450521 0.481826 3.66966 26 11 14 
-0.542554 0.462683 3.62148 221 215 193 
0.340413 0.497159 3.69754 244 205 174 
-0.433454 0.485205 3.68687 51 46 40 
0.304955 0.513709 3.75113 124 123 77 
-0.425683 2.01754 4.13905 39 21 7 
0.131919 -0.969775 2.95777 98 72 45 
-0.526496 0.262569 3.7198 27 18 21 
-0.372115 1.96237 3.85598 80 80 68 
-0.554437 1.91813 3.81049 157 172 179 
0.145074 -0.969905 2.81966 70 44 27 
0.15607 -0.996838 3.1209 53 35 13 
-0.417776 0.291726 3.76161 66 45 28 
0.159751 -0.986824 2.96084 55 42 23 
0.145543 -0.985518 2.92997 245 226 167 
-0.397776 0.273026 3.66188 44 27 19 
0.539643 0.465852 3.70623 56 90 63 
0.133342 -0.994179 2.92095 254 231 163 
-0.37704 0.334779 3.79547 56 51 22 
1.06917 0.486216 3.7678 179 183 150 
-0.375196 0.323871 3.74099 25 21 9 
-0.256217 2.04549 4.00982 44 84 58 
-0.40095 1.96447 3.91399 50 54 29 
0.0920134 -0.977522 2.70383 49 19 17 
-0.39804 1.97343 3.93633 116 115 95 
1.03401 0.355707 3.61584 179 176 161 
-0.107541 0.434443 3.73596 201 204 221 
0.348199 0.475567 3.84123 117 54 62 
-0.942792 -0.260475 3.82741 179 186 204 
0.015194 0.465807 3.78378 165 158 150 
0.0182091 0.516242 3.49236 249 234 201 
0.298867 0.484488 3.58816 183 155 144 
-0.519413 2.02668 4.20489 57 60 43 
-0.563658 1.89007 3.74984 107 122 151 
-1.11074 1.8248 3.95836 148 156 177 
-0.119685 0.467543 3.57281 168 145 129 
-0.237375 1.96031 4.31157 162 144 134 
-0.191953 2.43188 3.72471 36 34 37 
-0.165076 1.80306 4.28179 29 29 41 
-0.238602 2.62173 3.91084 155 144 142 
-0.846029 1.79491 4.30524 120 118 131 
-0.579327 0.301666 3.89176 113 103 76 
-0.596654 0.0942705 3.96372 241 230 212 
0.543305 0.504417 3.72045 91 59 21 
-0.49431 1.87751 4.04723 111 101 89 
-0.505901 0.274444 3.74916 214 183 154 
-0.162662 1.87023 4.24244 21 22 26 
0.17477 -0.972318 2.86001 67 20 12 
0.381289 0.453129 3.71187 204 62 50 
0.280696 0.422505 3.68408 97 88 71 
0.490671 0.478923 3.73471 57 65 41 
-0.416634 2.00383 3.79568 189 183 161 
-0.0158868 -1.06426 2.52372 228 211 193 
0.626111 3.02666 4.45534 147 139 137 
0.081161 0.284297 3.85978 105 88 70 
-0.523113 0.370866 3.71171 92 37 32 
-0.0917165 1.9929 3.96048 138 128 92 
0.398162 0.463926 3.73197 124 97 30 
-0.275336 1.94475 3.88679 86 101 80 
-0.549851 1.92653 4.15451 194 192 180 
-0.854643 0.185432 4.06361 66 67 72 
-0.337471 1.81024 4.43408 131 135 160 
0.130923 -1.00455 2.71349 192 175 106 
0.16261 -0.985597 2.84158 86 53 38 
-0.374047 1.92071 3.89941 42 23 9 
1.00213 0.727412 3.71018 154 145 128 
-0.364661 0.337068 3.83694 186 177 138 
-0.429023 1.99389 4.08774 194 171 137 
-0.570331 1.93384 4.01557 184 184 84 
-0.51514 2.01231 4.12414 163 168 136 
-0.352472 1.99667 4.12244 34 24 15 
-0.601246 1.92885 4.0448 124 127 100 
-0.388682 0.334821 3.74518 121 101 74 
-0.574581 1.98647 4.16406 192 185 169 
-1.09123 1.92592 4.11752 106 196 233 
-0.241326 2.04452 4.24707 43 27 12 
-0.613401 1.94674 4.14099 116 128 90 
-1.08158 1.83116 4.02177 130 193 224 
-0.720091 1.95301 4.1846 198 197 195 
-0.237266 1.97713 4.28244 178 169 170 
-0.74653 1.83802 4.12024 174 175 170 
-0.205415 1.91577 4.23175 148 153 149 
-0.195551 1.92782 4.25622 88 92 91 
-0.614508 1.96351 3.84624 43 75 98 
-0.567463 1.92472 3.7945 178 195 223 
-0.604367 1.91394 4.27413 52 58 48 
-0.372989 1.93878 3.78233 64 64 56 
-0.278469 1.97623 4.45161 26 28 27 
-0.382681 2.00187 3.82411 45 47 44 
-0.209768 1.94973 4.47542 140 143 162 
-0.335172 2.68808 3.94585 32 28 29 
-0.0967688 1.9669 4.59974 155 146 129 
-0.31213 0.490834 3.55055 215 203 189 
-1.01218 1.68186 4.41385 177 171 173 
-0.16253 1.89379 4.41364 22 35 44 
0.925038 1.15889 3.95861 172 172 162 
1.01945 1.0856 4.08155 27 32 25 
1.18309 0.975678 4.10522 205 196 179 
1.0394 0.730313 3.81399 196 188 175 
0.00754533 0.535485 3.50117 182 165 149 
-0.922503 -0.393351 3.73737 198 177 192 
0.565054 0.556558 3.65036 85 37 17 
-0.322409 0.495218 3.54278 216 203 187 
0.343211 0.553795 3.72123 92 74 60 
0.304966 0.49443 3.58057 225 199 164 
-0.507394 2.56161 3.76711 46 42 41 
-0.34936 0.457271 3.50415 117 104 87 
0.285954 0.477891 3.55842 26 4 7 
0.349954 0.538608 3.72342 64 53 35 
-0.115202 0.505365 3.66078 173 146 125 
-0.450662 0.478384 3.61981 203 188 169 
0.366174 0.553777 3.83753 242 215 186 
-0.429983 0.463821 3.63152 52 49 44 
0.993151 0.453835 3.61936 85 82 63 
0.141969 0.430414 3.67317 80 67 58 
0.0096216 0.455341 3.75663 214 202 186 
0.19416 -1.03177 2.76917 52 39 7 
0.1821 -0.986754 3.00575 44 15 19 
0.127316 -0.983413 2.95978 60 39 8 
0.136025 0.106501 3.9289 179 156 162 
-0.395894 0.258771 3.62586 48 30 30 
-0.613287 0.208405 3.47907 173 159 158 
-0.417027 0.27713 3.72128 76 55 36 
0.0923328 -0.978219 2.76679 53 23 15 
-0.157543 0.37629 4.06471 46 14 17 
-0.503708 0.265206 3.72124 218 187 158 
-0.448951 0.276717 3.79547 35 26 29 
-0.766906 0.192544 3.9413 223 209 183 
-0.293161 0.214548 3.73862 224 204 177 
0.350302 0.511399 3.71525 54 27 0 
0.187288 -1.0317 2.77101 53 43 0 
-0.413163 1.94566 3.72622 167 160 142 
0.0192149 0.540639 3.51323 109 82 53 
1.62671 4.00413 4.62563 95 70 50 
-0.451582 0.282599 3.7023 31 14 6 
-0.565489 2.07271 4.44406 58 66 53 
0.616462 1.57144 4.69704 11 15 16 
-0.352078 2.62639 3.86113 53 54 49 
-0.490823 0.231124 3.71951 66 51 46 
-0.340716 1.8325 4.4646 139 144 164 
-0.0892362 2.0242 3.99755 112 104 65 
-0.152743 0.281594 4.08524 89 72 64 
-0.551179 2.0233 4.04337 96 101 94 
-0.589533 1.95719 3.66842 89 86 81 
0.503852 0.468653 3.8161 101 68 49 
0.279623 0.525106 3.48579 73 64 47 
0.61507 0.514046 3.83659 234 209 5 
-0.252253 1.9246 4.0688 208 171 65 
0.164233 -0.976673 3.12879 204 175 109 
-0.946633 -0.483297 3.87529 110 89 106 
-0.0964242 0.453576 3.75431 42 41 73 
0.42467 0.50813 3.85925 209 159 96 
-0.762296 1.9294 4.24767 189 189 187 
-0.448964 0.268099 3.76693 33 27 31 
-0.377093 1.95709 3.94833 69 47 34 
1.02796 1.10851 4.03342 40 43 34 
1.10361 0.851311 3.89855 206 196 187 
1.23337 3.21739 4.79311 167 158 143 
-0.44307 0.472279 3.66065 222 208 195 
-0.492991 0.248558 3.7172 30 31 33 
-0.523744 1.9056 4.17437 197 200 181 
-0.232366 1.98373 4.29621 168 156 158 
-0.501188 1.92226 4.16082 194 190 165 
-0.20599 1.89542 4.20566 108 113 107 
-0.169694 1.94195 4.31761 118 122 121 
-0.348754 2.57633 3.80895 65 62 55 
-0.359168 2.56037 3.79339 54 53 49 
-0.258094 1.99863 4.46355 159 156 151 
0.146939 0.522824 3.77906 182 167 148 
-0.305154 2.08804 4.21783 67 53 40 
-0.181757 1.95706 4.45784 127 127 127 
-0.162138 1.98267 4.53614 15 25 27 
-0.222154 2.55087 3.82153 25 23 24 
-0.451304 0.474449 3.65426 24 10 7 
-0.299014 2.07709 4.15944 76 67 62 
0.347796 0.567119 3.8645 48 34 21 
-0.202992 2.65078 3.97967 40 38 39 
-0.294407 0.274885 3.93039 214 193 166 
-0.455982 0.494906 3.65931 195 180 159 
-0.252931 1.95268 3.88811 34 88 62 
-0.399329 2.02498 3.98143 41 46 40 
0.505737 0.445742 3.71816 237 210 180 
0.356686 0.554779 3.75442 48 40 29 
-0.313166 0.472819 3.53945 212 200 188 
-0.288659 2.07393 3.90368 44 32 8 
0.941495 1.10616 3.94378 50 48 35 
-0.0152274 0.465289 3.71899 205 196 187 
0.996238 1.0882 4.00581 205 209 195 
0.22217 0.531997 3.62684 208 161 107 
-0.345789 0.495681 3.51822 118 107 103 
0.420031 0.587978 3.71278 223 185 114 
1.29626 3.65439 5.179 17 11 11 
-0.321282 0.537687 3.554 235 222 205 
