ply                 
format ascii 1.0    
element vertex 1266
property float x    
property float y    
property float z    
property uchar red  
property uchar green
property uchar blue 
end_header          
0.145058 -0.0749911 4.21946 26 26 24 
-0.548686 1.81455 3.98842 185 193 169 
0.344235 0.592378 3.82653 90 68 55 
-0.658286 -1.16901 3.71363 163 173 175 
0.201613 -0.067257 4.2145 135 137 132 
0.212679 0.551938 3.86032 205 126 109 
0.175311 0.428356 4.29159 111 74 55 
-0.391052 -1.23398 3.76935 137 141 150 
-0.393674 -1.23709 3.76679 129 132 141 
0.175966 0.544746 3.86831 235 211 185 
0.175065 0.543113 3.87625 116 97 67 
0.148379 -0.0790449 4.21647 133 134 129 
0.228141 0.550886 3.86273 200 195 127 
-0.239849 1.86427 4.07262 130 129 134 
0.114578 -0.0462976 4.21891 136 137 131 
0.162539 -0.0417895 4.2113 39 39 37 
0.193467 0.555785 3.86707 232 186 160 
-0.306805 -1.20243 3.80124 106 105 113 
0.242479 0.562427 3.85587 223 217 183 
0.222473 0.566781 3.85862 89 90 24 
-0.0506604 -0.0583656 4.20781 52 52 50 
-0.393815 1.88406 3.81176 130 126 89 
-0.0150452 -0.0881235 4.20373 21 19 20 
0.321515 0.580163 3.83544 72 21 0 
-0.103797 1.89356 3.82402 218 208 159 
0.281741 0.570455 3.84535 187 130 103 
-0.0722419 0.402856 4.27029 113 66 40 
0.130283 -0.0766092 4.21617 36 37 32 
-0.556414 1.84141 3.86343 149 138 110 
-0.181674 1.80904 4.24366 162 163 168 
0.0674283 -0.0464475 4.21246 12 13 8 
0.257463 -1.02949 3.45849 60 35 4 
0.28104 -1.08713 3.43739 237 223 174 
-0.364067 -1.25742 3.78175 153 155 152 
0.102312 -0.0592578 4.21853 131 132 126 
-0.0899544 -1.00552 3.34517 26 11 0 
0.0712465 -0.059131 4.22339 127 126 124 
0.0930877 -0.0573867 4.21726 136 137 132 
0.109778 -0.0575426 4.21883 32 33 28 
0.16043 -0.0539661 4.21747 46 46 44 
0.0969777 -0.0502844 4.21602 148 149 144 
0.181478 -0.0447775 4.212 136 137 132 
0.304278 -1.02326 3.4579 44 29 0 
0.251893 -1.02567 3.46615 56 30 7 
-0.49967 0.329181 3.89468 53 24 8 
-0.510653 1.80494 4.01189 189 191 178 
-0.658113 -1.16887 3.71237 163 173 175 
0.226624 0.546755 3.89213 220 207 139 
0.230563 0.551597 3.85637 101 96 15 
-0.391924 -1.23498 3.77177 137 141 150 
0.254732 0.562896 3.85833 79 29 6 
0.282824 0.565637 3.84095 88 45 10 
0.242916 0.569636 3.85698 35 24 4 
0.286144 0.567893 3.84429 78 45 0 
0.322994 0.566878 3.83979 86 58 21 
0.317586 0.568818 3.84045 241 229 157 
0.242611 0.579774 3.85753 33 15 11 
0.314946 0.57642 3.83512 246 208 163 
0.342427 0.58582 3.83477 21 0 0 
0.34368 0.586436 3.82553 202 176 161 
-0.0518109 -0.0733263 4.20601 57 57 57 
0.16017 -0.0737301 4.21156 4 9 3 
0.124448 -0.0774666 4.21406 40 41 36 
-0.00276226 -0.0609195 4.21132 126 128 125 
-0.00447069 -0.0555468 4.2101 29 30 25 
-0.0982406 0.383867 4.26353 78 32 9 
0.0205469 1.90643 3.87233 75 59 0 
0.0664282 -0.052149 4.21227 128 128 126 
0.102188 -0.0790363 4.21227 47 47 45 
0.161831 -0.0808707 4.21328 27 29 26 
0.148516 -0.0499393 4.21818 46 46 44 
0.0928928 -0.0807319 4.21171 17 17 15 
0.147651 -0.0449335 4.21416 16 17 11 
0.0591291 -0.0809365 4.21352 48 48 48 
0.0516928 -0.0826538 4.2131 47 47 47 
0.0341721 -0.0828081 4.20874 76 76 76 
-0.237523 1.87535 3.84131 100 43 0 
0.197954 0.546247 3.86517 131 47 21 
-0.396956 -1.27097 3.75934 134 141 147 
0.0118748 -0.089746 4.20768 136 136 134 
0.292228 0.566751 3.84934 221 209 123 
0.276935 0.565117 3.84864 246 189 160 
0.193671 0.568585 3.87118 212 165 145 
0.290026 0.561164 3.84474 95 101 0 
-0.0272738 -0.100566 4.19967 41 43 42 
-0.0490094 -0.102217 4.19542 16 17 19 
0.257727 0.556866 3.85938 218 177 121 
-0.0336548 -1.08955 3.31552 43 30 0 
0.215002 0.549225 3.87736 103 17 2 
-0.318059 -1.13403 3.81048 130 139 156 
-0.58363 1.82237 3.97197 120 122 109 
-0.59057 1.82228 3.97176 39 50 46 
-0.52639 1.79577 4.04561 128 150 114 
-0.484778 1.81266 3.98749 156 157 141 
-0.228972 1.86126 4.09894 130 131 126 
-0.661725 -1.16474 3.71443 157 172 167 
-0.921077 -0.376681 3.79963 152 162 174 
0.175285 0.435068 4.29556 190 148 134 
0.18822 0.432595 4.30538 67 24 15 
0.13716 -0.041399 4.22016 135 136 130 
0.218522 0.53793 3.87426 195 128 119 
-0.574301 1.83606 3.93424 181 200 121 
-0.491728 1.82679 3.92734 159 161 158 
-0.244667 1.86136 4.0932 173 172 178 
-0.506444 1.80696 4.0081 23 26 17 
-0.511156 1.80315 4.01343 163 165 154 
-0.961908 -0.430868 3.78955 192 181 187 
-0.970535 -0.3913 3.80377 186 173 183 
-0.268242 1.84691 4.23276 143 137 147 
0.258878 -1.03003 3.4638 46 22 10 
0.17877 -0.077578 4.21994 97 99 94 
0.0400943 -0.064641 4.21627 17 17 17 
0.163727 -0.0560439 4.21361 3 3 1 
0.122195 -0.0515483 4.21817 141 141 139 
0.165099 -0.0492299 4.21535 125 125 125 
0.217213 -1.0524 3.4597 37 19 0 
0.159539 -0.045324 4.21063 27 27 25 
-0.736845 -1.13156 3.70345 149 162 168 
0.262764 -1.08708 3.44166 201 167 96 
0.263769 -1.09515 3.44049 143 129 84 
0.318808 0.574052 3.83632 250 214 182 
0.247848 0.570572 3.85473 38 13 6 
0.329791 0.565226 3.8441 55 23 0 
0.253582 0.562995 3.85628 79 29 6 
-0.498054 0.331817 3.89997 32 5 0 
-0.383589 -1.24252 3.77279 146 149 156 
-0.37959 -1.24589 3.77131 149 153 156 
-0.373527 -1.25403 3.76694 134 136 133 
-0.39737 -1.27342 3.76828 130 137 145 
0.0420227 -0.0948177 4.21532 33 33 31 
0.0898795 -0.0927372 4.21729 19 20 14 
-0.198568 1.8169 4.23892 160 159 155 
0.0529558 -0.0819217 4.22089 30 30 32 
0.0687003 -0.0756047 4.21395 47 47 45 
0.0757997 -0.0585338 4.21839 18 17 15 
0.0683066 -0.0473453 4.21844 62 63 58 
-0.609571 1.80575 4.07091 41 48 32 
0.146874 -0.0453634 4.21886 15 16 10 
-0.661935 -1.20432 3.70664 141 156 163 
-0.604436 1.8068 4.07283 182 185 164 
-0.52702 1.79922 4.0554 137 159 121 
-0.260778 1.87526 3.78738 61 68 24 
0.276969 0.56629 3.85153 246 189 160 
-0.246658 1.86429 4.12253 155 154 152 
-0.545786 1.81066 3.98054 186 195 168 
-0.584159 1.81912 3.97684 131 147 137 
0.0507169 -0.0645349 4.20795 31 31 29 
-0.520267 1.7982 4.05813 18 31 3 
0.0923968 -0.082047 4.21549 31 31 29 
0.122086 -0.0558296 4.21915 18 19 14 
-0.31714 -1.13306 3.80676 130 139 156 
-0.489437 1.81201 3.99715 118 120 106 
-0.490343 1.82215 3.92392 184 187 178 
-0.562786 1.82129 3.92807 180 190 179 
-0.527481 1.79639 4.0513 138 160 121 
-0.18272 1.81137 4.24629 168 167 175 
-0.995005 1.6907 4.20122 201 209 220 
0.0877143 -0.054239 4.21429 21 21 19 
0.708275 -0.897254 3.50067 232 186 92 
-0.511814 1.7997 4.04747 137 146 127 
-0.105796 1.89102 3.81663 220 209 164 
-0.255192 1.84584 4.18241 149 145 136 
-0.583928 1.84692 3.69054 33 65 90 
0.0248939 1.90582 3.76552 99 77 36 
0.243858 0.580974 3.85814 22 4 0 
0.229109 0.559651 3.85803 60 63 0 
0.074317 -0.0566858 4.21358 24 23 21 
-0.238353 1.87422 3.84035 110 50 16 
-0.520055 1.79495 4.05375 58 68 33 
-0.226881 1.87118 3.86368 137 96 6 
-0.22486 1.84523 4.08991 64 65 69 
0.0517425 -0.0543921 4.20716 21 21 19 
0.162417 0.578112 3.90179 133 120 112 
0.0380344 -0.0840088 4.07826 69 71 68 
0.0926212 -0.0930004 4.20771 28 29 23 
-0.49054 -1.19945 3.74538 102 113 117 
0.160728 -0.0438976 4.21792 39 39 37 
-0.392826 -1.23502 3.76472 133 136 145 
-0.585936 1.82056 3.9684 109 114 107 
-0.0569047 -0.0725854 4.20366 22 22 22 
-0.0873466 1.89674 3.82781 169 65 56 
-0.221288 1.8842 3.72985 96 116 45 
-0.0567005 1.89788 3.82984 184 79 57 
0.331246 0.591863 3.83399 31 4 0 
-0.492385 1.82295 3.92699 170 174 159 
-0.603925 1.83538 3.94751 188 190 176 
-0.10576 1.89359 3.81466 220 210 175 
-0.0978279 1.89415 3.82118 87 76 30 
-0.582907 1.83282 3.92334 128 142 106 
0.245668 0.583246 3.86423 27 6 5 
-0.227207 1.8735 3.86736 137 96 6 
-0.963771 -0.429728 3.7869 186 181 187 
-0.995574 1.69176 4.20262 163 171 182 
-0.497102 1.83131 3.9136 134 134 126 
-0.133351 1.87184 4.00344 84 76 57 
-0.527405 1.79008 4.04283 141 162 106 
-0.53676 1.80278 4.04428 31 42 26 
-0.490377 1.82122 3.95435 61 61 51 
-0.492787 -1.20048 3.75689 137 147 148 
-0.238712 1.86485 4.07227 145 143 146 
0.555353 -1.0547 3.58562 119 78 0 
-0.971185 -0.391785 3.8007 179 171 182 
-0.0545775 -0.0944118 4.19622 24 25 29 
-0.0569277 1.89876 3.83077 184 80 71 
0.733746 -1.0167 3.5165 59 41 0 
0.285697 0.568535 3.84609 103 60 26 
-0.107397 1.88946 3.80753 218 208 173 
-0.258156 1.87182 3.78011 68 84 55 
-0.491817 1.82231 3.92764 186 190 176 
-0.562603 1.82639 3.93691 186 193 175 
0.173134 0.521311 3.91001 118 99 85 
0.223553 -1.05077 3.4629 255 246 197 
0.158923 0.570886 3.89207 58 51 43 
-1.19654 1.65796 4.34976 50 93 127 
-0.495479 1.8307 3.9088 135 133 121 
-0.0590116 1.8977 3.83106 175 86 78 
-0.209311 1.84436 4.11409 118 117 113 
-0.511019 1.80704 4.05717 136 147 130 
-0.536778 1.7984 4.03851 42 53 37 
-0.491406 -1.19875 3.7517 133 143 144 
0.316097 0.572946 3.836 255 227 177 
-0.283991 1.84439 4.24812 35 34 39 
-0.231293 1.83957 4.09509 36 37 31 
-0.540693 1.81395 3.98623 188 197 170 
-0.504818 1.83106 3.93203 52 54 41 
-0.495989 1.81989 3.93014 172 176 149 
-0.240568 1.85573 4.09866 145 140 144 
-0.507574 1.79401 4.03199 140 149 130 
-0.601119 1.79976 4.05498 195 198 177 
-0.532294 1.79349 4.06009 147 155 82 
-0.926482 -0.490785 3.78873 172 167 174 
-0.251173 1.8705 3.98193 195 159 73 
-0.251238 1.84601 4.21562 175 168 160 
-0.121099 1.84553 4.03773 104 70 25 
0.0195079 1.90657 3.76718 125 83 58 
0.365549 0.608235 3.83211 27 13 4 
-0.587312 1.82457 4.00896 25 50 46 
-0.589024 1.839 3.90907 136 138 114 
-0.254718 1.841 4.1442 140 139 137 
0.286612 0.563576 3.85738 217 196 133 
0.326441 0.56474 3.8557 216 195 166 
0.322661 0.577891 3.85021 238 192 169 
0.33501 -1.12679 3.48557 255 251 212 
0.129621 -0.0402319 4.22232 8 9 4 
0.271251 -1.10204 3.47526 186 169 97 
0.0251182 1.89796 3.74507 83 60 6 
-0.96636 -0.387941 3.78034 191 174 184 
-0.766867 -1.35427 3.72371 156 158 170 
-0.333002 -1.37853 3.83234 170 170 172 
-0.627048 -1.34926 3.75452 167 181 190 
-0.18404 1.80991 4.22989 39 39 41 
-0.327505 -1.36358 3.8408 154 153 159 
-0.369581 -1.36195 3.82796 151 157 155 
-0.367506 -1.34984 3.82885 155 155 153 
0.311808 0.579122 3.84986 135 75 21 
-0.200085 1.81258 4.22596 148 147 145 
-0.186672 1.80937 4.21455 169 168 163 
-0.173718 1.81451 4.16476 154 152 153 
0.583138 -0.939542 3.5241 126 85 0 
0.338006 0.584099 3.84713 41 0 0 
-0.814602 -1.27703 3.71632 120 118 121 
-0.754055 -1.38328 3.72305 132 141 158 
0.249473 0.544407 3.87759 232 223 158 
0.711439 -1.02852 3.51988 46 24 0 
0.26618 -1.08134 3.47866 191 173 127 
0.252681 -1.03244 3.49028 67 41 14 
0.0426301 -0.0959514 4.21233 20 20 18 
0.0533741 -0.0960393 4.2119 24 24 22 
-0.221205 1.83705 4.16198 171 167 164 
-0.747911 -1.13938 3.73706 148 161 170 
-0.322147 -1.17566 3.848 137 138 140 
-0.227812 1.8511 4.07845 163 164 159 
-0.0314121 -0.0613417 4.21762 144 144 146 
-0.66976 -1.18252 3.76107 163 173 175 
-0.78463 -1.27774 3.71943 139 146 138 
0.170639 0.430004 4.30943 195 159 137 
-0.00957274 -1.09962 3.35849 138 131 102 
0.169821 0.441291 4.31587 180 144 128 
0.245489 0.554225 3.86765 235 226 169 
0.725451 -1.03534 3.53979 182 161 68 
0.259118 0.558415 3.86737 218 177 121 
-0.456541 0.547744 3.78325 158 153 147 
-0.598619 0.259701 3.45831 99 87 73 
0.24691 0.565002 3.86615 47 39 18 
0.222966 -0.0799463 4.22301 29 31 30 
-0.236264 1.84812 4.12341 130 133 126 
-0.351886 0.53873 3.69222 44 32 20 
-0.958072 -0.429282 3.76535 178 169 174 
0.352797 -1.1471 3.47516 228 220 173 
-0.368282 -1.26903 3.82934 157 159 158 
-0.785714 -1.24958 3.71563 166 166 166 
-0.706232 -1.28564 3.73842 163 170 176 
-0.316192 -1.38024 3.84373 194 195 187 
-0.0744731 -0.994522 3.36814 42 28 2 
-0.720909 -1.36678 3.73431 148 156 159 
-0.246818 1.84134 4.20147 184 176 174 
-0.267788 1.83791 4.21406 159 154 161 
0.346341 0.58797 3.8387 202 176 161 
-0.379964 -1.27164 3.82601 155 157 154 
-0.350484 -1.33515 3.83234 151 148 143 
-0.333454 0.581885 3.6402 98 87 69 
-0.101802 -1.13757 3.31233 62 49 0 
-0.0995744 1.88602 3.80894 78 76 28 
-0.0502524 -0.0884178 4.21368 145 146 148 
-0.24431 1.86213 3.9633 46 34 12 
-0.231353 1.85104 3.97221 163 155 153 
-0.673561 -1.21975 3.76075 143 158 165 
-0.323073 -1.14515 3.85129 130 139 156 
-0.353682 -1.36729 3.83547 146 157 151 
-0.310287 -1.2185 3.84881 114 112 123 
0.148507 -1.37492 3.44822 136 56 45 
-0.247427 1.85655 4.10784 163 161 162 
0.293025 0.474028 4.33245 43 0 0 
-0.252857 1.84942 4.15574 154 146 144 
0.726197 -1.03859 3.52713 227 205 85 
0.0400659 -0.0538252 4.23416 43 43 43 
-0.749129 -1.14349 3.74727 149 162 168 
-0.36196 -1.33832 3.83049 164 164 156 
-0.670818 -1.24425 3.76294 160 173 181 
-0.400975 -1.28752 3.82274 131 136 140 
-0.238129 1.85255 4.07352 81 80 78 
-0.223509 1.83108 4.21662 35 34 30 
-0.0955596 1.8906 3.72076 100 91 22 
-0.312518 -1.36323 3.84629 150 149 154 
-0.701769 -1.19245 3.74407 139 154 161 
-0.225326 1.83883 4.07114 144 145 149 
0.348396 0.61055 3.87215 87 60 53 
-0.524102 -1.35762 3.78559 141 153 167 
-0.525882 1.78886 4.03425 138 160 121 
0.176016 0.521775 3.91502 175 156 139 
0.185889 -1.05347 3.4894 213 188 148 
-0.66935 -1.2409 3.74808 163 176 184 
1.02348 -1.26285 3.77636 46 42 31 
-0.620087 -1.32549 3.76795 172 187 180 
-0.510384 1.79151 4.02886 137 146 127 
-0.179889 1.81618 4.10991 116 118 117 
1.02153 1.09178 4.01003 55 48 42 
-0.351353 -1.35124 3.82079 32 30 31 
-0.259483 1.86261 3.76008 52 65 21 
-0.106753 1.88231 3.79848 220 209 164 
0.222154 -1.05028 3.48558 34 18 0 
-0.226387 1.86396 3.84877 137 96 6 
-0.0594923 -0.0625184 4.22427 32 32 30 
-0.398916 -1.25061 3.81475 133 136 145 
-0.0872802 1.88981 3.81391 169 65 56 
-0.0571941 1.88866 3.81106 184 79 57 
-0.256905 1.87408 3.71839 69 83 24 
0.335627 0.597859 3.87322 31 4 0 
0.346876 0.605505 3.88233 25 14 10 
-0.460708 0.523069 3.77384 34 24 15 
1.05174 -1.26595 3.78554 28 19 22 
0.338023 0.603045 3.84942 31 13 9 
0.159535 0.573425 3.897 126 118 107 
0.210138 -1.04302 3.48727 55 36 4 
-0.209781 1.83877 4.09462 146 146 148 
-0.499694 -1.21494 3.80421 137 147 148 
0.563002 -1.06586 3.6201 119 78 0 
-0.225109 1.84623 4.09079 123 124 128 
-0.252657 1.83723 4.21595 150 148 149 
-0.301937 1.88062 3.87396 75 55 44 
-0.507415 0.312628 3.91024 46 29 19 
0.360319 0.610491 3.85901 181 158 126 
0.374353 -1.21865 3.44522 198 169 153 
-0.699506 -1.35999 3.73466 168 174 172 
0.187728 0.579045 3.9001 169 143 126 
-0.231382 1.8372 4.23069 166 167 162 
-0.282433 1.83078 4.21697 35 34 39 
-0.230076 1.82355 4.05938 36 37 31 
-0.780299 -1.27547 3.70864 140 146 136 
-0.25493 1.86827 3.83877 52 28 0 
-0.231562 1.85174 4.09967 154 155 149 
-0.343899 -1.354 3.83773 150 149 145 
-0.90358 -0.373068 3.7822 51 71 95 
-0.92399 -0.488104 3.77023 172 167 174 
0.714151 -1.03926 3.5263 39 17 0 
-0.105996 -1.00244 3.34011 82 65 47 
0.0194025 1.90069 3.75569 125 83 58 
-0.221999 1.86816 3.70764 48 90 66 
-0.278489 1.84166 4.23256 20 23 30 
-0.261762 1.84816 4.22247 135 133 121 
-0.176117 1.80478 4.10012 128 127 125 
-0.0290188 -0.106784 4.1705 40 41 45 
-0.231598 1.85147 4.24069 117 118 122 
0.305833 0.519777 3.73954 195 168 151 
0.315547 0.52892 3.75604 114 70 41 
-0.213001 1.8664 4.26703 137 137 135 
-0.22836 1.91802 4.34362 187 185 190 
-0.773681 0.206459 3.96922 203 194 179 
-0.224398 1.82781 4.20296 175 166 167 
0.310571 0.53387 3.78336 37 26 0 
-0.594841 1.91893 4.03029 141 140 119 
0.233137 0.530176 3.77579 51 32 17 
0.200429 0.518154 3.74506 200 188 130 
-0.538758 1.93984 3.90536 147 149 146 
0.324478 0.511636 3.72848 27 11 0 
-0.204321 1.89594 4.22545 85 85 83 
-0.327499 0.561213 3.57832 196 187 180 
-0.370367 1.96437 3.925 99 84 65 
0.224056 0.509536 3.70428 65 29 15 
0.35215 0.511583 3.73467 247 197 172 
-0.193425 1.91788 4.35798 144 142 147 
0.0136291 0.550646 3.53621 237 220 190 
0.303686 0.591298 3.62442 46 33 17 
0.301355 0.511103 3.73832 168 168 114 
-0.179283 1.86882 4.29019 177 179 178 
0.345781 0.572875 3.73779 74 45 5 
-0.199388 1.901 4.23505 160 161 163 
-0.446739 0.514849 3.7316 157 152 148 
0.311887 0.513516 3.74795 209 194 151 
0.31365 0.500504 3.71716 111 80 51 
0.26883 0.527316 3.74598 104 54 1 
-0.580972 1.90118 4.01741 156 157 152 
-0.18138 1.87042 4.30606 159 160 162 
-0.95924 -0.351216 3.97465 160 152 165 
-0.98418 -0.379034 3.88101 183 146 163 
-0.0780301 2.48627 3.31561 28 19 20 
0.227733 0.504894 3.75612 167 155 83 
-0.498922 1.92853 4.05432 165 171 169 
-0.303474 0.25022 3.85846 153 138 133 
-0.97082 -0.460761 4.01995 62 60 71 
-0.181118 1.87117 4.32074 52 55 60 
-0.246243 1.93942 4.22268 137 135 136 
-0.176043 1.87606 4.33048 158 162 161 
0.0866021 -0.0647326 4.20359 30 32 29 
0.166246 0.55357 3.70455 176 167 138 
-0.185625 1.9232 4.33275 144 143 148 
0.149041 0.57461 3.54565 98 77 50 
-0.0219539 0.483895 3.72075 152 153 207 
-0.178242 1.84036 4.28835 149 153 156 
-0.616422 1.86041 4.14116 40 43 50 
-0.56633 0.271261 3.8647 228 195 178 
0.158382 0.597662 3.59038 211 189 165 
-0.548868 1.88407 3.75195 178 192 203 
-0.244603 1.93279 4.05555 58 37 18 
-0.585863 1.90017 3.76604 178 205 226 
0.271748 0.53199 3.75086 210 171 102 
0.58699 0.534691 3.86817 94 97 40 
-0.58909 1.89408 3.75447 72 100 124 
-0.0225605 0.465145 3.71338 214 202 204 
-0.0088263 -1.10905 2.65676 210 196 170 
-0.090982 1.94562 3.78784 109 92 22 
-0.587876 1.92382 3.78751 79 105 130 
-0.579382 0.294697 3.88101 88 81 52 
0.137272 0.592041 3.56542 104 75 41 
-0.236541 1.95896 3.94168 103 54 0 
0.138031 0.583635 3.54264 99 69 43 
-0.327532 0.305245 3.90899 119 128 109 
-0.567453 1.90677 3.75267 107 122 151 
0.154211 0.589031 3.5517 190 165 145 
-0.624009 1.9089 3.75017 171 206 238 
-0.592027 1.87657 3.70625 85 115 141 
-0.170321 1.87502 4.25345 149 147 150 
-0.573112 0.262802 3.75495 251 244 218 
-0.594493 0.271529 3.77929 43 25 15 
-0.244954 1.89913 4.28729 155 157 156 
-0.36934 1.99127 3.82518 83 77 61 
-0.497064 0.280827 3.80467 104 83 64 
-0.616741 0.18295 3.98673 209 200 191 
-0.244484 1.91077 4.1643 37 40 45 
-0.355251 0.516015 3.6475 77 64 47 
0.590925 0.506921 3.86544 189 156 87 
-0.209596 1.91485 4.21928 175 177 172 
-0.213225 1.91711 4.24594 163 163 161 
-0.247948 1.9761 4.29274 123 120 127 
-0.37942 1.9674 3.76927 151 153 148 
-0.371716 1.97234 3.77499 47 45 30 
-0.535382 0.299562 3.82711 81 55 42 
0.0356593 2.0186 4.00822 95 76 36 
-0.241634 1.93967 4.19475 168 172 183 
-0.298162 2.01834 3.82084 61 46 13 
-0.525808 1.89399 4.19128 44 49 17 
-0.790103 0.17744 3.996 169 171 166 
-0.589486 1.85413 4.13837 127 126 134 
-0.640597 0.19814 4.08092 210 200 191 
0.55267 0.497967 3.86498 222 221 191 
0.18389 0.566811 3.63037 74 53 34 
0.292366 -0.991987 3.17968 184 144 118 
0.328007 0.554244 3.74671 164 135 129 
-0.794425 0.197342 4.07718 234 237 226 
-0.399741 0.317316 3.79818 65 37 25 
-0.46051 0.31895 3.8006 57 26 6 
1.0523 1.03765 4.02395 187 185 173 
-0.497861 0.324829 3.81091 45 14 12 
-0.225787 1.91945 4.15308 125 126 128 
-0.513758 1.85492 4.07617 170 174 177 
-0.492737 1.90607 4.1466 126 135 130 
-0.176467 1.87037 4.26821 193 193 191 
0.192429 -1.0021 3.1499 71 44 27 
-1.20298 1.69493 4.37106 147 194 220 
-0.379963 0.362505 3.88513 47 39 16 
0.167234 -1.00377 3.05182 82 63 33 
-0.238631 1.93892 4.17085 119 119 121 
0.244525 -1.01088 3.09473 62 57 25 
-0.221207 1.92166 4.14095 146 144 149 
-0.213899 1.94855 4.13334 34 34 34 
0.379084 0.152443 4.04793 133 123 114 
0.136901 -1.07176 2.92688 211 196 139 
0.292662 0.536249 3.74017 149 87 26 
1.07075 0.320693 3.68276 177 179 165 
0.437296 2.02366 4.00589 128 132 141 
-0.25177 1.98099 3.98933 71 48 0 
0.325783 0.545077 3.74095 33 2 0 
0.837494 1.65698 4.28292 153 158 161 
0.149724 -1.01496 3.02627 255 252 182 
-0.217857 1.91579 4.09579 151 147 146 
0.047701 2.03334 4.04299 80 64 5 
-0.45431 0.52423 3.72179 160 152 149 
-0.590699 1.9613 3.66073 166 166 158 
-0.243868 1.96284 4.35846 153 152 148 
-0.243644 1.95047 3.55487 186 166 175 
-0.56233 1.88506 4.07731 52 49 42 
-0.540649 1.9855 3.68055 81 76 70 
-0.111732 1.92896 4.11541 54 28 1 
-0.197419 1.89779 4.20972 167 171 172 
-0.589425 0.056265 3.83436 121 107 94 
-0.283006 2.02293 3.69963 162 148 135 
0.918586 1.34218 3.97684 178 181 174 
0.151675 -1.0582 2.98912 251 232 155 
0.0773642 -0.0703266 4.12109 47 49 48 
0.186122 0.477725 3.75707 156 95 67 
-0.416545 0.299698 3.92721 174 147 130 
-0.544325 0.285211 3.8795 53 33 32 
-0.45711 0.323015 3.95469 40 23 16 
-0.232329 1.88989 4.16465 106 101 105 
0.220549 0.491917 3.73977 215 215 105 
-0.765088 0.233906 4.03422 199 197 184 
-0.565645 1.92091 3.96233 149 165 103 
0.226895 0.537448 3.74491 46 28 18 
0.197897 0.575417 3.64434 106 98 85 
0.0151042 0.450076 3.73698 184 187 206 
-0.302358 1.98343 3.77413 210 195 176 
0.176451 0.507604 3.75012 235 180 150 
-0.488439 0.294587 3.76855 56 31 11 
0.318056 1.81692 4.38891 101 104 113 
0.0142455 0.56065 3.53841 221 204 174 
-0.993865 1.8097 3.88629 153 181 202 
-0.260916 1.97162 3.9061 97 102 70 
0.193955 -1.00349 3.11611 45 18 0 
-0.519123 1.88743 3.87797 132 144 134 
-0.766765 0.190613 3.93415 242 231 213 
-0.467018 0.337973 3.81837 47 24 16 
0.168355 -0.999267 3.02873 49 37 13 
-0.554407 0.524571 3.72855 173 164 159 
-0.485985 1.90926 4.13335 129 149 112 
-0.0339865 0.470032 3.73416 159 149 160 
0.0357677 0.548954 3.64313 210 180 172 
0.170686 0.384921 4.16108 87 49 40 
-0.258332 1.94938 3.80651 108 118 58 
-0.557126 1.8919 4.08886 164 161 156 
-0.504779 1.87259 4.13238 119 127 112 
0.304426 0.599144 3.65299 156 143 126 
-0.363289 0.297389 3.8663 25 7 0 
-1.07117 1.85132 3.98942 90 154 189 
-0.581041 1.88426 3.75181 150 176 193 
0.130922 0.365816 4.07995 85 54 33 
-0.55573 0.247745 3.79022 61 41 30 
-0.591792 1.8772 4.04907 182 187 181 
0.215743 0.522485 3.8178 224 219 138 
-0.216332 1.86927 4.32799 119 127 140 
0.140887 -0.0548037 4.16276 50 52 49 
-0.602269 1.97113 3.66539 150 141 132 
-0.494302 1.88201 4.13511 124 135 95 
0.155884 -1.01041 3.13062 86 61 39 
-0.506526 1.91664 4.02931 134 138 121 
-0.307759 0.271239 3.93048 36 31 28 
-0.529718 0.283632 3.76799 201 167 140 
-0.410032 0.311771 3.84803 110 87 69 
-0.538045 1.94985 3.66919 106 102 93 
-0.221214 1.90992 4.07333 43 42 40 
-0.501614 1.86971 4.10101 128 138 139 
0.161614 -0.995342 3.14262 86 58 19 
-0.00279454 0.455639 3.78623 166 160 164 
-0.875082 0.202725 4.15051 170 165 169 
-0.971473 -0.257386 3.90766 189 158 176 
-0.555815 0.259921 3.97695 42 31 27 
-1.18471 1.7113 4.35945 153 181 202 
-0.126894 0.514916 3.76621 41 21 32 
0.382391 2.04836 3.99466 107 110 117 
0.356135 0.477881 3.85186 117 73 34 
0.0615043 0.350046 4.05701 106 65 69 
-0.138083 2.81622 3.54449 136 122 122 
0.283953 0.525219 3.72948 243 215 115 
0.308899 0.53422 3.8099 221 228 116 
-0.876345 0.212327 4.08186 59 60 65 
0.26119 0.410007 4.12294 124 57 66 
-0.33333 0.543156 3.64252 169 160 155 
-0.519561 1.85881 4.1262 118 126 128 
0.189655 0.513829 3.75185 135 21 10 
-0.482073 1.89212 4.13372 40 54 3 
-0.0407147 -0.0985212 4.17825 39 40 45 
-0.961662 1.88637 3.87831 153 191 230 
0.170308 0.527461 3.75241 171 151 127 
-0.593229 1.89409 4.22302 52 60 37 
-0.515441 1.86994 4.14651 122 122 112 
-0.605142 0.185099 3.98478 193 180 171 
-0.216441 1.94628 4.11554 171 169 170 
-0.284119 1.89913 4.32416 58 43 48 
-0.358325 0.331457 3.90649 50 44 18 
-0.59807 1.943 4.04876 84 80 17 
-0.17721 1.89375 4.24691 72 74 71 
0.0280762 0.46851 3.78745 115 122 168 
-0.239609 1.89716 4.24468 128 122 122 
0.298637 0.484837 3.8264 227 206 125 
-0.635079 1.93926 3.78057 95 136 166 
0.0420111 0.548625 3.5554 173 141 120 
-0.983219 -0.479413 3.88363 178 181 190 
-0.0934708 0.477339 3.78087 38 51 96 
-0.165181 1.87572 4.23321 59 60 64 
0.327892 0.595117 3.68496 57 51 55 
0.125492 -1.00802 3.11491 63 37 10 
0.152754 2.50918 3.44281 54 51 44 
-0.336309 0.541294 3.53687 168 158 146 
0.162426 -0.968706 3.10871 103 82 39 
-0.806887 0.227195 4.00556 75 98 116 
-0.997454 -0.0948407 3.98079 118 121 152 
-0.0596732 0.569156 3.53023 222 190 141 
0.352075 0.59332 3.77834 157 126 71 
-0.485226 0.332136 3.82551 51 28 10 
0.38778 0.511104 3.86957 188 106 30 
0.501022 0.501723 3.90776 93 49 36 
-1.16776 1.73547 4.15783 167 203 215 
0.529027 0.508066 3.85447 224 213 181 
-0.10871 0.469998 3.69995 102 110 159 
0.284939 0.513299 3.81023 130 107 13 
0.828387 0.591402 3.81424 207 152 113 
-0.0344687 -0.0687976 4.17624 133 134 139 
0.384278 0.623804 3.64139 223 196 143 
-0.196412 1.89402 4.34679 144 144 146 
-0.320154 2.0223 3.7216 102 94 75 
-0.320878 2.03972 3.72093 109 104 75 
-0.192968 1.8509 4.27943 38 38 38 
0.146015 0.589824 3.57294 231 205 178 
-0.236992 1.96575 3.95139 118 70 21 
-0.255915 1.95396 3.95057 141 117 45 
0.295216 0.494232 3.70475 74 67 13 
0.326018 0.515047 3.7373 27 11 0 
-0.557676 0.507412 3.73519 118 116 103 
-0.304397 2.01275 4.0357 88 74 39 
0.151564 -0.978745 3.14662 202 184 134 
-0.446036 0.508735 3.71931 177 170 164 
0.0353416 1.98955 3.86008 91 61 0 
-0.267648 1.89243 4.2963 139 137 140 
-0.495048 0.266333 3.75997 105 86 69 
0.574572 0.516041 3.82224 85 100 57 
-0.583606 1.92248 4.04616 163 165 154 
0.215579 0.509602 3.81752 77 22 0 
0.352597 0.523543 3.72888 66 48 0 
0.245305 -1.00528 3.07296 61 46 27 
-0.490738 1.95547 4.11416 143 144 148 
-0.625244 1.88272 3.72201 49 83 111 
0.284746 0.506597 3.66991 255 240 181 
0.145576 -1.01611 3.04922 57 25 0 
0.305122 0.595857 3.62016 181 164 146 
0.302688 0.586547 3.60551 156 140 125 
0.330432 0.563663 3.75667 56 32 20 
-0.321944 1.99924 3.71814 203 183 174 
-0.256635 1.93246 4.30294 67 69 64 
-0.119724 1.85181 4.03232 27 9 0 
0.108736 -1.06121 2.90739 108 89 30 
0.152766 0.457398 3.74372 193 177 162 
0.913894 0.984497 3.85415 158 159 141 
0.123732 -1.07619 3.01438 255 248 184 
-0.516969 1.87498 4.10397 192 194 193 
0.133121 -1.06903 2.90344 211 196 139 
-0.322049 1.99718 3.68482 246 239 221 
-0.226512 1.93983 4.20289 176 173 180 
-0.0104379 -1.10691 2.64156 181 165 149 
-0.254717 1.93326 4.29444 185 185 177 
-0.24399 1.96185 3.56728 186 169 177 
-0.235811 1.93063 3.52842 172 157 160 
-0.979904 1.72548 4.25365 196 205 210 
-0.22142 1.9113 4.18677 136 137 142 
0.0012185 -1.10083 2.68525 199 182 166 
-0.190261 1.95104 4.28174 20 23 28 
-0.20668 1.93049 4.21912 141 145 146 
-0.111278 0.448409 3.76921 169 176 205 
-0.608721 0.118715 4.06154 255 249 231 
-0.620087 1.8757 4.1819 134 137 128 
0.369604 0.13827 3.9967 128 115 107 
-0.613809 1.87904 4.17116 114 117 122 
-0.61673 1.86717 4.15175 40 43 50 
0.34607 0.577764 3.75851 197 169 132 
0.201964 0.572878 3.65306 147 131 115 
-0.490856 0.303949 3.80001 81 55 32 
-0.5169 1.88672 4.1681 129 130 116 
0.287951 0.462114 3.79867 81 53 5 
-0.105323 0.340631 4.08209 223 175 153 
-0.765401 0.183039 3.9284 178 170 159 
0.243924 0.522507 3.77625 253 217 159 
0.221181 0.49499 3.74723 215 215 105 
-0.504114 1.86445 4.12073 119 127 112 
-0.185564 1.88879 4.28356 158 156 159 
-0.5014 0.344628 3.86856 34 8 7 
-0.564521 1.87197 4.12295 186 182 171 
-0.774155 0.207586 3.99037 212 202 190 
1.22664 3.17686 4.71326 75 71 70 
-0.841627 1.7784 4.26268 117 119 134 
-0.797946 0.175938 4.00481 174 176 173 
0.105307 -1.07233 2.87841 65 35 7 
0.36478 0.591821 3.79321 173 154 112 
0.232551 0.56979 3.78328 162 141 124 
-1.21212 1.71861 4.40732 153 210 239 
0.208154 0.497472 3.77172 71 28 0 
0.0184962 0.465997 3.7792 180 182 195 
-0.414776 0.346899 3.90044 103 72 51 
-0.48322 1.9132 4.1554 34 44 0 
-0.159807 1.83494 4.15682 121 125 128 
-0.487032 1.9221 4.15024 129 149 112 
0.420939 0.601589 3.66918 99 85 59 
-0.28281 2.00093 3.67521 187 175 161 
-0.415186 0.288035 3.89278 161 134 117 
-0.0903079 0.465717 3.75867 187 188 208 
-0.332197 0.565445 3.60084 131 120 102 
0.0396659 0.576793 3.61698 67 37 9 
0.303866 0.487304 3.80881 96 88 39 
0.536927 0.538018 3.79249 124 73 0 
0.272537 0.50117 3.7891 100 73 28 
-0.485875 1.96142 3.68991 93 91 76 
0.132421 0.354661 4.0528 168 140 119 
0.272127 0.536389 3.76882 137 76 31 
-0.3993 2.00322 3.95529 114 113 93 
-0.260857 1.98914 3.92673 84 98 65 
0.0917046 1.56268 4.47042 43 42 37 
-0.284861 1.9156 4.34744 58 43 48 
-0.53448 0.245104 3.85542 35 21 20 
0.310018 0.542941 3.73374 213 151 140 
0.176933 -0.998656 3.04494 111 89 50 
0.357279 0.543638 3.73844 166 154 72 
-0.997486 -0.31223 3.87207 149 122 137 
-0.493747 0.296163 3.79544 91 64 45 
-0.0718579 0.4755 3.66866 108 117 174 
0.422579 0.507483 3.834 133 111 36 
0.206703 0.533668 3.78486 200 188 130 
-0.600428 1.90472 4.07726 88 91 80 
-0.52428 1.84795 4.12534 103 111 64 
-0.500256 1.90848 4.18256 45 48 19 
0.907741 1.32235 3.94594 180 182 177 
0.933279 1.32986 3.96803 99 91 80 
-0.429987 1.98332 4.05983 181 161 126 
0.364475 0.50812 3.76556 131 103 0 
-0.568408 1.94162 3.99034 149 165 103 
-0.993575 -0.473419 3.95427 166 164 169 
-1.07476 1.8192 3.96734 90 148 185 
-0.58451 1.89469 3.74191 126 154 178 
-0.543326 0.279842 3.86084 53 33 32 
-1.07964 1.85562 4.01171 23 115 152 
0.235522 0.544317 3.77739 174 137 131 
1.17383 0.924815 4.03779 109 112 103 
-0.597555 1.87196 3.68992 198 232 255 
-0.257021 1.89918 4.31221 59 56 63 
-0.309144 0.256081 3.87596 24 23 19 
0.302745 0.534787 3.75948 237 221 162 
-0.013883 0.470777 3.71826 200 197 208 
0.186346 -1.00036 3.07369 42 16 3 
0.30991 0.535669 3.76584 114 77 50 
-0.45628 0.311708 3.91806 40 23 16 
0.211205 -0.997351 3.04931 69 34 30 
0.210163 0.506172 3.77734 217 221 127 
-0.466878 0.335044 3.80852 47 24 16 
-0.512187 1.9258 4.04095 77 83 57 
-0.291216 0.299798 3.84608 85 67 45 
-0.601168 0.297588 3.85758 81 58 44 
-0.520435 0.281107 3.79294 88 68 59 
-0.593571 1.9062 4.0136 141 140 119 
-0.377903 2.00481 3.8492 82 79 70 
0.190058 0.490515 3.78878 149 88 60 
-0.288977 0.26356 3.87935 177 160 132 
0.0122206 0.551041 3.51869 237 222 189 
-0.371435 2.02371 3.95056 68 71 52 
0.487452 0.479235 3.85135 80 33 23 
-0.113988 0.526647 3.72396 155 136 122 
-0.431286 1.98412 3.7018 125 121 110 
0.161056 -0.995082 3.1392 86 58 19 
-0.53418 1.96345 3.66214 221 211 199 
-0.535671 0.247042 3.78851 65 43 30 
-0.59772 1.93568 4.03944 84 80 17 
0.433861 2.01587 3.99498 92 96 105 
-0.214832 1.91035 4.38524 104 112 123 
-0.364338 0.311346 3.91106 25 7 0 
-0.052733 -0.112691 4.14152 62 63 67 
0.0399946 0.542367 3.54161 180 146 121 
-0.0807859 2.00084 3.95545 169 71 60 
0.040689 -0.0991567 4.19573 50 51 53 
0.19003 0.506219 3.72615 204 115 109 
0.165979 -1.00146 3.20272 52 34 10 
0.382796 0.501021 3.84436 180 90 14 
0.0319854 0.484226 3.83374 130 137 181 
-0.801101 0.216238 3.96938 56 77 96 
-0.784229 0.200836 3.97694 140 132 109 
-0.0549497 0.473514 3.75707 85 76 95 
0.166179 0.377138 4.13749 82 44 35 
-0.368949 1.96211 3.83612 87 81 55 
-0.354091 0.539268 3.61407 107 96 92 
-0.331561 0.343499 3.97736 34 24 0 
0.319392 1.82345 4.39842 101 104 113 
-0.214695 1.90849 4.11634 84 83 89 
-0.56363 1.94742 3.9977 61 74 21 
0.164059 -0.96955 3.15787 75 54 7 
-0.819328 0.195936 3.97696 183 197 206 
-0.586755 1.91749 4.13145 113 117 116 
-1.00615 1.85788 3.94784 127 161 186 
-0.926634 -0.28681 3.7185 13 45 86 
-1.0829 1.85196 4.08011 25 51 76 
-0.367663 2.03541 3.96245 177 177 153 
-0.470867 0.357636 3.84961 43 23 12 
0.0351021 1.99544 3.8691 88 61 16 
-0.212668 1.96962 4.16696 27 25 26 
-0.593976 1.8988 3.77465 143 165 188 
-0.613328 1.87727 4.1602 188 190 187 
-0.408485 0.332502 3.83644 57 38 21 
-0.413829 0.342664 3.88675 103 72 51 
-0.494989 0.305713 3.82559 66 43 27 
-0.397424 2.0154 3.8943 156 150 150 
1.10599 0.408795 3.76729 194 192 179 
-0.158472 0.370012 4.03396 111 56 59 
-0.601714 0.0910864 3.9377 111 99 83 
-0.116653 1.89279 4.08738 46 20 0 
0.177998 -0.999048 3.0497 111 89 50 
-0.288492 0.323689 3.89928 190 175 156 
-0.592641 1.93514 3.80216 45 73 97 
-0.485347 1.89462 4.11351 102 120 94 
-0.238605 1.95604 4.19271 125 124 129 
-0.513997 1.90388 4.13541 62 67 60 
-0.225881 1.96548 4.2126 135 137 136 
-0.961119 -0.465332 3.96943 62 60 71 
-0.485782 1.9478 4.20921 35 49 0 
0.225186 0.522607 3.76753 111 103 28 
-0.595033 0.27943 3.80308 26 7 9 
-0.584607 0.309871 3.90755 251 244 218 
-0.515319 1.85877 4.08662 138 141 146 
-0.17252 1.91353 4.32344 154 153 151 
-0.609441 1.95766 3.82838 54 86 111 
-0.487975 1.90876 4.05343 149 149 147 
-0.587282 0.301159 3.89795 238 227 205 
-0.556324 0.264787 3.99197 42 31 27 
-0.624863 1.92769 3.77396 183 216 247 
-0.52727 0.268327 3.82649 55 35 24 
-0.506547 1.88226 4.14366 117 129 115 
-0.601411 1.98256 3.68333 177 169 158 
-0.287063 0.247314 3.85045 219 210 195 
-0.537483 0.259745 3.90685 35 21 20 
-0.64171 1.9342 3.63409 103 92 96 
-0.111189 0.440039 3.74697 201 204 221 
-0.171621 1.86473 4.23679 162 160 163 
-0.531857 1.85785 4.12857 123 142 110 
0.187719 -1.03681 3.05359 190 176 131 
-0.379999 1.99206 3.79754 166 166 158 
-0.206347 1.9531 4.24927 141 145 146 
-0.298196 2.03349 3.83749 50 36 10 
-0.247353 1.95928 4.27156 126 124 127 
0.264324 0.481477 3.74065 98 68 34 
0.0151906 0.445755 3.7122 49 52 87 
0.597509 0.517035 3.8892 211 181 91 
-0.0873655 0.476917 3.78923 191 192 210 
0.310113 0.511086 3.8737 117 97 24 
-0.228291 1.89001 4.18675 95 104 103 
-0.249928 1.87266 4.15574 53 49 48 
-0.526629 1.86625 4.15096 103 111 64 
0.406453 0.493722 3.8078 199 65 54 
0.00639673 -1.10662 2.72679 211 192 177 
-0.612873 1.88772 4.21144 141 157 121 
0.619018 0.639585 3.84436 95 38 19 
-0.199481 1.87558 4.17558 183 185 182 
0.0444539 2.03372 4.05444 183 170 102 
-0.252556 1.91365 4.24795 173 166 158 
-0.201484 1.87538 4.19386 168 170 169 
0.519264 0.523243 3.84169 62 62 34 
0.159297 0.112083 4.08373 163 164 166 
0.578292 0.522771 3.83894 83 92 35 
-0.601177 1.89894 3.72521 198 232 255 
-0.248933 1.92414 4.27776 50 45 41 
-0.245257 1.95555 4.22898 33 36 41 
-0.241272 2.01725 4.17312 56 35 18 
-0.319675 1.97334 3.68944 208 183 179 
-1.03647 -0.0546388 3.97723 189 162 171 
-0.244855 1.88713 4.26954 155 157 156 
-0.499615 1.93452 4.06513 180 186 176 
0.261034 0.508231 3.74948 75 69 0 
0.020201 0.593062 3.61 248 231 205 
0.163663 -0.984236 3.22216 221 202 146 
-0.989275 -0.097636 3.92583 174 208 255 
-0.26745 1.91205 4.32258 162 160 163 
0.0632641 -0.0555671 4.20324 146 148 147 
-1.00294 -0.0907667 4.00015 109 92 124 
-0.45663 0.487281 3.68659 57 44 36 
0.266721 -0.936111 3.20884 121 110 108 
0.138557 0.511036 3.73414 173 159 148 
0.531933 0.528449 3.76978 109 52 0 
-0.283576 1.94476 4.38712 37 26 24 
0.24099 0.533163 3.78444 64 12 0 
0.0269619 0.568212 3.60974 255 253 220 
-0.219298 1.88014 4.30403 156 156 154 
0.973481 0.72467 3.69104 177 179 166 
-0.5576 0.511649 3.74305 217 212 192 
0.13075 -1.07816 2.92384 214 192 135 
0.125325 -1.06851 2.87403 168 155 85 
0.319521 0.528202 3.76416 179 165 126 
0.31637 0.513822 3.71642 169 147 134 
-0.486197 1.98091 3.68024 92 93 79 
0.104297 -1.06256 2.87643 255 241 172 
-0.214646 1.87657 4.33765 114 122 133 
-0.309489 2.00959 3.70354 96 84 44 
0.346879 0.511481 3.69947 66 48 0 
-0.453013 0.530074 3.75325 22 11 17 
-0.54209 2.0051 3.70364 81 76 70 
1.01969 0.62837 3.77035 158 164 150 
0.168939 -0.999955 3.14866 70 36 8 
-1.01369 -0.300985 3.9421 192 170 183 
0.155856 -1.00043 3.14522 152 133 103 
-0.412615 1.96309 3.93911 58 45 26 
0.355414 0.545345 3.75653 64 53 21 
-0.975423 1.71307 4.23502 167 174 180 
-0.606432 1.94599 4.05274 140 142 120 
0.156912 -1.0045 3.13309 41 27 0 
-1.00373 -0.471585 3.98906 181 184 193 
0.183456 -1.03772 3.05257 54 36 0 
-1.01409 1.70098 4.42225 245 234 230 
-0.308116 1.97319 4.04855 91 74 54 
-0.255383 1.91677 3.89565 67 52 9 
0.249437 -1.00978 3.0639 85 53 40 
0.146481 -1.01648 3.0534 57 25 0 
0.154036 -1.01682 3.05552 255 255 173 
-0.246364 1.91793 3.51782 183 163 172 
0.360024 0.58342 3.77228 173 154 112 
0.368252 0.15626 3.99888 103 88 81 
-0.24961 1.95922 4.28665 167 156 154 
-0.609037 0.197181 4.03891 181 168 160 
0.11794 -1.01249 3.09888 90 55 49 
-0.395208 2.00742 3.78733 52 57 53 
0.293377 0.477274 3.80321 237 214 118 
0.306154 0.491403 3.81991 96 88 39 
0.213789 0.51383 3.7969 221 214 134 
-0.585642 1.85927 4.16224 133 147 114 
1.04534 1.01262 4.02016 137 137 127 
0.23364 0.574218 3.79282 162 141 124 
-0.77268 0.197575 3.98248 178 170 159 
-0.241532 1.97625 3.98544 228 165 70 
-0.635662 0.181875 4.02528 197 184 176 
-0.113112 0.534928 3.74198 168 145 129 
0.232617 0.516255 3.77136 251 244 190 
-0.100965 0.429501 3.70684 198 185 179 
-0.811384 0.234618 4.03261 75 98 116 
-0.440662 0.502127 3.73008 49 40 31 
-0.519218 1.87913 4.15408 118 126 128 
0.154943 -0.104687 4.07802 23 25 22 
0.0444335 0.561255 3.58324 185 149 125 
0.0484998 -0.105132 4.09237 25 27 26 
-0.496678 0.319609 3.79144 34 8 7 
0.0604283 -0.0933416 4.12613 44 46 45 
0.479832 0.466711 3.81938 80 33 23 
-0.358554 1.96604 3.71466 171 169 157 
-0.0696282 0.496664 3.72198 119 129 182 
-0.580858 1.87468 4.07392 131 133 128 
-0.308543 0.266955 3.91083 24 23 19 
-0.104011 0.351827 4.17072 90 44 18 
-0.550768 1.86063 4.04579 177 176 171 
-0.366636 1.97652 3.88729 177 177 153 
-0.540252 0.265397 3.84912 65 43 30 
-0.248919 1.9644 4.10191 192 157 91 
-0.49389 1.89477 4.15337 120 133 87 
0.304208 0.474691 3.83435 83 72 44 
-0.209704 1.90867 4.21603 172 173 168 
-0.214157 1.90595 4.22728 167 167 165 
-0.570166 1.95832 4.0104 130 147 95 
-0.222832 1.90298 4.28012 188 186 187 
-0.335121 0.544225 3.65467 135 123 109 
-0.432354 1.97334 3.68761 111 111 99 
0.185447 2.07434 4.16938 119 118 114 
0.583217 2.78794 4.20283 128 123 130 
0.117939 -1.08751 2.90575 90 63 18 
-0.182974 1.85513 4.24619 94 93 91 
-0.217993 1.92705 4.14771 38 35 42 
-0.664887 1.87569 4.19727 35 52 36 
-0.360334 0.291213 3.83282 65 51 38 
0.243361 0.538266 3.7967 64 12 0 
0.348425 0.506051 3.7219 247 195 173 
0.309723 0.507125 3.7382 222 203 163 
0.288603 0.477024 3.66516 134 120 75 
-0.607589 2.01362 3.91166 197 224 245 
-0.24802 1.9509 4.31637 50 45 41 
0.587417 0.535242 3.87663 75 96 55 
-0.0122936 0.489883 3.76874 199 196 203 
-0.0247159 0.436324 3.63678 203 196 188 
0.221186 0.507221 3.68562 184 145 138 
0.234017 0.52369 3.78366 240 232 183 
-0.605381 1.86762 4.01631 115 129 94 
-0.230005 1.91192 4.0599 153 155 152 
-0.228124 1.94743 4.18963 142 142 142 
0.562249 0.516264 3.91291 229 218 188 
-0.518738 1.88113 4.11713 188 190 185 
-0.351322 0.51397 3.63047 75 58 51 
-0.586225 1.93207 4.05787 161 165 142 
-0.752742 1.88082 4.16355 171 172 167 
-0.15652 0.424517 3.77754 182 164 154 
-1.00143 1.84351 3.93486 187 212 232 
-0.347945 2.00051 4.10362 49 34 27 
-1.00022 -0.473018 3.97334 179 182 189 
-0.174848 1.91257 4.24802 111 115 118 
-1.00934 -0.403727 4.02335 173 171 185 
-0.25285 1.95763 3.95342 56 34 0 
-0.16408 1.86784 4.2146 23 24 28 
-0.4675 0.328448 3.76923 34 13 8 
-0.194954 1.84741 4.2591 182 180 183 
-0.407221 0.326858 3.82013 48 31 15 
0.154575 -1.01274 3.08367 64 39 0 
-0.621281 0.234478 3.55927 198 179 183 
-0.651727 0.23735 3.56857 44 39 43 
-0.553398 1.90079 3.77076 168 182 191 
-0.607176 1.94208 3.81121 77 109 134 
-0.159821 0.361318 4.00852 46 7 10 
-0.62289 1.86193 3.69787 62 96 123 
-0.623932 1.92034 3.76687 197 230 255 
-0.59315 1.8966 3.73568 60 90 116 
-0.991424 1.77323 4.32413 150 157 163 
-0.628786 1.89866 3.72992 61 102 132 
-0.369683 1.96748 3.79654 83 77 61 
-0.768931 1.76656 4.36426 231 230 228 
-0.519231 0.276612 3.78445 40 25 20 
-0.373967 2.00766 3.82094 25 27 16 
-1.20727 1.69482 4.38583 0 50 76 
0.0146658 0.559885 3.55559 248 231 201 
0.318368 0.620089 3.67894 190 173 155 
0.374867 0.616836 3.63043 58 46 24 
0.153137 0.601188 3.58452 57 32 10 
0.118066 -1.07721 2.97363 84 64 13 
0.948612 1.1983 4.00906 197 197 189 
-0.322508 2.0391 3.73254 251 246 224 
1.25188 3.2759 4.77777 44 29 36 
1.03024 1.01171 3.9695 203 199 187 
0.0161526 0.450447 3.72399 49 52 87 
-0.238573 1.94625 4.17982 125 124 129 
0.368003 0.470101 3.76984 187 85 13 
-0.0988325 1.99463 3.94185 230 215 184 
0.102722 -1.06825 2.86902 137 114 83 
0.0173269 0.467762 3.78434 174 173 181 
-0.0904059 0.459058 3.74355 187 188 208 
-0.216848 1.96025 4.21568 118 119 123 
0.113579 -1.01027 3.07068 49 13 13 
-0.322329 1.99997 3.70319 71 64 48 
-0.781215 0.168668 3.97308 233 236 225 
-0.846437 0.167263 3.99279 54 53 58 
0.595739 0.570441 3.74144 70 33 0 
0.168101 0.177629 4.12299 65 52 61 
0.385162 0.153264 4.06636 153 140 131 
-0.485298 1.96863 3.66891 115 112 97 
-0.635837 1.89015 3.58472 159 145 145 
0.171745 0.57065 3.74727 176 167 138 
-0.296419 0.229665 3.8055 188 174 145 
-0.505287 0.241216 3.83797 56 28 14 
-0.643605 1.95382 3.66741 178 167 163 
0.151188 0.134138 4.05465 171 160 166 
0.234213 0.55443 3.79536 30 16 5 
0.314455 0.553888 3.76106 213 151 140 
0.333375 0.547245 3.67791 83 54 22 
-0.574993 1.8748 3.73943 39 61 75 
-0.522851 1.83312 4.10513 63 69 31 
-0.596904 1.87307 4.16582 169 171 166 
-0.228593 1.90468 4.20853 95 104 103 
-0.427443 1.97202 4.06185 51 27 3 
-0.542191 0.270491 3.83032 53 37 40 
-0.409412 0.304144 3.91783 108 82 59 
0.095897 0.337816 4.02441 167 145 132 
-0.584017 0.288323 3.86004 249 238 218 
0.477993 2.05471 4.10431 165 168 173 
-0.238164 1.98156 3.99545 240 182 57 
-0.940338 1.80364 3.58707 123 157 167 
-0.589663 0.326845 3.96291 251 244 218 
-0.453684 0.532587 3.76329 20 11 16 
-0.179044 1.90464 4.25057 162 166 169 
-0.251785 1.89052 4.21609 173 166 158 
-0.961908 -0.468893 3.95431 164 154 165 
-1.03032 -0.070049 3.93098 173 149 162 
0.188179 -1.04077 3.07873 51 32 2 
-0.561837 1.92663 3.98522 171 178 101 
-0.289863 0.33238 3.92494 192 176 153 
-0.843655 1.78739 4.27747 84 87 104 
-0.22478 1.94189 3.95075 121 68 0 
-0.540551 1.98054 3.70654 106 102 93 
-0.636084 1.88544 3.707 179 220 248 
0.154062 1.9235 3.97245 13 11 12 
-0.248311 1.94321 4.25091 72 70 71 
0.0188926 0.367876 3.98891 44 0 6 
-0.518666 1.90426 3.90644 142 151 134 
0.192543 -1.01396 3.02054 57 32 1 
0.249344 -1.01847 3.0666 62 33 25 
-0.621532 1.90258 4.20478 37 40 47 
-0.554896 1.86018 4.13215 153 162 145 
0.373277 0.574259 3.812 153 139 76 
0.163286 -1.0104 3.08605 70 49 22 
0.206227 0.582894 3.67751 147 131 115 
-0.594747 0.272888 3.83903 89 74 67 
0.231956 -1.00746 3.04363 47 44 25 
-0.503898 1.90395 4.00728 133 140 122 
0.547432 0.524606 3.7847 178 124 36 
0.166883 -1.0003 3.02 54 43 23 
0.0336351 2.03177 4.02564 96 81 52 
-0.439647 0.496082 3.71534 49 40 31 
0.146833 -0.99537 3.08633 152 133 103 
0.15869 -0.9817 3.19068 221 202 146 
-0.237213 1.97033 3.95732 103 54 0 
-0.283173 1.93061 4.36771 42 33 36 
0.153974 -0.990973 3.10229 69 40 6 
-0.24905 2.01143 4.16703 205 169 83 
-0.412382 1.95059 3.92601 41 28 9 
0.170272 -0.99143 3.19395 175 149 88 
-0.221583 1.93368 4.35004 147 137 138 
-0.793708 0.205702 4.00829 184 183 179 
-0.0816982 1.96202 3.90671 204 106 105 
-0.383667 1.89015 4.29957 114 80 19 
0.194738 0.481917 3.68662 203 199 126 
-0.0481289 1.99414 3.94613 202 104 77 
0.228386 0.499451 3.76967 143 137 61 
-0.338328 1.79319 4.38886 134 138 163 
0.091153 -0.0961955 4.19102 43 45 44 
-0.72331 1.88692 4.26742 89 101 89 
-0.364417 2.02305 3.96275 117 122 90 
0.179518 0.552993 3.59966 62 36 19 
-0.104292 1.99699 4.16487 88 77 59 
-0.0128182 1.96073 3.83305 184 63 52 
0.150416 0.603133 3.63263 255 238 169 
0.0507411 2.05226 4.07159 63 49 0 
-0.363712 0.39446 3.79477 95 40 37 
0.802614 0.537942 3.92617 37 15 18 
0.238419 -1.02838 3.12939 58 46 34 
0.367982 0.516702 3.78719 128 96 0 
0.253759 0.590083 3.78179 179 148 117 
-0.217106 1.95705 4.19372 30 29 35 
-0.595516 1.92149 3.76692 60 90 116 
-0.607354 1.9138 3.77093 44 76 99 
-0.586226 1.87946 3.73092 51 79 103 
-0.372736 1.97443 3.94072 104 87 71 
-0.372879 2.01302 3.82839 25 27 14 
-0.381224 1.99927 3.80336 187 187 177 
-0.34755 1.98146 4.07723 45 31 28 
0.173194 -1.0115 3.11037 247 230 174 
-0.614389 1.92187 4.05116 178 182 168 
-0.50006 1.91185 4.04098 185 186 168 
-0.229179 1.92753 4.08212 134 136 131 
-0.380797 0.363263 3.84836 21 26 20 
-0.755623 1.89148 4.17826 171 172 167 
0.962669 0.409348 3.68992 175 169 157 
-0.110512 0.433381 3.73296 212 211 227 
0.159865 0.477272 3.79431 218 201 181 
-0.461696 0.528626 3.78804 24 10 7 
0.933981 0.493916 3.61182 185 186 170 
-0.0232537 2.51447 3.35413 187 178 173 
-0.315886 2.05894 3.7446 244 236 187 
0.920691 0.98517 3.87101 204 197 181 
-0.566818 1.89636 3.73807 107 124 152 
-0.218541 1.96293 3.82268 61 98 54 
-0.370814 1.93345 3.79882 85 84 66 
-0.598534 1.93524 3.8186 180 205 227 
-0.150637 0.426175 3.75997 126 108 98 
-0.639925 1.91314 3.74654 182 222 248 
-0.401151 1.983 3.91695 64 71 63 
-1.01888 -0.359679 4.00785 108 94 107 
-0.983955 -0.0969582 3.91448 105 185 236 
-0.976693 -0.419314 3.86153 172 164 179 
1.16854 0.918968 4.02564 162 162 150 
-0.00389107 -1.11529 2.7192 196 185 139 
-1.01913 -0.0718716 3.96193 147 190 225 
0.015534 0.580827 3.58062 255 241 217 
0.301327 0.606764 3.66655 196 186 159 
-0.3041 1.99777 4.02371 78 64 38 
-0.179929 1.83416 4.27374 156 160 163 
-0.321624 0.547927 3.5769 229 216 200 
-0.330592 2.04473 3.73285 27 19 17 
-0.307891 2.01211 4.10125 85 69 53 
-1.00954 1.87122 3.97207 171 193 214 
-0.603097 1.92407 4.02432 140 142 120 
0.614401 0.630376 3.81983 72 26 10 
-0.352969 0.506071 3.54051 141 128 120 
0.242784 -1.00287 3.06669 41 28 19 
0.243759 0.570452 3.71745 193 157 125 
0.3579 0.577631 3.75366 186 163 111 
0.23004 -1.00722 3.04014 45 41 29 
-0.650273 1.95795 3.66135 25 22 31 
-0.608908 1.80517 4.07375 31 35 36 
-0.454668 0.547916 3.80141 19 9 17 
-0.251318 1.89129 4.29524 176 171 175 
-0.598331 1.93804 3.63476 204 196 173 
0.235117 0.522129 3.75347 83 41 27 
0.365387 0.541029 3.80702 247 199 179 
-0.241093 1.97305 4.11971 38 20 18 
1.23111 3.19929 4.73589 145 137 126 
-0.488025 1.92282 4.08019 193 195 181 
-0.212578 1.94712 4.12315 139 141 140 
-0.160658 1.90442 4.26555 16 17 21 
-0.544021 0.280067 3.9796 35 25 24 
-0.286037 0.260861 3.89367 219 210 195 
0.94776 0.524861 3.6835 61 59 47 
-0.525257 0.25111 3.77028 75 44 26 
0.515428 0.496652 3.78495 178 173 151 
-0.235579 1.99413 4.24641 144 139 145 
0.371379 -0.843473 3.36335 50 34 8 
-0.228057 1.88614 4.10053 135 137 136 
-0.602108 1.90855 3.74274 192 224 249 
-0.424599 0.31804 3.84595 76 55 36 
-0.207367 1.91483 4.20221 154 158 159 
-0.24158 2.0054 4.28919 137 141 150 
-0.229486 1.95204 4.21891 146 144 147 
-0.389409 0.334519 3.74444 64 46 24 
-0.608931 1.84536 4.1203 187 188 190 
-0.031883 2.08284 3.80658 255 205 208 
-0.542209 1.84951 4.10692 38 46 35 
-0.238003 2.00297 4.02183 238 178 68 
-0.552558 0.249331 3.94195 46 35 31 
-0.0984143 0.451543 3.81489 67 59 57 
0.839645 1.75581 4.56748 64 59 53 
-0.528037 0.257098 3.96923 173 156 136 
-0.0977588 0.462451 3.82169 205 192 184 
-0.515798 1.93525 4.21627 111 125 108 
0.429621 0.481918 3.8324 224 203 174 
-0.577183 0.302892 3.91489 117 109 88 
0.364261 0.499697 3.9076 110 57 39 
-0.192575 1.86884 4.15708 124 127 134 
0.287793 0.464568 3.77199 225 204 111 
-0.482873 1.89764 4.14078 40 54 3 
0.267277 0.487146 3.76492 108 68 58 
-0.411509 1.93681 3.90826 41 28 9 
-0.656634 1.88348 4.21344 164 172 157 
-1.08387 1.85263 4.0662 135 210 252 
-0.955272 1.8612 3.85075 182 221 255 
-0.539566 0.258588 3.83147 52 35 27 
0.030879 2.00889 3.99527 96 81 52 
0.174497 -0.993783 3.21906 192 164 101 
-0.570662 0.286642 4.06123 168 155 146 
0.230751 -0.996633 3.14086 58 19 24 
0.0246804 0.555082 3.58391 247 230 202 
-0.605845 1.95135 4.14042 59 65 55 
-0.570631 1.93004 3.97819 166 178 106 
-0.675533 0.299468 4.2113 77 62 59 
-0.628479 1.91593 4.07343 94 116 93 
0.162363 -0.998789 3.10938 83 56 27 
0.176454 -1.00132 3.11252 54 27 6 
0.625375 0.59437 3.73783 104 68 36 
-0.075347 2.01802 3.97527 181 57 59 
-0.395959 2.0346 3.82148 46 51 45 
0.257491 0.575122 3.72887 85 55 19 
0.607137 0.587034 3.77774 52 22 12 
-0.859347 0.190029 4.07307 56 57 62 
-0.111326 0.552394 3.78202 165 142 128 
-0.51549 1.95701 4.08818 59 62 43 
0.144968 -1.00679 3.08594 90 66 38 
0.161311 0.16426 4.0795 66 54 66 
-0.364577 0.405946 3.82565 97 41 40 
-0.613932 0.216143 4.10862 193 181 169 
0.19954 0.506002 3.71937 190 189 109 
-0.983719 -0.248535 3.96152 200 166 180 
-0.557723 1.88458 3.93135 173 180 103 
0.192658 0.496934 3.71039 101 51 24 
-0.363153 1.95421 3.85547 205 204 174 
0.33609 2.00599 4.0126 129 129 131 
-0.591788 1.90241 4.08751 146 152 152 
-0.251647 1.88311 4.20175 170 163 155 
0.0301408 1.95861 3.96291 200 190 95 
-0.309433 0.263854 3.89432 26 22 19 
0.543551 0.522549 3.93449 160 126 91 
-0.218866 1.94456 4.1404 174 170 167 
-0.61049 0.286943 3.92796 54 26 5 
0.820569 0.560088 3.98166 25 13 13 
-0.0897591 0.468377 3.76787 187 188 208 
-0.983003 1.73968 4.27332 197 204 210 
-0.306745 2.01081 3.68714 111 98 64 
0.391043 2.06546 4.00008 150 150 160 
-0.539873 1.96575 3.68826 106 102 93 
