ply                 
format ascii 1.0    
element vertex 1263
property float x    
property float y    
property float z    
property uchar red  
property uchar green
property uchar blue 
end_header          
-1.01773 1.79044 4.34646 93 102 99 
-0.160963 1.89401 4.23618 97 98 102 
-0.100468 1.89571 4.47297 143 134 119 
-0.494335 0.2886 3.76438 209 173 139 
-0.965109 -0.363358 3.95216 169 127 139 
-0.977921 -0.411079 3.89297 181 180 196 
-1.22608 1.75879 4.4897 7 66 96 
-0.604741 1.94057 4.26246 156 158 153 
-0.348899 1.84022 4.60497 248 247 227 
-1.03977 1.796 4.56853 241 241 243 
-0.200794 2.01568 4.34652 155 159 158 
-0.970755 -0.47986 3.86455 186 189 198 
-0.958837 -0.484384 3.84741 101 93 104 
-0.071328 2.57367 3.39589 28 19 20 
-0.242098 1.96415 4.25685 173 169 168 
1.29979 3.41247 4.92809 36 21 28 
0.161725 2.61377 3.52392 225 216 209 
-0.232295 2.06336 4.37591 130 125 129 
1.19657 0.998695 4.12925 211 204 186 
-0.234559 1.96119 4.20173 142 140 143 
0.988838 0.657787 3.71239 188 186 174 
-0.713972 1.93679 4.14596 198 199 194 
-0.00109641 0.491365 3.3923 212 196 170 
-0.641493 1.91026 3.61177 48 43 50 
-0.3225 0.506817 3.46116 224 216 197 
0.411945 0.590931 3.6458 85 77 64 
0.252616 -0.847547 3.49885 59 28 34 
0.146756 0.0884245 3.98275 164 165 160 
-0.31693 0.498811 3.46413 208 198 188 
0.190164 0.563916 3.61986 43 40 23 
-0.225383 2.04243 4.24414 120 121 125 
-0.347328 0.457169 3.4236 141 128 120 
0.258108 0.576807 3.73107 76 50 25 
0.225083 0.523147 3.60761 204 169 127 
0.355627 0.575314 3.74125 192 166 105 
-1.08985 1.92913 4.10302 106 196 233 
-0.497175 1.90432 4.03589 194 196 175 
-0.378264 2.02076 3.83275 180 180 172 
-0.576066 1.98557 4.14422 186 181 175 
-0.537056 0.206979 3.79128 92 74 62 
-0.638018 1.92749 3.75958 178 222 251 
-0.292926 0.185759 3.64183 218 203 172 
-0.598781 1.85649 3.67463 56 86 110 
-0.396788 2.03926 3.90907 178 174 163 
1.02851 0.556315 3.75159 99 104 84 
0.32947 0.496699 3.61993 86 75 43 
0.155731 -0.954113 3.0254 47 18 0 
-0.586776 1.95889 4.08533 179 185 125 
0.899997 0.462261 3.53255 200 201 185 
0.350855 0.513167 3.71268 93 64 34 
0.303587 0.495373 3.66787 220 194 159 
0.218649 0.490089 3.66516 74 46 34 
-0.442301 0.48801 3.67811 203 195 184 
-0.455379 0.524364 3.76866 34 23 21 
-0.542896 0.464372 3.61961 221 215 193 
0.341653 0.501509 3.70009 244 205 174 
-0.433676 0.487854 3.68598 51 46 40 
0.306285 0.518735 3.75431 124 123 77 
-0.425621 2.04758 4.15863 39 21 7 
0.137021 -0.978274 3.00083 98 72 45 
-0.526689 0.264668 3.71872 27 18 21 
-0.372083 1.98932 3.87236 80 80 68 
-0.556 1.94407 3.82648 157 172 179 
0.149312 -0.979272 2.85534 70 44 27 
0.163435 -1.00511 3.17687 53 35 13 
-0.417915 0.294589 3.76159 66 45 28 
0.16563 -0.995735 3.00578 55 42 23 
0.151031 -0.994631 2.97374 245 226 167 
-0.398048 0.27476 3.66086 44 27 19 
0.5416 0.470602 3.70993 56 90 63 
0.13877 -1.0036 2.96557 254 231 163 
-0.377104 0.338233 3.79604 56 51 22 
1.07326 0.492132 3.77289 179 183 150 
-0.375339 0.326665 3.74089 25 21 9 
-0.254921 2.07529 4.02836 44 84 58 
-0.401058 1.9918 3.93088 50 54 29 
0.0951607 -0.987952 2.73681 49 19 17 
-0.398087 2.00112 3.95353 116 115 95 
1.03708 0.359312 3.61932 179 176 161 
-0.107356 0.438063 3.73699 201 204 221 
0.349924 0.481598 3.84599 117 54 62 
-0.942187 -0.258462 3.82571 179 186 204 
0.0157497 0.470376 3.78602 165 158 150 
0.0181466 0.517662 3.49114 249 234 201 
0.299646 0.487445 3.58922 183 155 144 
-0.520038 2.05753 4.22548 57 60 43 
-0.565383 1.91499 3.765 107 122 151 
-1.11657 1.85091 3.97673 148 156 177 
-0.119821 0.469415 3.57193 168 145 129 
-0.235497 1.98974 4.33117 162 144 134 
-0.190107 2.473 3.74764 36 34 37 
-0.162849 1.82862 4.29862 29 29 41 
-0.236877 2.67041 3.93908 155 144 142 
-0.848623 1.82128 4.32389 120 118 131 
-0.579343 0.305705 3.89239 113 103 76 
-0.596656 0.0987634 3.96608 241 230 212 
0.545305 0.509398 3.72399 91 59 21 
-0.494873 1.90346 4.06394 111 101 89 
-0.506067 0.276945 3.74853 214 183 154 
-0.160405 1.89703 4.25997 21 22 26 
0.179736 -0.981464 2.89757 67 20 12 
0.382698 0.457623 3.71509 204 62 50 
0.281676 0.426377 3.6866 97 88 71 
0.492502 0.483877 3.73833 57 65 41 
-0.417111 2.03177 3.81248 189 183 161 
-0.0129263 -1.07926 2.56674 228 211 193 
0.641396 3.09105 4.49488 147 139 137 
0.0820422 0.28958 3.86487 105 88 70 
-0.523322 0.373187 3.71054 92 37 32 
-0.089165 2.0208 3.97736 138 128 92 
0.39971 0.46874 3.73553 124 97 30 
-0.274453 1.97119 3.90278 86 101 80 
-0.550709 1.95452 4.1731 194 192 180 
-0.854382 0.190555 4.06468 66 67 72 
-0.336194 1.83725 4.45268 131 135 160 
0.135211 -1.01561 2.74982 192 175 106 
0.167583 -0.995209 2.88007 86 53 38 
-0.373947 1.94672 3.91537 42 23 9 
1.00629 0.734001 3.71419 154 145 128 
-0.364656 0.341029 3.83809 186 177 138 
-0.42907 2.02304 4.10658 194 171 137 
-0.571638 1.96127 4.03333 184 184 84 
-0.515867 2.04231 4.14385 163 168 136 
-0.351819 2.02595 4.14133 34 24 15 
-0.602741 1.95636 4.06277 124 127 100 
-0.388821 0.337661 3.74504 121 101 74 
-0.575705 2.01611 4.18382 192 185 169 
-1.09693 1.95541 4.13858 106 196 233 
-0.239526 2.07566 4.26752 43 27 12 
-0.614836 1.9753 4.16004 116 128 90 
-1.087 1.85761 4.04046 130 193 224 
-0.722349 1.98225 4.20453 198 197 195 
-0.235422 2.00681 4.30211 178 169 170 
-0.74886 1.864 4.13782 174 175 170 
-0.203452 1.94357 4.24992 148 153 149 
-0.193463 1.95607 4.27478 88 92 91 
-0.616597 1.99105 3.86351 43 75 98 
-0.56918 1.95079 3.81054 178 195 223 
-0.605417 1.94247 4.29363 52 58 48 
-0.37309 1.96472 3.79779 64 64 56 
-0.276678 2.00712 4.47288 26 28 27 
-0.382805 2.02979 3.84095 45 47 44 
-0.20742 1.98015 4.49639 140 143 162 
-0.334633 2.73974 3.97611 32 28 29 
-0.0933247 1.99874 4.62218 155 146 129 
-0.312479 0.492209 3.54875 215 203 189 
-1.01539 1.70684 4.43215 177 171 173 
-0.159977 1.9224 4.43306 22 35 44 
0.931331 1.17218 3.96691 172 172 162 
1.02628 1.09945 4.091 27 32 25 
1.19047 0.988893 4.11483 205 196 179 
1.04408 0.738078 3.81922 196 188 175 
0.00750633 0.537079 3.50003 182 165 149 
-0.92196 -0.392135 3.73542 198 177 192 
0.566952 0.560979 3.65291 85 37 17 
-0.322775 0.496511 3.54087 216 203 187 
0.344578 0.558629 3.72388 92 74 60 
0.305728 0.497301 3.58143 225 199 164 
-0.509435 2.60886 3.79423 46 42 41 
-0.349809 0.457927 3.50171 117 104 87 
0.286581 0.480402 3.55897 26 4 7 
0.351351 0.543453 3.72625 64 53 35 
-0.115134 0.508372 3.66083 173 146 125 
-0.450983 0.480238 3.61818 203 188 169 
0.368025 0.560125 3.84207 242 215 186 
-0.430279 0.465768 3.63003 52 49 44 
0.996232 0.457841 3.62248 85 82 63 
0.142529 0.433864 3.67478 80 67 58 
0.0100925 0.459539 3.7585 214 202 186 
0.200035 -1.04305 2.80909 52 39 7 
0.188531 -0.99531 3.05209 44 15 19 
0.132647 -0.99227 3.00479 60 39 8 
0.137437 0.112692 3.93836 179 156 162 
-0.396219 0.260062 3.62443 48 30 30 
-0.613654 0.207595 3.47517 173 159 158 
-0.417222 0.279506 3.72083 76 55 36 
0.095868 -0.988244 2.80257 53 23 15 
-0.156803 0.38364 4.07063 46 14 17 
-0.503905 0.267375 3.72031 218 187 158 
-0.44906 0.279877 3.79575 35 26 29 
-0.766776 0.196493 3.94144 223 209 183 
-0.293296 0.217307 3.73949 224 204 177 
0.351669 0.516086 3.71817 54 27 0 
0.193205 -1.04304 2.81171 53 43 0 
-0.413708 1.97164 3.74156 167 160 142 
0.0192291 0.54242 3.51227 109 82 53 
1.66954 4.11565 4.68789 95 70 50 
-0.451803 0.284692 3.70139 31 14 6 
-0.566121 2.10636 4.46766 58 66 53 
0.62438 1.59787 4.71715 11 15 16 
-0.351913 2.67558 3.88949 53 54 49 
-0.491028 0.233228 3.7187 66 51 46 
-0.339408 1.86021 4.48379 139 144 164 
-0.0865584 2.05317 4.01525 112 104 65 
-0.151974 0.289042 4.09238 89 72 64 
-0.552392 2.05327 4.0628 96 101 94 
-0.591774 1.98377 3.68432 89 86 81 
0.506079 0.474662 3.82122 101 68 49 
0.280088 0.526968 3.48542 73 64 47 
0.617799 0.520575 3.842 234 209 5 
-0.250904 1.95152 4.08578 208 171 65 
0.171122 -0.984186 3.18096 204 175 109 
-0.9461 -0.480682 3.87539 110 89 106 
-0.0961675 0.45752 3.75564 42 41 73 
0.426738 0.514602 3.86435 209 159 96 
-0.764718 1.95849 4.26785 189 189 187 
-0.44911 0.270911 3.76687 33 27 31 
-0.376939 1.98435 3.96526 69 47 34 
1.03475 1.12204 4.04229 40 43 34 
1.10931 0.861001 3.90506 206 196 187 
1.25922 3.29065 4.84023 167 158 143 
-0.443333 0.474566 3.65943 222 208 195 
-0.493196 0.250664 3.7163 30 31 33 
-0.524333 1.93314 4.19267 197 200 181 
-0.230456 2.01367 4.3161 168 156 158 
-0.50164 1.95008 4.17922 194 190 165 
-0.20409 1.92254 4.22327 108 113 107 
-0.167295 1.97098 4.33693 118 122 121 
-0.348635 2.62352 3.83592 65 62 55 
-0.359211 2.60697 3.81998 54 53 49 
-0.25611 2.03011 4.48523 159 156 151 
0.147857 0.527826 3.78172 182 167 148 
-0.303925 2.12026 4.23893 67 53 40 
-0.179215 1.98746 4.47866 127 127 127 
-0.159291 2.0143 4.55815 15 25 27 
-0.220415 2.59666 3.84758 25 23 24 
-0.451579 0.476663 3.65296 24 10 7 
-0.297831 2.10864 4.17983 76 67 62 
0.349673 0.573799 3.86927 48 34 21 
-0.20068 2.70061 4.00898 40 38 39 
-0.29421 0.280009 3.9337 214 193 166 
-0.456254 0.497263 3.65809 195 180 159 
-0.251858 1.97931 3.90418 34 88 62 
-0.399325 2.05432 3.99984 41 46 40 
0.507565 0.450455 3.72187 237 210 180 
0.358226 0.560089 3.7577 48 40 29 
-0.313539 0.473996 3.53752 212 200 188 
-0.287806 2.10406 3.92197 44 32 8 
0.947548 1.11862 3.95149 50 48 35 
-0.0148875 0.46903 3.72024 205 196 187 
1.00268 1.10116 4.0142 205 209 195 
0.222892 0.535413 3.6279 208 161 107 
-0.34816 0.554601 3.65223 148 138 129 
0.421696 0.593066 3.71568 223 185 114 
1.32761 3.74841 5.24159 17 11 11 
-0.321618 0.539319 3.55233 235 222 205 
-0.469807 0.345059 3.82315 30 17 24 
1.00487 0.984495 3.92678 50 42 31 
-1.01092 -0.393844 4.04711 180 182 197 
-0.970901 2.76286 3.88159 175 174 172 
-1.02165 -0.0685471 4.07484 91 52 81 
1.39841 3.57329 5.14625 54 45 40 
-0.609619 0.191041 3.41958 199 190 191 
1.42172 3.59287 5.39778 18 16 17 
-0.886101 0.23978 3.67302 146 209 242 
-0.225906 1.99307 4.18723 146 142 141 
-0.619786 1.98869 4.31165 154 158 144 
0.386532 0.577098 3.67807 226 192 105 
0.142873 0.122989 3.97608 176 166 167 
-0.417278 2.04204 3.82456 200 194 170 
-0.932415 -0.274036 3.74762 175 170 190 
-0.308756 0.334225 4.11521 90 87 78 
-0.943081 -0.378391 3.83851 194 162 175 
-0.278197 2.62782 3.95953 17 22 28 
0.906163 1.30409 3.93715 203 196 186 
-0.305944 2.57684 3.90124 17 20 25 
0.325055 0.556886 3.83932 103 84 67 
0.450052 3.056 3.93401 204 198 186 
-0.272418 2.68536 4.05543 14 18 30 
-0.112261 0.499305 3.64164 171 145 120 
0.182759 0.550754 3.59723 54 41 25 
-1.04369 -0.0764831 4.05493 191 198 216 
-0.514324 2.00375 4.09694 142 148 114 
-0.566241 1.9291 3.9932 185 188 85 
0.162447 -1.00517 3.17999 67 48 16 
-0.289379 2.6016 3.92591 14 17 26 
1.74494 4.30745 4.84866 73 48 26 
-0.0271471 -0.0881626 4.1887 15 15 15 
0.0739362 -0.0866045 4.1975 116 117 112 
0.117069 -0.0820668 4.19878 14 14 12 
0.221487 0.554688 3.8687 208 198 136 
-0.0998 0.492702 3.88504 181 181 209 
0.708719 -1.00428 3.45885 206 181 99 
0.278711 0.557634 3.84179 70 45 0 
0.285221 0.562318 3.8546 217 196 133 
0.323928 0.561555 3.84013 216 195 166 
0.248621 0.57119 3.85946 57 30 23 
-0.403837 0.362617 3.91663 55 23 2 
0.284522 0.564857 3.83489 78 45 0 
-0.377716 -1.25293 3.79545 19 23 24 
0.234873 0.553777 3.84392 221 221 123 
0.281844 0.548592 3.854 50 41 0 
-0.291871 -1.19961 3.80949 138 137 142 
0.183938 -0.0431894 4.2132 134 135 130 
1.20066 -1.15207 3.74517 191 177 166 
0.0426752 -0.0643642 4.1999 19 19 17 
0.176911 -0.0746172 4.21091 127 128 123 
1.27871 -0.0677891 3.74055 184 183 165 
0.713352 -1.01395 3.47184 223 205 97 
1.31489 -0.336157 3.71102 170 165 145 
-0.948647 -0.382143 3.73597 191 174 184 
-0.811031 -1.2666 3.69538 158 156 157 
1.19967 -0.410265 3.6259 176 180 153 
-0.750308 -1.33255 3.67952 156 158 170 
-0.615282 -1.33893 3.73497 188 201 209 
-0.310602 -1.36401 3.81865 184 185 179 
1.03343 -0.685817 3.51935 167 164 149 
-0.30092 -1.33604 3.78843 147 148 152 
-0.361294 -1.2558 3.79195 149 151 148 
-0.355152 -1.33092 3.79674 41 37 36 
-0.334849 -1.32846 3.79737 42 39 34 
-0.345656 -1.34297 3.79676 127 133 133 
0.566451 -0.915826 3.46165 124 78 0 
-0.34159 -1.34921 3.81475 19 25 25 
0.0110955 -0.0955929 4.19632 38 37 33 
0.140846 -0.0731141 4.20319 123 123 121 
0.126261 -0.0761868 4.20612 17 18 13 
0.0542225 -0.0642562 4.19423 30 30 28 
-0.772861 -0.900885 3.53339 33 16 0 
-0.653702 -1.1618 3.71081 163 173 175 
0.148464 -0.0433176 4.20437 16 17 11 
-0.656236 -1.18917 3.72315 139 154 159 
-0.0953462 0.382262 4.25989 78 32 9 
0.602799 0.563553 3.9391 72 68 30 
-0.447498 0.53671 3.76003 16 8 6 
-0.328146 0.574618 3.60833 98 87 69 
1.0348 -1.24436 3.75239 98 88 78 
0.257167 0.555345 3.85376 218 177 121 
0.194408 0.562908 3.87798 126 70 53 
0.241414 0.563895 3.85661 177 173 136 
0.181541 0.157803 4.26485 135 134 148 
-0.944867 -0.422621 3.73146 178 173 179 
1.22428 -0.302818 3.67047 182 189 171 
0.193155 0.556994 3.8569 122 63 45 
0.342154 0.60374 3.83821 71 46 39 
-0.0927568 0.397823 4.26387 216 165 144 
0.32958 0.55417 3.84904 170 166 131 
1.26161 -0.127921 3.73503 187 186 168 
-0.41475 -0.96316 3.46852 196 178 130 
0.721157 -1.0214 3.48655 100 63 0 
-0.362807 -1.25982 3.81023 153 155 152 
-0.373429 -1.34032 3.79619 159 163 162 
-0.305542 -1.35304 3.79142 195 196 188 
0.282743 -0.825294 3.50583 155 123 84 
-0.691181 -1.34843 3.71413 151 156 162 
0.0421735 -0.0827226 4.19638 25 25 23 
0.0712866 -0.0756252 4.19983 57 57 55 
0.121374 -0.0503148 4.20996 141 141 139 
-0.733396 -1.12413 3.69914 155 166 172 
0.389019 0.559321 3.89263 76 52 0 
0.218648 0.562375 3.85 178 173 109 
0.316047 0.565961 3.82944 241 229 157 
0.340694 0.583554 3.82692 21 0 0 
-0.346063 -1.3151 3.78793 39 36 27 
-0.702609 -1.27689 3.72088 151 158 168 
0.132525 -0.0398199 4.21669 12 12 10 
1.04803 -1.24478 3.75254 35 28 18 
-0.352248 -1.31939 3.80062 101 98 91 
-0.604143 -1.30607 3.74671 148 161 169 
-0.348725 -1.32096 3.77704 154 150 141 
-0.594612 0.120432 4.02544 231 221 212 
-0.332208 -1.3346 3.80762 142 142 142 
-0.394423 -1.24056 3.80527 128 131 140 
-0.0463293 -0.100571 4.18282 16 17 19 
1.29227 -0.130712 3.72834 191 189 168 
-0.34281 -1.33832 3.77169 146 157 151 
0.343644 0.593725 3.82872 87 68 54 
-0.303404 -1.20236 3.8174 114 112 123 
0.69344 -0.875019 3.43297 231 183 98 
-0.296107 -1.18923 3.80098 133 131 134 
1.2793 -0.345851 3.69929 152 150 127 
1.19239 0.417293 3.89416 168 168 140 
0.617099 0.646331 3.85416 93 44 12 
-0.95417 -0.422181 3.76607 166 163 170 
1.26715 -0.349664 3.68477 205 193 169 
0.232972 -0.973091 3.43943 48 21 0 
-0.184264 1.81026 4.24792 51 51 53 
1.27811 -0.128575 3.72815 206 200 176 
0.957447 1.15174 3.99819 57 45 29 
1.17584 -1.42089 3.74318 228 209 192 
1.25875 0.00887951 3.75532 187 186 156 
-0.73735 -1.13059 3.72107 149 162 168 
-0.666322 -1.1698 3.73833 160 173 181 
-0.300204 -1.18805 3.7803 128 127 133 
0.242619 0.575322 3.84239 29 11 9 
0.330819 0.567704 3.8678 55 23 0 
0.334324 0.560944 3.83666 199 170 140 
-0.346553 0.533171 3.66619 44 32 20 
-0.61065 -1.30993 3.7377 172 188 185 
-0.600285 -1.30112 3.72297 177 189 187 
0.339083 0.55778 3.86785 63 58 20 
-0.342525 -1.32015 3.80752 151 148 143 
-0.0991906 0.495532 3.89955 168 169 190 
-0.370303 -1.24926 3.77344 134 136 133 
1.02699 -1.24773 3.76128 47 47 37 
0.71371 -1.00236 3.47762 180 163 71 
1.00705 -1.26942 3.72825 66 49 33 
0.444631 0.549146 3.94293 89 70 0 
-0.0960747 1.88894 3.73396 100 91 22 
0.421439 -0.864675 3.56095 56 36 0 
-0.64403 -1.16017 3.71289 168 169 163 
-0.513195 -1.33888 3.75017 141 153 167 
0.160697 0.578348 3.90174 92 83 84 
0.953261 1.14388 3.98446 17 15 2 
1.27074 -0.0561356 3.74887 38 37 17 
-0.453979 0.514778 3.74897 25 12 4 
1.27262 -0.0584872 3.73182 174 167 138 
1.30881 -0.0401296 3.75041 186 178 165 
1.28987 -0.355195 3.72109 195 189 173 
1.21506 -0.364446 3.65009 173 171 150 
1.2266 -0.368363 3.64629 197 185 163 
-0.910709 -0.478767 3.7332 178 168 179 
0.697385 -1.0062 3.46852 139 117 32 
-0.738289 -1.13231 3.71024 154 163 170 
1.01443 -1.27608 3.75295 66 50 35 
0.414315 -0.833035 3.55933 106 78 15 
-0.708617 -1.34817 3.70104 148 155 161 
1.2788 -0.139265 3.68589 41 35 19 
1.271 -0.134008 3.7357 25 28 7 
-0.44324 0.524897 3.75496 204 188 173 
0.972943 1.1228 3.98738 35 35 23 
1.28592 -0.130959 3.71332 191 189 168 
0.325796 0.584493 3.82684 218 165 159 
-0.55135 0.343725 3.83939 75 66 51 
0.713045 -0.983854 3.46486 174 156 90 
0.427621 -0.828107 3.56996 74 48 0 
-0.603454 0.123975 4.07668 177 167 158 
-0.483527 -1.19693 3.77367 137 144 150 
-0.38941 -1.23083 3.77217 133 136 145 
0.692614 -0.881461 3.44354 149 104 19 
-0.687185 -1.17295 3.70289 145 160 167 
-0.646672 -1.16472 3.72791 168 169 163 
1.15969 -1.16834 3.74498 83 77 65 
0.380896 0.568629 3.87028 62 42 9 
0.957768 1.0813 3.94823 185 180 174 
0.97977 1.13269 4.01498 58 54 42 
-0.451099 0.535866 3.74206 190 178 166 
1.31649 -0.343488 3.69728 203 188 167 
0.703005 -1.0133 3.49046 40 21 0 
1.32505 -0.0910013 3.73739 60 56 29 
0.174419 0.52373 3.91993 216 194 180 
-0.771536 -1.23515 3.6971 160 163 154 
-0.368672 1.89271 3.7705 54 41 35 
-0.338481 -1.31169 3.76429 163 159 147 
0.181953 0.154771 4.27938 160 159 167 
-0.00436865 0.514321 3.83586 203 199 198 
-0.543211 0.297723 3.89782 31 20 18 
-0.389062 1.88975 3.77584 34 31 16 
-0.757089 -1.3419 3.70107 154 154 164 
0.158797 0.570024 3.88302 126 118 107 
1.30211 -0.0415093 3.73454 199 191 172 
1.29555 -0.35593 3.68624 211 196 167 
0.652498 0.566434 3.96504 214 178 66 
1.28946 -0.203998 3.68315 118 105 71 
-0.225066 1.81613 4.21543 166 166 164 
-0.590911 1.78175 4.04371 171 176 156 
-0.520497 1.76302 4.00109 141 162 106 
0.301675 0.539824 3.92858 225 196 130 
-0.318335 -1.15842 3.82302 134 135 137 
0.72537 -0.999131 3.47678 59 41 0 
-0.75372 -1.35681 3.68247 136 139 146 
0.716145 -0.985344 3.48232 175 156 64 
1.25513 -0.606405 3.53463 204 203 175 
1.25304 -0.34658 3.66436 157 159 135 
1.28677 -0.140761 3.70411 43 37 21 
1.24926 -0.127206 3.69237 210 209 191 
1.27788 -0.118418 3.72597 34 34 22 
-0.597081 1.82955 3.65654 47 79 100 
-0.613706 1.83896 3.67521 51 90 119 
1.2867 -0.0595463 3.76036 205 196 167 
-0.253575 1.8572 3.83644 59 32 0 
-0.486814 0.324851 3.86704 33 13 4 
0.693955 -1.01141 3.44673 62 37 0 
-0.146269 0.458521 3.86298 220 191 175 
0.172489 0.519242 3.9003 118 99 85 
-0.451007 0.513784 3.73084 26 16 7 
-0.351855 -1.33953 3.80834 41 39 42 
-0.354796 -1.31826 3.76568 149 145 144 
0.369522 0.614085 3.86555 35 24 20 
-0.179881 1.79687 4.09162 143 145 144 
0.34398 0.570778 3.85116 50 25 18 
-0.225154 1.79074 4.0062 36 37 31 
-0.765848 -1.25846 3.67465 140 146 136 
-0.368387 1.88202 3.75425 51 41 39 
-0.254082 1.86584 3.85136 52 28 0 
-0.13047 1.79048 3.95509 18 21 30 
-0.208845 1.82619 4.09085 138 137 133 
-0.264051 1.82663 4.20136 156 144 154 
-0.32212 0.573949 3.62924 220 208 186 
-0.821726 -1.39402 3.68059 33 28 25 
-0.146798 0.464704 3.89024 222 193 179 
-0.494632 0.357442 3.81766 22 9 0 
1.0077 -1.30715 3.73591 208 193 170 
-0.357324 -1.33251 3.81885 167 164 159 
1.27126 -0.128635 3.69702 204 198 172 
1.01003 -1.2428 3.73236 38 39 34 
1.2862 -0.348817 3.7075 208 197 179 
1.25041 -0.374076 3.68194 205 189 166 
1.24862 -0.605102 3.52199 157 160 131 
-0.525677 0.299122 3.89523 46 24 13 
-0.476201 1.77278 3.89209 177 177 141 
0.705178 -0.79229 3.43973 162 108 20 
-0.804142 -1.25844 3.66874 153 151 154 
1.24054 -0.359952 3.65307 29 40 23 
1.25582 -0.357803 3.63147 24 32 8 
1.2616 -0.0536354 3.73131 33 36 17 
-0.301426 1.88037 3.8966 71 51 50 
0.733189 -0.776925 3.45654 225 188 100 
1.09171 -1.34737 3.73407 168 156 142 
1.29678 -0.0540259 3.77732 202 184 160 
1.25384 0.00783285 3.73337 215 212 181 
-0.580759 1.80254 3.97964 25 50 46 
-0.114308 1.84873 3.98738 192 177 148 
-0.58187 1.81481 3.87642 136 138 114 
-0.939588 -0.488218 3.72409 165 172 182 
0.620718 0.560091 3.97413 222 194 24 
-0.602221 -0.766486 3.30366 191 155 58 
-0.918342 -0.385439 3.73548 116 83 92 
-0.884903 -0.365866 3.72912 37 61 87 
0.176672 0.14355 4.21647 164 164 154 
-0.128332 1.82886 3.9451 183 167 151 
0.253631 0.56024 3.85163 78 27 10 
0.620229 0.555632 3.98709 205 181 93 
0.2252 0.532588 3.87505 98 52 16 
0.174398 0.517307 3.8999 168 156 140 
0.588768 0.57462 3.88371 71 49 0 
-0.399949 0.370157 3.95709 63 42 21 
-0.411738 0.370064 3.96581 84 60 32 
-0.534914 0.321032 3.88865 54 29 22 
-0.521053 0.315506 3.89725 49 29 20 
0.18183 0.156881 4.24856 151 149 152 
-0.375691 -1.34511 3.8406 120 121 126 
-0.951254 -0.423883 3.77553 154 134 143 
0.0437563 -0.0934289 4.19211 32 32 30 
0.0554222 -0.0919266 4.20085 38 38 36 
0.0740052 -0.0866317 4.19334 126 128 125 
-0.418798 -0.972332 3.52358 147 129 91 
-0.617814 -1.34411 3.75447 156 169 177 
0.367028 0.618369 3.84603 52 27 0 
-0.494187 0.324729 3.87931 121 87 60 
-0.283923 0.307926 4.01642 108 96 74 
-0.467438 0.375679 3.93817 100 72 61 
0.321341 0.558334 3.8401 83 74 33 
0.332336 0.592221 3.85361 145 111 99 
0.58203 0.547687 3.99096 175 170 140 
1.06673 -1.25704 3.81423 68 65 50 
0.285489 0.566644 3.84192 88 42 6 
0.248978 0.569217 3.8533 47 17 17 
0.319265 0.570655 3.84978 234 224 152 
-0.298781 0.296891 4.00491 146 128 116 
0.290473 0.56966 3.8491 195 170 104 
0.242179 0.544283 3.87166 209 210 117 
-0.359029 -1.34061 3.83987 73 68 62 
0.319983 0.626597 3.71744 42 42 30 
-0.515719 -0.849012 3.45836 112 116 127 
-0.776408 -1.26539 3.73083 100 104 103 
-0.920579 -0.372634 3.7959 105 93 105 
0.617674 0.644927 3.85267 107 56 1 
-0.337725 -1.32899 3.83555 134 122 122 
-0.69557 -1.2729 3.71694 138 143 149 
-0.815086 -1.26744 3.71882 142 142 144 
0.218336 0.555996 3.85316 85 69 18 
0.072137 -0.0744883 4.19953 58 59 54 
0.221775 -0.0789009 4.19513 42 42 40 
0.337261 0.553032 3.84765 102 79 47 
-0.410537 0.360716 3.99545 111 90 59 
0.315225 0.627992 3.70449 169 160 145 
-0.483925 0.360208 3.90708 49 27 16 
0.843863 0.618595 3.87338 195 141 115 
1.0877 -1.34514 3.79681 70 62 59 
0.225918 0.546399 3.8749 203 194 119 
0.405495 0.543846 3.95737 178 104 15 
0.237605 -0.0675053 4.21441 37 38 40 
0.2225 -0.0665066 4.21768 45 49 48 
0.186688 0.42488 4.27599 85 49 35 
0.247847 0.555208 3.87572 245 234 188 
0.34411 0.585819 3.83897 47 23 13 
0.185588 0.215601 4.24793 91 72 66 
-0.746888 -1.37475 3.73287 105 105 115 
0.315683 0.579674 3.84351 233 184 154 
0.244487 0.579286 3.85733 36 17 10 
0.332967 0.557703 3.82635 198 183 154 
0.331502 0.56294 3.85658 47 36 18 
0.242423 0.561 3.85484 200 186 149 
0.603167 0.564037 3.94157 65 64 16 
-0.71217 -1.3571 3.7288 134 136 148 
-0.756295 -1.34541 3.70368 107 110 119 
-0.687975 -1.35049 3.72799 156 155 160 
-0.695063 -1.3509 3.74901 161 160 165 
-0.618324 -1.34135 3.76643 154 169 172 
-0.608058 -1.31229 3.77455 154 164 163 
0.320723 0.534117 3.93427 112 79 26 
-0.339008 -1.33378 3.85037 141 130 128 
-0.774955 -1.26559 3.72291 105 109 108 
1.01867 -1.42138 3.77701 122 109 93 
0.194276 -0.0755402 4.18946 140 140 138 
-0.772923 -1.24222 3.72299 144 148 151 
-0.522357 0.317799 3.90442 90 66 54 
-0.494395 0.327175 3.88762 99 67 42 
-0.363587 -1.26019 3.84297 138 140 137 
-0.0954679 0.380994 4.25587 94 50 25 
-0.146537 0.437645 4.2385 64 12 14 
-0.742619 -1.1324 3.74962 117 131 134 
1.04563 -1.25118 3.77619 30 26 27 
0.343479 0.592238 3.82388 57 32 25 
0.339042 0.561269 3.83485 131 120 98 
0.224369 0.568731 3.86178 83 84 16 
-0.665624 -1.17643 3.78384 122 137 144 
0.387944 0.556 3.88266 109 82 0 
-0.955496 -0.482835 3.78179 141 144 159 
-0.4848 0.364817 3.92102 37 17 8 
0.245345 0.536851 3.86488 138 126 54 
-0.693129 -1.18334 3.73388 122 131 140 
-0.0463834 -0.100038 4.18187 63 63 65 
1.09195 -1.34687 3.80731 31 25 25 
0.0102145 -0.0952631 4.18247 61 61 59 
-0.395594 -1.24287 3.84241 111 114 121 
1.03034 -1.3652 3.78944 49 40 41 
-0.362257 -1.33846 3.82398 128 130 129 
-0.543995 0.301109 3.92079 60 34 37 
0.320283 0.530263 3.94598 196 177 121 
0.144769 -0.0796648 4.20155 67 68 63 
0.053181 -0.0839355 4.18455 31 31 31 
0.204775 0.530214 3.88765 164 117 99 
-0.0515497 -0.0643354 4.18505 128 130 129 
-0.305575 0.308911 4.04054 31 22 15 
0.284174 0.558365 3.86363 205 198 117 
-0.757849 -1.36849 3.72458 129 131 126 
0.154168 -1.37068 3.47465 125 45 36 
-0.61199 -1.31142 3.7433 100 120 131 
-0.339965 -1.34654 3.83032 154 152 153 
-0.812851 -1.26921 3.71082 141 139 142 
-0.354387 -1.32402 3.82097 150 140 131 
0.31939 0.570554 3.83108 248 224 180 
0.343834 0.550311 3.82569 99 81 57 
0.332569 0.558443 3.86591 213 193 169 
-0.351896 0.541548 3.70849 53 39 28 
-0.45468 0.548676 3.78245 171 165 153 
-0.44755 0.541729 3.80577 184 176 173 
1.11704 -1.35773 3.80506 108 102 90 
-0.00328052 0.519348 3.84227 149 145 162 
0.0943728 -0.0899267 4.18904 42 43 45 
-0.668509 -1.17169 3.74978 135 152 159 
-0.493805 0.331549 3.90066 81 58 40 
-0.532957 0.326455 3.89206 211 181 153 
0.182539 0.157215 4.25745 156 155 153 
0.273481 0.617828 3.8217 65 34 3 
-0.318318 -1.13654 3.85907 119 126 136 
0.155904 -1.28958 3.50344 113 69 70 
0.0661646 -0.079059 4.19492 125 125 123 
0.186419 0.610224 3.84072 170 155 136 
0.32915 0.588224 3.83965 175 127 113 
-0.604673 -1.3143 3.74727 140 153 159 
0.288212 0.559216 3.83965 140 141 47 
-0.529043 0.299718 3.92466 54 34 33 
-0.095799 0.379223 4.24887 94 50 25 
-0.520154 0.325845 3.91322 200 170 144 
0.407197 0.545577 3.96289 172 83 23 
-0.499347 0.361865 3.91528 32 13 7 
0.278937 0.556696 3.84336 143 114 58 
-0.0475866 -0.101235 4.16548 64 64 64 
-0.344769 -1.34139 3.81951 51 47 46 
-0.494855 0.439334 3.84634 103 43 9 
-0.354943 0.569522 3.69329 151 139 123 
-0.359943 0.431291 3.88586 94 40 30 
-0.305057 -1.20838 3.84626 100 99 104 
-0.765852 -1.27074 3.70205 106 110 113 
-0.667916 -1.21041 3.7442 126 140 153 
0.336012 0.562852 3.8453 207 186 159 
0.24505 0.559757 3.83367 52 28 24 
0.251482 0.557581 3.84187 89 47 33 
-0.318576 0.578071 3.64941 219 210 193 
-0.00371952 0.514752 3.83111 190 181 184 
0.177203 0.522932 3.91798 200 188 164 
-0.609512 -1.31419 3.77952 170 179 178 
-0.772026 -1.26414 3.71074 128 133 129 
-0.351286 -1.32604 3.83332 80 75 71 
-0.099407 0.493512 3.89153 166 167 195 
-0.777852 -1.24444 3.72742 152 153 148 
-0.661147 -1.23105 3.74086 150 160 170 
-0.741074 -1.13418 3.73931 162 166 165 
1.02216 -1.25193 3.78423 72 66 52 
1.07321 -1.25556 3.79446 13 13 3 
-0.104881 0.491287 3.91863 22 23 53 
-0.527671 0.29703 3.9104 54 34 33 
-0.32438 -1.10319 3.8365 90 104 117 
0.187982 0.575642 3.87713 175 158 130 
-0.491137 -1.19759 3.8143 132 131 137 
-0.927804 -0.267827 3.76025 153 180 210 
-0.305698 0.304245 4.02502 67 58 49 
-0.578734 -1.19232 3.78213 149 155 151 
-0.5179 -1.34733 3.78469 131 146 149 
0.37338 0.611436 3.83216 151 131 106 
-0.352753 0.544475 3.71534 50 36 25 
0.176803 0.520878 3.90622 190 175 152 
1.04009 -1.25862 3.80919 51 53 42 
-0.3596 -1.33448 3.82998 157 151 137 
-0.703051 -1.27828 3.73056 126 131 137 
-0.343281 -1.32614 3.82072 185 167 157 
-0.374124 -0.964919 3.58349 123 123 123 
0.587876 0.575644 3.89427 77 55 14 
-0.934635 -0.382038 3.79422 190 159 174 
-0.284453 0.303226 4.0306 182 172 147 
-0.514211 0.319489 3.917 116 100 85 
-0.761039 -1.36935 3.7338 144 147 138 
1.02232 -1.31925 3.78289 56 47 40 
-0.460721 0.360484 3.92863 59 40 34 
0.823034 1.73249 4.5165 51 46 42 
-0.498938 0.360133 3.90281 32 13 7 
0.274239 0.607607 3.84813 165 135 101 
-0.702739 -1.27976 3.74017 161 162 166 
-0.345626 -1.33064 3.8445 175 157 147 
1.02306 -1.42275 3.78698 84 74 64 
1.10684 -1.35662 3.78167 157 150 134 
0.651177 0.645337 3.85976 54 31 13 
-0.539889 0.322284 3.90347 13 2 6 
-0.425682 0.356958 3.95697 101 68 51 
0.355368 0.618407 3.81974 203 171 132 
-0.463552 0.367703 3.96164 46 35 29 
-0.148262 0.432118 4.22588 54 28 31 
-0.351858 0.563118 3.68328 142 130 118 
0.354545 0.55766 3.85668 243 208 186 
-0.104839 0.572768 3.83359 149 128 101 
0.289351 0.541178 3.90538 80 43 27 
0.197671 0.530503 3.90133 237 213 189 
0.604696 0.568222 3.96801 60 75 52 
0.353088 0.596067 3.81772 205 175 149 
0.613922 0.635584 3.83248 73 41 2 
-0.960418 -0.419995 3.79187 182 179 186 
-0.932251 -0.384707 3.78401 164 130 146 
-0.50069 0.30531 3.87933 32 30 33 
-0.106475 0.486824 3.90448 24 25 55 
-0.263297 1.80799 4.16752 148 144 143 
0.443185 0.546239 3.94806 239 176 122 
-0.455557 0.333437 3.96969 73 53 52 
0.277885 0.612463 3.85909 195 161 115 
-0.689264 -1.34559 3.70806 159 157 168 
-0.900014 -0.471626 3.78982 63 73 83 
-0.354496 0.547248 3.72446 116 102 91 
0.593715 0.554161 3.93094 50 81 63 
-0.4487 0.521044 3.78014 222 209 193 
0.0233698 0.513099 3.90305 197 189 176 
-0.0940506 0.494339 3.89776 197 191 195 
-0.962242 -0.113706 3.84054 143 160 188 
0.445504 0.531168 3.98351 86 32 22 
0.631389 0.637103 3.87888 34 17 9 
0.176074 0.191651 4.25324 176 146 146 
-0.918656 -0.482388 3.78106 176 175 183 
0.2498 0.551171 3.81723 78 27 10 
0.597019 0.554394 3.90601 65 64 16 
0.277776 0.541086 3.82157 74 68 0 
-0.404964 0.36175 3.90781 60 43 23 
-0.49745 0.312822 3.88931 122 100 77 
-0.253403 1.84356 3.80539 116 92 64 
-0.537109 1.80876 3.66754 132 145 161 
-0.487136 1.80627 3.90079 165 171 169 
-0.0951569 1.86966 3.70183 121 105 20 
-0.958081 -0.0523967 3.8261 178 173 196 
0.362544 0.609963 3.81565 52 27 0 
0.318614 0.554752 3.82452 83 74 33 
0.312382 0.571238 3.81462 233 184 154 
0.217961 0.544819 3.83102 201 191 130 
0.32786 0.583398 3.82087 145 111 99 
0.321386 0.555086 3.8158 141 120 99 
0.316367 0.526458 3.90212 112 79 26 
0.241192 0.574361 3.83998 42 24 14 
0.282025 0.55885 3.8127 88 42 6 
0.24676 0.572001 3.83211 144 116 112 
-0.445808 0.534927 3.76277 26 22 19 
0.238189 0.537075 3.84168 209 210 117 
0.315584 0.522011 3.91137 196 177 121 
0.28666 0.560833 3.82452 185 169 91 
0.24099 0.537149 3.82735 131 122 57 
0.431585 0.54166 3.91468 194 88 62 
0.343689 0.587043 3.7997 159 130 112 
-0.369836 1.88027 3.70854 112 113 99 
0.612227 0.636355 3.82372 107 56 1 
0.341741 0.583956 3.81156 173 158 139 
-0.233435 1.85578 3.45329 118 103 110 
-0.391474 1.8644 3.79114 118 122 97 
-0.408821 0.354009 3.96123 111 90 59 
0.8391 0.612619 3.85166 199 146 112 
-0.513253 0.308399 3.8753 37 29 16 
-0.551652 1.82003 3.83995 144 152 105 
0.322023 0.564764 3.82658 114 56 42 
-0.357635 1.87043 3.78638 132 138 110 
-0.498044 1.79871 3.88234 46 54 41 
0.340625 0.567599 3.80734 58 31 22 
-0.317428 1.90597 3.61207 69 55 44 
0.337017 0.553737 3.81613 122 114 91 
0.276939 0.554781 3.8294 113 84 26 
0.232614 0.550825 3.83043 200 204 107 
-0.248181 1.8528 3.83422 109 78 13 
-0.522015 1.77881 4.02255 118 134 108 
0.324092 0.55073 3.80085 28 1 0 
-0.333397 0.579161 3.61532 153 144 137 
0.242487 0.554809 3.82589 104 87 67 
0.25318 0.547833 3.82635 234 196 147 
0.438954 0.539712 3.90459 87 69 0 
-0.61068 0.24087 3.5586 73 69 70 
-0.598322 1.81375 3.90966 129 134 127 
-0.578971 0.31414 3.90895 228 213 182 
-0.487686 1.80971 3.90703 165 170 173 
-0.502777 0.312546 3.87344 100 78 55 
-0.295202 1.89596 3.68375 69 57 35 
0.0230971 1.87933 3.73282 103 81 31 
-0.147274 0.429473 4.19852 64 12 14 
-0.301024 1.8737 3.87039 94 70 42 
-0.533342 0.414678 3.82918 93 37 22 
0.333929 0.571589 3.79505 132 90 92 
-0.365046 1.87718 3.7788 68 58 49 
0.338042 0.593937 3.80536 63 39 29 
0.272571 0.554864 3.8157 241 180 159 
0.221827 0.563075 3.8399 83 84 16 
0.278912 0.549006 3.8068 191 173 107 
-0.28521 1.8262 4.22345 51 49 37 
0.226265 0.537787 3.83792 119 124 30 
0.310495 0.535529 3.86268 138 115 1 
-0.229009 1.84928 4.08433 152 149 142 
-0.19712 1.81382 4.21479 147 151 150 
-0.377521 1.78989 4.16253 104 67 25 
-0.0951904 1.86435 3.69582 116 104 32 
0.547771 0.541686 3.98168 68 39 21 
-0.423223 1.90862 3.62123 74 71 64 
0.0278058 0.501044 3.85974 173 170 187 
0.340292 0.594559 3.82081 31 12 6 
-0.306394 1.90183 3.58939 58 48 39 
0.0224129 1.88533 3.74186 104 80 34 
-0.590742 1.82808 3.67955 76 110 145 
-0.259477 1.85817 3.76998 37 68 36 
-0.391871 1.87257 3.8007 101 105 82 
-0.569008 1.81489 3.91032 161 174 121 
-0.243567 1.84783 4.07731 139 142 149 
-0.57945 1.809 3.67237 148 176 197 
0.615848 0.641509 3.83824 126 67 9 
0.582737 0.568459 3.85805 80 59 0 
0.237688 0.577741 3.83037 142 130 118 
0.275615 0.563754 3.83691 255 194 170 
0.24199 0.56442 3.83767 54 30 28 
0.32808 0.548312 3.82827 213 193 169 
0.25448 0.550414 3.83289 234 196 147 
0.440885 0.544752 3.92024 102 85 7 
0.2222 0.527302 3.85075 98 52 16 
-0.454785 0.514391 3.74495 54 40 31 
-0.603437 1.81645 3.93232 95 101 87 
0.273124 0.616362 3.81688 65 34 3 
0.18346 0.604883 3.81929 170 155 136 
-0.483639 1.80056 3.92043 38 36 41 
-0.534425 1.90637 3.60152 163 163 153 
0.840203 0.614599 3.85576 199 146 112 
-0.525501 0.292848 3.88951 54 34 33 
-0.972185 -0.378529 3.8121 56 33 49 
-0.929436 -0.370279 3.83316 87 69 81 
0.23763 0.541192 3.85235 212 217 117 
-0.940291 -0.273949 3.77614 179 160 180 
-0.0071282 0.519606 3.80303 140 147 191 
-0.00167797 0.512523 3.8141 114 110 125 
-0.236443 1.93193 3.60728 86 24 39 
-0.548133 1.82308 3.84588 78 80 43 
0.0183468 1.88968 3.85433 119 104 35 
0.579532 0.561355 3.84497 77 55 14 
0.333038 0.543342 3.81508 129 100 66 
0.5978 0.555366 3.91624 68 76 37 
-0.966001 -0.384545 3.80756 189 180 183 
-0.959794 -0.483305 3.80988 174 176 188 
-0.266569 1.83597 4.22349 131 129 132 
-0.366747 1.88834 3.68705 33 31 36 
-0.37388 1.87705 3.67004 148 148 148 
-0.421885 1.85651 3.90266 168 148 111 
-0.254184 1.84452 3.81722 72 53 0 
-0.365278 1.86892 3.76626 65 50 45 
0.424461 0.530067 3.89327 182 50 46 
-0.500217 1.81236 3.90533 46 54 41 
-0.283873 1.81961 4.2134 51 49 37 
-0.553423 1.80785 3.63964 139 171 192 
0.0256771 0.49712 3.84753 172 167 173 
-0.494312 1.81428 3.89614 133 136 125 
-0.481233 0.355961 3.8805 37 17 8 
-0.378285 1.78607 4.15626 120 82 35 
-0.357782 1.86734 3.77956 114 123 96 
-0.16317 1.79632 4.10466 79 79 87 
0.369762 0.605401 3.80955 151 131 106 
-0.592827 1.82454 3.67064 67 101 136 
-0.253732 1.86145 3.84052 67 46 3 
-0.301705 1.86712 3.86557 79 57 33 
-0.503744 1.80383 4.00811 85 89 74 
-0.596557 1.80222 3.90087 177 180 159 
-0.558852 1.8105 3.91701 187 189 175 
-0.586859 1.82034 3.89582 140 145 123 
-0.220189 1.85615 3.70021 67 101 50 
-0.488066 1.81188 3.94441 59 58 56 
-0.193702 1.80234 4.22372 107 112 106 
-0.243797 1.85505 4.10716 160 152 150 
-0.600095 1.78748 4.04416 146 149 140 
-0.532767 1.78513 4.02272 47 55 40 
-0.501191 1.82007 3.91611 60 71 55 
-0.516155 1.77583 4.0298 67 81 48 
-0.546478 1.80685 3.83703 173 172 92 
0.0927886 1.58549 4.50374 34 33 39 
-0.0579887 1.88396 3.81609 167 79 55 
-0.349942 0.554891 3.64613 141 129 117 
0.399767 0.533173 3.91976 179 102 12 
-0.181159 1.79846 4.22385 151 155 158 
0.8425 0.617605 3.86264 204 155 114 
0.381321 0.592369 3.84518 159 147 73 
-0.244363 1.84064 4.07218 130 136 136 
-0.388927 1.87706 3.71838 200 193 187 
-0.961979 -0.387002 3.78679 186 186 188 
-0.593492 1.81969 3.66266 40 76 110 
-0.541943 1.8154 3.67457 150 166 181 
-0.0992282 1.8691 3.79381 97 94 49 
-0.257779 1.85222 3.75921 37 68 36 
-0.358808 1.85279 3.75909 137 146 119 
-0.456102 1.86158 3.82359 227 226 195 
-0.209048 1.83396 4.1014 135 135 137 
0.312229 0.563372 3.80587 242 222 169 
0.157153 0.562951 3.85858 108 95 89 
-0.097314 0.489051 3.86978 188 187 195 
-0.217364 1.80323 4.24627 131 130 162 
0.170126 0.512311 3.87242 156 143 126 
0.328229 0.55484 3.80844 138 98 73 
0.366001 0.555509 3.83181 244 214 178 
-0.322968 0.566268 3.69799 181 171 161 
-0.595664 1.8064 3.94076 127 128 122 
-0.933815 -0.384735 3.79156 164 130 146 
-0.618552 1.79822 3.6122 106 143 170 
-0.238251 1.84792 3.81646 136 68 23 
-0.209334 1.82317 4.08695 123 123 125 
-0.530341 1.79354 4.0616 138 152 99 
0.612284 1.57064 4.66904 43 44 49 
-0.372084 1.86918 3.82487 83 64 57 
0.588815 0.54705 3.90413 50 81 63 
-0.322915 0.554094 3.66986 207 193 184 
0.378024 0.567051 3.8449 56 30 15 
-0.279817 1.83949 4.23785 24 24 24 
-0.512696 1.7687 3.97351 188 182 168 
-0.59569 1.81011 3.62654 50 83 116 
-0.226702 1.8616 3.71011 49 97 45 
-0.236014 1.83581 4.0781 142 129 120 
-0.567226 1.78807 3.93873 197 201 186 
0.610385 1.56346 4.64878 9 9 17 
-0.176923 1.81439 4.12225 138 138 138 
-0.225377 1.81234 4.19316 105 102 95 
0.125579 -0.0761598 4.21316 32 31 29 
0.110859 -0.0822878 4.2226 13 12 7 
0.041882 -0.064495 4.22681 37 37 35 
0.0726277 -0.0569492 4.22297 134 132 133 
1.22445 -0.364936 3.63115 142 140 119 
-0.411176 0.36388 3.98639 94 61 30 
-0.335302 0.586022 3.67681 89 76 59 
0.243496 -0.825256 3.4271 163 129 104 
0.245209 0.585323 3.9142 56 41 22 
-0.536951 0.320089 3.89849 84 59 39 
0.248966 0.574582 3.88072 79 44 25 
0.243914 0.573182 3.88964 57 43 16 
-0.347457 1.81604 3.67169 122 127 87 
0.052596 -0.0807 4.20532 41 42 37 
0.390948 0.56374 3.91952 133 114 0 
0.146998 -0.0822005 4.22044 71 67 66 
-0.0357202 -0.0942951 4.20635 43 43 41 
-0.0262351 -0.0989153 4.19891 51 52 47 
-0.283984 1.8248 3.66351 139 156 102 
-0.380671 1.81529 3.68628 118 117 87 
0.197622 -0.993556 3.44008 189 156 102 
0.142939 -0.0523464 4.23008 71 70 68 
-0.456399 0.548167 3.80066 161 149 137 
0.178878 -0.0402676 4.22672 51 47 44 
-0.534887 1.76447 3.72123 165 168 115 
-0.0913701 0.403803 4.3082 143 96 66 
0.250982 0.583773 3.90395 151 119 106 
1.20104 -0.359174 3.59749 125 127 105 
-0.19233 1.72392 4.0399 117 114 121 
-0.328693 0.588656 3.66896 167 153 140 
-0.220236 1.7678 3.91314 162 159 150 
0.343754 0.607512 3.861 132 99 80 
0.286928 0.569975 3.86619 124 107 15 
1.15924 -0.268477 3.59187 115 120 98 
0.258417 0.559343 3.88381 244 212 137 
-0.604928 0.110852 4.0477 200 187 178 
-0.0952499 -0.987707 3.30192 83 53 3 
0.702865 -0.801447 3.49098 119 84 0 
-0.300952 0.301731 4.03352 186 168 144 
0.355538 -1.01528 3.49428 139 118 87 
0.225899 0.578338 3.89631 88 92 16 
0.34107 0.569791 3.88104 176 141 119 
0.346574 0.593205 3.85545 234 210 186 
0.182713 0.156494 4.31175 155 150 157 
-0.496378 0.331037 3.90091 84 55 39 
0.187867 -0.0396292 4.22131 47 43 40 
-0.356503 -1.33837 3.85647 137 133 130 
1.20846 0.459658 4.03965 175 172 157 
0.0430635 -0.0943251 4.21902 20 20 18 
-0.026186 -0.0991061 4.20976 36 37 32 
0.174839 0.525105 3.94315 232 209 175 
1.16177 -0.26937 3.60042 125 129 106 
1.24332 -0.336426 3.63808 175 175 147 
-0.928724 -0.475586 3.6863 173 158 165 
0.317958 0.582703 3.88371 245 186 152 
0.162565 0.58357 3.9453 137 123 110 
0.343633 0.59208 3.87948 40 16 4 
-0.548441 1.74831 3.76598 172 174 124 
0.243778 -0.830282 3.44997 199 162 107 
0.429478 -0.860729 3.54315 90 65 9 
1.28971 -0.0405917 3.6849 153 146 120 
0.249108 -1.16481 3.44033 179 156 78 
-0.0617377 0.536771 3.84873 100 112 160 
0.0224107 1.82672 3.62217 128 106 23 
-0.412693 0.338433 4.07024 86 56 28 
1.30865 -0.334195 3.68671 168 168 144 
-0.241291 1.75353 3.96093 184 177 159 
-0.455469 1.71965 3.84306 49 56 4 
-0.0551119 -0.0882555 4.19948 58 58 56 
-0.53002 1.76218 3.73561 178 176 125 
-0.219865 1.79659 3.72784 148 112 0 
-0.557148 0.541597 3.79107 170 156 143 
0.155333 -0.0807563 4.19982 89 88 83 
0.0906735 -0.0915455 4.19703 99 99 91 
0.0781151 -0.0868482 4.21779 61 60 58 
0.173052 -0.0779552 4.20787 10 10 10 
-0.0276614 -0.095137 4.18631 41 41 39 
0.0455042 -1.129 3.34949 186 167 88 
0.46014 0.54309 4.0142 70 54 18 
0.0736805 -1.11957 3.40792 161 135 112 
0.0670837 -0.0803487 4.21362 136 136 134 
0.052763 -0.0633157 4.22765 18 18 16 
1.29336 -0.041231 3.69891 201 190 168 
0.292401 0.573734 3.89465 235 212 119 
-0.453783 0.538867 3.8026 24 13 7 
0.0766553 -0.0568429 4.23437 67 65 66 
0.148921 -0.0479275 4.21623 26 26 24 
0.0885453 -0.0502927 4.23617 25 24 22 
0.409959 -0.823487 3.52159 90 64 15 
-0.471233 1.74652 3.78055 207 207 199 
-0.478035 1.75406 3.77184 150 147 130 
-0.533919 0.353398 3.86546 26 5 0 
-0.342656 1.78332 3.78315 36 20 0 
0.218838 -0.811884 3.4385 199 158 104 
-0.297005 0.30165 4.04934 209 188 159 
0.121649 -0.0783065 4.23021 155 154 149 
-0.899061 -0.468746 3.67408 176 165 169 
1.20623 -0.361826 3.61557 144 147 126 
1.27271 -0.350665 3.66485 191 186 156 
1.30482 -0.334466 3.67883 190 182 161 
0.413935 -0.830509 3.55091 106 78 15 
0.181931 0.155208 4.28918 162 157 164 
-0.460456 0.52117 3.79339 42 25 5 
-0.450699 0.534147 3.81814 188 177 159 
-0.451164 0.535657 3.78093 33 23 14 
1.26267 -0.0635362 3.72119 153 143 116 
1.25688 -0.117216 3.65978 43 39 10 
1.25231 -0.128931 3.69015 172 167 148 
1.2979 -0.332253 3.66095 195 182 165 
-0.93539 -0.416915 3.68582 185 166 172 
0.363361 -0.778143 3.62311 233 172 66 
-0.490329 1.71872 3.85038 182 178 169 
-0.57517 1.74375 3.77053 197 198 184 
0.726912 -0.770957 3.41344 173 134 79 
0.187047 0.583692 3.93701 190 167 133 
-0.937863 -0.111429 3.73743 147 177 203 
-0.567234 1.78307 3.58965 109 140 160 
0.240437 0.592322 3.90726 165 150 129 
-0.34995 1.82139 3.68359 122 128 90 
0.244284 0.584515 3.88809 56 41 22 
-0.0529284 -0.0913546 4.18633 37 37 37 
-0.505105 -0.937011 3.43266 21 24 43 
-0.365435 -0.946711 3.47931 121 110 114 
0.0942876 -0.0920789 4.25357 70 69 64 
-0.367224 -0.94635 3.48869 138 128 129 
-0.558437 1.75239 3.77094 128 135 91 
-0.519648 0.313202 3.9102 79 56 42 
0.420126 -0.859131 3.53449 116 92 28 
0.052598 -0.0606066 4.2153 56 56 54 
-0.485791 1.70887 3.8602 144 149 127 
0.0393938 -0.0528449 4.2104 33 33 31 
0.0890644 -0.0528554 4.22577 26 25 23 
0.159376 -0.0475504 4.22401 54 55 50 
-0.315114 -1.39072 3.89456 163 157 157 
-0.00574912 0.526207 3.91997 152 151 183 
-0.341653 -1.36351 3.87061 157 153 150 
-0.128576 0.541124 3.90896 167 133 132 
0.0086489 -0.065678 4.24453 37 38 33 
-0.146249 -1.28829 3.38415 255 250 205 
1.25417 -0.0664383 3.68991 214 199 170 
1.26337 -0.0746235 3.69275 38 30 11 
-0.037959 -1.17027 3.3206 224 198 123 
1.2125 -0.365889 3.639 132 135 114 
1.25622 -0.358693 3.64842 188 185 154 
1.30831 -0.0905778 3.68323 71 73 51 
1.13138 -0.0766762 3.63909 167 161 145 
0.415156 -0.817934 3.51368 67 35 24 
-0.414903 -0.956194 3.44492 173 147 98 
-0.341971 1.77537 3.76454 64 41 7 
-0.457907 0.520864 3.77193 42 25 5 
-0.070778 -0.970322 3.32668 160 148 98 
0.912578 0.934773 3.77395 157 154 145 
-0.242776 1.74716 4.02999 165 159 161 
0.0546667 -0.0898292 4.20384 34 35 30 
0.18738 0.581399 3.92249 194 170 136 
-0.220878 1.74366 4.03683 169 167 168 
-0.253771 1.75536 4.04741 151 147 144 
-0.228998 1.75781 3.85742 30 27 22 
0.161917 0.581798 3.97115 150 134 121 
-0.401718 0.443136 3.882 98 22 6 
-0.235286 1.7657 3.9123 115 111 108 
0.261054 -1.08105 3.4346 124 88 28 
-0.568545 1.76387 3.77874 116 123 105 
1.22772 -0.101664 3.68496 77 69 46 
-0.249906 1.81447 3.62761 96 122 49 
-0.315429 -1.15036 3.79562 123 125 120 
-0.121727 1.73065 3.81718 37 31 17 
0.158835 -0.0743176 4.20842 33 32 30 
0.389789 0.562559 3.93238 142 124 24 
-0.933476 -0.109095 3.71504 177 195 215 
-0.00744765 0.526345 3.92939 152 151 183 
-0.0971673 1.81954 3.69091 112 96 34 
0.370187 0.569054 3.91526 242 229 187 
-0.379018 1.83385 3.64389 232 220 196 
0.174641 0.526522 3.95232 232 209 175 
-0.461959 0.545065 3.80733 186 173 154 
-0.403875 0.361977 3.94302 76 44 19 
-0.288223 1.77481 3.68169 74 54 27 
1.23778 0.0190147 3.68909 48 49 31 
-0.926531 0.62037 3.35872 243 253 255 
1.22017 -0.101178 3.66585 113 101 85 
0.414443 -0.815525 3.50273 59 30 24 
0.936983 1.13314 3.95807 201 201 191 
-0.0597948 -0.972609 3.31761 178 166 108 
-0.347613 0.420927 3.92688 129 77 64 
0.346171 0.584182 3.84904 255 232 208 
1.26371 -0.117662 3.67832 43 44 13 
-0.0534789 -1.17801 3.32195 118 91 44 
-0.5612 1.74719 3.73356 124 133 116 
1.2549 -0.0555467 3.69288 79 73 51 
-0.376739 1.81271 3.62518 52 40 26 
-0.311121 -1.37604 3.8555 150 140 138 
-0.096647 1.81029 3.77096 122 105 87 
1.11194 0.667056 4.03926 171 163 140 
-0.494459 0.535864 3.7643 67 61 61 
-0.459708 0.540724 3.76943 200 188 164 
-0.393673 1.80266 3.7185 18 17 0 
-0.357804 1.7999 3.69328 26 20 20 
1.2415 -0.342447 3.62674 101 100 69 
-0.357055 1.82503 3.6773 119 105 78 
-0.454083 0.525706 3.82613 216 199 173 
-0.537213 0.314249 3.86079 38 29 30 
-0.359298 -1.33938 3.83913 153 149 140 
-0.219311 1.76365 4.09749 127 123 120 
-0.313769 -1.38591 3.87989 157 149 147 
-0.353169 0.429027 3.9797 97 21 25 
-0.546745 0.320219 3.92872 27 23 22 
0.180499 0.192438 4.32671 177 160 168 
-0.404143 0.440018 3.93102 105 31 20 
-0.340169 -1.3516 3.85124 160 155 149 
1.27402 -0.129096 3.68754 202 189 155 
-0.0491604 -1.18556 3.34512 153 118 52 
1.18061 -0.155372 3.63263 196 189 163 
1.18007 -0.136836 3.63087 37 35 20 
1.25297 -0.119564 3.68132 213 198 169 
1.26846 -0.114966 3.68505 41 46 23 
1.2468 -0.0726754 3.67679 217 197 170 
-0.469077 0.545161 3.82615 187 175 151 
1.21129 -0.109949 3.66974 215 201 162 
1.27965 -0.0542133 3.71807 209 192 174 
0.451665 -0.784257 3.46689 18 10 8 
-0.5366 0.351807 3.89342 35 14 0 
-0.170418 1.71711 3.92106 142 137 134 
1.23258 -0.133495 3.67707 211 196 173 
-0.915603 -0.38325 3.71133 179 146 155 
0.0555523 -0.0915045 4.20918 9 10 5 
-0.038961 -0.0927834 4.19246 140 140 138 
0.0427762 -0.0630047 4.21358 37 37 35 
0.0738038 -0.0561503 4.21551 134 132 133 
0.0885522 -0.0475884 4.21009 25 24 22 
0.208507 -0.0383805 4.21845 29 28 24 
-0.344044 -1.32453 3.83175 133 131 119 
-0.469842 1.76347 3.85795 167 171 148 
0.249143 0.574198 3.87008 79 44 25 
1.1835 -1.4421 3.77986 188 171 155 
0.06437 -0.0828236 4.20107 33 33 31 
0.0108297 -0.0856291 4.19596 22 22 22 
0.0721604 -0.0729615 4.21875 79 79 79 
1.11363 -1.36875 3.78248 95 84 80 
-0.0961794 1.84251 3.66057 126 104 18 
0.187347 0.219609 4.2738 69 58 64 
-0.36185 -1.25938 3.80802 120 120 128 
-0.372879 -1.25829 3.80183 98 99 103 
0.14907 -0.0426293 4.21138 18 20 15 
0.188437 -0.0388111 4.21625 47 43 40 
-0.545646 1.78759 3.7904 165 168 115 
-0.0934208 0.402384 4.28525 224 177 147 
-0.338223 -1.3452 3.82607 144 143 141 
-0.811127 -1.27818 3.73166 99 94 91 
-0.361463 -1.33979 3.829 140 135 139 
0.152672 -0.0724905 4.20288 53 51 52 
1.05081 -1.24686 3.76798 89 75 64 
-0.373706 -1.34306 3.82989 103 103 113 
0.0531271 -0.051402 4.20732 19 20 15 
-0.306092 -1.36596 3.8333 124 114 112 
-0.303742 -1.16395 3.8017 102 100 111 
-0.302153 -1.19675 3.80646 112 112 114 
0.111667 -0.219705 4.15954 101 61 69 
0.346043 0.592996 3.84995 234 210 186 
1.01751 -1.42066 3.77505 112 97 76 
-0.354237 -1.32617 3.82913 137 133 130 
0.172153 -0.0410662 4.21261 43 39 36 
0.0101567 -0.0615489 4.21604 13 13 11 
-0.0453067 -0.063175 4.19942 23 23 23 
0.145528 -0.0799495 4.2041 85 83 84 
0.117377 -0.0813467 4.20657 34 33 28 
0.0436051 -0.0925933 4.20473 20 20 18 
-0.0464931 -0.0996265 4.19335 66 66 64 
-0.587477 1.80073 3.6263 62 88 113 
0.244235 0.584615 3.87467 56 41 22 
1.19669 0.637535 4.07582 198 195 162 
-0.550674 1.76959 3.85208 195 194 176 
-0.466663 1.75324 3.83545 193 197 170 
-0.313426 -1.15459 3.79311 111 111 119 
0.0240433 -0.135268 4.18859 109 65 80 
0.0937495 -0.0775694 4.21221 73 73 65 
0.217196 -0.070686 4.22105 31 32 27 
1.02899 -1.24805 3.76802 89 78 58 
0.0048759 -0.194149 4.15626 104 73 78 
-0.537804 1.77939 3.78734 178 176 125 
-0.61981 -1.34542 3.78307 130 142 154 
0.144139 -0.0739155 4.21179 79 77 80 
-0.295909 -1.19105 3.81113 96 92 91 
0.0946686 -0.0879045 4.21277 24 23 18 
1.1055 -1.35039 3.77538 127 112 115 
-0.765794 -1.35954 3.76027 118 117 122 
-0.693406 -1.35905 3.7676 135 133 146 
-0.311578 -1.37128 3.85344 163 157 157 
-0.60873 -1.31457 3.78242 145 160 163 
-0.353728 -1.32409 3.82044 148 145 138 
-0.814878 -1.27203 3.73935 143 140 133 
-0.778065 -1.27327 3.74863 129 126 119 
-0.0571608 -0.0593323 4.19609 27 26 22 
-0.667474 -1.17171 3.75121 155 167 167 
-0.0960982 0.385296 4.28038 97 51 25 
0.370397 -1.19886 3.43653 75 57 45 
-0.777557 -1.24518 3.73103 132 133 127 
-0.778507 -1.24376 3.74224 134 134 126 
-0.707082 -1.28684 3.76463 137 136 142 
-0.0541768 1.88149 3.67176 153 42 14 
1.10269 -1.35217 3.76738 171 155 140 
-0.223562 1.79355 4.0143 145 144 139 
1.02224 -1.28349 3.78779 101 84 77 
0.96239 1.10922 3.95827 60 64 49 
1.07087 -1.4243 3.78737 123 107 92 
1.04172 -1.24675 3.76117 34 23 19 
0.173776 0.527182 3.93252 230 207 175 
0.187409 0.580806 3.90424 194 170 136 
1.11196 -1.36192 3.77444 50 38 38 
0.161164 0.580289 3.92169 150 134 121 
-0.316933 -1.15577 3.80908 123 125 120 
-0.488406 -1.19366 3.78304 145 141 142 
1.01311 -1.30799 3.75563 85 76 67 
-0.201069 2.69006 4.02952 112 109 104 
-0.349502 1.79747 3.833 98 69 29 
0.971274 1.11393 3.97231 37 40 29 
-0.459744 0.540583 3.76258 200 188 164 
-0.838601 -1.41581 3.7622 51 39 39 
1.08243 -1.34571 3.78923 84 69 74 
0.939859 1.23217 3.99923 204 193 175 
