ply                 
format ascii 1.0    
element vertex 286
property float x    
property float y    
property float z    
property uchar red  
property uchar green
property uchar blue 
end_header          
0.0592026 -0.102526 4.10881 116 117 112 
0.155654 -0.097901 4.1055 37 37 35 
0.130115 -0.0937765 4.1061 120 121 116 
0.174706 -0.0849796 4.1065 26 25 23 
0.203024 0.521303 3.77166 208 198 136 
0.0832815 -0.0661381 4.10992 152 153 148 
-0.253018 1.78536 3.74888 130 104 87 
0.259708 0.526288 3.76056 70 45 0 
0.303454 0.529395 3.75551 216 195 166 
0.139143 0.40132 4.17877 62 27 7 
0.229316 0.537417 3.76406 57 30 23 
0.299449 0.541763 3.74772 238 192 169 
0.308279 0.551077 3.74727 208 157 153 
-0.480861 1.74102 3.83135 152 156 157 
0.0480252 -0.103606 4.10999 33 33 31 
0.239257 -1.07822 3.38332 202 184 138 
0.165519 -0.0601876 4.11003 134 135 130 
0.14592 -0.063352 4.10483 133 133 133 
0.107133 -0.0664044 4.11212 141 142 137 
0.0778938 -0.0730124 4.11309 140 141 136 
0.161692 -0.0951061 4.10545 130 132 127 
0.0448346 -0.10046 4.10306 135 135 133 
0.0168351 1.81816 3.67703 83 60 6 
0.196685 -1.02902 3.4054 29 7 0 
-0.498629 1.71571 3.90866 177 180 169 
-0.319314 -1.11412 3.73039 138 147 164 
-0.32598 -1.08421 3.72594 150 162 176 
0.0121191 1.8143 3.77643 77 62 5 
0.289589 0.543239 3.75017 135 75 21 
0.262452 0.514989 3.77263 75 67 0 
-0.0416953 -0.113374 4.09598 131 133 132 
0.196913 0.511536 3.77844 223 142 125 
-0.0465185 -0.109483 4.09887 21 21 23 
0.0212667 -0.106647 4.10362 36 36 34 
0.0822988 -0.101114 4.11294 126 127 122 
0.0832612 -0.106632 4.10805 22 23 15 
0.0629236 -0.102333 4.11126 19 20 15 
0.26855 0.538119 3.75911 194 158 110 
-0.0123452 -0.0993355 4.10493 31 30 28 
0.129296 -0.0978271 4.10902 3 4 0 
-0.0993185 1.80861 3.64466 99 84 3 
0.154147 -0.0906932 4.11196 20 22 17 
-0.318999 -1.1406 3.72135 137 138 140 
0.207556 0.539473 3.77034 18 21 0 
-0.229517 1.76632 3.99142 163 164 159 
0.100796 -0.0922299 4.10904 27 28 23 
0.177573 -0.0893126 4.10776 138 138 136 
-0.240351 1.76969 3.99298 62 57 63 
0.128476 -0.0894293 4.11318 26 26 24 
-0.536687 1.72663 3.88963 185 193 169 
0.322361 0.557886 3.74028 90 68 55 
-0.650637 -1.14699 3.63664 163 173 175 
0.183065 -0.0819581 4.1087 135 137 132 
0.19528 0.518661 3.7723 205 126 109 
0.157187 0.393855 4.17893 111 74 55 
-0.390897 -1.21108 3.69245 137 141 150 
-0.393456 -1.21412 3.69004 129 132 141 
0.159819 0.511667 3.77984 235 211 185 
0.158912 0.509982 3.78735 116 97 67 
0.131699 -0.0933042 4.11045 133 134 129 
0.210186 0.517596 3.77459 200 195 127 
-0.240237 1.77146 3.96872 130 129 134 
0.0990712 -0.0617482 4.11245 136 137 131 
0.145375 -0.057354 4.10545 39 39 37 
0.176709 0.522287 3.77866 232 186 160 
-0.308882 -1.18041 3.72307 106 105 113 
0.22405 0.528782 3.76808 223 217 183 
0.204729 0.532946 3.77063 89 90 24 
-0.060296 -0.0731708 4.10143 52 52 50 
-0.387664 1.79636 3.7227 130 126 89 
-0.0259353 -0.101832 4.09789 21 19 20 
0.300404 0.546043 3.74876 72 21 0 
-0.109026 1.80432 3.73399 218 208 159 
0.26198 0.536607 3.75813 187 130 103 
-0.0809904 0.369828 4.15839 113 66 40 
0.114235 -0.0909476 4.11004 36 37 32 
-0.544056 1.75495 3.77163 149 138 110 
-0.184874 1.71503 4.12962 162 163 168 
0.0536157 -0.0617952 4.10623 12 13 8 
0.242562 -1.01191 3.40101 60 35 4 
0.26584 -1.06845 3.38155 237 223 174 
-0.364691 -1.23404 3.70455 153 155 152 
0.08724 -0.0742276 4.1121 131 132 126 
-0.096322 -0.98783 3.29171 26 11 0 
0.0572517 -0.0741355 4.11656 127 126 124 
0.0783474 -0.0724048 4.11087 136 137 132 
0.0944402 -0.0725831 4.11239 32 33 28 
0.143311 -0.069154 4.11127 46 46 44 
0.0821048 -0.0655506 4.10968 148 149 144 
0.163643 -0.060253 4.10618 136 137 132 
0.288267 -1.00585 3.40051 44 29 0 
0.237066 -1.00818 3.40825 56 30 7 
-0.492657 0.3042 3.80368 53 24 8 
-0.500181 1.71686 3.91173 189 191 178 
-0.650473 -1.14686 3.63547 163 173 175 
0.208575 0.513203 3.8024 220 207 139 
0.212559 0.518376 3.76861 101 96 15 
-0.391747 -1.21206 3.69472 137 141 150 
0.235272 0.528744 3.76475 79 29 6 
0.263053 0.532037 3.75399 88 45 10 
0.22446 0.535694 3.7691 35 24 4 
0.266237 0.534155 3.75715 78 45 0 
0.301812 0.533191 3.75289 86 58 21 
0.296591 0.535059 3.75351 241 229 157 
0.224157 0.545438 3.76958 33 15 11 
0.29407 0.542454 3.74845 246 208 163 
0.320568 0.551452 3.74806 21 0 0 
0.321837 0.552188 3.73935 202 176 161 
-0.0614074 -0.0875683 4.09983 57 57 57 
0.143094 -0.0881425 4.10582 4 9 3 
0.108615 -0.0917487 4.10804 40 41 36 
-0.0140993 -0.0756925 4.10495 126 128 125 
-0.0157411 -0.0705008 4.10377 29 30 25 
-0.106012 0.351696 4.15203 78 32 9 
0.010221 1.81523 3.77953 75 59 0 
0.0526482 -0.0672912 4.10605 128 128 126 
0.087148 -0.0932276 4.10631 47 47 45 
0.144691 -0.0950438 4.10747 27 29 26 
0.131817 -0.0652684 4.11192 46 46 44 
0.0781827 -0.0948498 4.10577 17 17 15 
0.130997 -0.060406 4.10809 16 17 11 
0.0455966 -0.0950475 4.10731 48 48 48 
0.0384239 -0.0966935 4.10691 47 47 47 
0.0215346 -0.09679 4.10273 76 76 76 
-0.237538 1.78702 3.75055 100 43 0 
0.181054 0.51314 3.77692 131 47 21 
-0.396728 -1.24724 3.6832 134 141 147 
2.422e-05 -0.103452 4.1017 136 136 134 
0.272077 0.532971 3.7619 221 209 123 
0.257329 0.531431 3.76125 246 189 160 
0.17688 0.534536 3.78249 212 165 145 
0.269983 0.527669 3.75759 95 101 0 
-0.0377287 -0.113784 4.09404 41 43 42 
-0.0586895 -0.11532 4.08997 16 17 19 
0.238747 0.523365 3.77143 218 177 121 
-0.0411924 -1.07037 3.26458 43 30 0 
0.197433 0.515795 3.7884 103 17 2 
-0.319709 -1.1136 3.73123 130 139 156 
-0.570231 1.73449 3.87405 120 122 109 
-0.576898 1.73443 3.87387 39 50 46 
-0.515311 1.7074 3.94347 128 150 114 
-0.475307 1.72467 3.88869 156 157 141 
-0.229859 1.76801 3.99352 130 131 126 
-0.653963 -1.14282 3.63734 157 172 167 
-0.902212 -0.376654 3.71277 152 162 174 
0.15714 0.40024 4.18261 190 148 134 
0.16954 0.397724 4.19187 67 24 15 
0.120848 -0.0570568 4.11366 135 136 130 
0.200857 0.504987 3.78555 195 128 119 
-0.561248 1.74834 3.83846 181 200 121 
-0.481931 1.73944 3.83191 159 161 158 
-0.244901 1.76826 3.98811 173 172 178 
-0.496132 1.71885 3.90814 23 26 17 
-0.500665 1.71511 3.91316 163 165 154 
-0.941937 -0.429058 3.70292 192 181 187 
-0.950077 -0.390824 3.71629 186 173 183 
-0.267773 1.75153 4.11937 143 137 147 
0.24391 -1.01246 3.40607 46 22 10 
0.161001 -0.0919475 4.11378 97 99 94 
0.0272256 -0.079356 4.10977 17 17 17 
0.146512 -0.0711179 4.10768 3 3 1 
0.106424 -0.0668043 4.11181 141 141 139 
0.147829 -0.0645661 4.10932 125 125 125 
0.20328 -1.03434 3.40225 37 19 0 
0.142483 -0.0607533 4.10481 27 27 25 
-0.726848 -1.11024 3.62593 149 162 168 
0.247952 -1.06838 3.38556 201 167 96 
0.248958 -1.0763 3.38453 143 129 84 
0.297793 0.540156 3.74961 250 214 182 
0.229228 0.53662 3.76696 38 13 6 
0.30835 0.531539 3.757 55 23 0 
0.234759 0.529308 3.76847 79 29 6 
-0.491152 0.30672 3.80704 32 5 0 
-0.383653 -1.21944 3.6958 146 149 156 
-0.379771 -1.22274 3.69447 149 153 156 
-0.373889 -1.23073 3.69047 134 136 133 
-0.397134 -1.24963 3.69165 130 137 145 
0.029083 -0.108436 4.10902 33 33 31 
0.0752499 -0.106479 4.11104 19 20 14 
-0.201045 1.72267 4.12519 160 159 155 
0.039612 -0.0960669 4.11424 30 30 32 
0.0548296 -0.0899187 4.10773 47 47 45 
0.0616608 -0.0735167 4.11183 18 17 15 
0.0544367 -0.0627255 4.11184 62 63 58 
-0.595135 1.71651 3.96722 41 48 32 
0.130225 -0.0608697 4.11249 15 16 10 
-0.654326 -1.18148 3.63019 141 156 163 
-0.590209 1.71749 3.96909 182 185 164 
-0.515912 1.71049 3.95272 137 159 121 
-0.259779 1.78812 3.69954 61 68 24 
0.257347 0.532519 3.76399 246 189 160 
-0.246863 1.77043 4.01573 155 154 152 
-0.533904 1.72304 3.88214 186 195 168 
-0.570744 1.73127 3.87864 131 147 137 
0.0375074 -0.0791732 4.10201 31 31 29 
-0.509426 1.70942 3.95523 18 31 3 
0.0776859 -0.096158 4.1093 31 31 29 
0.106315 -0.0709401 4.11276 18 19 14 
-0.318811 -1.11265 3.72771 130 139 156 
-0.47979 1.72388 3.89784 118 120 106 
-0.480614 1.73512 3.82876 184 187 178 
-0.550213 1.73434 3.83262 180 190 179 
-0.516356 1.70786 3.94881 138 160 121 
-0.185879 1.7172 4.13211 168 167 175 
-0.965161 1.60458 4.08955 201 209 220 
0.0731763 -0.0693374 4.10805 21 21 19 
0.681522 -0.882915 3.44036 232 186 92 
-0.501307 1.71106 3.94519 137 146 127 
-0.110927 1.80207 3.72701 220 209 164 
-0.255177 1.75158 4.07206 149 145 136 
-0.570503 1.7639 3.608 33 65 90 
0.0147722 1.81689 3.67852 99 77 36 
0.225353 0.546575 3.77014 22 4 0 
0.21114 0.526094 3.77012 60 63 0 
0.0602554 -0.0716787 4.10736 24 23 21 
-0.238335 1.78597 3.74966 110 50 16 
-0.509229 1.70641 3.9511 58 68 33 
-0.227365 1.78251 3.77165 137 96 6 
-0.225914 1.75294 3.98507 64 65 69 
0.0385003 -0.0693918 4.1012 21 21 19 
0.146579 0.543274 3.81131 133 120 112 
0.0257716 -0.0966181 3.98012 69 71 68 
0.0779375 -0.106637 4.10206 28 29 23 
-0.487599 -1.17712 3.66859 102 113 117 
0.143595 -0.0594542 4.11166 39 39 37 
-0.392627 -1.2121 3.6881 133 136 145 
-0.57245 1.73284 3.87069 109 114 107 
-0.0663169 -0.0868341 4.09753 22 22 22 
-0.0932344 1.80724 3.73756 169 65 56 
-0.221696 1.79772 3.64501 96 116 45 
-0.0638085 1.8082 3.73944 184 79 57 
0.309788 0.5573 3.74733 31 4 0 
-0.482571 1.73579 3.8316 170 174 159 
-0.589709 1.74749 3.851 188 190 176 
-0.110883 1.80459 3.72519 220 210 175 
-0.103282 1.80498 3.73137 87 76 30 
-0.569528 1.74552 3.82821 128 142 106 
0.227071 0.548678 3.77592 27 6 5 
-0.227683 1.78464 3.77512 137 96 6 
-0.943756 -0.427932 3.70043 186 181 187 
-0.965695 1.60555 4.09085 163 171 182 
-0.487085 1.74409 3.81899 134 134 126 
-0.137898 1.7799 3.90346 84 76 57 
-0.516295 1.70202 3.94085 141 162 106 
-0.525252 1.71413 3.9422 31 42 26 
-0.480658 1.73357 3.85745 61 61 51 
-0.489773 -1.17812 3.67945 137 147 148 
-0.239145 1.77204 3.96842 145 143 146 
0.532243 -1.03707 3.52246 119 78 0 
-0.95073 -0.391268 3.71342 179 171 182 
-0.0640597 -0.107798 4.09069 24 25 29 
-0.0640295 1.80901 3.74031 184 80 71 
0.706691 -0.999873 3.45641 59 41 0 
0.26579 0.534738 3.75881 103 60 26 
-0.112439 1.80081 3.71846 218 208 173 
-0.25725 1.78499 3.69269 68 84 55 
-0.482033 1.73521 3.83229 186 190 176 
-0.550031 1.73904 3.84101 186 193 175 
0.156228 0.488141 3.81255 118 99 85 
0.20945 -1.03275 3.40529 255 246 197 
0.143254 0.536468 3.80214 58 51 43 
-1.15801 1.57046 4.22869 50 93 127 
-0.485522 1.74359 3.81443 135 133 121 
-0.0660326 1.80799 3.74058 175 86 78 
-0.211051 1.75152 4.00777 118 117 113 
-0.500539 1.7179 3.95439 136 147 130 
-0.525279 1.71008 3.93678 42 53 37 
-0.488428 -1.17642 3.67451 133 143 144 
0.295177 0.539095 3.74929 255 227 177 
-0.282894 1.74881 4.13377 35 34 39 
-0.232101 1.74746 3.98997 36 37 31 
-0.529006 1.72606 3.8875 188 197 170 
-0.494499 1.74343 3.83632 52 54 41 
-0.486045 1.73285 3.83463 172 176 149 
-0.240986 1.76278 3.99328 145 140 144 
-0.497245 1.70597 3.93063 140 149 130 
-0.587043 1.71114 3.95225 195 198 177 
-0.52098 1.7049 3.95706 147 155 82 
-0.907905 -0.487146 3.70258 172 167 174 
-0.250924 1.7794 3.8833 195 159 73 
-0.251446 1.75099 4.10325 175 168 160 
-0.126252 1.75409 3.93588 104 70 25 
0.00959249 1.81757 3.68008 125 83 58 
0.342868 0.573018 3.74548 27 13 4 
-0.573745 1.73576 3.90885 25 50 46 
-0.575392 1.75173 3.8147 136 138 114 
