ply                 
format ascii 1.0    
element vertex 1271
property float x    
property float y    
property float z    
property uchar red  
property uchar green
property uchar blue 
end_header          
-0.31982 0.376843 1.95687 22 21 35 
-0.331223 -0.26525 2.06407 41 46 76 
-0.296943 0.491356 1.86624 71 78 104 
-0.329042 -0.356986 2.07733 32 39 67 
-0.308224 0.418868 1.94946 140 168 216 
-0.328666 -0.391483 2.08191 30 35 55 
-0.308105 0.369116 1.95961 91 109 157 
-0.329899 -0.693377 2.12129 25 32 58 
-0.300431 0.43064 1.94844 36 46 82 
-0.299096 0.419682 1.96277 20 23 42 
-0.314065 -0.387777 2.0852 29 35 59 
-0.275747 0.231738 2.07891 141 144 175 
-0.267418 0.0607948 2.10215 137 146 177 
-0.268037 -0.00964446 2.11403 129 138 167 
-0.2609 -0.030837 2.11842 86 77 98 
-0.257349 0.155785 2.09624 94 81 107 
-0.257693 -0.108534 2.13057 101 102 123 
-0.245394 -0.108454 2.14339 102 98 121 
-0.234283 -0.0811426 2.15563 32 27 31 
-0.231919 -0.0724503 2.16922 82 77 97 
-0.232764 -0.057659 2.18084 99 94 117 
-0.208752 -0.200926 1.99779 34 28 30 
-0.223542 -0.0852297 2.1703 91 86 106 
-0.22475 -0.0118641 2.18661 53 46 64 
-0.179722 -0.502359 2.02574 64 68 103 
-0.176725 -0.323331 1.99602 100 105 134 
-0.162257 -0.23632 1.97599 73 74 95 
-0.139491 -0.542823 1.98815 106 116 151 
-0.135026 -0.431214 1.97618 63 52 69 
-0.133989 -0.692013 2.01241 66 53 73 
-0.131338 -0.52784 1.98483 105 118 153 
-0.113165 -0.191722 1.91608 22 30 51 
-0.0755199 0.445269 1.77469 119 115 130 
-0.072153 0.274432 1.83099 34 38 49 
-0.0575878 -0.118212 1.88877 125 121 138 
-0.0536092 0.275612 1.8487 44 44 54 
-0.0526812 -0.289166 1.9259 116 120 145 
-0.0507268 -0.500787 1.95352 154 145 166 
-0.0465028 0.293689 1.85322 104 102 126 
-0.0436174 -0.0375864 1.93807 145 140 160 
-0.0400539 -0.0424451 1.94598 20 26 40 
-0.037985 0.246532 1.89594 108 106 127 
-0.033371 0.417011 1.8257 44 37 89 
-0.0342353 -0.128473 2.01085 23 22 28 
-0.0295533 -0.202015 1.93412 159 157 179 
-0.0261517 -0.114145 1.93581 106 107 125 
-0.0258185 -0.187276 1.94529 127 127 151 
-0.0246125 -0.144434 1.93667 62 59 78 
-0.0223227 -0.210577 1.94814 92 76 103 
-0.0204969 0.424744 1.83595 224 230 254 
-0.0213701 -0.581687 1.9942 173 178 210 
-0.0197938 -0.565941 2.0033 136 129 160 
-0.0168136 -0.167357 1.94852 83 77 105 
-0.0139896 0.442912 1.84241 43 57 92 
-0.0146284 -0.679973 2.01884 131 130 164 
-0.00647023 -0.552162 2.00247 180 188 224 
-0.00136757 -0.108966 1.9552 129 128 142 
0.00869206 0.455106 1.86779 82 72 99 
0.0168764 0.29689 2.49226 73 73 99 
0.0174676 0.120369 2.51727 76 77 97 
0.0394324 -0.463539 2.0459 157 168 200 
0.0544993 0.298427 2.49857 73 79 105 
0.0556198 0.0652939 2.52908 71 75 100 
0.0591312 -0.0225987 2.51414 66 64 78 
0.0535453 -0.560641 2.08171 128 132 170 
0.0630345 -0.406667 2.09274 105 93 117 
0.063067 -0.387377 2.07201 92 78 104 
0.0835961 -0.613248 2.12506 104 104 138 
0.0828081 -0.401149 2.09648 77 57 82 
0.102424 -0.680146 2.15253 37 37 49 
0.104226 -0.445483 2.11158 28 26 31 
0.113885 -0.415266 2.13181 73 59 84 
0.115715 -0.682364 2.1507 94 92 105 
0.11627 -0.528378 2.12273 138 135 156 
0.124591 -0.41862 2.14715 70 51 71 
0.13049 -0.659501 2.16512 29 26 33 
0.133248 -0.686965 2.17289 96 91 113 
0.127272 0.503005 2.01618 94 100 134 
0.146394 -0.4715 2.16803 46 40 54 
0.157721 -0.737031 2.22732 165 179 208 
0.152028 -0.40367 2.09388 69 56 82 
0.164236 -0.640213 2.21888 53 44 61 
0.166199 -0.657492 2.21965 95 87 108 
0.167351 -0.613613 2.21858 94 90 107 
0.15677 0.522039 2.03905 75 79 91 
0.171331 -0.643932 2.22606 93 84 105 
0.173227 -0.513851 2.19964 99 92 110 
0.176373 -0.67094 2.23679 122 110 132 
0.178057 -0.626487 2.2353 117 110 126 
0.177303 -0.46911 2.20478 124 99 118 
0.18802 -0.495584 2.21105 40 33 49 
0.192083 -0.57452 2.24369 25 28 33 
0.212201 -0.555662 2.29054 124 116 137 
0.21092 -0.559139 2.25414 34 20 43 
0.21656 -0.736596 2.29441 83 86 121 
0.214741 -0.511199 2.25389 69 57 77 
0.219011 -0.676004 2.26626 33 32 37 
0.219484 -0.506672 2.27113 135 120 139 
0.237577 -0.328038 2.34864 62 62 72 
0.232144 -0.378168 2.27255 28 26 31 
0.236744 -0.636573 2.29345 25 24 29 
0.235077 -0.430935 2.25583 109 98 115 
0.238248 -0.538368 2.2827 58 50 65 
0.238061 -0.645949 2.27063 91 88 109 
0.242918 -0.361668 2.30666 36 35 40 
0.241271 -0.46443 2.27423 46 38 49 
0.243531 -0.656837 2.29133 61 56 79 
0.245408 -0.701818 2.30043 96 93 112 
0.243031 -0.408614 2.27922 23 23 25 
0.244618 -0.669859 2.28932 75 76 97 
0.231054 0.533611 2.1309 147 153 185 
0.258863 0.488517 2.38369 25 24 38 
0.250935 -0.649948 2.30234 108 103 125 
0.251027 -0.399166 2.27802 124 127 146 
0.251428 -0.478297 2.27376 122 119 140 
0.256245 -0.641507 2.30205 64 61 88 
0.255547 -0.473517 2.28155 77 67 91 
0.257688 -0.375285 2.28762 80 71 100 
0.262173 -0.677661 2.32452 168 175 204 
0.26038 -0.387456 2.30623 111 107 130 
0.256853 -0.415563 2.27153 118 103 124 
0.274538 -0.422265 2.29226 122 129 148 
0.282343 -0.311113 2.3446 31 29 40 
0.286858 -0.411092 2.30354 128 135 153 
0.296826 0.505866 2.34437 25 23 36 
0.298078 -0.401363 2.31654 114 122 143 
0.308482 -0.75842 2.37757 88 85 96 
0.311612 0.209747 2.3997 87 94 122 
0.318841 -0.758596 2.39479 18 16 27 
0.296267 0.546367 2.20364 136 146 171 
0.307586 0.53071 2.28272 43 48 70 
0.33711 0.12734 2.39304 73 75 96 
0.338454 -0.15423 2.37722 41 39 52 
0.328937 0.369772 2.30583 53 76 110 
0.358495 -0.794286 2.49883 95 94 90 
0.343008 -0.374509 2.3769 158 165 191 
0.352605 -0.744119 2.43641 105 106 127 
0.342751 -0.114727 2.36468 53 51 65 
0.356966 -0.721945 2.44898 156 160 195 
0.346478 0.563325 2.35311 111 120 149 
0.358778 -0.492005 2.41698 122 128 164 
0.365118 -0.747501 2.45225 44 35 54 
0.376861 -0.78536 2.48325 53 43 68 
0.359397 -0.101679 2.36301 118 113 136 
0.372587 -0.611368 2.44619 183 197 232 
0.359976 -0.0475165 2.35654 29 28 44 
0.385118 -0.738818 2.49445 38 34 49 
0.368405 -0.127722 2.38577 132 130 152 
0.3663 -0.0198545 2.36851 30 28 39 
0.385277 -0.72361 2.48391 147 152 184 
0.370932 -0.138763 2.38129 73 59 84 
0.384089 -0.747502 2.46438 77 79 94 
0.366943 -0.0300646 2.34857 103 98 118 
0.372316 -0.0716842 2.37293 60 52 75 
0.374775 0.00597681 2.36722 40 35 42 
0.373549 0.130474 2.35544 37 35 49 
0.398567 -0.774512 2.50425 142 144 169 
0.37442 0.178578 2.35059 38 36 49 
0.373497 0.252447 2.34238 45 43 57 
0.373862 0.23353 2.34423 41 39 53 
0.373932 0.279479 2.33649 46 42 56 
0.378365 -0.0522138 2.36303 105 100 123 
0.385734 -0.263859 2.39959 73 87 113 
0.371401 0.385896 2.29899 29 29 37 
0.401206 -0.628861 2.48005 135 137 178 
0.390509 -0.281664 2.41506 168 182 211 
0.383106 0.170593 2.34656 108 104 127 
0.389509 -0.00158403 2.37824 110 107 128 
0.38363 0.243121 2.34175 117 115 137 
0.387505 0.215431 2.35281 126 126 150 
0.394459 -0.111956 2.39251 38 36 47 
0.395063 -0.0936551 2.39095 35 33 44 
0.3947 0.0294998 2.37445 24 27 32 
0.399102 -0.0747171 2.39594 28 27 33 
0.384711 0.399631 2.29917 107 116 97 
0.39927 0.36277 2.35331 109 101 124 
0.389787 0.463127 2.29641 45 51 73 
0.391093 0.473511 2.29687 115 121 147 
0.410301 -0.146174 2.40791 69 75 91 
0.411369 -0.131836 2.40598 69 75 91 
0.412292 -0.112555 2.40342 68 70 93 
0.396922 0.482605 2.30041 111 113 136 
0.400216 0.465243 2.30562 54 61 80 
0.437823 -0.13956 2.4457 162 171 204 
0.430545 0.188469 2.40274 149 158 191 
0.436469 0.00344625 2.42086 149 164 195 
0.434486 0.198223 2.40947 109 99 123 
0.417892 0.55961 2.31462 52 52 76 
0.419318 0.509825 2.31246 92 104 126 
0.435609 0.179548 2.39984 158 167 200 
0.439305 0.0241832 2.41275 158 172 207 
0.429841 0.445452 2.34522 31 36 56 
0.446899 0.0960073 2.43492 159 164 196 
0.448611 -0.0725398 2.44229 58 64 90 
0.455239 0.0581584 2.44684 166 179 214 
0.436469 0.525476 2.34367 37 43 67 
0.450504 0.390067 2.39797 105 111 107 
0.470946 -0.169539 2.4992 131 139 178 
0.465166 0.305928 2.42812 96 88 125 
0.466324 0.35853 2.42507 68 65 108 
0.457495 0.523689 2.36473 37 43 67 
0.470174 0.392653 2.41198 106 109 116 
0.462984 0.541789 2.36751 45 50 72 
0.477357 0.340881 2.43651 210 227 255 
0.484121 0.335691 2.44459 63 73 132 
0.496364 0.390532 2.46233 64 72 93 
0.49178 0.567502 2.39496 52 57 76 
0.547191 -0.413078 2.61579 183 197 234 
0.549324 -0.422193 2.62424 131 139 178 
0.57366 -0.57151 2.67245 137 143 177 
0.537458 0.426037 2.47586 107 113 129 
0.548031 0.406291 2.49472 101 104 123 
0.547097 0.545003 2.4643 108 109 137 
0.591084 -0.0710493 2.62532 137 146 177 
0.598414 -0.0637481 2.63019 79 88 121 
0.598465 -0.0772537 2.62936 64 78 107 
0.578937 0.415716 2.53197 66 67 69 
0.597386 0.289056 2.60917 155 163 199 
0.622413 -0.313749 2.71563 151 160 193 
0.614267 -0.106835 2.66748 24 27 34 
0.616793 -0.101066 2.64006 58 65 71 
0.633812 -0.334924 2.70633 78 87 126 
0.6205 -0.0918536 2.64845 27 29 42 
0.617826 0.0417343 2.63561 113 118 150 
0.619629 -0.129003 2.63437 86 93 112 
0.621324 -0.0181274 2.63845 39 45 59 
0.62148 0.0720377 2.63013 33 38 57 
0.646999 -0.353582 2.73717 147 159 199 
0.598374 0.557122 2.52691 85 93 116 
0.631393 0.000944636 2.65425 142 155 187 
0.630924 0.0610614 2.65175 134 145 177 
0.626754 0.210737 2.63043 146 151 189 
0.631034 -0.0177257 2.6435 77 84 102 
0.596676 0.416314 2.49682 19 25 49 
0.630636 0.154483 2.6357 134 143 176 
0.637947 -0.180573 2.66178 107 112 134 
0.659846 -0.402553 2.7433 108 107 149 
0.60652 0.430471 2.51776 90 94 95 
0.649375 -0.00941222 2.69391 31 30 38 
0.612602 0.538203 2.52526 82 83 103 
0.68685 -0.479369 2.79276 169 177 213 
0.6659 0.0556139 2.70409 120 106 131 
0.669704 -0.0058101 2.71653 92 93 114 
0.702329 -0.508974 2.80932 130 130 166 
0.670693 0.320685 2.65124 127 136 167 
0.720897 -0.497304 2.84729 170 178 217 
0.709706 -0.321116 2.7973 77 66 98 
0.713684 -0.488828 2.80493 168 178 214 
0.849677 -0.172977 3.268 25 24 38 
0.7532 -0.251125 2.87975 46 43 54 
0.746815 -0.5235 2.85521 153 163 198 
0.743326 -0.379937 2.84049 61 52 79 
0.73057 0.324707 2.78915 22 28 62 
0.85248 -0.0341361 3.25006 110 108 130 
0.87155 -0.150682 3.31103 31 29 42 
0.863109 -0.067168 3.27186 110 105 125 
0.753341 -0.419046 2.84991 81 71 106 
0.874068 -0.167308 3.28857 88 88 114 
0.784704 -0.375914 2.93406 119 115 142 
0.78991 -0.819919 2.95303 137 145 181 
0.87708 -0.0627865 3.25741 119 121 142 
0.889555 -0.0207017 3.30131 34 29 49 
0.824594 -0.814521 3.05655 161 173 213 
0.819523 -0.765264 3.02865 156 169 204 
0.782754 -0.423197 2.88533 55 49 77 
0.898833 -0.0551229 3.31271 104 95 126 
0.786937 -0.438111 2.88997 85 74 108 
0.867482 -0.316663 3.17872 101 98 127 
0.804707 -0.438198 2.94164 121 115 141 
0.831341 -0.359378 3.02869 93 89 116 
0.715214 0.514199 2.59559 43 49 71 
0.805291 -0.440826 2.91372 47 43 68 
0.831591 -0.820606 2.98877 41 47 69 
0.816758 -0.449682 2.92977 111 111 135 
0.850569 -0.860399 3.04033 146 155 194 
0.835822 -0.733489 2.9853 42 49 67 
0.828377 -0.454626 2.94129 45 42 63 
0.873192 -0.420929 3.08326 117 117 145 
0.840161 -0.462992 2.95587 111 107 132 
0.717789 0.529532 2.50916 38 46 67 
0.849423 -0.489501 2.96851 75 69 103 
0.874557 -0.72783 3.02167 147 158 186 
0.86676 -0.473281 2.9896 101 105 130 
0.696019 0.56182 2.39555 27 32 51 
0.943932 -0.255434 3.24754 95 92 121 
0.872808 -0.464718 3.00281 79 82 99 
0.876731 -0.584488 3.01308 37 38 68 
0.885665 -0.746993 3.04138 145 154 183 
0.872311 -0.508739 2.99293 123 114 141 
0.875876 -0.590667 3.00062 116 132 155 
0.951191 0.418338 3.25764 91 89 110 
0.876439 -0.497312 3.00048 81 72 103 
0.951655 0.390282 3.25774 96 91 121 
0.878501 -0.472243 2.99964 37 38 58 
0.888615 -0.584343 3.0253 98 110 134 
0.914852 -0.779748 3.09626 129 135 159 
0.894145 -0.478252 3.02156 102 98 121 
0.937416 -0.890913 3.15696 104 110 134 
0.901569 -0.580514 3.02642 139 157 181 
0.905463 -0.47663 3.03233 41 42 62 
0.982696 0.220455 3.2818 55 51 66 
0.925657 -0.46967 3.06873 85 90 110 
0.944046 -0.804057 3.12718 123 131 152 
0.920648 -0.480234 3.04825 105 107 130 
0.998287 -0.165327 3.29962 94 98 123 
0.809996 0.539854 2.67155 79 92 126 
0.945068 -0.697025 3.1126 152 163 191 
0.961609 -0.399442 3.16033 94 91 118 
0.944992 -0.660145 3.08942 54 54 92 
0.728116 0.571565 2.37862 42 49 68 
0.952987 -0.466283 3.10085 91 88 109 
0.978346 -0.763663 3.17649 127 134 160 
0.949326 -0.478031 3.08157 108 106 130 
1.02183 -0.0213542 3.30562 77 73 100 
0.957559 -0.471882 3.0893 46 41 63 
1.02189 0.0416106 3.28023 88 83 106 
0.980561 -0.458672 3.1317 87 92 112 
0.975728 -0.469737 3.1066 102 102 128 
1.0307 0.00614011 3.27626 100 94 122 
0.982721 -0.518599 3.11674 30 32 44 
1.0131 0.532208 3.21219 44 44 70 
1.02035 0.433021 3.22708 91 78 96 
1.02436 0.448928 3.23502 94 80 103 
1.0359 0.0240298 3.26783 25 23 36 
1.05001 -0.0121651 3.30556 29 27 40 
1.02325 0.466976 3.2151 93 75 97 
1.00112 -0.545071 3.14379 54 57 92 
1.0069 -0.447627 3.16132 88 83 105 
1.02502 0.51423 3.21364 89 89 117 
1.00367 -0.57697 3.14343 136 148 172 
1.03851 0.441558 3.2441 32 24 37 
1.04893 0.37247 3.27605 81 80 98 
1.04677 0.386622 3.26905 83 79 102 
1.01117 -0.452067 3.14802 42 39 58 
1.05521 0.393733 3.2779 43 35 50 
1.03819 0.530095 3.2159 46 43 64 
1.03203 -0.582551 3.19329 124 128 155 
1.05708 0.415833 3.26839 26 26 38 
0.858796 0.572544 2.58878 66 77 109 
1.08562 0.437101 3.24545 93 78 99 
0.976245 0.566214 2.85463 74 88 123 
-0.678942 -0.397079 1.64947 167 184 230 
-0.679627 -0.483222 1.6665 116 132 165 
-0.666106 -0.304363 1.63337 55 59 84 
-0.662891 -0.325817 1.63189 36 41 47 
-0.663238 -0.383691 1.64724 170 187 231 
-0.61603 0.416015 1.52118 42 42 68 
-0.615974 0.347183 1.53485 25 27 40 
-0.61385 0.315435 1.54026 33 37 48 
-0.648939 -0.495386 1.65805 77 84 103 
-0.664114 0.113458 1.63128 27 38 68 
-0.60604 0.337777 1.54366 31 37 53 
-0.637955 -0.287038 1.64424 182 196 225 
-0.642613 -0.267602 1.65549 43 50 60 
-0.636879 -0.248763 1.64577 163 173 208 
-0.615934 0.111772 1.59319 29 44 75 
-0.620537 -0.180951 1.62664 47 44 51 
-0.595035 0.440968 1.54197 113 115 140 
-0.624937 -0.22774 1.64655 87 99 147 
-0.618896 -0.21997 1.63921 126 148 197 
-0.610151 0.138093 1.59621 19 25 47 
-0.632639 -0.471997 1.68456 149 155 189 
-0.591567 0.335652 1.55953 35 36 54 
-0.62216 -0.4413 1.67959 69 69 107 
-0.620523 -0.457539 1.67918 148 159 189 
-0.619098 -0.517417 1.69151 70 66 80 
-0.614432 -0.382525 1.67327 96 112 145 
-0.607597 -0.19928 1.64892 115 133 157 
-0.623133 -0.275314 1.69052 162 179 209 
-0.62364 -0.262521 1.70628 127 133 157 
-0.603083 -0.237693 1.67429 84 97 132 
-0.614142 -0.318542 1.70408 124 125 146 
-0.572487 0.334513 1.58241 48 48 76 
-0.611452 -0.305214 1.70583 45 50 82 
-0.623052 -0.342018 1.7564 94 107 142 
-0.625389 -0.563745 1.78457 33 38 70 
-0.610864 0.0123973 1.71767 82 95 130 
-0.618646 -0.305854 1.76396 57 54 71 
-0.61571 -0.690774 1.81042 86 89 134 
-0.612216 -0.409205 1.77841 86 95 128 
-0.587432 0.370225 1.66571 103 111 130 
-0.609212 -0.376015 1.77635 126 141 174 
-0.605535 -0.20553 1.75776 86 94 130 
-0.605296 -0.329989 1.77364 104 111 153 
-0.607068 -0.468438 1.79029 84 96 134 
-0.600595 -0.1026 1.74569 96 92 117 
-0.59965 -0.166971 1.75759 130 136 168 
-0.577926 0.365781 1.67225 47 45 66 
-0.586905 0.287206 1.69904 72 78 40 
-0.60275 -0.543397 1.80746 71 80 119 
-0.589275 0.0190905 1.73986 89 95 131 
-0.514508 0.229009 1.72561 128 150 164 
-0.507132 0.233946 1.7342 110 71 138 
-0.506497 0.227738 1.74401 127 153 166 
-0.51392 0.412447 1.7418 41 37 60 
-0.492524 0.258948 1.74441 52 73 140 
-0.513011 -0.72605 1.93207 105 113 159 
-0.487626 -0.192143 1.88629 104 106 131 
-0.486878 -0.626747 1.94711 87 92 134 
-0.468964 -0.339998 1.92846 130 138 174 
-0.446716 0.211829 1.81017 79 156 224 
-0.459111 0.0664253 1.88117 95 107 145 
-0.449389 0.463449 1.8111 98 103 135 
-0.42285 -0.223715 1.96564 123 141 181 
-0.399482 0.199215 1.85103 22 32 91 
-0.3647 0.489668 1.90277 27 28 58 
-0.360897 0.456063 1.91284 38 38 66 
-0.362224 0.299827 1.94989 104 115 145 
-0.350277 0.389851 1.92861 39 34 56 
-0.333558 0.27346 1.97621 44 52 75 
-0.332713 0.197039 1.98975 62 66 95 
-0.326466 0.325399 1.96157 27 31 42 
-0.321223 0.0544644 2.01343 146 173 220 
-0.320958 0.0377195 2.01595 161 190 234 
-0.318303 0.272366 1.98256 95 108 161 
-0.318773 0.305285 1.97835 93 115 173 
-0.307112 0.443589 1.94167 88 119 174 
-0.276082 -0.0493931 2.10346 127 131 158 
-0.272671 -0.0171659 2.10232 76 82 114 
-0.0436273 -0.156227 1.89182 102 92 116 
-0.0413925 -0.0622662 1.912 54 52 74 
-0.0274006 -0.453537 1.97422 152 161 192 
-0.031955 -0.123209 1.90583 22 23 28 
-0.0172237 -0.630614 2.01248 117 115 154 
-0.0466924 0.469367 1.79556 84 66 88 
-0.0233767 -0.113024 1.92051 105 103 125 
-0.0311102 0.331788 1.83919 118 117 69 
-0.0327676 0.447905 1.81662 85 80 121 
-0.0124338 -0.146776 1.95317 136 128 152 
-0.0111779 -0.110887 1.93709 105 105 131 
0.00717546 -0.53813 2.01215 173 182 221 
-0.098454 0.116563 2.41054 25 38 73 
-0.0194269 0.457501 1.83153 213 224 255 
0.00159082 -0.116787 1.9428 91 90 104 
0.00600896 -0.286008 1.99406 133 123 147 
-0.00955872 0.417423 1.84663 44 43 109 
-0.0841782 0.118642 2.42538 146 168 244 
-0.00584418 0.439643 1.84726 86 77 122 
0.0215493 -0.335756 2.01672 69 55 81 
-0.0720979 0.112957 2.44124 9 17 63 
0.0282213 -0.34716 2.02648 65 49 76 
0.0377026 -0.561223 2.06267 134 137 180 
-0.0707429 0.366432 2.40546 56 80 108 
0.035288 -0.357666 2.036 64 51 77 
0.0683632 -0.626184 2.11461 163 172 213 
0.0744202 -0.637884 2.12361 164 173 214 
0.078349 -0.489988 2.11834 140 150 186 
0.0837849 -0.432672 2.10374 116 112 137 
0.0932756 -0.406651 2.10584 68 56 80 
0.0362653 0.434631 2.15359 135 149 178 
0.114908 -0.601346 2.13409 115 105 130 
0.104111 -0.407239 2.11463 108 94 120 
0.137816 -0.674926 2.17451 119 121 144 
0.117397 -0.439465 2.23603 62 46 72 
0.13218 -0.430676 2.20238 57 43 66 
0.14691 -0.421339 2.16888 54 42 64 
0.160677 -0.608621 2.21546 107 98 125 
0.162242 -0.629499 2.21757 100 88 108 
0.171715 -0.627645 2.22492 91 82 103 
0.173283 -0.599809 2.21466 71 69 83 
0.171191 -0.527947 2.19264 21 20 28 
0.177039 -0.49117 2.20182 51 41 65 
0.188389 -0.652688 2.24042 43 37 63 
0.185693 -0.477332 2.20636 46 33 50 
0.185777 -0.465237 2.20402 54 40 63 
0.130459 0.486376 2.17439 77 90 124 
0.207307 -0.628541 2.2536 55 49 75 
0.13599 0.194457 2.53543 72 81 110 
0.201502 -0.479487 2.22415 55 46 65 
0.234466 -0.386265 2.2626 105 99 125 
0.255113 -0.52925 2.28362 75 70 102 
0.269398 -0.438515 2.2908 95 91 114 
0.351651 -0.611606 2.42908 131 143 191 
0.310007 0.0560274 2.41337 73 86 120 
0.289539 0.511782 2.28581 86 99 133 
0.355349 -0.35953 2.38095 155 168 202 
0.364318 -0.162121 2.37882 119 117 141 
0.367669 -0.126286 2.36932 132 132 158 
0.364745 -0.040461 2.34748 94 92 116 
0.322119 0.529927 2.27483 38 45 71 
0.366654 -0.0605049 2.35094 105 109 136 
0.377303 -0.162446 2.38994 114 105 136 
0.383846 -0.102374 2.39322 126 127 148 
0.393405 -0.0581336 2.38962 99 113 140 
0.381414 0.185519 2.34617 109 115 141 
0.435545 -0.335445 2.48126 120 128 167 
0.373813 0.407577 2.2856 36 34 48 
0.382359 0.352345 2.3243 107 97 122 
0.415845 0.0311319 2.40409 20 21 26 
0.426175 -0.0558045 2.41885 89 101 125 
0.387278 0.537074 2.27841 110 107 128 
0.464591 -0.279671 2.50419 121 133 175 
0.395159 0.514215 2.28753 133 133 157 
0.435841 0.0972466 2.42525 110 100 127 
0.436157 0.110459 2.42254 114 105 134 
0.402829 0.473839 2.30453 107 117 144 
0.404881 0.456775 2.30596 105 108 127 
0.406338 0.484114 2.30483 89 100 122 
0.424071 0.392092 2.35202 51 54 59 
0.476346 -0.119054 2.49783 119 130 175 
0.419552 0.510391 2.31575 100 110 135 
0.432799 0.436281 2.34237 90 94 119 
0.450706 0.284273 2.40865 153 167 204 
0.460191 0.493084 2.36642 27 30 45 
0.57335 -0.570887 2.66994 133 141 180 
0.488021 0.456948 2.40339 27 34 52 
0.513472 0.399739 2.45544 110 114 126 
0.506136 0.474439 2.41742 94 99 121 
0.520099 0.419834 2.44782 95 102 118 
0.601079 -0.196881 2.65293 143 152 193 
0.618851 -0.310423 2.68987 136 144 183 
0.530666 0.506791 2.44103 88 95 123 
0.598389 0.116511 2.60178 96 103 149 
0.647601 -0.321013 2.71669 26 31 51 
0.651661 -0.336724 2.723 37 44 62 
0.605718 0.128071 2.61689 140 152 194 
0.670666 -0.429964 2.76529 141 153 191 
0.564232 0.53021 2.47648 88 93 122 
0.630743 0.0338473 2.65493 151 160 201 
0.701779 -0.508199 2.80617 117 122 164 
0.621815 0.321066 2.59528 38 41 60 
0.740285 -0.407801 2.83684 129 115 141 
0.770035 -0.0412781 3.16934 25 23 34 
0.769925 -0.0229209 3.16109 14 22 41 
0.772336 -0.525552 2.89047 63 78 107 
0.788954 -0.0386971 3.19005 27 26 40 
0.644808 0.547763 2.567 29 34 56 
0.785989 -0.537864 2.90376 64 80 114 
0.653504 0.510021 2.58308 100 104 133 
0.827815 -0.193437 3.23877 98 98 132 
0.815818 -0.588934 2.95087 140 152 190 
0.802721 0.254496 3.16091 67 102 122 
0.823783 -0.478899 2.93952 67 59 98 
0.824723 -0.520551 2.92037 93 97 126 
0.837493 -0.503155 2.96311 126 139 171 
0.835479 -0.52749 2.93381 93 103 128 
0.841608 -0.533825 2.94241 48 59 91 
0.720276 0.338965 2.63616 15 30 71 
0.882396 -0.0638244 3.28396 115 122 148 
0.903417 -0.0187945 3.31627 27 25 39 
0.890107 -0.611856 3.02919 102 124 148 
0.907624 -0.358708 3.20265 72 69 86 
0.846087 0.502409 3.17488 23 24 42 
0.92284 -0.0926772 3.32586 37 35 49 
0.904624 -0.561252 3.03988 125 144 176 
0.903015 -0.546487 3.0224 70 93 127 
0.912443 -0.531856 3.03378 84 97 114 
0.942883 -0.0621213 3.3248 40 35 65 
0.944539 -0.0109863 3.31924 49 48 79 
0.951911 -0.711111 3.10879 73 88 129 
0.944981 -0.6599 3.08941 49 48 90 
0.943898 0.105223 3.30213 44 38 66 
0.942771 0.155717 3.29468 42 37 60 
0.99176 -0.787711 3.19956 49 44 74 
0.943193 0.178886 3.29073 45 39 65 
0.942936 0.224875 3.28394 39 30 59 
0.942672 0.247706 3.28096 46 40 68 
0.727192 0.557874 2.42224 33 47 82 
0.962083 -0.455669 3.12586 33 27 37 
0.942735 0.270905 3.27853 48 37 67 
0.942102 0.294042 3.27453 46 40 68 
0.941857 0.317515 3.27044 46 38 61 
0.942032 0.341823 3.26758 47 41 69 
0.960756 0.188235 3.29825 96 92 119 
0.942077 0.365748 3.26389 44 40 65 
0.981911 -0.49794 3.11831 121 126 158 
0.987751 -0.467014 3.12832 38 30 53 
0.999179 -0.543629 3.13622 50 58 104 
0.985005 0.157427 3.29396 71 71 97 
0.794951 0.533107 2.57428 68 80 120 
0.979567 0.426593 3.24985 25 23 36 
1.01746 0.0996847 3.29893 105 125 160 
1.02235 0.011354 3.25839 106 108 133 
0.819567 0.557639 2.60348 75 87 129 
1.03092 0.0831835 3.30762 38 32 58 
0.98659 0.468477 3.22654 81 72 91 
0.997042 0.42536 3.24607 20 18 31 
1.03409 0.193082 3.28891 53 42 72 
1.0049 0.432295 3.23352 82 73 92 
1.0028 0.450272 3.22894 39 31 46 
0.87557 0.549575 2.7402 76 85 126 
1.0467 0.254769 3.28278 74 70 93 
1.02363 0.512505 3.20796 97 97 125 
1.08001 0.0244485 3.276 72 71 89 
0.908157 0.554974 2.7761 74 87 129 
1.04704 0.434623 3.24474 86 75 92 
1.05396 0.428543 3.25309 20 16 30 
1.03873 0.530225 3.21801 48 44 67 
0.89575 0.551146 2.68895 71 85 122 
0.865919 0.594682 2.48443 38 65 60 
-0.58816 -0.141894 1.86132 30 34 63 
-0.509983 0.455307 1.7448 47 44 65 
-0.505593 0.403582 1.75813 96 98 119 
-0.50268 0.425093 1.7571 47 43 66 
-0.485392 0.382657 1.78281 55 52 73 
-0.506524 -0.0962705 1.87227 45 47 46 
-0.478735 0.419978 1.78549 44 46 69 
-0.478109 0.383501 1.79188 49 50 70 
-0.473147 0.364795 1.79911 37 38 58 
-0.462184 0.247809 1.78235 55 53 67 
-0.416485 0.2629 1.83719 164 185 238 
-0.411727 0.237797 1.82878 203 217 255 
-0.382942 0.343731 1.86078 52 55 74 
-0.335755 0.330602 1.97217 37 37 47 
-0.334531 0.059819 2.01467 67 76 105 
-0.312218 0.321575 1.97507 169 191 230 
-0.301752 0.420773 1.94004 35 41 73 
-0.3084 0.324556 1.98552 61 67 103 
-0.285088 0.0849005 2.09784 139 148 179 
-0.281249 -0.0947859 2.10824 122 126 153 
-0.259402 -0.0305305 2.10608 86 77 98 
-0.236847 0.258819 2.1058 53 46 62 
-0.210572 0.301903 2.01614 94 84 108 
-0.224063 -0.0628339 2.18586 33 30 41 
-0.221519 0.277576 2.20881 37 45 66 
-0.129668 -0.397598 1.96406 102 107 137 
-0.101826 0.488236 1.75219 115 114 148 
-0.103819 -0.225815 1.90907 37 35 46 
-0.0854035 0.483907 1.74197 113 116 151 
-0.0819937 -0.0544023 1.90466 47 41 51 
-0.0743542 -0.0785971 1.87225 120 117 136 
-0.0728342 -0.21097 1.89082 118 113 133 
-0.070147 -0.119434 1.86044 111 108 125 
-0.0703895 -0.185164 1.88843 119 114 137 
-0.0578879 -0.3558 1.90147 103 89 106 
-0.0549721 -0.138697 1.88047 94 93 107 
-0.0490557 -0.250261 1.91393 55 53 67 
-0.0425317 -0.206971 1.90289 120 106 123 
-0.0425385 -0.11574 1.90368 130 128 142 
-0.0409152 -0.22522 1.90803 118 105 123 
-0.038102 -0.14534 1.89778 72 67 87 
-0.0354873 0.259153 1.88943 26 34 53 
-0.0265188 0.440163 1.82738 44 54 89 
-0.0259495 -0.305406 1.93535 125 108 126 
-0.0181587 0.294829 1.90116 81 86 106 
-0.00451174 -0.211941 1.97021 15 13 26 
0.00728562 -0.128172 1.95367 88 91 110 
0.0622899 -0.403028 2.07427 105 93 117 
0.0727533 -0.395163 2.08586 88 73 94 
0.0828082 0.512905 1.9614 82 88 110 
0.0998425 -0.454327 2.10158 134 131 148 
0.102017 -0.41714 2.11982 111 98 116 
0.127402 -0.518753 2.14528 63 55 78 
0.154606 -0.494282 2.17219 106 102 119 
0.158619 -0.421131 2.18538 69 56 82 
0.180498 0.296784 2.36943 28 36 59 
0.167293 -0.492638 2.18629 108 95 115 
0.184635 0.526388 2.05611 83 87 112 
0.201023 -0.542673 2.23031 80 74 100 
0.203497 -0.554158 2.24474 142 128 151 
0.218026 -0.483705 2.25642 136 123 143 
0.257532 -0.383382 2.28006 111 107 130 
0.266253 0.501969 2.24643 96 109 141 
0.307166 0.0287274 2.43649 47 41 53 
0.276906 0.521365 2.18582 130 144 181 
0.311177 0.0543404 2.42054 86 92 114 
0.310277 0.209289 2.38954 87 94 122 
0.315925 0.0988577 2.418 85 86 114 
0.317265 0.200199 2.39371 89 100 130 
0.309232 0.533771 2.29445 43 48 70 
0.336534 0.0599062 2.41549 38 34 48 
0.340663 -0.0813282 2.37031 34 32 43 
0.345131 -0.11626 2.37983 53 51 65 
0.336682 0.53419 2.29142 35 41 63 
0.375283 -0.615757 2.46237 183 197 232 
0.339693 0.551602 2.22568 24 50 39 
0.372154 0.0202115 2.37714 34 31 40 
0.372472 0.0761227 2.37264 43 41 52 
0.374253 0.151151 2.3588 38 36 47 
0.361961 0.391415 2.2774 100 117 143 
0.385283 -0.296832 2.41265 168 182 211 
0.380926 0.0986269 2.35933 120 113 129 
0.370233 0.54531 2.27906 42 42 54 
0.374526 0.409186 2.2987 35 33 44 
0.387741 0.050082 2.37378 95 93 115 
0.385502 0.141823 2.35903 136 137 158 
0.381251 0.323289 2.32747 109 104 124 
0.385251 0.271078 2.33885 112 108 133 
0.382098 0.3789 2.3089 102 104 67 
0.380298 0.476401 2.28624 53 51 65 
0.407273 -0.261404 2.43051 170 180 215 
0.385727 0.446887 2.29217 92 100 121 
0.386095 0.523244 2.28308 135 131 145 
0.409809 -0.159249 2.40966 73 79 95 
0.423411 0.0679502 2.41774 90 86 111 
0.406843 0.485437 2.30927 87 94 113 
0.426683 0.10281 2.41346 134 134 158 
0.437914 0.111119 2.43585 117 108 135 
0.445033 -0.0551773 2.44517 126 139 171 
0.469186 -0.594583 2.56315 128 137 178 
0.455904 -0.0722792 2.43567 160 171 203 
0.478436 0.328413 2.4431 216 230 255 
0.477579 0.362815 2.43745 124 116 155 
0.490161 0.363183 2.45209 73 73 123 
0.483639 0.417774 2.41663 118 125 131 
0.480523 0.541534 2.38927 34 39 59 
0.563912 0.017149 2.58899 129 132 173 
0.568302 0.0585003 2.56452 117 126 165 
0.541362 0.578171 2.42827 44 59 62 
0.602795 -0.0437446 2.65779 138 152 187 
0.546358 0.581498 2.40484 108 118 145 
0.60798 -0.00361264 2.66984 142 155 189 
0.61273 0.130286 2.6865 152 165 199 
0.598601 0.0812259 2.62425 157 161 196 
0.581861 0.417869 2.54464 66 67 69 
0.60935 0.295158 2.66139 155 163 199 
0.60854 -0.106618 2.64199 24 27 34 
0.422256 0.501943 1.8193 85 85 123 
0.6106 0.228316 2.6072 142 148 182 
0.621125 -0.1208 2.63002 63 68 90 
0.650859 -0.355626 2.7536 147 159 199 
0.582974 0.58516 2.45267 34 44 56 
0.62537 0.137872 2.62844 37 39 60 
0.641499 -0.105619 2.67841 28 30 42 
0.66292 -0.39181 2.76091 158 167 208 
0.630746 0.340202 2.61448 145 158 190 
0.641416 0.148401 2.63896 37 35 48 
0.638806 0.377965 2.61454 111 96 129 
0.616661 0.494011 2.52005 16 30 56 
0.650156 0.143003 2.64688 93 104 126 
0.620058 0.538438 2.49985 70 90 123 
0.668833 0.153158 2.69258 96 98 121 
0.658861 0.332441 2.6441 33 31 45 
0.66235 0.262828 2.65136 131 138 166 
0.707725 -0.513004 2.83039 130 130 166 
0.411119 0.48006 1.6247 75 78 95 
0.675841 0.345937 2.66285 145 146 167 
0.720145 -0.493129 2.83075 168 178 214 
0.716058 -0.3633 2.80123 83 72 104 
0.727658 -0.35306 2.82528 70 61 90 
0.730262 -0.365618 2.825 82 75 109 
0.68019 0.526795 2.61927 26 35 50 
0.850457 -0.0923102 3.2525 46 45 61 
0.751031 -0.526475 2.87163 153 163 198 
0.750434 -0.396474 2.86126 84 70 105 
0.770862 -0.375831 2.92946 118 111 142 
0.875099 -0.151457 3.32454 31 29 42 
0.865094 -0.0263114 3.28535 38 35 52 
0.750125 -0.433163 2.83618 131 122 153 
0.769362 -0.573494 2.90273 173 182 225 
0.810742 -0.337564 3.06134 46 44 55 
0.877042 -0.111035 3.30509 32 29 46 
0.879993 -0.0703348 3.30987 32 30 51 
0.765326 -0.405182 2.87547 55 46 75 
0.87874 -0.0230442 3.29537 34 30 47 
0.769718 -0.419746 2.88076 81 70 104 
0.790784 -0.378857 2.95758 119 115 142 
0.516931 0.516712 1.92586 123 127 154 
0.873674 -0.0622161 3.24522 119 121 142 
0.774317 -0.440902 2.87424 81 74 108 
0.772729 -0.517833 2.86511 89 98 113 
0.527981 0.517766 1.94663 126 132 164 
0.794706 -0.417092 2.93008 127 121 149 
0.785583 -0.42488 2.89655 55 49 77 
0.792357 -0.441175 2.9099 85 74 108 
0.724971 0.34198 2.65771 23 36 68 
0.801188 -0.436767 2.92806 121 115 141 
0.818337 -0.416416 2.98247 65 60 92 
0.728399 0.339087 2.64388 95 118 150 
0.831035 -0.729037 2.96812 42 49 67 
0.830572 -0.561857 2.95081 39 46 64 
0.69126 0.55197 2.45464 27 37 49 
0.849664 -0.441518 3.0116 124 120 147 
0.865419 -0.416945 3.05708 117 117 145 
0.481504 0.488524 1.69982 61 81 80 
0.851829 -0.827729 2.99853 98 108 133 
0.735084 0.520928 2.5831 122 134 174 
0.855607 -0.467318 2.98066 40 37 58 
0.874246 -0.756537 3.04232 153 158 178 
0.860541 -0.522339 2.98559 44 46 67 
0.875419 -0.681581 3.03639 77 85 121 
0.85622 -0.565261 2.96918 118 115 144 
0.723397 0.541325 2.50695 45 55 82 
0.89225 -0.750558 3.08874 136 150 179 
0.879237 -0.731838 3.0385 147 158 186 
0.883239 -0.760025 3.05014 44 44 78 
0.884227 -0.627907 3.0429 39 43 68 
0.888925 -0.74966 3.05265 145 154 183 
0.876435 -0.51136 3.00754 123 114 141 
0.951238 0.435058 3.26193 93 85 106 
0.910018 -0.792936 3.11789 80 73 91 
0.895578 -0.714239 3.06488 102 112 147 
0.888797 -0.5715 3.03735 119 128 159 
0.893224 -0.60591 3.03882 63 67 94 
0.734099 0.538881 2.49561 111 121 156 
0.917843 -0.782123 3.10722 129 135 159 
0.920508 -0.755622 3.11188 142 146 171 
0.903556 -0.620027 3.04243 146 158 184 
0.980913 0.219959 3.276 55 51 66 
0.618 0.535542 2.06203 79 79 115 
0.991186 0.192247 3.303 95 91 106 
0.627885 0.537952 2.0879 129 129 163 
0.947657 -0.76823 3.14965 50 47 68 
0.943986 -0.750929 3.12471 141 146 168 
0.925093 -0.482375 3.06374 105 107 130 
0.991494 0.390208 3.2771 84 82 104 
0.938035 -0.459877 3.09699 43 42 56 
0.738334 0.549918 2.43066 108 122 157 
0.935852 -0.646956 3.07746 156 163 192 
0.957887 -0.751466 3.15057 91 96 126 
0.991111 0.436187 3.25772 75 67 78 
0.944682 -0.766873 3.10492 128 140 166 
0.958228 -0.831582 3.14438 156 164 187 
1.01978 -0.109869 3.3395 85 81 108 
0.957339 -0.790702 3.131 118 124 146 
0.956659 -0.734251 3.1278 110 114 151 
0.95599 -0.712096 3.12697 87 96 127 
0.50862 0.488811 1.66186 89 113 100 
0.721781 0.56645 2.35805 42 49 68 
1.00064 0.426017 3.25843 29 23 33 
0.958376 -0.653344 3.11914 93 102 135 
0.564179 0.509215 1.8338 79 88 117 
1.02521 -0.0612404 3.32935 74 70 93 
0.957779 -0.659458 3.10443 151 166 189 
0.721678 0.574918 2.33422 99 106 132 
0.977974 -0.644784 3.14598 156 169 201 
0.773193 0.551732 2.4822 71 84 116 
1.02161 0.40718 3.27124 102 118 143 
0.718373 0.56764 2.29497 40 56 69 
1.02337 0.427574 3.26715 44 37 53 
0.741537 0.571551 2.3593 104 118 144 
1.01845 0.535163 3.22893 44 44 70 
1.02171 -0.304966 3.23772 29 28 36 
1.0279 0.436476 3.25092 91 78 96 
1.03926 0.430555 3.26845 28 24 39 
1.02118 -0.762012 3.20871 84 89 108 
1.00478 -0.547323 3.15527 54 57 92 
1.01563 -0.433918 3.18681 41 39 52 
1.02164 -0.683497 3.20494 138 149 179 
1.02395 -0.750163 3.20555 116 128 152 
1.00941 -0.462984 3.15359 119 115 140 
1.02667 -0.70135 3.20726 139 146 172 
0.847826 0.550842 2.64786 67 78 110 
1.05576 0.374901 3.29739 81 80 98 
1.02644 -0.712739 3.20425 139 147 170 
1.05494 -0.787956 3.28685 27 30 47 
1.02315 -0.587649 3.18828 86 89 122 
1.02149 -0.576273 3.1794 120 127 155 
1.03274 -0.598987 3.21271 126 132 158 
1.03307 -0.56352 3.20682 109 120 148 
1.03223 -0.432947 3.18848 87 86 104 
1.04031 -0.755643 3.21137 28 29 50 
1.0354 -0.447221 3.18049 106 102 125 
1.03551 -0.546143 3.18018 56 48 71 
1.04356 -0.569976 3.20359 49 41 64 
1.07531 0.0200012 3.29596 30 25 32 
1.03348 -0.638215 3.16554 44 41 58 
1.03546 -0.531392 3.16938 53 53 81 
0.854913 0.559903 2.61333 117 131 168 
1.07938 -0.0194778 3.29981 81 77 100 
1.04309 -0.489917 3.18254 30 30 42 
1.0625 -0.291949 3.23776 101 102 132 
1.04286 -0.511642 3.1734 100 118 142 
1.07082 0.530679 3.24989 42 40 53 
1.07707 -0.811094 3.26329 144 163 195 
1.0703 0.386506 3.2317 24 29 58 
1.08209 0.409203 3.26711 96 106 131 
1.06346 -0.419204 3.20645 39 35 58 
1.08454 -0.540646 3.26701 45 52 80 
1.09393 0.00638278 3.28939 92 85 116 
0.899496 0.553398 2.7015 87 98 130 
0.616868 0.510166 1.84954 84 79 119 
1.08669 -0.441739 3.2506 85 80 112 
1.10125 0.393603 3.28507 20 26 40 
1.08469 0.456295 3.23537 92 78 103 
1.10401 -0.221932 3.28987 84 76 100 
1.11743 -0.0100099 3.32949 32 30 44 
1.09392 -0.374936 3.2574 36 34 48 
0.830245 0.578597 2.46836 69 80 110 
1.08824 -0.407698 3.23425 103 99 122 
1.09355 0.426793 3.2444 27 23 37 
1.09552 0.441085 3.23944 32 27 47 
1.09067 0.378677 3.21437 87 93 119 
1.11423 0.393909 3.28336 24 30 52 
1.07945 0.527854 3.17323 35 44 77 
1.09788 0.418463 3.22652 61 67 91 
1.10112 0.432876 3.23285 69 71 94 
1.10796 -0.38029 3.24869 94 95 116 
1.11603 0.416277 3.26236 22 25 40 
1.1181 -0.400226 3.26464 108 102 130 
1.12759 -0.336625 3.28718 85 83 105 
1.14235 -0.201045 3.32278 46 42 57 
1.1371 0.0979757 3.30326 104 123 153 
1.14239 0.0447352 3.31861 37 34 53 
1.13787 -0.0165987 3.29771 81 77 104 
1.13548 -0.371487 3.27589 110 105 128 
1.13723 -0.357591 3.28076 63 54 83 
1.14848 0.0561037 3.31232 88 82 108 
0.870864 0.583965 2.50924 71 80 111 
1.14983 0.0372416 3.31125 103 108 130 
0.970332 0.569812 2.79016 80 93 125 
0.869428 0.597713 2.49598 44 64 65 
1.16101 -0.283268 3.32996 40 36 51 
1.14224 0.40942 3.27641 97 107 134 
1.14274 0.0874695 3.27718 45 33 57 
1.1398 0.379096 3.26758 113 122 153 
1.14624 -0.320542 3.28356 96 92 115 
1.15109 -0.311451 3.2974 31 28 47 
1.15868 0.212704 3.30837 50 40 65 
1.13112 0.547479 3.22785 121 133 173 
1.15377 0.211029 3.29272 50 40 65 
1.15919 -0.269552 3.30615 81 76 98 
1.14775 0.247742 3.27236 56 44 68 
1.15334 -0.332247 3.28422 98 89 118 
1.16041 0.0913563 3.30415 52 41 55 
1.1706 -0.0103537 3.3308 49 45 62 
1.17167 0.0505872 3.33147 44 42 56 
1.14742 0.335718 3.25409 55 51 74 
1.17081 -0.277492 3.31927 31 26 46 
1.15456 0.369602 3.27198 55 53 75 
1.15746 0.239421 3.27878 60 57 74 
1.14926 0.443347 3.25489 91 77 103 
1.17806 -0.233424 3.32976 89 87 111 
1.17309 0.0236251 3.31328 26 23 34 
1.1847 -0.210011 3.34353 45 38 54 
1.16836 0.317822 3.2976 47 39 52 
1.15186 0.498534 3.24276 95 87 110 
1.17396 0.00803427 3.3043 39 35 50 
0.95225 0.581346 2.67898 64 75 105 
1.18446 -0.0502977 3.33196 94 82 104 
1.18827 -0.242586 3.34055 34 31 48 
1.18816 0.0397455 3.32876 98 100 121 
1.18773 0.0649971 3.32326 113 111 133 
1.18335 0.104114 3.30802 98 86 108 
1.16357 0.428316 3.25098 23 22 30 
1.20575 -0.414185 3.3646 159 176 206 
1.20166 -0.202337 3.34891 31 27 44 
1.20253 -0.155673 3.35082 81 78 99 
1.20839 -0.127891 3.35979 52 45 61 
1.17942 0.0160919 3.27901 115 112 133 
1.19607 -0.22163 3.31928 95 87 111 
1.20675 -0.113635 3.34389 84 80 103 
1.1957 0.0107761 3.31302 96 90 118 
0.564079 0.47687 1.5609 77 83 119 
1.18729 0.326712 3.28598 90 88 112 
0.966935 0.600175 2.67407 118 133 172 
1.18774 0.380379 3.28442 93 98 118 
1.18921 0.41697 3.28062 73 75 96 
1.20859 -0.182318 3.32991 87 77 104 
1.20323 0.210863 3.31467 43 36 52 
1.21756 -0.120006 3.3519 30 22 43 
1.1619 0.576116 3.18848 132 146 185 
1.21466 0.0833214 3.33065 82 81 97 
1.22223 -0.0802271 3.35141 33 29 43 
1.19325 0.43916 3.27122 67 66 84 
1.21541 -0.1422 3.33073 92 79 105 
1.19336 0.456874 3.26959 73 64 81 
1.22134 -0.00661097 3.34532 30 26 41 
1.22582 -0.0382552 3.35263 40 34 48 
0.997666 0.589108 2.72722 66 79 111 
1.21576 0.164473 3.32044 84 81 100 
1.19018 0.545123 3.24676 63 57 71 
1.21312 0.226693 3.29553 39 33 45 
1.22352 0.0594124 3.32353 75 72 91 
1.23586 -0.0635498 3.35633 90 77 103 
1.21073 0.202169 3.28668 37 34 53 
1.21721 0.326622 3.30254 79 79 103 
1.22667 0.160167 3.32733 35 29 43 
1.23338 -0.0232895 3.34302 91 77 102 
1.20599 0.415629 3.26625 35 37 52 
1.225 0.368789 3.31706 80 85 105 
1.24581 0.0642766 3.37382 52 48 65 
1.21051 0.450865 3.27744 35 32 43 
1.20521 0.461773 3.25973 35 32 43 
1.22274 0.182875 3.30602 72 70 84 
1.21861 0.3495 3.29403 32 34 47 
1.20351 0.484734 3.25302 38 36 50 
1.223 0.219795 3.30302 106 103 120 
1.20554 0.506132 3.25536 42 38 55 
1.22083 0.277021 3.29499 41 37 51 
1.22088 0.314479 3.29427 36 30 42 
0.579417 0.47641 1.55843 125 136 168 
1.20222 0.522021 3.23583 25 29 40 
1.21909 0.0694706 3.28014 23 21 35 
1.24717 0.0414769 3.35266 23 21 34 
1.22612 0.340605 3.2929 81 83 106 
0.999658 0.59792 2.6835 131 144 186 
1.23381 0.258421 3.31229 105 97 121 
1.22468 0.381491 3.28448 80 84 109 
1.20642 0.492181 3.23227 132 128 143 
1.23651 0.329649 3.30689 85 95 120 
1.19809 0.566149 3.20099 132 147 180 
1.25935 0.0015144 3.36351 26 27 45 
1.24197 0.172316 3.31579 52 56 81 
1.23608 0.367774 3.29937 88 94 116 
1.23189 0.444333 3.28516 128 126 148 
1.25928 0.0788165 3.35262 93 95 118 
1.26515 0.100065 3.36045 160 171 201 
1.21324 0.532117 3.22279 95 101 125 
1.25699 0.248418 3.33334 35 33 47 
1.28283 0.0902686 3.40138 42 49 78 
1.24834 0.331424 3.30851 57 62 91 
1.24685 0.3613 3.30339 33 40 56 
1.25914 0.188446 3.33343 107 115 138 
1.25475 0.224963 3.32185 110 102 125 
1.25559 0.237221 3.31968 113 108 131 
1.24047 0.410644 3.27876 101 110 139 
1.23222 0.510813 3.25687 139 135 160 
1.25315 0.432943 3.30642 54 50 67 
1.29611 -0.00635506 3.41888 36 41 61 
1.22411 0.561681 3.22387 127 117 141 
1.24114 0.596921 3.26753 84 83 115 
1.31345 -0.183057 3.45676 152 165 199 
1.00226 0.620505 2.63425 106 117 135 
1.24171 0.586512 3.26389 131 126 148 
1.27889 0.177362 3.36004 99 100 131 
1.01395 0.621957 2.65975 45 63 67 
1.3007 -0.00645429 3.40669 82 89 108 
1.27974 0.212769 3.35128 100 99 131 
1.2624 0.373118 3.30451 104 116 166 
1.30717 -0.0671827 3.41899 148 165 195 
1.27436 0.359317 3.33113 232 239 255 
1.24824 0.578695 3.25913 71 60 90 
1.28479 0.342432 3.35397 111 112 142 
1.26369 0.444131 3.29863 155 171 197 
1.27303 0.392527 3.3217 235 241 255 
1.24461 0.589711 3.24563 67 64 93 
1.29987 0.00875105 3.38729 122 138 171 
1.30936 0.355074 3.40989 112 120 157 
1.25931 0.509304 3.27858 154 159 189 
1.30815 -0.0134349 3.40476 70 85 108 
1.27666 0.37607 3.32023 104 121 175 
1.31333 -0.0417611 3.41021 153 163 199 
1.26325 0.458675 3.27792 163 169 201 
1.04142 0.612394 2.69922 64 73 104 
1.26351 0.593765 3.26898 99 101 122 
1.25406 0.430108 3.24124 24 33 74 
1.2584 0.508911 3.24382 45 54 93 
1.18059 0.547459 3.03705 38 52 81 
1.26421 0.447822 3.25094 154 173 205 
1.24876 0.589503 3.20995 42 54 92 
1.44168 -0.663497 3.69847 183 197 232 
1.27953 0.504776 3.27363 157 164 193 
1.25228 0.49301 3.20084 156 163 192 
1.2864 0.541545 3.28425 95 102 118 
1.2489 0.590565 3.18686 128 144 177 
1.37606 -0.53017 3.50578 167 180 215 
1.46323 -0.92995 3.72684 107 107 143 
1.08056 0.622168 2.7489 66 76 103 
1.28723 0.496789 3.26601 158 161 192 
1.20889 0.60762 3.06419 89 100 130 
1.19844 0.601722 3.03645 89 100 130 
1.30397 0.528316 3.30315 72 79 98 
1.2671 0.609434 3.2023 129 141 179 
1.31507 0.604427 3.32292 54 66 92 
1.48227 -0.715066 3.73988 185 202 230 
1.49635 -0.954173 3.76572 114 111 142 
1.47515 -0.750972 3.70977 120 115 155 
1.47111 -0.539069 3.69827 168 180 218 
1.36076 0.524487 3.39521 163 170 196 
1.43247 -0.258994 3.57388 122 135 169 
1.45013 0.090962 3.60993 159 172 204 
1.24182 0.610477 3.08712 90 100 135 
1.35807 0.535361 3.3709 92 99 117 
1.49276 0.0289931 3.68729 168 178 213 
1.37426 0.519361 3.39189 156 165 194 
1.51317 -0.53891 3.73443 146 151 183 
1.33761 0.627365 3.29898 47 56 87 
1.54122 -1.03602 3.79922 57 79 129 
1.35839 0.616101 3.34764 37 48 78 
1.51592 -0.548975 3.73107 53 46 77 
1.26087 0.611947 3.10168 85 98 130 
1.52026 -0.562466 3.73881 41 36 58 
1.43681 0.185988 3.53373 170 179 218 
1.52511 -0.585453 3.74602 127 122 144 
1.42335 0.46602 3.49562 134 123 155 
1.4694 0.121749 3.60771 66 69 110 
1.47474 -0.033048 3.62064 152 160 197 
1.57268 -0.728546 3.85343 112 107 137 
1.36609 0.538367 3.34708 22 36 65 
1.57706 -0.94452 3.86143 131 117 140 
1.38302 0.628582 3.38429 91 105 131 
1.49945 0.302653 3.66714 168 176 213 
1.37523 0.536296 3.36077 118 134 157 
1.53243 -0.576556 3.74221 109 116 135 
1.50268 -0.138298 3.6685 122 130 169 
1.47998 0.100656 3.61233 32 38 54 
1.48933 -0.0778718 3.63384 160 163 198 
0.678899 0.491656 1.65499 127 132 162 
1.52224 -0.115364 3.70635 166 176 212 
1.56972 -0.530423 3.81507 148 161 193 
1.48251 0.360258 3.60221 172 178 212 
1.47105 0.357559 3.57351 172 178 212 
1.48166 0.10154 3.59177 75 83 96 
0.692328 0.494056 1.67679 133 130 161 
1.48315 0.116647 3.59196 89 106 126 
1.56149 -0.548856 3.78062 85 84 102 
1.56952 -0.541898 3.79714 49 42 73 
1.51433 0.209671 3.66305 24 27 42 
1.53171 -0.148426 3.70451 168 181 216 
1.58196 -0.592659 3.82314 125 121 144 
1.52407 -0.0532439 3.68422 40 47 66 
1.52245 -0.129452 3.67855 88 82 116 
1.48596 0.527956 3.58665 128 131 176 
1.17918 0.646358 2.84477 17 38 31 
0.850158 0.539684 2.05005 66 68 109 
1.16753 0.646461 2.81222 111 118 146 
1.5544 -0.236746 3.74411 125 129 166 
1.48524 0.102214 3.574 29 30 48 
1.48256 0.543972 3.56679 98 91 125 
1.47408 0.511958 3.54423 108 120 172 
1.51345 0.295449 3.63647 93 94 125 
1.51091 0.110386 3.62848 115 116 136 
1.51899 0.384037 3.64771 123 115 139 
1.48141 0.549366 3.55598 88 92 117 
1.48818 0.499782 3.57219 233 238 255 
1.53548 0.213303 3.68503 28 37 54 
1.48382 0.532016 3.55483 232 237 255 
1.47667 0.58057 3.53428 107 117 127 
1.58882 -0.541045 3.80207 104 102 123 
1.50495 0.492951 3.59786 100 99 143 
1.55307 0.0498256 3.71067 116 128 152 
1.5156 0.115404 3.61964 90 81 108 
1.67576 -0.891033 3.9987 83 73 110 
1.73722 0.0913677 4.14017 115 111 136 
1.51014 0.507609 3.59944 121 112 157 
1.65283 -0.607602 3.93542 28 31 50 
1.60314 -0.291366 3.81067 167 180 215 
1.57037 0.0454923 3.7325 32 22 47 
1.35773 0.625891 3.2207 122 131 164 
1.64838 -0.69934 3.90791 105 104 135 
1.62848 -0.388218 3.857 170 180 216 
1.69372 -0.884838 4.01207 85 75 112 
1.53187 0.556535 3.62576 114 109 131 
1.58653 -0.244358 3.75475 166 178 216 
1.76711 0.308099 4.18026 159 163 192 
1.62427 -0.34887 3.8373 156 162 194 
1.63207 -0.45846 3.85519 151 157 193 
1.69388 -0.617735 3.99695 47 47 75 
1.94213 0.106105 4.58478 55 41 58 
1.91276 0.141119 4.50981 57 44 61 
1.90598 0.180435 4.48547 50 43 59 
1.56522 0.574655 3.68043 34 33 47 
1.64961 -0.53443 3.87727 85 86 104 
1.54914 0.577767 3.63862 94 100 100 
1.57748 0.615941 3.70383 78 85 103 
1.72088 -0.849011 4.03879 152 151 183 
1.70634 -0.588977 3.99522 129 131 152 
1.63818 -0.147976 3.82981 122 113 142 
1.66892 -0.530672 3.89805 92 94 109 
1.52728 0.649266 3.56655 43 51 74 
1.54549 0.596462 3.60105 89 93 96 
1.68602 -0.522737 3.92487 48 47 81 
1.55962 0.591182 3.63033 30 32 45 
1.75613 -0.87859 4.08625 85 77 116 
1.8498 0.587223 4.30033 88 94 118 
1.69081 -0.511508 3.92989 153 159 191 
1.53305 0.692425 3.56372 129 145 161 
1.77016 -0.831914 4.11355 71 67 94 
1.7681 0.452522 4.10331 140 145 177 
1.27624 0.650416 2.96088 80 91 121 
1.65325 -0.144846 3.83419 128 123 143 
1.67898 -0.548489 3.89319 97 103 115 
1.99062 0.558485 4.61096 147 152 181 
1.73428 -0.585729 4.01255 28 29 49 
1.76565 -0.870732 4.08431 83 76 110 
1.65019 -0.177543 3.81585 39 36 55 
1.70575 -0.518214 3.94395 53 52 86 
2.00296 0.123107 4.63084 30 35 39 
1.69871 -0.532674 3.9259 44 46 69 
1.68689 -0.367577 3.89616 99 101 126 
1.91748 0.554095 4.42783 39 45 69 
1.68271 -0.324635 3.88421 115 120 142 
1.57972 0.591279 3.64399 97 105 128 
1.72005 -0.455546 3.96849 59 63 88 
1.87718 0.651488 4.32518 37 54 74 
1.79113 -0.704405 4.12084 104 104 130 
1.78439 -0.8675 4.10427 85 75 110 
1.7017 -0.417632 3.91429 93 98 120 
1.66525 -0.240985 3.82812 100 98 119 
1.71509 -0.528373 3.9411 44 44 68 
1.69063 -0.135279 3.88596 28 23 29 
1.7128 -0.401231 3.92941 54 51 78 
1.73023 -0.521141 3.96637 96 104 117 
2.00381 0.244438 4.59346 129 136 162 
2.09241 0.175185 4.79339 75 73 94 
1.68714 -0.207584 3.86191 42 34 58 
1.72194 -0.444857 3.94122 111 113 136 
1.69775 -0.219126 3.88427 115 106 127 
1.68808 -0.188585 3.86178 113 101 123 
1.7865 -0.736006 4.08482 110 106 129 
1.73232 -0.36405 3.96008 44 40 67 
1.8872 0.619602 4.30779 135 159 187 
1.80558 -0.782215 4.12208 154 150 175 
1.91407 0.569675 4.35947 103 116 151 
1.70304 -0.185007 3.87629 114 107 123 
1.84072 -0.839727 4.18862 156 147 176 
1.32512 0.673926 3.01414 63 80 90 
2.01187 0.591892 4.577 169 186 212 
1.73847 -0.406742 3.95311 93 95 118 
1.8028 -0.572731 4.09925 135 133 154 
1.72834 -0.427394 3.92653 33 39 61 
1.91213 0.214809 4.33936 36 32 49 
1.7603 -0.505271 3.99527 52 47 79 
1.83547 0.748809 4.16334 24 22 33 
1.74508 -0.332011 3.957 119 111 135 
1.34328 0.661663 3.04105 82 91 122 
1.99645 0.578386 4.51933 56 69 113 
1.80163 0.752144 4.07781 72 85 117 
1.93008 0.658398 4.36852 161 175 210 
1.94004 0.258702 4.38541 35 31 48 
1.83496 -0.80368 4.14478 67 65 89 
1.86428 0.657887 4.20983 29 31 44 
0.759113 0.499798 1.71114 68 73 111 
1.78714 -0.50376 4.03131 53 48 80 
1.97457 0.663113 4.45411 79 92 134 
1.8007 -0.559687 4.05585 38 39 60 
1.76796 -0.375513 3.98096 28 31 46 
2.07759 0.319252 4.67821 30 30 38 
1.98774 0.578136 4.46998 164 191 218 
1.2823 0.655606 2.87899 52 75 67 
1.80745 -0.510056 4.05617 92 88 105 
1.85923 0.629273 4.17 154 169 198 
1.98763 0.611917 4.45324 98 110 160 
1.97598 0.57919 4.42426 82 87 143 
1.98095 0.637324 4.432 83 88 130 
2.06819 0.618357 4.62542 208 227 255 
2.09965 0.557042 4.69292 24 24 34 
2.0606 0.651436 4.60516 213 230 255 
1.77874 -0.160716 3.97011 29 26 35 
2.05466 0.600465 4.58175 58 73 130 
1.38067 0.682575 3.0772 53 65 79 
2.0867 0.58184 4.647 188 201 235 
1.90097 -0.472802 4.2244 162 175 210 
1.81626 -0.809682 4.03612 84 83 115 
1.85812 0.619065 4.12796 30 21 48 
1.79838 -0.171723 3.9886 94 93 107 
0.780463 0.502362 1.72837 61 69 106 
1.83396 0.762915 4.06427 25 29 40 
2.06496 0.654949 4.57259 153 159 191 
1.90789 -0.648406 4.20792 41 43 66 
1.91257 -0.554544 4.20572 41 43 66 
1.89084 -0.497806 4.15087 93 88 110 
1.90078 0.705111 4.17205 31 32 37 
1.78739 0.548841 3.92308 16 16 24 
1.89463 -0.487799 4.15246 57 55 92 
1.93466 -0.665243 4.23481 125 126 146 
1.9107 -0.424111 4.17367 177 187 223 
1.91275 -0.838896 4.17726 138 134 167 
1.91 -0.490426 4.16113 102 106 131 
1.44935 0.691665 3.14721 42 61 65 
1.95231 -0.688832 4.23957 116 119 160 
1.95481 -0.664191 4.24214 114 119 157 
1.42947 0.688415 3.10128 118 125 151 
0.772778 0.495357 1.67398 82 90 129 
1.92285 0.602863 4.16769 34 37 42 
1.92096 -0.522938 4.15168 113 121 157 
1.93932 -0.483751 4.18775 103 108 128 
1.99483 -0.499582 4.3052 106 107 128 
1.87544 0.787012 4.03242 21 25 37 
1.8871 0.625228 4.05546 58 74 97 
2.00753 -0.525554 4.30508 254 254 254 
1.98344 -0.495104 4.24719 59 64 94 
1.94173 0.0928133 4.15487 94 94 118 
1.95001 -0.473225 4.16271 253 254 255 
1.91646 0.300734 4.09126 107 123 156 
1.91153 0.28681 4.08111 39 39 67 
1.97915 0.309718 4.22547 112 125 157 
2.74057 -0.566607 5.85098 248 255 255 
2.26063 0.424163 4.81107 122 136 173 
1.8809 0.217636 4.0013 111 108 127 
2.05143 0.420447 4.36334 126 142 178 
1.96055 0.288395 4.16854 137 134 153 
1.52089 0.706568 3.22898 119 125 149 
2.02081 0.440973 4.29029 127 145 183 
1.96404 0.467671 4.16684 126 144 182 
2.11816 0.538131 4.48797 125 143 181 
2.77109 -0.561083 5.86872 250 254 255 
1.92514 -0.00154744 4.0747 89 94 123 
1.9347 0.139646 4.09169 37 35 56 
2.02586 0.582159 4.2828 115 131 167 
