ply                 
format ascii 1.0    
element vertex 1264
property float x    
property float y    
property float z    
property uchar red  
property uchar green
property uchar blue 
end_header          
3.56539 1.27506 7.2531 32 35 44 
4.13989 0.971534 8.4039 86 95 136 
3.2591 -1.1956 6.60307 205 214 255 
3.18875 -1.24042 6.45355 60 60 130 
4.90675 0.336835 9.92678 112 124 164 
3.66362 1.27582 7.40866 30 28 42 
2.88112 -0.468727 5.81128 254 254 254 
3.23461 -1.18128 6.51446 42 54 106 
2.85014 -0.447455 5.72328 250 248 253 
3.67179 1.21048 7.36095 85 85 123 
2.8698 -0.436018 5.74495 172 175 210 
2.88067 -0.444905 5.75776 169 167 214 
2.90834 -0.481143 5.80751 252 255 255 
3.58531 1.22872 7.14962 35 37 49 
2.89876 -0.45586 5.78099 33 34 90 
4.85056 0.555879 9.64199 59 68 109 
5.4217 1.205 10.7716 25 31 53 
2.94021 -1.68217 5.83118 253 254 255 
4.51413 1.45088 8.94564 29 32 63 
2.91202 -1.64087 5.76577 253 255 252 
3.51357 0.749992 6.9512 70 71 101 
2.93202 -1.66403 5.79784 159 162 217 
5.53621 1.26551 10.9342 75 83 120 
3.93768 0.964625 7.768 83 88 130 
3.14157 -0.0236068 6.19302 17 21 33 
2.95757 -0.0893456 5.82807 14 21 31 
2.96238 -1.51039 5.82459 234 243 255 
2.89932 -1.27611 5.69869 75 65 138 
2.901 -1.4483 5.69937 37 50 82 
4.91895 1.14935 9.65728 40 39 70 
4.55073 1.18947 8.93353 79 94 135 
3.10976 -0.563941 6.09961 187 188 208 
3.09576 -0.0429617 6.06903 62 76 102 
2.87309 -0.636367 5.62976 217 217 229 
2.86876 -1.66102 5.61499 253 253 255 
2.96077 -0.446538 5.7973 253 255 254 
2.92023 -1.53464 5.71213 168 180 232 
4.91308 1.26227 9.60783 97 117 154 
4.76371 1.2618 9.31428 88 106 146 
3.08251 -0.104115 6.02171 64 85 132 
2.98933 -1.68243 5.83683 139 144 186 
5.31779 1.12751 10.366 17 23 35 
2.93225 -1.58854 5.71136 80 85 143 
4.26959 0.840546 8.31767 69 86 129 
3.07419 -1.19153 5.98542 255 255 253 
2.99587 -1.65618 5.83127 171 184 229 
4.07561 0.986754 7.93376 36 38 59 
2.84134 -1.65774 5.52762 222 241 255 
2.94512 -0.0776613 5.72807 15 19 31 
2.84899 -1.33854 5.54008 52 66 101 
2.95523 -1.61868 5.74265 172 190 228 
2.94118 -1.58062 5.70659 251 255 255 
2.92575 -1.7388 5.67419 224 230 255 
4.2885 0.782243 8.31794 20 27 45 
4.56322 1.28631 8.85144 50 59 92 
4.71699 1.48241 9.14869 65 78 123 
3.34136 -0.0188229 6.4781 19 23 35 
3.05023 -0.575338 5.90335 250 249 255 
2.96165 -1.33537 5.69938 247 245 246 
3.03711 -0.0701746 5.83885 22 23 41 
3.02707 -1.11999 5.81366 35 48 82 
3.21228 -1.05036 6.15479 252 253 255 
3.34036 -0.00726689 6.39909 78 97 139 
3.12196 -1.04244 5.94093 34 42 79 
3.08724 -0.40163 5.86268 243 252 255 
5.007 1.14128 9.50901 87 110 144 
4.87125 1.37249 9.24439 81 92 138 
5.60175 1.19574 10.6234 20 31 51 
2.96177 -0.800099 5.61327 244 245 249 
4.85729 1.3365 9.2074 67 81 126 
4.73569 1.3237 8.97197 120 142 183 
5.0707 1.48124 9.59977 65 82 128 
4.84894 1.46462 9.17308 67 83 134 
3.00706 -1.02917 5.68308 254 254 254 
4.86459 1.35072 9.17531 110 132 173 
4.9739 1.42671 9.37899 108 127 169 
4.99721 1.40222 9.39578 68 82 111 
4.98576 1.36024 9.37508 60 64 101 
6.10667 1.41574 11.4452 21 27 43 
3.29887 -0.13341 6.17256 30 37 81 
4.89422 1.39217 9.15409 109 121 133 
4.94729 1.45631 9.24385 35 42 68 
5.06819 1.36427 9.46077 23 27 52 
5.98363 1.61313 11.1648 21 28 57 
5.01428 0.420095 9.32358 44 40 73 
5.08219 1.14745 9.42623 36 50 95 
5.37808 1.50976 9.96863 103 125 162 
4.99436 1.34226 9.23427 34 49 92 
4.96772 1.31225 9.18321 34 38 86 
4.95621 1.3872 9.15137 51 69 119 
5.01187 1.36579 9.24932 113 133 170 
4.82526 1.42456 8.90083 56 69 121 
5.1915 1.38587 9.56605 92 122 158 
5.20771 0.578388 9.59084 66 74 87 
-0.515086 0.399812 1.74001 41 42 62 
-0.511515 0.411113 1.73739 36 37 55 
-0.505722 0.233458 1.73189 116 65 132 
-0.382245 0.450469 1.51815 143 132 149 
-0.49701 0.193842 1.7421 97 121 181 
-0.475471 0.253671 1.71184 55 75 144 
-1.38577 -0.682666 3.38314 120 138 186 
-0.499351 0.226445 1.75957 149 179 190 
-0.488344 0.229907 1.75284 44 65 110 
-0.482084 0.259143 1.75222 97 126 186 
-0.476459 0.181038 1.7593 145 166 223 
-0.465783 0.178712 1.7405 158 175 229 
-0.549867 -0.275952 1.89854 11 14 31 
-0.536228 -0.182699 1.89272 82 80 101 
-0.461725 0.239568 1.75912 146 169 210 
-0.460721 0.20447 1.76168 144 166 205 
-0.539654 -0.346342 1.92253 76 78 101 
-0.468175 0.213972 1.78901 161 184 226 
-0.332654 0.451383 1.52564 70 75 97 
-0.461937 0.244832 1.77925 93 112 142 
-0.538821 -0.389031 1.93177 66 71 103 
-0.493793 -0.0933514 1.84694 37 49 47 
-0.460155 0.234115 1.78397 79 93 132 
-0.452706 0.210599 1.77256 61 82 125 
-0.490528 0.15703 1.86138 113 121 167 
-0.485409 0.250674 1.85215 165 184 224 
-0.450943 0.185865 1.79111 143 162 220 
-0.430323 0.250415 1.76573 82 156 219 
-0.434723 0.251728 1.77509 83 159 221 
-0.446028 0.211665 1.80909 83 162 229 
-0.270839 0.445206 1.46463 139 138 170 
-0.314626 0.455301 1.56651 49 55 87 
-0.43147 0.189104 1.81928 159 179 232 
-0.39356 0.19305 1.74151 70 71 76 
-0.463688 -0.143653 1.88764 119 125 157 
-0.43023 0.238396 1.82704 56 102 179 
-0.41174 0.252428 1.7883 74 152 218 
-0.421607 0.207843 1.81288 57 58 104 
-0.442292 0.207159 1.85874 75 61 97 
-0.415332 0.193499 1.80907 26 34 80 
-0.480844 -0.280179 1.9476 74 69 91 
-0.45418 0.118756 1.89524 110 96 129 
-0.28272 0.45329 1.53168 57 64 92 
-0.402202 0.184336 1.79488 179 200 247 
-0.464601 -0.409615 1.93314 115 125 160 
-0.458466 -0.314145 1.92869 122 128 162 
-0.444748 0.262688 1.91616 103 125 175 
-0.298738 0.460051 1.59293 58 62 89 
-0.399313 0.22166 1.82779 36 51 84 
-0.397781 0.247723 1.83679 19 28 67 
-0.404745 0.254634 1.85546 136 159 213 
-0.380182 0.224103 1.80134 158 177 235 
-0.409742 0.448902 1.87825 47 56 85 
-0.39753 0.198676 1.84687 26 40 89 
-0.400055 0.224643 1.85566 130 155 211 
-0.385504 0.476116 1.83168 68 89 136 
-0.424931 0.20153 1.92473 106 129 181 
-0.423736 0.1721 1.92169 118 130 170 
-0.399382 0.304693 1.86759 158 174 207 
-0.444685 0.332783 1.97416 53 54 48 
-0.341485 0.236672 1.74245 46 57 89 
-0.396652 0.371088 1.8758 105 129 173 
-0.399778 0.453399 1.88558 34 38 65 
-0.382786 0.185823 1.8438 29 38 67 
-0.379019 0.29738 1.83951 66 84 124 
-0.390607 0.328186 1.86741 126 150 196 
-0.392579 0.177422 1.87897 29 28 70 
-0.418884 -0.22241 1.9568 115 129 164 
-0.382451 0.315652 1.88665 48 57 54 
-0.376856 0.366979 1.87715 43 44 65 
-0.123031 0.154857 1.3061 142 146 175 
-0.363362 0.397435 1.96394 37 34 55 
-0.196624 0.457004 1.54972 57 69 107 
-0.269085 0.24713 1.79462 44 55 75 
-0.399486 0.512815 2.16318 21 23 36 
-0.319267 0.408527 1.9481 18 20 33 
-0.302865 0.367012 1.90892 28 31 48 
-0.314018 0.30321 1.96525 93 115 165 
-0.310157 0.402174 1.95895 125 147 194 
-0.295846 0.299973 1.91908 240 243 255 
-0.309017 0.425961 1.9617 36 49 83 
-0.293098 0.359808 1.91565 116 133 179 
-0.340314 -0.0156757 2.05445 24 30 56 
-0.340759 0.324672 2.06395 88 104 137 
-0.303147 0.445297 1.96357 16 19 34 
-0.308408 0.0376282 1.97908 151 172 217 
-0.339026 0.341055 2.07628 61 58 79 
-0.323718 0.436171 2.03541 19 21 34 
-0.311916 0.501904 2.01157 22 24 36 
-0.361729 0.41796 2.17119 26 28 40 
-0.316723 -0.378904 2.06612 71 93 140 
-0.321438 -0.228 2.08883 35 47 73 
-0.276044 0.325886 1.96959 42 50 63 
-0.313714 -0.355362 2.07368 25 32 58 
-0.218265 0.281992 1.83086 113 120 149 
-0.281636 0.116556 2.06899 143 149 183 
-0.261109 0.0834932 2.0193 148 154 186 
-0.26369 0.0261633 2.03375 143 148 178 
-0.267542 0.228601 2.05223 152 156 185 
-0.262583 -0.0894019 2.04549 128 132 161 
-0.274721 -0.314719 2.08592 98 107 140 
-0.265131 -0.0388082 2.06377 139 149 176 
-0.284469 -0.0179635 2.1422 78 87 120 
-0.221595 0.11843 1.94137 97 83 109 
-0.2728 -0.109087 2.11348 25 27 48 
-0.261215 0.0767187 2.08163 94 81 107 
-0.270433 0.0609836 2.11361 147 156 187 
-0.265495 -0.00948007 2.10605 136 145 174 
-0.252854 0.181016 2.07296 106 96 121 
-0.262763 0.156949 2.11454 102 88 114 
-0.257728 0.00873215 2.09572 84 95 125 
-0.258758 -0.00204401 2.09952 85 91 123 
-0.227215 -0.117609 2.08337 31 33 56 
-0.215471 0.260771 2.1163 52 48 62 
-0.227214 -0.056628 2.1602 111 106 129 
-0.21664 0.282424 2.14042 67 57 81 
-0.212787 0.273606 2.13121 114 122 145 
-0.231355 0.0647652 2.19826 106 110 137 
-0.229355 0.273262 2.20644 57 53 68 
-0.228786 -0.001162 2.19954 34 33 51 
-0.163841 0.276092 1.95516 116 116 140 
-0.211225 0.0168274 2.14437 112 116 145 
-0.219085 -0.069737 2.17338 80 78 99 
-0.208891 0.00688667 2.13819 109 115 141 
-0.219455 0.276695 2.20124 30 36 58 
-0.223011 0.000273727 2.21005 39 35 52 
-0.208937 0.284271 2.16789 105 111 137 
-0.094265 0.478417 1.7223 122 126 163 
-0.158899 -0.23394 1.96186 80 80 108 
-0.146443 -0.121065 1.92233 65 62 73 
-0.233818 -0.00061344 2.29578 15 22 38 
-0.222757 -0.0407712 2.257 86 81 104 
-0.221886 -0.00470101 2.26217 25 37 49 
-0.131283 -0.172869 1.91738 75 71 94 
-0.119772 -0.233681 1.9208 12 17 36 
-0.0709729 0.483568 1.74958 137 138 168 
-0.135547 -0.433926 2.00529 95 100 132 
-0.0991482 -0.127199 1.88085 67 65 79 
-0.10583 -0.227809 1.91999 36 36 48 
-0.022036 0.459079 1.56072 137 144 186 
-0.0670808 0.447014 1.78654 153 150 169 
-0.0757959 -0.131679 1.87168 32 31 36 
-0.0485534 0.490174 1.77812 59 64 96 
-0.0781433 -0.0349016 1.90447 115 124 157 
-0.0705686 -0.142181 1.8622 85 88 97 
-0.0717288 -0.186509 1.8968 125 121 144 
-0.0631552 0.282956 1.89548 48 52 63 
-0.0532599 -0.15037 1.88243 41 40 48 
-0.0523832 -0.126378 1.881 125 121 136 
-0.0326933 0.467319 1.81064 110 108 132 
-0.0520987 -0.199131 1.88535 54 51 70 
-0.0501121 0.264989 1.91957 129 127 148 
-0.048237 -0.158636 1.91762 120 106 131 
-0.0432803 -0.192318 1.89537 127 112 131 
-0.0437325 -0.208386 1.91051 123 108 127 
-0.0427017 -0.0626938 1.91944 58 50 74 
-0.0433862 -0.277557 1.92295 71 62 81 
-0.0185663 0.431517 1.82458 234 237 254 
-0.0362506 -0.289084 1.9084 64 55 74 
-0.0349943 -0.12444 1.92331 25 24 29 
-0.0303037 -0.118119 1.91134 28 29 34 
-0.0325621 -0.152511 1.93188 135 123 145 
-0.0344463 -0.177061 1.94577 164 161 182 
-0.0101479 0.470783 1.8509 38 34 84 
-0.012386 0.421611 1.86326 58 59 123 
-0.03193 -0.203249 1.94728 164 160 183 
-0.00629465 0.435277 1.85198 118 104 140 
-0.0993802 0.151381 2.41381 34 47 82 
-0.00750501 0.487989 1.86782 96 79 98 
-0.0293361 -0.340609 1.95142 20 20 22 
-0.100199 0.117133 2.42205 33 42 71 
-0.0228123 -0.0815597 1.9315 131 123 147 
-0.0943476 0.158988 2.40437 13 20 39 
-0.00462387 0.458608 1.86203 161 153 174 
-0.0947682 0.108118 2.40956 16 20 47 
-0.0126194 0.298799 1.91089 25 32 61 
-0.0222866 -0.323191 1.94849 123 110 128 
-0.0871286 0.202881 2.40552 20 24 36 
-0.0102221 -0.0599872 1.89742 121 116 138 
0.00471474 0.309286 1.84447 113 107 119 
-0.0851966 0.151853 2.42943 153 171 245 
0.00150243 0.337057 1.87751 119 121 116 
-0.084011 0.11852 2.42528 151 169 241 
0.0265617 0.484037 1.74225 73 72 104 
-0.0707251 0.366423 2.40661 59 83 107 
-0.00669487 -0.11903 1.94842 27 26 32 
-0.00287081 0.328468 1.95435 16 24 45 
-0.0721406 0.112738 2.44275 4 17 59 
-0.00636088 -0.439321 2.00386 169 174 204 
0.00552522 -0.41976 1.99045 68 69 74 
0.07567 0.46741 1.5992 75 72 115 
0.033637 -0.405504 2.03796 71 67 81 
0.00947297 0.407929 2.43034 34 34 44 
0.106726 0.465817 1.57463 145 148 181 
0.0227855 0.342427 2.46965 77 77 101 
0.0254993 0.363155 2.4648 78 83 105 
0.109747 0.478514 1.67522 61 68 97 
0.0385969 0.414985 2.46219 32 34 47 
0.0530191 0.300458 2.51506 81 86 116 
0.0750444 0.256786 2.50828 51 48 67 
0.108094 0.486123 2.07826 158 167 196 
0.0741394 0.225589 2.52531 50 47 64 
0.0736088 0.139236 2.54218 43 40 51 
0.126613 0.505325 2.02507 97 103 135 
0.117907 -0.437837 2.12771 119 105 120 
0.116889 0.285384 2.37979 20 28 47 
0.121696 0.430463 2.32527 96 107 137 
0.163435 0.474354 1.63272 71 76 108 
0.126503 -0.524473 2.16209 57 48 69 
0.129066 -0.43988 2.13628 93 90 107 
0.129829 0.433285 2.37321 28 35 63 
0.16815 0.471873 1.6127 133 138 170 
0.130775 0.288483 2.39274 13 22 39 
0.135823 0.194756 2.54063 84 90 114 
0.14657 -0.42306 2.177 56 40 66 
0.196361 0.468234 1.56236 75 74 118 
0.185272 -0.481409 2.22395 39 26 43 
0.209809 0.477346 1.63627 75 75 109 
0.194281 -0.502204 2.21982 108 96 120 
0.240391 0.545178 2.14922 136 136 164 
0.240952 0.548656 2.17656 84 98 107 
0.237668 -0.391369 2.267 70 54 80 
0.265826 0.496071 2.22451 106 121 154 
0.25894 -0.532045 2.29587 126 121 144 
0.291596 0.538743 2.11803 128 135 164 
0.29722 0.532245 2.08762 127 126 157 
0.307292 0.522725 2.25185 48 54 76 
0.312225 0.212299 2.4278 99 106 132 
0.287708 0.485544 1.70798 77 80 113 
0.316152 0.524421 2.21432 148 164 197 
0.329589 0.378282 2.30691 14 22 45 
0.300704 0.487908 1.71795 82 88 114 
0.335632 0.528656 2.27179 43 49 73 
0.336668 0.125913 2.37166 81 83 104 
0.331714 0.548177 2.18017 70 69 103 
0.317737 0.514634 1.91534 77 81 118 
0.344538 -0.0988644 2.36863 78 79 99 
0.341464 -0.111335 2.32002 59 58 72 
0.340035 -0.108741 2.2773 57 54 71 
0.342708 -0.613831 2.42052 144 149 191 
0.34263 -0.371506 2.36342 169 176 205 
0.357717 0.178335 2.39194 52 45 63 
0.354782 0.552324 2.26118 115 128 160 
0.3518 -0.193331 2.36374 124 114 139 
0.355636 -0.161821 2.36162 133 129 152 
0.363797 0.119883 2.34684 51 47 62 
0.36883 0.539543 2.25861 57 57 69 
0.368055 -0.380322 2.41406 131 140 173 
0.369285 -0.155492 2.38037 62 51 81 
0.372481 0.200316 2.33294 56 52 67 
0.374279 0.21862 2.33512 57 54 73 
0.377781 -0.162299 2.39576 113 106 137 
0.324705 0.47554 1.62565 79 83 118 
0.380954 -0.124641 2.38266 121 117 140 
0.372614 0.54205 2.16705 87 88 118 
0.389465 0.121857 2.36799 143 143 169 
0.386883 0.556654 2.25901 62 80 100 
0.392024 0.535268 2.27982 69 67 91 
0.395482 0.0292313 2.38633 27 30 35 
0.396361 0.518536 2.30553 144 146 167 
0.395994 -0.29152 2.42702 145 151 187 
0.398646 -0.149161 2.4159 47 47 59 
0.396727 0.557976 2.26924 128 133 162 
0.398248 -0.0735027 2.38001 25 24 32 
0.395485 0.555663 2.24235 66 78 92 
0.40424 0.507522 2.29649 68 70 93 
0.342506 0.482574 1.65816 60 62 100 
0.411614 0.324667 2.35853 130 133 164 
0.412868 -0.209793 2.43102 180 193 228 
0.418541 -0.167834 2.4208 174 180 212 
0.41869 0.5589 2.26855 72 67 107 
0.429773 0.449509 2.32981 100 102 127 
0.439018 0.518791 2.3315 89 101 127 
0.445026 0.0767175 2.42524 175 185 220 
0.451534 0.209979 2.42225 178 192 229 
0.454208 0.0581203 2.4329 179 191 231 
0.377149 0.48796 1.71413 59 65 99 
0.457938 -0.0730866 2.45061 170 179 218 
0.458328 0.562955 2.36372 52 58 80 
0.467859 -0.402094 2.52631 148 152 189 
0.459464 0.565732 2.30986 71 75 112 
0.470148 0.33081 2.41795 69 82 127 
0.484724 0.558515 2.38347 97 99 122 
0.475128 0.564987 2.30929 76 76 112 
0.494146 0.30841 2.45563 173 186 218 
0.494522 0.387111 2.44235 65 77 103 
0.49386 0.464532 2.40674 43 48 70 
0.501263 0.563716 2.41406 112 114 137 
0.523049 0.401642 2.46388 112 117 137 
0.541918 0.391369 2.51538 173 186 220 
0.522415 0.573586 2.36856 134 139 171 
0.53322 0.558354 2.42392 103 107 134 
0.535706 0.568668 2.43681 62 57 87 
0.434656 0.498066 1.77932 75 79 114 
0.451761 0.50747 1.88286 67 66 100 
0.536895 0.569203 2.33413 77 81 108 
0.570125 0.058482 2.57456 126 133 175 
0.567542 0.522523 2.47824 38 44 70 
0.576539 0.412384 2.51271 69 77 79 
0.579376 0.570483 2.47964 32 39 55 
0.605518 0.292901 2.63853 166 177 209 
0.585056 0.508722 2.49796 40 48 69 
0.582725 0.559539 2.46469 85 100 123 
0.607735 0.310259 2.60417 152 162 198 
0.60021 0.559923 2.53851 94 106 132 
0.609902 0.257448 2.61097 151 161 196 
0.60989 -0.0886374 2.63695 83 97 123 
0.594387 0.413381 2.47973 18 28 55 
0.620188 0.152803 2.61758 83 91 128 
0.612935 0.544889 2.507 30 37 56 
0.626715 0.372487 2.58953 172 181 222 
0.612679 0.489211 2.49905 16 29 61 
0.611098 0.56195 2.48216 27 37 64 
0.641459 -0.196085 2.66738 121 123 146 
0.633759 0.306882 2.58259 121 120 151 
0.625902 0.546596 2.51408 35 40 69 
0.634991 0.500359 2.56078 46 57 89 
0.514796 0.512939 1.91413 138 138 172 
0.646258 0.550083 2.57572 31 38 57 
0.664327 -0.230555 2.7098 168 166 190 
0.659062 0.413214 2.62072 137 135 159 
0.666879 0.207676 2.66149 85 70 99 
0.681026 0.349543 2.6873 156 158 181 
0.662966 0.510646 2.58498 111 111 139 
0.683206 -0.0642951 2.72606 113 108 130 
0.691143 -0.291437 2.76754 132 122 147 
0.691876 -0.41589 2.76781 52 59 77 
0.760311 -0.112183 3.07501 62 60 81 
0.694567 0.415491 2.67332 138 127 143 
0.799 -0.133452 3.2078 27 27 39 
0.707531 -0.318921 2.78422 63 53 78 
0.80275 -0.0346606 3.19996 37 32 54 
0.800697 -0.043158 3.18985 52 44 68 
0.680233 0.508385 2.56822 44 56 80 
0.783917 -0.312336 3.08809 115 106 135 
0.814564 -0.125715 3.21411 109 106 135 
0.722526 -0.348856 2.80143 56 48 72 
0.685567 0.545001 2.53942 35 42 61 
0.732941 -0.393792 2.82589 97 82 115 
0.829489 -0.0699051 3.22191 56 60 95 
0.833728 -0.164005 3.24656 103 103 127 
0.714504 0.500174 2.62551 134 149 182 
0.716459 0.346714 2.6351 89 114 155 
0.843658 -0.0701081 3.22582 115 106 135 
0.863536 -0.0954728 3.31072 49 48 66 
0.800258 -0.346623 3.04647 115 112 133 
0.849284 -0.0336466 3.23259 124 122 143 
0.54437 0.506216 1.84079 78 88 113 
0.762014 -0.402414 2.86081 49 42 58 
0.770369 -0.400235 2.88667 153 148 171 
0.86852 -0.0160305 3.27917 106 106 130 
0.690003 0.56077 2.4573 20 25 44 
0.725459 0.490788 2.60074 135 149 188 
0.817743 -0.353197 3.06104 108 103 123 
0.794702 -0.40101 2.96322 82 77 109 
0.776066 -0.410129 2.87151 149 147 169 
0.777472 -0.403182 2.85571 134 125 154 
0.828582 -0.358689 3.06905 112 109 130 
0.529296 0.492462 1.71295 91 95 130 
0.801454 -0.464147 2.91809 76 66 93 
0.824665 -0.421274 3.00727 47 45 66 
0.835946 -0.361688 3.05052 91 85 113 
0.84922 -0.361332 3.09506 114 110 133 
0.590213 0.519878 1.93846 72 78 114 
0.603232 0.523278 1.98288 87 87 125 
0.535977 0.492238 1.7034 71 73 112 
0.817251 -0.509831 2.92038 49 57 76 
0.86755 -0.360687 3.1136 94 89 111 
0.830213 -0.45611 2.94914 40 33 51 
0.87641 -0.356527 3.12642 87 83 100 
0.91059 -0.264464 3.2554 33 32 40 
0.8407 -0.506396 2.97818 155 162 190 
0.87924 -0.426065 3.11217 117 114 145 
0.849667 -0.459068 2.9815 96 92 115 
0.728243 0.559126 2.42672 43 52 85 
0.943777 -0.0362348 3.31763 48 44 67 
0.847845 -0.821415 2.9811 113 120 148 
0.857861 -0.733719 2.99517 89 100 132 
0.715139 0.585368 2.34639 124 128 165 
0.851521 -0.532618 2.95299 134 144 171 
0.596592 0.512848 1.87857 70 75 113 
0.54325 0.486227 1.67101 140 149 182 
0.731474 0.575917 2.39418 47 55 78 
0.859164 -0.528634 2.96509 41 53 79 
0.863551 -0.574831 2.98418 137 137 163 
0.953081 0.237587 3.27122 101 98 117 
0.8667 -0.544856 2.97688 163 177 203 
0.879699 -0.623315 3.02516 41 47 71 
0.878452 -0.498921 3.00849 82 68 101 
0.86997 -0.525894 2.9777 87 107 131 
0.879207 -0.593802 3.01502 142 157 180 
0.882219 -0.475112 3.01464 31 28 45 
0.960357 0.425615 3.24363 33 25 38 
0.898257 -0.71708 3.07485 113 118 156 
0.896855 -0.468243 3.0371 117 120 137 
0.892021 -0.525231 3.01282 31 31 43 
0.79666 0.534682 2.58134 82 92 127 
0.899423 -0.575449 3.03686 33 33 61 
0.984019 0.220945 3.28693 55 50 70 
0.899691 -0.556459 3.01713 138 154 180 
0.908599 -0.47886 3.04457 36 32 47 
0.579111 0.497426 1.75216 80 88 127 
0.984946 0.281641 3.26706 104 108 135 
0.985004 0.319397 3.26252 83 80 99 
0.984438 0.38705 3.25046 93 93 119 
0.928993 -0.823439 3.11586 130 135 157 
0.937039 -0.826131 3.1231 83 94 124 
0.941185 -0.462085 3.10808 34 33 41 
0.941693 -0.760588 3.12494 45 50 70 
0.941212 -0.813084 3.12356 80 81 111 
0.963565 -0.400617 3.16792 100 96 121 
1.00575 -0.137305 3.29275 99 93 121 
0.953197 -0.647847 3.09919 93 97 134 
0.843707 0.547923 2.63288 71 84 116 
1.00838 -0.277763 3.26131 77 69 90 
0.568659 0.487001 1.65204 71 79 118 
0.962355 -0.475377 3.10782 42 33 50 
1.00888 0.52925 3.19462 50 48 69 
0.994386 -0.790527 3.21001 59 59 87 
0.97099 -0.593629 3.10884 143 149 181 
1.03156 0.375467 3.2559 63 53 77 
1.03279 0.39709 3.25576 56 44 68 
0.984788 -0.499999 3.12903 148 148 182 
0.649627 0.516103 1.90299 80 79 119 
1.03142 0.0242988 3.24925 28 26 37 
0.738604 0.553974 2.19652 70 91 94 
1.04402 0.414672 3.25414 85 86 106 
1.04484 0.37048 3.25942 95 92 111 
0.997719 -0.601683 3.14959 57 59 97 
1.02586 -0.611664 3.19632 148 159 187 
1.0204 -0.475982 3.16328 80 65 96 
1.06923 0.44256 3.22536 48 36 50 
0.792043 0.283296 2.24197 26 28 43 
0.641175 0.496495 1.72367 60 64 99 
0.646727 0.496537 1.73694 131 144 179 
0.638063 0.492558 1.67607 68 71 106 
-0.485615 0.246172 1.75384 89 120 213 
-0.453421 0.220963 1.7941 165 187 228 
-0.448516 0.199435 1.81276 69 69 79 
-0.422048 0.183021 1.76179 162 182 235 
-0.421813 0.245963 1.81614 20 28 47 
-0.416386 0.220879 1.82396 33 50 78 
-0.318154 0.355664 1.95108 25 27 40 
-0.277727 0.0735879 2.08444 154 159 189 
-0.264554 0.00168189 2.10805 143 149 181 
-0.016503 -0.184528 1.95174 63 62 94 
0.022655 0.342777 2.47099 77 77 101 
0.0256685 0.362803 2.46295 78 83 105 
0.129679 -0.437057 2.1253 93 90 107 
0.302419 -0.331151 2.32955 123 117 143 
0.314443 0.440553 2.34163 42 43 61 
0.348709 -0.217148 2.3676 88 79 108 
0.354958 0.53385 2.29184 31 32 50 
0.353195 0.385269 2.27618 60 74 109 
0.375003 0.0820759 2.35611 44 40 55 
0.374416 0.00550801 2.35995 49 39 48 
0.38818 -0.604937 2.46847 146 147 191 
0.39061 0.472255 2.28928 124 128 155 
0.396516 0.481448 2.29527 120 125 145 
0.41696 0.453786 2.32146 105 107 130 
0.421976 0.136283 2.40484 117 111 137 
0.442873 0.21833 2.41103 171 184 219 
0.450255 0.388819 2.3932 124 133 132 
0.457049 0.522133 2.35859 37 43 65 
0.491561 0.35252 2.44569 148 153 191 
0.491367 0.39505 2.43801 118 126 128 
0.58455 0.492382 2.50213 29 36 55 
0.603767 -0.00298503 2.64444 158 170 208 
0.713163 -0.333591 2.79655 72 61 95 
0.828137 -0.0397912 3.22381 53 47 73 
0.850497 -0.0187535 3.26315 99 96 123 
0.817319 -0.745247 2.97371 146 159 201 
0.939748 -0.0871171 3.32156 45 41 58 
0.935526 0.424913 3.24339 41 37 51 
0.867205 -0.487265 2.924 115 108 139 
0.928767 -0.780732 3.1105 79 83 110 
0.929247 -0.797128 3.11264 87 84 105 
1.09058 0.102317 3.55992 117 132 165 
1.00961 0.529805 3.1972 50 48 69 
1.03366 -0.234521 3.28394 71 67 90 
1.0363 -0.39279 3.20617 104 99 129 
1.03915 -0.414295 3.20582 42 39 48 
1.03468 -0.765587 3.20713 33 31 53 
1.06917 0.424644 3.23944 45 34 51 
1.0527 -0.617729 3.20665 90 88 110 
1.09481 0.172352 3.29403 62 53 74 
1.09356 0.261746 3.28016 65 53 75 
1.05014 -0.498455 3.18182 97 114 134 
1.06506 -0.420759 3.21157 37 32 54 
1.06603 -0.490724 3.19109 23 29 45 
1.10698 -0.223654 3.29847 99 91 115 
1.1527 0.0875187 3.30685 47 38 59 
-0.0455346 -0.125341 1.88904 28 27 33 
-0.0142895 0.279487 1.89024 73 78 98 
-0.00520396 -0.200906 1.96397 31 28 39 
0.281097 -0.309693 2.33032 31 29 40 
0.288825 -0.317632 2.32579 41 39 50 
0.548805 0.395973 2.50232 63 74 102 
0.597152 -0.0431357 2.63201 138 152 187 
0.583666 0.419394 2.55142 66 67 69 
0.703667 -0.474326 2.8026 162 168 200 
0.879023 -0.0628513 3.26368 119 121 142 
1.00897 -0.109597 3.302 85 81 108 
1.01973 -0.0618995 3.30949 74 70 93 
1.02325 0.0415174 3.28378 88 83 106 
0.986788 -0.445887 3.14908 42 40 53 
1.01646 0.42445 3.24434 44 37 53 
1.02117 0.433258 3.22895 91 78 96 
1.02391 0.467479 3.21642 93 75 97 
1.0156 -0.527917 3.14983 145 161 186 
1.07171 -0.294492 3.26511 101 102 132 
1.05822 0.524192 3.21137 42 40 53 
1.10155 0.0241082 3.29283 25 23 34 
1.07719 0.432801 3.2197 93 78 99 
1.08367 -0.478625 3.22236 34 34 46 
1.08321 -0.405386 3.21906 103 99 122 
1.09948 -0.524652 3.22683 160 169 202 
1.13596 0.0192209 3.29699 27 26 34 
0.864901 0.579799 2.49166 71 80 111 
1.15075 -0.280333 3.30052 40 36 51 
1.14878 0.00632467 3.28012 115 111 136 
1.111 0.537133 3.17011 121 133 173 
1.16318 -0.244162 3.30625 43 41 54 
1.14256 0.440696 3.23525 91 77 103 
1.17606 -0.207891 3.31919 45 38 54 
1.15917 0.315104 3.27097 47 39 52 
1.18245 0.127476 3.30091 99 90 111 
1.18151 0.221195 3.28707 100 98 119 
1.20573 -0.160374 3.33626 29 25 42 
1.18043 0.35739 3.26472 93 100 119 
1.17992 0.377722 3.26217 93 98 118 
1.19609 0.209245 3.29426 43 36 52 
1.18313 0.435004 3.2429 67 66 84 
1.18286 0.452838 3.24014 73 64 81 
1.20885 0.125881 3.30825 83 78 100 
1.17277 0.559948 3.17262 125 141 175 
1.00989 0.603828 2.71119 131 144 186 
-0.492965 0.0283422 1.84495 92 105 139 
-0.458334 0.401387 1.80483 40 41 61 
-0.451805 0.24681 1.79647 143 145 168 
-0.383513 0.370206 1.89267 43 44 65 
-0.376819 0.485313 1.88699 79 87 110 
-0.303555 0.337141 1.96027 141 154 196 
-0.315204 0.194233 1.9949 148 173 213 
-0.312461 0.266144 1.98899 103 118 157 
-0.312368 0.0905281 2.01751 94 110 146 
-0.283136 -0.0457179 2.09003 94 100 132 
-0.256325 0.18205 2.08526 106 96 121 
-0.0769149 0.267984 1.81939 99 98 114 
-0.0438246 0.482085 1.76464 125 123 160 
-0.0681725 -0.0745163 1.87809 73 63 88 
-0.0652199 -0.251593 1.89019 121 103 127 
-0.0575342 -0.0874532 1.87389 127 117 142 
-0.0529724 -0.064222 1.89742 64 56 79 
-0.0318049 0.397387 1.82138 135 141 163 
-0.0452983 0.238938 1.89778 159 174 203 
-0.0447152 -0.180875 1.89016 130 116 133 
-0.0333635 0.280075 1.86444 39 41 54 
-0.0393796 -0.0531098 1.92003 62 55 71 
-0.0382874 -0.243088 1.90812 129 116 133 
-0.0347389 -0.215006 1.90665 79 69 94 
-0.0294199 -0.0625152 1.9235 71 66 89 
-0.0295305 -0.28837 1.92425 129 110 129 
-0.0273434 -0.170249 1.93263 163 165 186 
-0.0165965 -0.215743 1.95437 143 129 152 
-0.0139501 -0.231793 1.95831 160 148 172 
-0.0115864 -0.247016 1.96382 155 139 165 
-0.0704889 0.160583 2.42961 14 22 59 
-0.0037322 -0.278479 1.97717 154 140 163 
0.0152447 0.51169 2.1999 136 147 179 
0.00617859 0.414727 2.46178 34 34 44 
0.0758806 0.489125 1.9547 159 170 202 
0.0402818 0.41241 2.44311 32 34 47 
0.109651 0.498614 2.06727 159 166 195 
0.103795 -0.0133231 2.3451 69 71 84 
0.130598 0.496827 2.09086 163 170 196 
0.145366 0.517492 2.00277 86 104 106 
0.203092 0.528652 2.09463 143 157 186 
0.204151 0.517614 2.09649 89 96 124 
0.222485 0.303407 2.46409 45 51 77 
0.215367 -0.403569 2.23933 68 56 80 
0.247258 0.280734 2.42688 85 91 117 
0.26237 0.519796 2.16196 156 169 201 
0.25578 -0.358783 2.29564 43 40 49 
0.291112 0.523394 2.19405 151 165 194 
0.285668 -0.323655 2.31408 54 48 62 
0.312479 0.188979 2.40015 59 57 78 
0.309807 -0.154754 2.39561 34 32 43 
0.306658 -0.338267 2.33115 133 135 158 
0.312617 -0.305273 2.33685 87 72 101 
0.319301 -0.141526 2.38893 76 79 98 
0.333085 -0.263068 2.35353 83 68 99 
0.337053 -0.241476 2.35659 131 123 147 
0.34553 0.099654 2.38158 80 79 95 
0.352926 -0.200603 2.36733 93 82 114 
0.360071 -0.0808876 2.36143 113 100 126 
0.360087 -0.109883 2.36325 136 127 148 
0.364554 0.120279 2.35572 51 47 62 
0.372391 -0.081409 2.37098 54 41 67 
0.374634 0.459704 2.28065 43 43 55 
0.386143 0.495485 2.27632 64 59 82 
0.394169 0.549004 2.28251 103 108 130 
0.405806 -0.105522 2.39228 115 117 138 
0.413303 0.428025 2.31788 59 64 86 
0.420733 0.16156 2.39493 120 111 138 
0.429199 0.0100222 2.4094 94 89 112 
0.438326 0.551109 2.33146 49 55 77 
0.443364 0.516078 2.34018 44 54 79 
0.463238 -0.171245 2.48428 136 144 183 
0.498832 0.559071 2.39697 112 114 137 
0.586695 0.402334 2.54462 64 77 109 
0.59549 0.0807449 2.6052 166 170 207 
0.596438 0.287256 2.58693 166 177 209 
0.604353 0.0327472 2.61328 159 172 207 
0.619061 0.00841979 2.63784 82 95 130 
0.620046 0.169048 2.6165 123 132 173 
0.607951 0.405852 2.49969 83 108 149 
0.641098 -0.117135 2.65563 59 64 93 
0.644658 -0.177256 2.66571 68 72 107 
0.657678 -0.438826 2.74257 138 148 184 
0.658224 -0.386728 2.73659 165 176 221 
0.663015 0.335024 2.66401 38 36 47 
0.646937 0.528448 2.5653 37 42 62 
0.663418 0.510997 2.58716 111 111 139 
0.672019 0.432258 2.62446 61 57 80 
0.816736 -0.126277 3.22492 109 106 135 
0.731011 -0.490481 2.83317 70 81 113 
0.834728 -0.0401456 3.22794 104 101 128 
0.842551 -0.0304897 3.25378 33 31 44 
0.753442 -0.436176 2.84849 133 124 155 
0.762855 -0.412479 2.86197 122 112 137 
0.777606 -0.433746 2.87706 128 118 143 
0.901522 -0.148887 3.30607 44 36 49 
0.828706 -0.410129 2.99274 128 125 152 
0.839256 -0.470622 2.95938 82 68 103 
0.703537 0.572485 2.33872 40 59 74 
0.934733 0.202064 3.2826 97 92 114 
0.936565 0.425463 3.24746 41 37 51 
0.864108 -0.489437 2.98692 125 121 148 
0.963407 0.426839 3.25516 33 25 38 
0.896445 -0.511769 3.03643 115 108 139 
0.765469 0.54467 2.45328 79 92 127 
0.986632 0.241069 3.27769 84 81 102 
0.986191 0.282125 3.27174 104 108 135 
0.986594 0.420745 3.24756 78 70 85 
0.982254 0.512398 3.22552 34 31 42 
0.933783 -0.501997 3.06449 83 73 107 
0.96316 -0.498797 3.09875 84 83 115 
1.046 0.0664957 3.30894 90 87 108 
0.984817 -0.519881 3.12394 30 30 42 
0.991582 -0.487488 3.12867 82 75 106 
0.802544 0.584256 2.41245 69 86 102 
1.05689 0.0827812 3.30389 27 27 39 
1.01066 -0.431004 3.1687 42 34 47 
0.852807 0.567577 2.56756 75 86 118 
1.05562 0.522172 3.19867 49 47 61 
1.03813 -0.438652 3.18187 35 31 48 
1.03829 -0.548413 3.18838 64 56 80 
1.07669 0.369811 3.25681 111 125 154 
1.07362 -0.296102 3.27405 102 107 137 
1.09278 0.156503 3.29045 61 47 72 
1.06202 -0.394759 3.22 42 36 48 
1.09165 0.282803 3.2711 59 50 71 
1.07695 0.453054 3.20949 102 88 113 
1.08801 0.00647376 3.26927 109 102 133 
1.05832 -0.426744 3.19357 117 111 137 
1.11107 -0.00953017 3.30851 35 34 50 
1.07891 0.528277 3.17016 39 49 85 
1.08883 -0.372187 3.24051 39 37 51 
1.11469 0.404715 3.26042 25 24 40 
0.959886 0.562686 2.75677 87 102 131 
1.09819 -0.414527 3.24047 71 65 99 
1.12206 0.527249 3.21693 50 48 62 
0.961308 0.354419 2.72227 45 34 50 
1.14668 -0.163548 3.31865 57 53 70 
1.10741 0.534231 3.15466 129 141 181 
1.13705 0.0252268 3.267 88 86 107 
1.13668 -0.37179 3.27899 124 116 140 
0.918764 0.604425 2.54772 136 143 171 
1.14782 0.41633 3.25288 51 45 71 
1.14984 0.383708 3.26069 62 57 87 
1.14936 0.336856 3.25942 60 58 80 
1.15636 -0.00566789 3.29932 55 47 68 
1.15773 0.2203 3.28488 85 88 103 
1.15125 0.426436 3.24473 32 24 37 
1.14367 0.49443 3.21761 109 103 131 
1.16064 -0.288817 3.29618 96 92 117 
1.18208 -0.240585 3.32147 32 29 46 
1.17297 0.426787 3.25068 24 24 32 
1.187 -0.193218 3.32575 96 90 116 
1.18296 0.00518282 3.2899 120 117 138 
1.18045 0.414329 3.25429 80 81 111 
1.19668 -0.154243 3.33295 96 90 116 
1.1944 0.092306 3.30576 54 43 59 
1.20145 0.000271158 3.32195 62 49 75 
1.20149 -0.255709 3.33272 130 132 157 
1.19057 0.427897 3.24685 21 19 32 
1.21145 0.0279355 3.31596 29 27 40 
1.20788 0.24259 3.28726 92 90 111 
1.21176 0.147738 3.29989 36 32 46 
1.21863 0.0418832 3.32087 30 26 41 
1.24664 -0.597596 3.43183 133 134 180 
0.729622 0.498953 1.74176 136 140 165 
-0.472748 0.190493 1.83713 163 182 238 
-0.383645 0.455583 1.84315 35 32 51 
-0.0873601 0.474767 1.76399 37 39 51 
-0.0733187 0.203314 1.91506 156 166 202 
-0.0344909 -0.267365 1.91623 142 127 146 
-0.005641 -0.113668 1.84992 27 28 30 
-0.0390169 0.247411 1.90207 120 121 142 
-0.00264233 0.479856 1.8397 96 77 97 
-0.0860471 0.211765 2.40774 129 131 130 
0.243246 -0.358024 2.28974 44 37 44 
0.265768 0.502503 2.25118 110 125 156 
0.349764 -0.125008 2.36393 62 57 77 
0.374442 0.219024 2.33886 63 59 74 
0.397318 -0.147798 2.39263 52 50 61 
0.389489 0.0720736 2.3645 144 146 171 
0.426789 -0.072079 2.41895 27 31 40 
0.445313 0.0766572 2.42928 177 187 222 
0.521426 -0.353873 2.58129 145 152 194 
0.521903 0.4758 2.43624 44 49 69 
0.531851 0.488076 1.68421 140 145 185 
0.563344 -0.0239924 2.58178 135 140 178 
0.580142 -0.184564 2.59491 179 189 224 
0.584314 -0.0997877 2.61179 86 90 128 
0.59469 -0.150262 2.63322 117 129 155 
0.605068 -0.227085 2.67257 149 159 195 
0.615887 -0.307124 2.66887 166 170 205 
0.614278 -0.158884 2.64241 47 53 69 
0.597879 0.510361 2.51225 96 100 125 
0.634652 0.306912 2.58827 113 118 148 
0.671529 -0.00561543 2.72723 137 129 152 
0.658114 0.320902 2.61743 132 143 173 
0.695279 -0.338295 2.75691 128 115 145 
0.698833 -0.334401 2.77588 147 143 168 
0.676153 0.521555 2.59536 34 40 52 
0.73842 -0.396683 2.82916 149 144 166 
0.757293 0.175137 3.11592 63 64 121 
0.78126 -0.0451691 3.17654 114 115 143 
0.792201 -0.273681 3.09516 57 47 58 
0.711149 0.510154 2.5728 45 55 80 
0.800776 -0.134114 3.21606 27 27 39 
0.800415 -0.0814443 3.20396 26 28 43 
0.790336 -0.380279 2.96241 130 124 152 
0.792595 -0.443139 2.91809 74 64 99 
0.718777 0.522705 2.56776 50 57 86 
0.810861 -0.0373868 3.20826 101 104 123 
0.813045 -0.0629245 3.20835 128 125 152 
0.692531 0.556194 2.2381 121 122 153 
0.730115 0.530376 2.49676 120 134 171 
0.843576 -0.030743 3.2627 34 31 42 
0.836587 -0.356474 3.07979 105 102 119 
0.717076 0.558246 2.3256 46 53 72 
0.873624 -0.0315205 3.27093 52 47 70 
0.781305 0.48948 2.68241 132 141 184 
0.871061 -0.527406 2.98338 91 111 135 
0.746939 0.575388 2.35274 58 83 80 
0.889547 -0.357909 3.1388 88 89 109 
0.941014 -0.390632 3.38003 93 88 108 
0.896407 -0.480024 3.03147 113 103 128 
0.910849 -0.542945 3.02431 132 149 179 
0.941107 -0.287168 3.24459 29 25 39 
0.943881 -0.03627 3.31792 49 44 67 
0.945343 -0.256362 3.2528 103 96 127 
0.930189 -0.528515 3.05665 29 32 39 
0.942579 0.224711 3.28161 46 39 57 
0.942455 0.247512 3.27919 55 45 70 
0.942713 0.27082 3.27775 55 47 71 
0.941544 0.293621 3.27124 53 45 69 
0.941705 0.341559 3.2654 56 44 66 
0.820655 0.555958 2.52133 73 84 116 
0.961534 0.188207 3.30093 105 100 123 
0.955118 -0.535009 3.07552 157 169 195 
0.951929 0.390544 3.2583 101 96 126 
0.964319 -0.543178 3.08201 159 176 206 
0.964567 0.427985 3.26214 33 25 40 
1.00439 -0.275948 3.24441 72 64 88 
0.987821 0.42168 3.25458 78 69 86 
1.01334 -0.453708 3.15531 39 35 52 
1.01878 0.0240868 3.26325 76 74 95 
1.02405 0.0415679 3.28822 97 93 118 
1.03087 0.0826406 3.30671 39 34 56 
1.03772 -0.00630751 3.30115 51 41 65 
1.04486 0.0240381 3.30283 30 28 42 
1.03008 0.37439 3.2499 58 48 72 
1.02437 0.46731 3.21897 102 86 112 
1.04619 0.254544 3.28017 82 79 100 
1.04665 0.434426 3.24269 82 69 87 
1.03786 0.529675 3.21403 53 48 68 
-0.456819 0.186412 1.79746 146 162 221 
-0.463678 0.214968 1.80445 177 193 219 
-0.497937 0.204937 1.86431 63 63 63 
-0.453529 0.449134 1.81852 83 92 123 
-0.477871 -0.299573 1.93657 118 127 160 
-0.456391 0.0664553 1.87804 100 110 145 
-0.424885 0.203099 1.82902 212 223 255 
-0.422118 0.22162 1.83019 31 46 75 
-0.449281 0.118181 1.88438 114 101 131 
-0.428708 0.225657 1.88191 158 179 236 
-0.409852 0.461245 1.84837 45 42 59 
-0.406254 0.482134 1.8461 26 31 53 
-0.382796 0.299883 1.83961 134 152 190 
-0.392569 0.327575 1.86388 125 152 197 
-0.398306 0.461175 1.86104 35 32 51 
-0.394241 0.377582 1.86618 59 69 104 
-0.423019 0.339377 1.95604 51 57 55 
-0.354843 0.453815 1.906 36 37 58 
-0.326959 0.473489 1.94975 21 20 34 
-0.320303 0.375258 1.95494 31 30 48 
-0.295861 0.428772 1.93998 43 50 92 
-0.317039 0.0369748 2.02146 205 224 254 
-0.300365 0.459151 1.95356 54 70 96 
-0.315023 -0.0192713 2.0377 32 29 56 
-0.317428 -0.305111 2.0776 44 46 69 
-0.282029 0.083923 2.08379 152 159 188 
-0.275649 0.0732024 2.08137 152 159 187 
-0.277704 -0.0403636 2.10251 141 151 178 
-0.100278 0.483102 1.78574 37 39 51 
-0.117583 -0.115512 1.89961 74 72 86 
-0.0534193 0.484842 1.7361 144 149 179 
-0.0748166 0.325935 1.79894 127 128 84 
-0.0839234 -0.159103 1.88117 52 51 57 
-0.1175 -0.0379191 1.92643 31 28 35 
-0.0486099 -0.138925 1.89301 107 103 120 
-0.0130728 0.432609 1.84756 46 49 104 
0.000174639 0.456968 1.85916 167 162 184 
0.0099837 -0.284371 1.98703 169 151 173 
-0.0689954 0.384591 2.20144 122 132 159 
-0.103603 0.204646 2.39112 16 25 40 
-0.096532 0.210438 2.40185 26 33 49 
-0.0912661 0.134209 2.41798 27 33 57 
-0.0884867 0.202733 2.40232 20 26 38 
-0.0854137 0.151424 2.42389 156 174 248 
-0.078205 0.213719 2.42507 30 40 50 
0.101317 0.517443 1.97324 83 103 91 
0.0307607 0.317635 2.49391 28 27 35 
0.058115 0.392899 2.44644 21 24 39 
0.316934 0.042032 2.41982 99 106 132 
0.358082 -0.245055 2.38165 108 103 133 
0.348772 0.297996 2.35203 62 51 67 
0.365386 -0.0209015 2.36042 36 33 44 
0.37141 0.0204539 2.36329 41 40 46 
0.356275 0.533133 2.28716 32 35 52 
0.398745 -0.347448 2.4425 131 134 169 
0.436149 0.0391969 2.431 124 111 129 
0.456284 -0.367912 2.51088 146 154 193 
0.443305 0.0633527 2.4355 169 182 217 
0.430683 0.473504 2.33977 120 128 147 
0.4619 0.349898 2.41942 125 117 156 
0.473704 0.304691 2.43696 138 131 162 
0.475354 0.45922 2.38981 96 101 121 
0.510412 -0.11185 2.53647 144 152 188 
0.516087 0.533386 2.42553 57 57 83 
0.521894 0.476828 2.43992 44 49 69 
0.531469 0.411394 2.47245 45 53 64 
0.535149 0.557751 2.44096 51 52 82 
0.595697 -0.134422 2.63647 100 110 137 
0.60447 -0.224807 2.65899 149 159 195 
0.60501 -0.00223167 2.63623 150 162 202 
0.624711 -0.142277 2.64769 38 46 57 
0.610677 0.22062 2.60179 111 115 153 
0.60471 0.369747 2.57256 166 176 212 
0.639393 -0.309055 2.71028 81 93 117 
0.606625 0.449528 2.51708 99 102 121 
0.63882 0.0072919 2.66525 129 106 134 
0.637976 0.187205 2.63905 128 115 143 
0.616406 0.548668 2.49176 65 88 120 
0.652934 0.132197 2.64629 138 144 170 
0.6745 -0.244699 2.73999 103 92 126 
0.64446 0.458099 2.58197 113 120 146 
0.657344 0.350011 2.63827 149 146 167 
0.719173 -0.386486 2.81936 133 123 150 
0.738233 -0.049937 3.13166 83 85 106 
0.755281 -0.052367 3.14666 41 42 70 
0.745423 0.135297 3.11437 212 223 255 
0.750744 0.152083 3.11938 55 59 123 
0.755762 -0.512147 2.86809 77 97 124 
0.781261 -0.262712 3.19714 28 25 32 
0.783266 -0.25028 3.20067 98 99 120 
0.766577 0.152233 3.1302 26 33 52 
0.78877 -0.0784243 3.18282 122 124 145 
0.808542 -0.0746716 3.20816 119 125 149 
0.808714 -0.0447775 3.20275 104 104 128 
0.815393 -0.0643609 3.22955 128 125 152 
0.821863 -0.0423151 3.21753 108 109 130 
0.813235 -0.455114 2.91926 74 64 99 
0.847586 -0.146861 3.26369 36 36 48 
0.869213 -0.149717 3.29804 30 29 37 
0.868548 -0.317803 3.18812 112 109 136 
0.776709 0.481047 2.64433 132 141 184 
0.888118 -0.14375 3.30516 106 103 132 
0.881199 -0.450115 3.05596 128 116 140 
0.900465 -0.0283646 3.30553 53 44 71 
0.907606 0.023657 3.31512 84 87 106 
0.914517 -0.0582716 3.32397 124 120 143 
0.913679 -0.0255321 3.31919 49 41 65 
0.907976 -0.351767 3.1573 93 88 108 
0.941825 -0.537843 3.05775 84 105 134 
0.997467 -0.520903 3.12552 47 68 89 
0.999954 -0.533079 3.12399 93 103 138 
0.982579 0.512144 3.2273 35 32 41 
1.02144 -0.512965 3.14562 68 84 110 
1.07308 -0.496507 3.19629 94 111 129 
1.09483 0.197665 3.29343 65 57 80 
1.12705 -0.166313 3.3151 92 96 125 
1.14518 -0.360122 3.28274 117 115 136 
-2.23898 2.68661 22.2623 82 78 95 
-0.0716288 -0.0373588 1.88702 41 38 55 
-0.151808 0.993074 8.39186 16 27 45 
0.620341 0.230152 2.60303 36 43 61 
0.873329 -0.0697685 3.2829 32 30 51 
0.938489 -0.648066 3.08585 156 163 192 
1.15903 0.240467 3.28289 60 57 74 
1.20897 0.0829081 3.31455 82 81 97 
1.22043 -0.0377477 3.33725 40 34 48 
1.21021 0.163654 3.30467 84 81 100 
1.17685 0.538713 3.21016 63 57 71 
1.18229 0.506229 3.22153 94 90 107 
1.20943 0.324604 3.28081 79 79 103 
1.21017 0.363441 3.27624 80 85 105 
1.21145 0.347207 3.27404 32 34 47 
1.1966 0.481786 3.23375 38 36 50 
1.19705 0.502329 3.23192 42 38 55 
1.22732 0.257919 3.2944 105 97 121 
1.21814 0.379761 3.26633 80 84 109 
1.22959 0.36554 3.28136 88 94 116 
1.46476 -0.536263 3.68197 168 180 218 
1.32822 0.512149 3.31355 163 170 196 
1.34056 0.528372 3.32651 92 99 117 
1.46033 0.354481 3.5469 172 178 212 
-0.422561 0.270548 1.825 95 89 89 
-0.397715 0.257142 1.84816 121 150 206 
-0.384506 0.125864 1.95621 117 110 144 
-0.328564 0.0860949 2.00047 52 62 87 
0.00548527 -0.435955 2.00826 131 133 172 
0.0248319 -0.441367 2.03134 98 106 142 
0.0478999 -0.408876 2.04895 159 163 188 
0.0459452 -0.505379 2.06474 135 137 178 
0.15464 -0.44167 2.15477 95 86 105 
0.170675 -0.418831 2.19341 73 57 84 
0.380699 -0.605219 2.45745 153 155 194 
0.677604 0.523715 2.6059 30 38 51 
0.804327 -0.356408 3.0383 94 85 116 
0.882146 -0.101127 3.29279 104 104 128 
0.963975 0.0258575 3.31009 33 31 44 
0.915307 -0.74934 3.09269 161 168 197 
0.918869 -0.695049 3.07685 121 130 171 
0.947675 -0.754192 3.13601 147 145 169 
1.01676 -0.702904 3.1912 80 95 134 
1.12023 0.425672 3.25518 32 26 38 
1.11083 -0.371675 3.2578 35 32 51 
1.15506 0.427998 3.25619 32 24 37 
1.18317 0.0398216 3.31331 113 111 135 
1.19069 0.0104742 3.29747 105 96 125 
1.19502 0.429556 3.25972 21 19 32 
1.21611 -0.00595824 3.32939 30 26 40 
1.20827 0.286939 3.28304 99 94 117 
1.19875 0.445091 3.24348 35 33 46 
1.19277 0.549892 3.20673 38 44 60 
1.20588 0.428426 3.2508 20 22 34 
1.21933 0.240914 3.29649 34 30 47 
1.21923 0.33879 3.27281 90 94 119 
1.22503 0.353234 3.2773 79 84 106 
1.23014 0.327155 3.28832 101 105 134 
1.26626 0.356934 3.3084 244 247 252 
1.27381 0.286392 3.32013 178 187 226 
1.44789 -0.694546 3.67284 138 132 170 
1.47226 -0.870072 3.72851 189 199 234 
1.45253 -0.168662 3.60402 142 144 185 
1.4577 0.454891 3.52074 129 114 145 
1.5552 -0.54611 3.76442 83 88 107 
1.60805 -0.967448 3.86438 112 118 140 
-0.452728 0.235142 1.79804 173 199 232 
-0.477303 0.169744 1.84589 144 155 187 
-0.470731 0.114385 1.86428 119 101 127 
-0.433301 0.212616 1.81501 62 142 213 
-0.41795 0.194451 1.83858 106 128 185 
-0.415966 0.23794 1.83323 216 227 255 
-0.440834 -0.195247 1.94888 88 91 124 
-0.388008 0.185735 1.85828 45 60 91 
-0.388295 0.371658 1.8988 39 40 58 
-0.184674 0.473466 1.6746 121 125 160 
-0.334503 0.164997 1.99431 81 86 116 
-0.333877 0.228268 1.9869 92 96 125 
-0.325991 0.0579405 2.00222 68 81 113 
-0.317174 0.293238 1.98281 164 192 231 
-0.31725 0.247101 1.9894 149 177 216 
-0.316557 0.158092 2.00219 162 187 227 
-0.314358 0.0566589 2.02352 100 114 149 
-0.0775869 0.391919 1.77625 119 116 133 
-0.0657453 -0.316071 1.92232 139 124 147 
-0.0636789 -0.069426 1.89141 69 61 85 
-0.055592 -0.199303 1.89533 58 55 74 
-0.0466966 -0.169601 1.89224 134 116 132 
-0.0549674 0.2586 1.86394 126 132 156 
-0.0386835 -0.159038 1.89974 73 65 89 
-0.0374484 -0.197484 1.90637 77 70 88 
-0.0434337 -0.0893797 1.90749 88 77 107 
-0.0502273 0.236677 1.87671 164 175 205 
-0.0266103 0.281824 1.87453 51 54 71 
-0.0235254 -0.230004 1.95245 157 158 186 
-0.00638526 -0.266005 1.97723 58 47 81 
-0.0035992 -0.286106 1.98315 168 148 173 
-0.000634858 -0.294815 1.98876 167 147 172 
0.00659091 -0.309343 1.99712 154 141 161 
0.00903005 -0.32385 2.00619 152 129 155 
-0.118283 -0.14799 2.40674 63 68 87 
0.0430393 -0.368156 2.04782 61 48 74 
0.0446198 0.494008 1.92385 147 158 186 
-0.129653 0.137701 2.52146 27 33 57 
-0.0784981 0.135351 2.43029 24 35 57 
-0.0458329 0.266884 2.44975 48 79 100 
0.0762165 0.462636 2.11976 96 107 137 
0.0258797 0.42487 2.30024 89 98 131 
0.116628 0.517103 2.00229 152 158 190 
0.0678942 0.0510962 2.53918 22 20 31 
0.243679 -0.404483 2.26767 26 24 25 
0.28539 -0.0384901 2.42187 33 31 42 
0.344032 -0.384197 2.38528 134 140 174 
0.361666 -0.143958 2.37429 100 84 113 
0.377108 -0.0184209 2.3578 120 105 124 
0.404762 -0.122175 2.39669 128 133 155 
0.405551 -0.0833666 2.39149 93 91 112 
0.386132 0.547303 2.27579 57 53 78 
0.398265 0.445981 2.30397 67 73 87 
0.40117 0.549386 2.29472 44 46 59 
0.440396 -0.338443 2.48768 185 190 220 
0.417162 0.463048 2.324 106 102 125 
0.418277 0.444902 2.32606 46 52 78 
0.431384 0.118345 2.41307 160 169 200 
0.422036 0.43092 2.3329 64 68 95 
0.419123 0.544419 2.31458 62 66 95 
0.42963 0.423797 2.34462 116 124 143 
0.44033 0.484698 2.34646 48 51 70 
0.461855 0.0876725 2.45202 117 126 159 
0.481288 -0.11832 2.50581 133 141 178 
0.470809 0.332699 2.42821 63 75 115 
0.490674 0.320241 2.45347 136 138 186 
0.496893 0.451196 2.41288 46 48 69 
0.506517 0.531857 2.41594 57 63 89 
0.521956 0.534504 2.43214 57 61 88 
0.524624 0.556952 2.43163 61 59 81 
0.566139 -0.126268 2.60207 178 188 223 
0.587871 0.188133 2.58564 139 147 184 
0.586962 0.543937 2.50092 38 45 71 
0.636615 -0.299658 2.70503 81 93 115 
0.641794 -0.384203 2.72249 152 157 197 
0.605182 0.371741 2.58633 166 176 212 
0.629674 -0.0901945 2.64925 76 85 100 
0.6587 -0.388424 2.74554 167 175 221 
0.636875 0.348857 2.61463 118 99 127 
0.63346 0.481685 2.56373 40 46 70 
0.632966 0.515529 2.55771 100 105 134 
0.639065 0.50999 2.57036 112 117 146 
0.658615 0.192802 2.66292 80 61 89 
0.699259 -0.300987 2.77908 69 62 95 
0.733233 0.175858 3.09831 37 57 94 
0.739265 0.151298 3.10611 53 69 120 
0.740328 -0.393643 2.83635 77 60 96 
0.745034 0.168077 3.11083 210 223 255 
0.76677 -0.333417 2.99392 92 88 115 
0.782757 -0.354027 3.01596 89 80 109 
0.791724 -0.341677 3.03226 78 68 93 
0.793488 -0.355437 3.02593 100 91 122 
0.783778 -0.486288 2.87829 54 55 83 
0.791759 -0.492874 2.88801 64 59 81 
0.810452 -0.360006 3.04547 132 124 145 
0.816784 -0.0332513 3.22172 35 32 49 
0.813133 -0.463067 2.92708 121 117 140 
0.824023 -0.514849 2.929 41 47 61 
0.840301 -0.364065 3.08209 110 106 129 
0.857144 -0.358234 3.10634 90 89 105 
0.874942 -0.169364 3.29329 97 95 119 
0.870465 -0.0162991 3.29076 106 100 126 
0.849375 -0.526029 2.95914 35 38 53 
0.777801 0.483696 2.65402 132 141 184 
0.882496 -0.0642708 3.28994 121 126 146 
0.902961 -0.149594 3.31611 45 37 48 
0.895572 -0.35191 3.14725 77 79 92 
0.918251 -0.544356 3.03574 137 155 179 
1.01122 -0.111056 3.31401 90 85 115 
1.02115 0.0237546 3.27583 76 74 95 
0.884009 0.562821 2.59708 82 95 130 
1.03946 -0.550585 3.19414 56 53 74 
1.03718 -0.464569 3.17581 114 100 126 
1.11153 0.0169958 3.64689 30 28 42 
1.0394 -0.440308 3.18806 33 31 45 
1.04768 -0.459289 3.19155 66 56 83 
1.05825 0.0825773 3.31086 26 26 36 
1.06321 -0.395386 3.22585 42 34 47 
1.04483 0.416114 3.25927 81 83 104 
1.10281 0.0239945 3.29863 30 28 41 
0.933542 0.590281 2.57261 68 79 107 
1.12062 0.426317 3.26563 40 32 45 
1.14985 0.077898 3.30779 87 84 105 
1.11346 0.538893 3.18086 129 141 181 
1.1538 0.234056 3.29007 59 52 70 
1.17588 -0.255037 3.31122 97 91 117 
1.18269 -0.286481 3.32191 65 58 89 
1.1602 0.220935 3.29525 84 85 103 
1.15216 0.385831 3.27057 55 52 79 
1.13892 0.503875 3.2129 121 119 133 
1.05273 0.576749 2.86626 88 101 135 
1.19595 -0.12619 3.32298 60 53 71 
1.19594 0.0925965 3.31193 55 43 55 
1.23189 0.00543553 3.33501 100 101 121 
-0.464395 -0.13196 1.90215 83 77 105 
-0.439061 -0.663844 2.00552 78 80 118 
-0.41265 -0.615774 2.02959 72 78 114 
-0.350211 0.295048 1.91847 123 135 161 
0.192782 -0.569715 2.22932 34 31 40 
0.279144 -0.598696 2.34166 179 182 217 
0.865292 -0.0303993 3.22925 55 45 70 
0.943119 -0.598863 3.07985 102 115 149 
-0.46131 0.243357 1.79058 165 187 226 
-0.0529696 0.450505 1.47133 76 79 114 
-0.414349 0.204193 1.83732 204 218 255 
-0.394145 0.229155 1.83953 153 170 226 
-0.393536 0.478037 1.83178 32 34 59 
-0.453068 -0.232763 1.93509 119 131 169 
-0.0088113 0.448958 1.45542 68 73 111 
-0.40027 0.202949 1.85724 136 154 204 
-0.449198 -0.565489 1.95609 72 84 124 
-0.35685 0.182008 1.82194 51 64 98 
-0.396518 0.342649 1.85331 52 50 63 
-0.200183 0.469049 1.6598 135 146 176 
-0.383187 0.304917 1.85637 111 133 174 
-0.385951 0.343958 1.86296 49 54 74 
-0.392896 0.308882 1.8752 33 47 60 
-0.115407 0.462054 1.59196 65 71 103 
-0.425437 -0.224593 1.96855 116 129 164 
0.105867 0.443416 1.38739 63 73 109 
-0.244976 0.278505 1.8068 123 135 161 
-0.315403 0.469871 1.9344 20 23 38 
-0.31411 0.39486 1.94527 42 39 68 
-0.310043 0.365407 1.94333 82 102 137 
-0.297085 0.365167 1.94257 117 135 181 
-0.293386 0.440182 1.94503 12 16 27 
-0.319307 0.277825 1.99714 79 90 120 
-0.318351 0.0325788 2.0266 90 106 142 
-0.311588 -0.698132 2.12663 24 31 49 
-0.165182 0.292647 1.8774 105 112 140 
-0.310412 -0.728603 2.13013 29 35 61 
-0.156907 0.30379 1.87747 92 104 128 
-0.140155 0.296825 1.86619 37 43 57 
-0.158156 -0.123308 1.92535 31 34 43 
-0.0534789 0.485624 1.76301 121 122 150 
0.254227 0.44791 1.38774 77 84 126 
-0.197106 0.15301 1.97405 151 158 187 
-0.077882 -0.121335 1.87278 125 116 133 
-0.103743 -0.320654 1.92677 71 61 85 
-0.032735 0.486385 1.77289 131 131 167 
-0.0446984 0.482287 1.78877 75 65 89 
-0.0796077 0.482196 1.84315 91 73 89 
-0.099381 -0.4973 1.94963 74 64 88 
-0.0304772 0.484602 1.80768 132 125 143 
-0.0466239 -0.22586 1.89747 47 48 66 
0.235617 0.458585 1.47976 92 108 134 
-0.0245449 0.459248 1.83911 237 241 253 
-0.0465815 0.240053 1.90464 145 159 188 
-0.226012 -0.159338 2.18915 121 121 133 
-0.0135035 -0.111269 1.90423 117 114 135 
0.148784 0.472539 1.63144 67 72 110 
0.231068 0.463784 1.52371 97 103 119 
-0.00863353 -0.180261 1.91383 167 170 189 
-0.498281 -0.210677 2.61549 127 124 133 
-0.0201395 -0.147779 1.94191 155 142 160 
-0.0140007 -0.201415 1.95294 64 67 100 
-0.224046 0.269877 2.21132 90 93 112 
