ply                 
format ascii 1.0    
element vertex 911
property float x    
property float y    
property float z    
property uchar red  
property uchar green
property uchar blue 
end_header          
-0.872256 -0.364676 1.74377 87 99 121 
-0.631814 0.347122 1.50075 120 123 142 
-0.628168 0.317273 1.50706 37 35 49 
-0.628773 0.335062 1.50953 98 94 111 
-0.623632 0.386429 1.50701 105 98 114 
-0.663689 -0.314122 1.61281 144 147 164 
-0.679251 -0.448616 1.66026 58 64 88 
-0.615504 0.42402 1.50758 57 52 72 
-0.60662 0.39424 1.5237 42 40 53 
-0.611009 0.283113 1.54397 119 121 58 
-0.636096 -0.248143 1.61043 141 146 165 
-0.618958 0.119936 1.57386 200 215 255 
-0.634218 -0.244382 1.6141 121 128 144 
-0.597767 0.402701 1.52673 120 116 139 
-0.599649 0.395983 1.53171 35 35 45 
-0.643003 -0.373687 1.64656 91 99 145 
-0.63189 -0.274941 1.62425 147 154 170 
-0.641034 -0.37849 1.64886 66 78 120 
-0.641034 -0.37849 1.64886 66 78 120 
-0.603784 0.271696 1.55765 40 37 48 
-0.603784 0.271696 1.55765 40 37 48 
-0.632848 -0.333232 1.63395 155 167 191 
-0.63217 -0.328908 1.63414 54 57 76 
-0.621273 -0.188864 1.60883 156 171 194 
-0.601534 0.265236 1.5633 123 120 139 
-0.661392 -0.603927 1.73135 100 104 139 
-0.589732 0.378454 1.54298 48 50 62 
-0.630768 -0.373564 1.65115 141 156 195 
-0.626841 -0.32973 1.64443 158 170 194 
-0.587694 0.403941 1.54125 111 107 130 
-0.629559 -0.544581 1.65395 81 88 94 
-0.624604 -0.377043 1.6534 53 55 76 
-0.593814 0.266511 1.57173 129 97 120 
-0.625468 -0.415452 1.66186 86 87 133 
-0.62186 -0.370013 1.65231 146 159 194 
-0.620529 -0.365753 1.65244 90 99 140 
-0.620529 -0.365753 1.65244 90 99 140 
-0.653227 -0.610736 1.74028 78 70 93 
-0.619919 -0.325516 1.653 131 140 169 
-0.652639 -0.607735 1.74102 57 50 81 
-0.617257 -0.370856 1.65639 126 140 167 
-0.617007 -0.328356 1.65722 75 84 117 
-0.605903 -0.19771 1.63158 127 134 153 
-0.605903 -0.19771 1.63158 127 134 153 
-0.617338 -0.446744 1.66741 129 136 162 
-0.602704 -0.209008 1.63349 86 93 119 
-0.613208 -0.472478 1.67534 139 155 181 
-0.611856 -0.439064 1.72715 49 55 71 
-0.616922 -0.485307 1.76687 72 81 114 
-0.569958 0.369411 1.67337 102 107 126 
-0.591893 -0.195866 1.75595 117 122 152 
-0.56151 0.420964 1.67463 79 83 94 
-0.601775 -0.590066 1.79793 65 73 109 
-0.592663 -0.339142 1.77248 64 73 106 
-0.599369 -0.555714 1.79452 62 71 102 
-0.594752 -0.420492 1.78228 73 64 83 
-0.588155 -0.455712 1.7939 111 125 160 
-0.588851 -0.482395 1.79727 66 74 110 
-0.586823 -0.472733 1.79751 82 96 131 
-0.586823 -0.472733 1.79751 82 96 131 
-0.581009 -0.540333 1.81297 76 87 119 
-0.571089 -0.497105 1.81957 113 132 162 
-0.567573 -0.522625 1.8263 63 69 101 
-0.560007 -0.582562 1.84099 75 88 123 
-0.558306 -0.523679 1.83647 66 75 114 
-0.558306 -0.523679 1.83647 66 75 114 
-0.500873 0.216154 1.72933 109 88 155 
-0.497603 0.25701 1.7277 44 49 87 
-0.531141 -0.49547 1.86263 93 90 111 
-0.532319 -0.52563 1.86805 66 71 103 
-0.493569 0.192709 1.74061 95 119 179 
-0.483159 0.228215 1.74837 59 75 124 
-0.480241 0.224074 1.75245 135 158 208 
-0.517726 -0.629096 1.89614 60 65 97 
-0.477395 0.178868 1.74984 53 50 77 
-0.513319 -0.516996 1.88664 115 128 163 
-0.511712 -0.521707 1.88872 81 87 123 
-0.472715 0.182512 1.75218 187 205 245 
-0.507733 -0.626165 1.90338 69 75 109 
-0.456505 0.227497 1.77204 154 174 207 
-0.479409 -0.224998 1.88324 96 93 114 
-0.486363 -0.665741 1.9372 70 76 112 
-0.482291 -0.56547 1.92754 124 126 164 
-0.442102 0.25371 1.79507 96 157 211 
-0.439063 0.184072 1.78972 187 208 251 
-0.46264 -0.144 1.89107 112 117 147 
-0.458085 -0.215544 1.90821 69 64 86 
-0.457662 -0.281147 1.9168 77 65 89 
-0.458298 -0.345672 1.92497 77 65 89 
-0.444814 0.117257 1.87821 108 97 129 
-0.424987 0.187312 1.81098 161 181 232 
-0.423052 0.25605 1.8174 82 153 217 
-0.421974 0.191915 1.81447 186 211 252 
-0.453916 -0.566975 1.96033 74 84 120 
-0.416682 0.193454 1.81702 39 42 97 
-0.437842 -0.22946 1.91658 117 130 164 
-0.414155 0.200864 1.81626 201 216 255 
-0.374342 0.42756 1.88557 42 38 61 
-0.377279 -0.681737 2.06381 71 76 114 
-0.302473 0.478743 1.92923 73 95 142 
-0.302918 0.404147 1.93921 93 112 152 
-0.275469 0.108482 2.07132 134 143 174 
-0.275099 -0.0355433 2.09138 129 140 168 
-0.0777067 -0.037695 1.89179 37 32 54 
-0.0737177 -0.0342214 1.89136 87 100 134 
-0.0622475 0.441837 1.77204 131 127 142 
-0.0626915 -0.127601 1.85724 107 100 116 
-0.0557603 -0.126643 1.86688 23 22 28 
-0.0401046 -0.0763005 1.8975 91 81 108 
-0.0336927 0.453341 1.81028 89 75 101 
-0.0211684 -0.617307 1.9921 177 185 222 
-0.0200793 -0.499955 1.97547 163 168 198 
-0.0146811 -0.541963 1.99253 135 128 161 
-0.011069 -0.498131 1.98644 119 123 160 
-0.00587403 0.464629 1.8324 58 48 98 
-0.00272687 0.447917 1.83791 105 95 132 
0.0372869 0.0520177 2.51615 16 15 21 
0.0626737 -0.374187 2.05116 139 127 151 
0.0778264 0.137336 2.50469 36 34 47 
0.0769198 -0.488396 2.11637 160 164 199 
0.0950864 -0.0194381 2.51831 62 62 72 
0.0934843 -0.597524 2.12071 128 137 176 
0.10518 -0.482014 2.10632 47 39 54 
0.109978 0.4809 2.06255 142 149 175 
0.121262 -0.431255 2.10274 110 99 115 
0.140117 -0.423354 2.17839 74 53 72 
0.175739 -0.500957 2.1872 54 52 66 
0.213177 -0.456367 2.24196 108 97 114 
0.249852 -0.386765 2.26428 138 140 161 
0.296934 -0.320606 2.30832 119 119 143 
0.336555 0.543163 2.27237 111 120 149 
0.368273 -0.116136 2.36352 121 113 134 
0.368629 -0.100955 2.36101 117 114 135 
0.372883 -0.104653 2.36539 68 55 75 
0.374039 0.26613 2.32316 44 41 60 
0.381317 0.260341 2.32262 113 109 132 
0.38787 0.0210315 2.35023 106 107 125 
0.388085 0.509572 2.26807 139 140 160 
0.400277 0.506827 2.28467 137 144 162 
0.414047 0.380686 2.33383 110 117 125 
0.44686 -0.0822399 2.42685 65 71 87 
0.475578 0.315505 2.42443 226 232 255 
0.475523 0.347719 2.41938 217 229 255 
0.475523 0.347719 2.41938 217 229 255 
0.487899 0.308315 2.43936 87 95 144 
0.481121 0.413152 2.39585 118 125 131 
0.478139 0.535614 2.36982 34 39 59 
0.529928 -0.574563 2.60729 139 139 167 
0.538152 0.38715 2.49384 165 174 203 
0.568895 -0.39736 2.62745 135 147 187 
0.559955 0.0172693 2.56147 129 132 173 
0.640943 -0.441361 2.7151 130 138 175 
0.642984 -0.349366 2.71119 147 159 199 
0.62693 0.337134 2.59276 145 158 190 
0.681297 -0.430479 2.75781 75 81 115 
0.83728 -0.0298486 3.22938 34 30 45 
0.857363 -0.0261615 3.25055 38 35 52 
0.913501 -0.283277 3.20957 110 113 144 
0.938459 0.0796953 3.28369 40 37 58 
0.941092 0.42936 3.22438 93 85 106 
0.918325 -0.75816 3.09532 129 135 157 
0.976951 -0.200858 3.26663 105 109 138 
0.981513 0.190069 3.26764 95 91 106 
0.993659 0.0796109 3.28171 29 29 41 
0.805151 0.535044 2.65304 79 92 126 
0.936738 -0.687393 3.07872 152 163 191 
0.980273 0.430111 3.21977 75 67 78 
0.990831 0.375582 3.24231 30 32 47 
1.01079 0.400997 3.2346 102 118 143 
1.01079 0.400997 3.2346 102 118 143 
1.00077 -0.709115 3.16835 42 48 62 
1.02094 -0.303571 3.23141 29 28 36 
1.03464 0.024404 3.2607 25 23 36 
1.02882 0.425201 3.23371 28 24 39 
1.01426 -0.760118 3.17536 21 23 35 
1.00023 -0.456111 3.12015 119 115 140 
1.02795 -0.773226 3.17798 28 33 53 
1.07256 0.0985121 3.28185 108 117 146 
1.07256 0.0985121 3.28185 108 117 146 
1.07553 0.0380758 3.26692 91 91 115 
1.05236 -0.408918 3.19277 96 101 123 
1.06796 0.402497 3.2228 96 106 131 
1.07633 -0.38695 3.21667 79 76 95 
1.08347 0.387413 3.2306 20 26 40 
1.08303 -0.394199 3.21553 35 32 51 
1.09702 -0.313528 3.25266 95 91 114 
1.09855 -0.361267 3.2402 74 71 92 
1.09707 -0.447344 3.21742 72 70 83 
1.13188 0.0988227 3.28661 104 123 153 
1.13188 0.0988227 3.28661 104 123 153 
1.12832 0.0448787 3.27559 37 34 53 
1.12655 0.0198547 3.26827 27 26 34 
-0.898827 -0.433379 1.77024 23 30 40 
-0.853225 -0.550074 1.78306 23 25 37 
-0.645958 0.349673 1.49281 47 43 68 
-0.641874 0.391101 1.49184 54 54 78 
-0.641095 0.402674 1.49266 58 62 89 
-0.649888 0.25209 1.52612 101 106 112 
-0.683591 -0.201674 1.63223 94 106 132 
-0.627096 0.408367 1.49987 66 66 92 
-0.627817 0.352689 1.51345 43 41 63 
-0.672253 -0.258578 1.63006 91 98 124 
-0.68282 -0.431204 1.66332 53 59 83 
-0.620558 0.404408 1.51191 61 65 90 
-0.661032 -0.167916 1.61699 36 35 43 
-0.664352 -0.3554 1.62563 76 83 112 
-0.61882 0.372286 1.51688 54 52 73 
-0.664837 -0.3757 1.63602 121 142 171 
-0.658394 -0.321801 1.62046 33 37 48 
-0.658349 -0.24897 1.62043 36 38 51 
-0.658558 -0.235757 1.62433 50 52 73 
-0.616619 0.355857 1.52163 56 52 66 
-0.673322 -0.46847 1.66462 103 115 137 
-0.619419 0.284029 1.53882 116 111 89 
-0.646683 -0.161167 1.6096 75 67 80 
-0.627697 0.133922 1.5675 19 27 48 
-0.649776 -0.330056 1.62348 29 36 42 
-0.639572 -0.198432 1.59863 34 42 44 
-0.649986 -0.300529 1.62627 106 116 143 
-0.655569 -0.360427 1.64167 21 20 36 
-0.639138 -0.188659 1.60108 83 91 93 
-0.628575 0.0839513 1.5745 25 30 59 
-0.610498 0.369036 1.52958 112 107 127 
-0.636729 -0.211893 1.59875 152 167 196 
-0.649492 -0.311199 1.63205 106 111 140 
-0.662274 -0.47874 1.66765 129 144 175 
-0.644237 -0.280214 1.62604 75 86 108 
-0.606803 0.359284 1.53257 109 98 115 
-0.643204 -0.331849 1.63232 46 57 75 
-0.605286 0.325383 1.53834 100 96 113 
-0.652882 -0.424 1.66161 143 157 196 
-0.635543 -0.259597 1.61765 154 160 186 
-0.650852 -0.446658 1.67648 53 59 75 
-0.647714 -0.432381 1.66907 34 38 67 
-0.597674 0.367374 1.53986 46 41 61 
-0.597889 0.347628 1.54426 28 28 30 
-0.632001 -0.23237 1.63596 22 31 36 
-0.62717 -0.212236 1.62678 71 76 108 
-0.637692 -0.412586 1.65855 48 54 80 
-0.623278 -0.197976 1.62495 104 112 148 
-0.632564 -0.402773 1.65392 156 171 212 
-0.592242 0.3261 1.55387 39 44 63 
-0.632078 -0.452815 1.66647 60 57 84 
-0.617257 -0.205914 1.62809 65 76 108 
-0.60478 0.0863945 1.60013 55 70 103 
-0.611405 -0.193086 1.62481 68 77 110 
-0.601098 0.106318 1.5972 77 70 114 
-0.624298 -0.405921 1.66114 155 167 205 
-0.585588 0.315762 1.55922 46 45 61 
-0.617481 -0.383278 1.65775 119 139 166 
-0.623585 -0.432548 1.67469 54 58 69 
-0.604317 -0.217253 1.62344 156 163 207 
-0.612517 -0.354725 1.65266 156 172 205 
-0.606319 -0.177962 1.6517 92 92 104 
-0.611459 -0.343526 1.66741 76 72 99 
-0.595372 -0.189945 1.63652 146 164 188 
-0.603709 -0.236188 1.6612 86 90 125 
-0.596952 -0.0619363 1.64234 62 61 69 
-0.583512 0.265198 1.60586 33 37 48 
-0.599185 -0.225146 1.65915 61 74 108 
-0.609973 -0.32538 1.69024 132 141 172 
-0.565733 0.402311 1.5722 58 51 69 
-0.565508 0.35196 1.58075 49 46 63 
-0.563811 0.293257 1.59014 109 84 106 
-0.583165 -0.0526959 1.64841 125 126 156 
-0.612547 -0.194563 1.73488 84 89 119 
-0.60072 -0.327779 1.70719 149 160 190 
-0.592645 0.0162059 1.72602 63 69 101 
-0.607222 -0.470064 1.77905 78 91 126 
-0.607403 -0.645319 1.8031 72 84 122 
-0.602241 -0.48542 1.78861 125 139 168 
-0.598342 -0.450861 1.78454 71 84 118 
-0.582303 -0.46767 1.75449 114 127 162 
-0.590979 -0.434551 1.79278 64 67 102 
-0.555536 0.371767 1.69517 78 84 100 
-0.580008 -0.23259 1.77957 25 24 30 
-0.58593 -0.640009 1.82197 86 92 128 
-0.580782 -0.522669 1.81658 78 84 118 
-0.577674 -0.493364 1.81654 117 131 168 
-0.522057 0.224262 1.70474 80 104 148 
-0.510451 0.276969 1.69542 117 124 153 
-0.508308 0.291678 1.69916 14 14 16 
-0.564785 -0.272208 1.88985 21 28 57 
-0.507618 0.161888 1.71244 119 129 156 
-0.502907 0.271893 1.70376 72 64 77 
-0.496607 0.263119 1.74334 91 86 92 
-0.466786 0.209278 1.77025 164 179 212 
-0.463885 0.240242 1.77045 146 169 201 
-0.451493 0.220208 1.76792 147 171 209 
-0.454339 0.211269 1.78293 66 83 129 
-0.450205 0.199934 1.79309 169 193 227 
-0.460756 0.113306 1.85344 110 95 124 
-0.445439 0.160673 1.79339 141 141 167 
-0.463639 -0.233698 1.9083 72 63 82 
-0.453981 0.118547 1.87337 111 97 130 
-0.462593 -0.274321 1.91491 75 66 85 
-0.46087 -0.393895 1.9315 69 56 76 
-0.460515 -0.408506 1.93132 113 121 157 
-0.458017 -0.71058 1.98216 117 127 163 
-0.416487 0.28842 1.82048 82 83 103 
-0.436218 -0.228702 1.90949 117 130 164 
-0.413809 0.186889 1.82844 172 194 244 
-0.447946 -0.712831 1.98957 58 62 99 
-0.406131 0.213432 1.82938 198 211 255 
-0.428419 -0.192692 1.93674 83 86 117 
-0.405492 0.249893 1.83321 103 125 175 
-0.438221 -0.615218 1.98383 76 81 119 
-0.403258 0.202236 1.82416 201 214 255 
-0.40091 0.222298 1.83884 40 55 86 
-0.395695 0.247072 1.83924 22 30 92 
-0.403996 -0.113724 1.91021 122 128 162 
-0.425942 -0.331988 2.01448 111 117 151 
-0.422874 -0.658472 2.0093 79 72 114 
-0.38803 0.299968 1.8478 154 169 202 
-0.388652 0.28831 1.85514 39 46 74 
-0.382818 0.474969 1.83273 62 85 126 
-0.405965 -0.655538 2.0284 73 71 108 
-0.332121 0.273048 1.98063 37 42 62 
-0.326397 0.115022 2.00438 45 52 80 
-0.316789 0.407408 1.94866 23 23 33 
-0.326632 -0.0150225 2.02337 18 23 45 
-0.314647 0.374186 1.95049 22 21 35 
-0.32524 -0.263653 2.05569 41 46 76 
-0.292069 0.488106 1.86072 71 78 104 
-0.322971 -0.35471 2.06867 32 39 67 
-0.303175 0.415973 1.94322 140 168 216 
-0.32256 -0.388948 2.07315 30 35 55 
-0.303008 0.366519 1.95324 91 109 157 
-0.32347 -0.688509 2.11173 25 32 58 
-0.295447 0.427682 1.94224 36 46 82 
-0.294107 0.416783 1.95646 20 23 42 
-0.308065 -0.385259 2.07642 29 35 59 
-0.270687 0.229955 2.07144 141 144 175 
-0.262228 0.0601322 2.09417 137 146 177 
-0.262763 -0.00983117 2.1058 129 138 167 
-0.255653 -0.0308739 2.11012 86 77 98 
-0.252332 0.154501 2.08851 94 81 107 
-0.252383 -0.108027 2.12201 101 102 123 
-0.240168 -0.107942 2.13473 102 98 121 
-0.229159 -0.0808183 2.14693 32 27 31 
-0.226816 -0.0721883 2.16043 82 77 97 
-0.227666 -0.0575041 2.17198 99 94 117 
-0.203722 -0.19972 1.99012 34 28 30 
-0.218485 -0.0848723 2.16148 91 86 106 
-0.219758 -0.0120265 2.17782 53 46 64 
-0.174583 -0.498891 2.01721 64 68 103 
-0.171791 -0.321216 1.9881 100 105 134 
-0.157519 -0.234831 1.96843 73 74 95 
-0.134602 -0.539015 1.97981 106 116 151 
-0.130281 -0.428269 1.96818 63 52 69 
-0.129001 -0.687019 2.0036 66 53 73 
-0.126524 -0.524147 1.97655 105 118 153 
-0.108824 -0.190523 1.90914 22 30 51 
-0.0720682 0.442662 1.7703 119 115 130 
-0.0685598 0.27273 1.82589 34 38 49 
-0.0536994 -0.117488 1.88228 125 121 138 
-0.0501311 0.27391 1.84352 44 44 54 
-0.0486572 -0.287238 1.91866 116 120 145 
-0.0465174 -0.497261 1.94555 154 145 166 
-0.0430847 0.291889 1.84806 104 102 126 
-0.0398955 -0.0374008 1.93143 145 140 160 
-0.0363502 -0.0422268 1.93926 20 26 40 
-0.0345735 0.244984 1.89038 108 106 127 
-0.0301469 0.414572 1.82104 44 37 89 
-0.0304842 -0.127678 2.00338 23 22 28 
-0.0257673 -0.200695 1.92705 159 157 179 
-0.0224745 -0.113436 1.929 106 107 125 
-0.0220718 -0.186059 1.93817 127 127 151 
-0.020917 -0.143517 1.92977 62 59 78 
-0.0185802 -0.209196 1.94097 92 76 103 
-0.0173565 0.422272 1.83127 224 230 254 
-0.0172973 -0.577488 1.98569 173 178 210 
-0.0157472 -0.561866 1.99476 136 129 160 
-0.0131485 -0.166277 1.94146 83 77 105 
-0.0109034 0.440347 1.83773 43 57 92 
-0.0105224 -0.674972 2.00992 131 130 164 
-0.00253103 -0.548185 1.99396 180 188 224 
0.00213963 -0.10828 1.94828 129 128 142 
0.0116342 0.452486 1.86302 82 72 99 
0.0199286 0.294685 2.48197 73 73 99 
0.0206628 0.119338 2.5062 76 77 97 
0.0429662 -0.460212 2.03723 157 168 200 
0.0572901 0.296242 2.4883 73 79 105 
0.0585873 0.0646708 2.51776 71 75 100 
0.0621435 -0.0225828 2.50267 66 64 78 
0.0570517 -0.556523 2.0725 128 132 170 
0.06635 -0.403757 2.08383 105 93 117 
0.0663669 -0.384626 2.06335 92 78 104 
0.0869172 -0.60866 2.11533 104 104 138 
0.085976 -0.398273 2.08758 77 57 82 
0.10565 -0.67497 2.14237 37 37 49 
0.107271 -0.442242 2.10242 28 26 31 
0.116836 -0.412252 2.12256 73 59 84 
0.118843 -0.677154 2.14052 94 92 105 
0.119288 -0.524457 2.11321 138 135 156 
0.127465 -0.415568 2.13776 70 51 71 
0.133488 -0.65446 2.15485 29 26 33 
0.136242 -0.681691 2.1625 96 91 113 
0.129481 0.500166 2.01081 94 100 134 
0.149142 -0.468004 2.15829 46 40 54 
0.160551 -0.731285 2.21631 165 179 208 
0.154702 -0.40073 2.08498 69 56 82 
0.166954 -0.635294 2.2082 53 44 61 
0.168913 -0.652421 2.20891 95 87 108 
0.170028 -0.608909 2.20796 94 90 107 
0.158795 0.519125 2.03366 75 79 91 
0.173996 -0.638964 2.21528 93 84 105 
0.175799 -0.50998 2.18947 99 92 110 
0.179014 -0.66573 2.22583 122 110 132 
0.180657 -0.62166 2.22449 117 110 126 
0.179814 -0.4656 2.19471 124 99 118 
0.190468 -0.491847 2.20083 40 33 49 
0.194541 -0.57011 2.23293 25 28 33 
0.214483 -0.551373 2.27938 124 116 137 
0.213223 -0.554841 2.24332 34 20 43 
0.218915 -0.730756 2.28272 83 86 121 
0.216987 -0.507299 2.24323 69 57 77 
0.221319 -0.670709 2.25502 33 32 37 
0.221687 -0.502805 2.26033 135 120 139 
0.239523 -0.325587 2.33774 62 62 72 
0.23418 -0.375338 2.26217 28 26 31 
0.238883 -0.631577 2.28203 25 24 29 
0.237125 -0.427678 2.24539 109 98 115 
0.240323 -0.534207 2.27165 58 50 65 
0.240202 -0.64089 2.2594 91 88 109 
0.244855 -0.358951 2.296 36 35 40 
0.243286 -0.460892 2.26353 46 38 49 
0.245629 -0.651661 2.27985 61 56 79 
0.247514 -0.696249 2.28875 96 93 112 
0.245001 -0.405525 2.26864 23 23 25 
0.246716 -0.66458 2.27786 75 76 97 
0.232638 0.530654 2.12509 147 153 185 
0.260232 0.485537 2.37567 25 24 38 
0.252968 -0.644821 2.29078 108 103 125 
0.252933 -0.396153 2.26751 124 127 146 
0.253375 -0.474638 2.26301 122 119 140 
0.258233 -0.636447 2.2905 64 61 88 
0.257457 -0.469889 2.27073 77 67 91 
0.25953 -0.372458 2.27711 80 71 100 
0.264125 -0.672266 2.31264 168 175 204 
0.262202 -0.384521 2.29549 111 107 130 
0.258728 -0.412418 2.26104 118 103 124 
0.276277 -0.419044 2.28153 122 129 148 
0.283955 -0.308773 2.33382 31 29 40 
0.288496 -0.407951 2.29275 128 135 153 
0.29798 0.502894 2.33689 25 23 36 
0.299624 -0.39829 2.30566 114 122 143 
0.310088 -0.752242 2.36493 88 85 96 
0.312782 0.208423 2.39065 87 94 122 
0.320357 -0.752396 2.38198 18 16 27 
0.297466 0.543365 2.19752 136 146 171 
0.308696 0.527706 2.27592 43 48 70 
0.338152 0.126558 2.38377 73 75 96 
0.339586 -0.153059 2.36681 41 39 52 
0.329985 0.367614 2.29835 53 76 110 
0.359659 -0.787655 2.48486 95 94 90 
0.34418 -0.371604 2.36552 158 165 191 
0.353822 -0.737986 2.42319 105 106 127 
0.343844 -0.113842 2.35454 53 51 65 
0.358129 -0.715987 2.43566 156 160 195 
0.347328 0.560128 2.34595 111 120 149 
0.359856 -0.488099 2.40479 122 128 164 
0.366225 -0.741311 2.43884 44 35 54 
0.377873 -0.778792 2.46941 53 43 68 
0.360375 -0.100881 2.353 118 113 136 
0.373582 -0.606392 2.43325 183 197 232 
0.360938 -0.0471023 2.34684 29 28 44 
0.386036 -0.732657 2.48062 38 34 49 
0.369314 -0.126729 2.37541 132 130 152 
0.367207 -0.0196312 2.35885 30 28 39 
0.386192 -0.717589 2.47021 147 152 184 
0.371831 -0.137689 2.37095 73 59 84 
0.385034 -0.741284 2.45083 77 79 94 
0.367857 -0.0297658 2.33903 103 98 118 
0.373193 -0.0710947 2.36298 60 52 75 
0.375621 0.00602908 2.3577 40 35 42 
0.374378 0.129717 2.3466 37 35 49 
0.399381 -0.767999 2.49017 142 144 169 
0.375235 0.177528 2.34202 38 36 49 
0.374304 0.250964 2.33423 45 43 57 
0.374669 0.232154 2.33595 41 39 53 
0.374732 0.277845 2.3285 46 42 56 
0.3792 -0.0517559 2.35325 105 100 123 
0.386547 -0.261817 2.38849 73 87 113 
0.372205 0.383708 2.29176 29 29 37 
0.401961 -0.62369 2.4667 135 137 178 
0.391282 -0.279474 2.40371 168 182 211 
0.383872 0.1696 2.33801 108 104 127 
0.390249 -0.0014735 2.36856 110 107 128 
0.384378 0.241701 2.33358 117 115 137 
0.388231 0.21417 2.34443 126 126 150 
0.395183 -0.111065 2.38221 38 36 47 
0.39578 -0.0928969 2.38075 35 33 44 
0.395407 0.0294045 2.36501 24 27 32 
0.399781 -0.0740916 2.38574 28 27 33 
0.385441 0.397392 2.29206 107 116 97 
0.399892 0.360686 2.34558 109 101 124 
0.390473 0.460575 2.28958 45 51 73 
0.391768 0.470905 2.29007 115 121 147 
0.410911 -0.145021 2.39729 69 75 91 
0.411971 -0.13079 2.39547 69 75 91 
0.412888 -0.111651 2.39303 68 70 93 
0.397562 0.47996 2.29365 111 113 136 
0.40084 0.462684 2.29876 54 61 80 
0.438219 -0.138443 2.4348 162 171 204 
0.430983 0.187374 2.39387 149 158 191 
0.436877 0.00354093 2.41091 149 164 195 
0.434892 0.197067 2.40057 109 99 123 
0.418394 0.556608 2.30809 52 52 76 
0.419827 0.507068 2.30579 92 104 126 
0.43602 0.178514 2.39097 158 167 200 
0.439697 0.0241411 2.40297 158 172 207 
0.430286 0.442988 2.33804 31 36 56 
0.447219 0.095487 2.42529 159 164 196 
0.448927 -0.071908 2.43176 58 64 90 
0.4555 0.057888 2.43693 166 179 214 
0.436865 0.522629 2.33685 37 43 67 
0.450808 0.387859 2.39015 105 111 107 
0.471074 -0.168177 2.48765 131 139 178 
0.46537 0.304163 2.41966 96 88 125 
0.466523 0.356483 2.4169 68 65 108 
0.457768 0.520859 2.3578 37 43 67 
0.47036 0.390443 2.40412 106 109 116 
0.463224 0.538876 2.36064 45 50 72 
0.477486 0.338931 2.42819 210 227 255 
0.484206 0.33377 2.4362 63 73 132 
0.496365 0.388313 2.45407 64 72 93 
0.49185 0.564477 2.38806 52 57 76 
0.546652 -0.409643 2.60183 183 197 234 
0.548762 -0.418674 2.61015 131 139 178 
0.572855 -0.566601 2.65715 137 143 177 
0.537227 0.423671 2.46778 107 113 129 
0.547726 0.404021 2.48641 101 104 123 
0.546836 0.542083 2.45692 108 109 137 
0.590271 -0.0703674 2.61311 137 146 177 
0.597548 -0.0631169 2.61799 79 88 121 
0.597596 -0.076522 2.61709 64 78 107 
0.578429 0.413393 2.52345 66 67 69 
0.596663 0.287371 2.59926 155 163 199 
0.621214 -0.311098 2.70113 151 160 193 
0.613227 -0.105871 2.65459 24 27 34 
0.615775 -0.100145 2.62755 58 65 71 
0.63252 -0.33208 2.69177 78 87 126 
0.619455 -0.0910016 2.63593 27 29 42 
0.61686 0.0416201 2.624 113 118 150 
0.618586 -0.127866 2.62176 86 93 112 
0.620301 -0.0178165 2.62642 39 45 59 
0.620513 0.0717209 2.61879 33 38 57 
0.645571 -0.350561 2.72218 147 159 199 
0.597794 0.554135 2.51918 85 93 116 
0.630305 0.00112054 2.64225 142 155 187 
0.629863 0.0608172 2.64012 134 145 177 
0.625809 0.20953 2.61994 146 151 189 
0.629945 -0.0174132 2.63147 77 84 102 
0.596117 0.414054 2.48873 19 25 49 
0.62963 0.153626 2.62477 134 143 176 
0.636722 -0.17902 2.64858 107 112 134 
0.658289 -0.399084 2.72796 108 107 149 
0.605894 0.428132 2.50959 90 94 95 
0.648108 -0.00915968 2.6814 31 30 38 
0.611956 0.535336 2.51754 82 83 103 
0.684994 -0.475158 2.77645 169 177 213 
0.664544 0.0554118 2.69192 120 106 131 
0.66827 -0.00557611 2.7038 92 93 114 
0.700315 -0.504465 2.79266 130 130 166 
0.669519 0.31886 2.64132 127 136 167 
0.718696 -0.492879 2.83028 170 178 217 
0.707712 -0.318312 2.78175 77 66 98 
0.711588 -0.484505 2.78843 168 178 214 
0.846064 -0.17133 3.24781 25 24 38 
0.750819 -0.248894 2.86376 46 43 54 
0.744363 -0.518794 2.83791 153 163 198 
0.740979 -0.376572 2.82411 61 52 79 
0.728866 0.322788 2.77792 22 28 62 
0.84898 -0.0336815 3.23105 110 108 130 
0.867704 -0.149218 3.29043 31 29 42 
0.859464 -0.0664329 3.25235 110 105 125 
0.750891 -0.41532 2.83324 81 71 106 
0.870228 -0.165696 3.26818 88 88 114 
0.781914 -0.372531 2.91664 119 115 142 
0.786867 -0.812149 2.93316 137 145 181 
0.873352 -0.0620783 3.23815 119 121 142 
0.885694 -0.0203457 3.28176 34 29 49 
0.821129 -0.806707 3.03549 161 173 213 
0.816136 -0.757972 3.00807 156 169 204 
0.780003 -0.419391 2.86817 55 49 77 
0.894859 -0.0544746 3.29283 104 95 126 
0.784141 -0.434164 2.87269 85 74 108 
0.863715 -0.313701 3.15867 101 98 127 
0.801686 -0.434207 2.9237 121 115 141 
0.828042 -0.35608 3.01019 93 89 116 
0.713984 0.511507 2.5875 43 49 71 
0.802306 -0.43683 2.89613 47 43 68 
0.828124 -0.812769 2.96846 41 47 69 
0.813651 -0.445586 2.91194 111 111 135 
0.846844 -0.852071 3.01918 146 155 194 
0.832337 -0.726538 2.96535 42 49 67 
0.825154 -0.450472 2.92331 45 42 63 
0.869421 -0.417005 3.06374 117 117 145 
0.836807 -0.458739 2.93763 111 107 132 
0.716696 0.526915 2.5021 38 46 67 
0.845955 -0.484981 2.94996 75 69 103 
0.870647 -0.720851 3.00118 147 158 186 
0.863121 -0.468892 2.97087 101 105 130 
0.695212 0.559222 2.38971 27 32 51 
0.939472 -0.252981 3.22707 95 92 121 
0.869104 -0.4604 2.98396 79 82 99 
0.872888 -0.578975 2.9934 37 38 68 
0.881621 -0.739794 3.02056 145 154 183 
0.86858 -0.50399 2.9739 123 114 141 
0.872053 -0.585101 2.98107 116 132 155 
0.947463 0.415594 3.24213 91 89 110 
0.872685 -0.492679 2.98148 81 72 103 
0.947873 0.387704 3.24195 96 91 121 
0.874759 -0.467859 2.98084 37 38 58 
0.884653 -0.578819 3.00549 98 110 134 
0.910447 -0.772135 3.07459 129 135 159 
0.890218 -0.47378 3.00241 102 98 121 
0.932656 -0.88202 3.13397 104 110 134 
0.897489 -0.575017 3.0066 139 157 181 
0.901425 -0.472162 3.01305 41 42 62 
0.978442 0.219019 3.26445 55 51 66 
0.921387 -0.465232 3.049 85 90 110 
0.939284 -0.796107 3.10489 123 131 152 
0.91644 -0.475705 3.02871 105 107 130 
0.993375 -0.163651 3.27909 94 98 123 
0.808254 0.537102 2.66334 79 92 126 
0.940361 -0.690209 3.09095 152 163 191 
0.95695 -0.395624 3.13988 94 91 118 
0.940352 -0.653741 3.06829 54 54 92 
0.727231 0.569029 2.37319 42 49 68 
0.948422 -0.461838 3.08071 91 88 109 
0.973211 -0.756079 3.15374 127 134 160 
0.94481 -0.473482 3.06159 108 106 130 
1.01691 -0.0209093 3.28612 77 73 100 
0.952976 -0.467392 3.06931 46 41 63 
1.01711 0.0415501 3.26156 88 83 106 
0.975702 -0.454264 3.11118 87 92 112 
0.970935 -0.465232 3.08631 102 102 128 
1.0258 0.00637166 3.25737 100 94 122 
0.977797 -0.513592 3.096 30 32 44 
1.00925 0.52894 3.19834 44 44 70 
1.01629 0.430305 3.21233 91 78 96 
1.02028 0.446112 3.2203 94 80 103 
1.03101 0.0241227 3.2492 25 23 36 
1.04489 -0.0117789 3.28621 29 27 40 
1.01926 0.464091 3.20084 93 75 97 
0.995949 -0.539755 3.12248 54 57 92 
1.00176 -0.44329 3.14044 88 83 105 
1.02108 0.511079 3.19972 89 89 117 
0.998467 -0.57134 3.12201 136 148 172 
1.03432 0.438791 3.22926 32 24 37 
1.0445 0.370091 3.26026 81 80 98 
1.04239 0.384161 3.25346 83 79 102 
1.00602 -0.447698 3.12732 42 39 58 
1.05079 0.391237 3.26237 43 35 50 
1.0342 0.526874 3.20213 46 43 64 
1.02646 -0.576799 3.17113 124 128 155 
1.05267 0.413204 3.25306 26 26 38 
0.857067 0.569898 2.58196 66 77 109 
1.08115 0.434414 3.23074 93 78 99 
0.973473 0.563334 2.84541 74 88 123 
-0.668615 -0.393905 1.64109 167 184 230 
-0.669223 -0.479288 1.65793 116 132 165 
-0.655962 -0.301995 1.62517 55 59 84 
-0.652762 -0.323258 1.6237 36 41 47 
-0.653056 -0.380623 1.63888 170 187 231 
-0.606913 0.412226 1.51431 42 42 68 
-0.6068 0.343971 1.52782 25 27 40 
-0.604666 0.312493 1.53317 33 37 48 
-0.638798 -0.491324 1.64955 77 84 103 
-0.654319 0.112176 1.62332 27 38 68 
-0.596933 0.334646 1.53654 31 37 53 
-0.628067 -0.284805 1.63595 182 196 225 
-0.632696 -0.265544 1.64712 43 50 60 
-0.627029 -0.246866 1.63749 163 173 208 
-0.606555 0.110553 1.58554 29 44 75 
-0.610883 -0.179634 1.61855 47 44 51 
-0.586092 0.436962 1.53491 113 115 140 
-0.615209 -0.226021 1.63827 87 99 147 
-0.609226 -0.218313 1.631 126 148 197 
-0.600838 0.136649 1.58854 19 25 47 
-0.622661 -0.468136 1.67584 149 155 189 
-0.582569 0.332537 1.55227 35 36 54 
-0.612294 -0.437703 1.67093 69 69 107 
-0.61066 -0.453797 1.67051 148 159 189 
-0.609204 -0.513146 1.68271 70 66 80 
-0.604675 -0.37944 1.66469 96 112 145 
-0.598038 -0.197798 1.64063 115 133 157 
-0.613379 -0.273184 1.68184 162 179 209 
-0.613893 -0.260509 1.69748 127 133 157 
-0.593532 -0.235878 1.66577 84 97 132 
-0.604436 -0.316028 1.69527 124 125 146 
-0.563632 0.331404 1.57494 48 48 76 
-0.601778 -0.302816 1.69702 45 50 82 
-0.613248 -0.339314 1.74714 94 107 142 
-0.615417 -0.559086 1.77499 33 38 70 
-0.601415 0.0119997 1.7089 82 95 130 
-0.608906 -0.303468 1.75465 57 54 71 
-0.605748 -0.684992 1.80058 86 89 134 
-0.602463 -0.405904 1.76894 86 95 128 
-0.57844 0.366745 1.65752 103 111 130 
-0.599507 -0.373006 1.76691 126 141 174 
-0.595977 -0.20402 1.74854 86 94 130 
-0.595655 -0.327383 1.76424 104 111 153 
-0.597322 -0.464613 1.7807 84 96 134 
-0.591152 -0.101989 1.73662 96 92 117 
-0.590167 -0.165796 1.74839 130 136 168 
-0.569007 0.362341 1.664 47 45 66 
-0.577851 0.284429 1.69053 72 78 40 
-0.592996 -0.53891 1.7977 71 80 119 
-0.580012 0.0186411 1.73089 89 95 131 
-0.506019 0.226774 1.71681 128 150 164 
-0.498707 0.231668 1.72533 110 71 138 
-0.498073 0.22551 1.73505 127 153 166 
-0.505538 0.40859 1.73291 41 37 60 
-0.484237 0.256455 1.73545 52 73 140 
-0.50398 -0.719932 1.92125 105 113 159 
-0.479105 -0.190705 1.87596 104 106 131 
-0.478137 -0.621488 1.93618 87 92 134 
-0.460531 -0.33725 1.91774 130 138 174 
-0.43878 0.209748 1.80059 79 156 224 
-0.450981 0.0655936 1.87094 95 107 145 
-0.44156 0.459129 1.80156 98 103 135 
-0.414888 -0.221974 1.95462 123 141 181 
-0.391944 0.197258 1.84108 22 32 91 
-0.357593 0.485099 1.89236 27 28 58 
-0.353808 0.451793 1.90234 38 38 66 
-0.35505 0.296943 1.93905 104 115 145 
-0.34325 0.386176 1.91797 39 34 56 
-0.326624 0.270819 1.96513 44 52 75 
-0.32575 0.19508 1.97854 62 66 95 
-0.319614 0.322301 1.95061 27 31 42 
-0.314299 0.0537824 2.00201 146 173 220 
-0.314027 0.0371866 2.0045 161 190 234 
-0.311501 0.269742 1.97141 95 108 161 
-0.311981 0.302365 1.96724 93 115 173 
-0.300484 0.439447 1.93089 88 119 174 
-0.26952 -0.0491475 2.09125 127 131 158 
-0.266153 -0.0172062 2.09011 76 82 114 
-0.0390508 -0.154805 1.88146 102 92 116 
-0.0368836 -0.0616767 1.90146 54 52 74 
-0.0228583 -0.449545 1.96321 152 161 192 
-0.0274998 -0.122074 1.89535 22 23 28 
-0.0127057 -0.625113 2.00119 117 115 154 
-0.0423471 0.465254 1.78598 84 66 88 
-0.0190059 -0.111978 1.90991 105 103 125 
-0.02685 0.328903 1.82924 118 117 69 
-0.0285389 0.443983 1.80686 85 80 121 
-0.00815385 -0.145436 1.9423 136 128 152 
-0.00692048 -0.109857 1.92635 105 105 131 
0.011438 -0.533403 2.00085 173 182 221 
-0.0936076 0.115308 2.39554 25 38 73 
-0.0153213 0.453491 1.82163 213 224 255 
0.00573626 -0.115698 1.932 91 90 104 
0.0101761 -0.283451 1.98287 133 123 147 
-0.00552541 0.413774 1.8366 44 43 109 
-0.0794657 0.117372 2.41024 146 168 244 
-0.00185393 0.435794 1.83721 86 77 122 
0.0255938 -0.332763 2.00535 69 55 81 
-0.0674978 0.11174 2.42596 9 17 63 
0.032209 -0.344067 2.01503 65 49 76 
0.0416877 -0.556298 2.05099 134 137 180 
-0.066241 0.362881 2.39038 56 80 108 
0.0392147 -0.35448 2.02448 64 51 77 
0.0720871 -0.620709 2.10254 163 172 213 
0.0780952 -0.632307 2.11147 164 173 214 
0.0819256 -0.485663 2.1062 140 150 186 
0.0872945 -0.428829 2.0917 116 112 137 
0.0966888 -0.403027 2.09377 68 56 80 
0.0398198 0.430667 2.14078 135 149 178 
0.118204 -0.596063 2.12188 115 105 130 
0.107426 -0.403607 2.10249 108 94 120 
0.140929 -0.669027 2.16202 119 121 144 
0.120568 -0.435579 2.22289 62 46 72 
0.135227 -0.42685 2.18953 57 43 66 
0.149834 -0.417576 2.15631 54 42 64 
0.163547 -0.603274 2.20261 107 98 125 
0.165106 -0.623979 2.20472 100 88 108 
0.174493 -0.622137 2.21201 91 82 103 
0.176037 -0.594532 2.20182 71 69 83 
0.17394 -0.52327 2.17994 21 20 28 
0.179717 -0.486805 2.18903 51 41 65 
0.191025 -0.646969 2.22742 43 37 63 
0.188288 -0.47308 2.19353 46 33 50 
0.188365 -0.461088 2.1912 54 40 63 
0.133135 0.481983 2.16134 77 90 124 
0.209763 -0.623018 2.24048 55 49 75 
0.13863 0.192596 2.51927 72 81 110 
0.203952 -0.475213 2.21118 55 46 65 
0.236569 -0.382779 2.24928 105 99 125 
0.257093 -0.524545 2.27022 75 70 102 
0.271206 -0.434572 2.27729 95 91 114 
0.352771 -0.606202 2.41461 131 143 191 
0.311169 0.0556171 2.39846 73 86 120 
0.290718 0.507194 2.2717 86 99 133 
0.356328 -0.356237 2.36667 155 168 202 
0.365117 -0.160534 2.36442 119 117 141 
0.368424 -0.12501 2.35497 132 132 158 
0.365491 -0.0399396 2.33326 94 92 116 
0.322997 0.525195 2.26081 38 45 71 
0.367392 -0.059805 2.33669 105 109 136 
0.377983 -0.160852 2.37543 114 105 136 
0.384435 -0.101306 2.37865 126 127 148 
0.393888 -0.0574507 2.37505 99 113 140 
0.381895 0.184013 2.33178 109 115 141 
0.435765 -0.332342 2.46617 120 128 167 
0.374274 0.404036 2.27158 36 34 48 
0.382755 0.349306 2.30997 107 97 122 
0.416074 0.0310267 2.38933 20 21 26 
0.426351 -0.0551306 2.40404 89 101 125 
0.387555 0.532321 2.26434 110 107 128 
0.464514 -0.277038 2.48887 121 133 175 
0.395371 0.50968 2.2734 133 133 157 
0.435845 0.0965497 2.41025 110 100 127 
0.436153 0.109643 2.40755 114 105 134 
0.402985 0.469683 2.29028 107 117 144 
0.405026 0.452782 2.29171 105 108 127 
0.406456 0.479864 2.29056 89 100 122 
0.424055 0.388697 2.33741 51 54 59 
0.476077 -0.117814 2.48241 119 130 175 
0.419531 0.505893 2.30136 100 110 135 
0.432684 0.432482 2.32781 90 94 119 
0.450482 0.281876 2.39363 153 167 204 
0.459784 0.488752 2.35159 27 30 45 
0.572427 -0.565783 2.65362 133 141 180 
0.487362 0.452959 2.38826 27 34 52 
0.512589 0.396283 2.43989 110 114 126 
0.505295 0.47029 2.40213 94 99 121 
0.519147 0.416197 2.43233 95 102 118 
0.599682 -0.19493 2.63632 143 152 193 
0.617356 -0.307491 2.67309 136 144 183 
0.52957 0.502336 2.4255 88 95 123 
0.596839 0.115681 2.58525 96 103 149 
0.645849 -0.317982 2.69973 26 31 51 
0.649881 -0.333558 2.706 37 44 62 
0.604087 0.127134 2.60022 140 152 194 
0.668765 -0.426012 2.74808 141 153 191 
0.562795 0.525535 2.46061 88 93 122 
0.628931 0.0337694 2.63804 151 160 201 
0.699647 -0.50359 2.78875 117 122 164 
0.619923 0.318363 2.57858 38 41 60 
0.737733 -0.404018 2.81905 129 115 141 
0.766755 -0.0407872 3.148 25 23 34 
0.766636 -0.0225935 3.1398 14 22 41 
0.769573 -0.520789 2.87244 63 78 107 
0.78549 -0.0382245 3.16852 27 26 40 
0.642569 0.542924 2.55027 29 34 56 
0.783113 -0.532997 2.88565 64 80 114 
0.651202 0.505546 2.56625 100 104 133 
0.824104 -0.191571 3.21712 98 98 132 
0.812706 -0.58365 2.93248 140 152 190 
0.798913 0.25227 3.13914 67 102 122 
0.820519 -0.47451 2.92105 67 59 98 
0.821497 -0.515815 2.90214 93 97 126 
0.834121 -0.498567 2.9445 126 139 171 
0.832161 -0.522696 2.91549 93 103 128 
0.838238 -0.528978 2.92404 48 59 91 
0.717455 0.336149 2.61909 15 30 71 
0.878064 -0.0630975 3.26172 115 122 148 
0.898839 -0.0184739 3.29366 27 25 39 
0.88635 -0.606376 3.01027 102 124 148 
0.903386 -0.355355 3.18176 72 69 86 
0.841663 0.497806 3.15253 23 24 42 
0.918151 -0.0916797 3.30333 37 35 49 
0.900694 -0.556178 3.0208 125 144 176 
0.899096 -0.54153 3.00344 70 93 127 
0.908425 -0.527017 3.01471 84 97 114 
0.937989 -0.0613846 3.30224 40 35 65 
0.939586 -0.0107091 3.29663 49 48 79 
0.947689 -0.704838 3.08947 73 88 129 
0.940779 -0.654031 3.07015 49 48 90 
0.938852 0.104439 3.27944 44 38 66 
0.937693 0.154466 3.27195 42 37 60 
0.987232 -0.780845 3.17969 49 44 74 
0.938093 0.17742 3.26799 45 39 65 
0.937799 0.222979 3.26118 39 30 59 
0.937518 0.245595 3.25817 46 40 68 
0.724268 0.553094 2.40684 33 47 82 
0.957521 -0.451455 3.10591 33 27 37 
0.93756 0.268575 3.25573 48 37 67 
0.936914 0.291491 3.25172 46 40 68 
0.936652 0.314741 3.24762 46 38 61 
0.936804 0.338816 3.24473 47 41 69 
0.955483 0.186691 3.27544 96 92 119 
0.936828 0.362512 3.24103 44 40 65 
0.97723 -0.49337 3.09854 121 126 158 
0.982983 -0.462695 3.1084 38 30 53 
0.994388 -0.538682 3.11641 50 58 104 
0.979547 0.156194 3.27129 71 71 97 
0.791335 0.528529 2.55753 68 80 120 
0.973924 0.422805 3.22703 25 23 36 
1.01176 0.0990099 3.27636 105 125 160 
1.01673 0.011509 3.23639 106 108 133 
0.815688 0.552824 2.58643 75 87 129 
1.02512 0.082667 3.28503 38 32 58 
0.980856 0.464298 3.20386 81 72 91 
0.991241 0.421602 3.2233 20 18 31 
1.02815 0.191555 3.26625 53 42 72 
0.999031 0.428482 3.21086 82 73 92 
0.996938 0.446285 3.20629 39 31 46 
0.871099 0.544801 2.72191 76 85 126 
1.04059 0.252673 3.26006 74 70 93 
1.01752 0.507933 3.18538 97 97 125 
1.07385 0.0245188 3.25387 72 71 89 
0.903357 0.550152 2.75748 74 87 129 
1.04077 0.430817 3.22199 86 75 92 
1.04763 0.424797 3.23028 20 16 30 
1.03245 0.525486 3.19531 48 44 67 
0.891123 0.546406 2.67115 71 85 122 
0.861656 0.589619 2.46844 38 65 60 
