ply                 
format ascii 1.0    
element vertex 1279
property float x    
property float y    
property float z    
property uchar red  
property uchar green
property uchar blue 
end_header          
0.370534 -0.127224 2.37774 132 130 152 
0.368366 -0.0196196 2.36051 30 28 39 
0.387737 -0.7217 2.47561 147 152 184 
0.373061 -0.138236 2.37326 73 59 84 
0.386567 -0.745529 2.45613 77 79 94 
0.369015 -0.0297998 2.34063 103 98 118 
0.3744 -0.0713186 2.36492 60 52 75 
0.376803 0.00615313 2.35922 40 35 42 
0.375501 0.130341 2.34746 37 35 49 
0.401026 -0.772478 2.4959 142 144 169 
0.376339 0.178324 2.34261 38 36 49 
0.375371 0.252005 2.33442 45 43 57 
0.375747 0.233137 2.33626 41 39 53 
0.375788 0.278969 2.32854 46 42 56 
0.380422 -0.0518904 2.35505 105 100 123 
0.387906 -0.263023 2.39153 73 87 113 
0.373197 0.385117 2.29113 29 29 37 
0.403568 -0.627165 2.47178 135 137 178 
0.392681 -0.280786 2.40697 168 182 211 
0.385008 0.170365 2.33859 108 104 127 
0.391505 -0.00138225 2.37021 110 107 128 
0.385484 0.24271 2.33379 117 115 137 
0.389366 0.215091 2.34483 126 126 150 
0.396512 -0.111482 2.38445 38 36 47 
0.397103 -0.0932253 2.3829 35 33 44 
0.396662 0.0296283 2.36643 24 27 32 
0.40112 -0.0743326 2.38787 28 27 33 
0.386463 0.398823 2.2913 107 116 97 
0.401006 0.362058 2.3453 109 101 124 
0.391485 0.462156 2.28854 45 51 73 
0.392781 0.472514 2.289 115 121 147 
0.412337 -0.14561 2.39982 69 75 91 
0.413393 -0.131305 2.3979 69 75 91 
0.414302 -0.112071 2.39534 68 70 93 
0.398589 0.481586 2.29253 111 113 136 
0.401886 0.464271 2.29773 54 61 80 
0.439784 -0.139003 2.43752 162 171 204 
0.432312 0.188213 2.39462 149 158 191 
0.438342 0.00365544 2.41272 149 164 195 
0.436236 0.197943 2.40133 109 99 123 
0.419454 0.558397 2.30669 52 52 76 
0.420908 0.508744 2.30454 92 104 126 
0.437369 0.179318 2.39173 158 167 200 
0.441157 0.0243442 2.40463 158 172 207 
0.431445 0.444541 2.33723 31 36 56 
0.448684 0.0959889 2.42673 159 164 196 
0.450502 -0.0721399 2.43411 58 64 90 
0.457028 0.0582374 2.43863 166 179 214 
0.438003 0.524358 2.33567 37 43 67 
0.452088 0.389304 2.38984 105 111 107 
0.472842 -0.168901 2.49088 131 139 178 
0.466766 0.305387 2.41992 96 88 125 
0.467886 0.357854 2.41686 68 65 108 
0.458974 0.522584 2.35667 37 43 67 
0.471704 0.391891 2.40381 106 109 116 
0.464437 0.540638 2.35944 45 50 72 
0.478902 0.340254 2.42828 210 227 255 
0.485651 0.33508 2.43633 63 73 132 
0.497825 0.389782 2.45402 64 72 93 
0.493139 0.566295 2.38681 52 57 76 
0.549056 -0.411837 2.6072 183 197 234 
0.55119 -0.420931 2.61562 131 139 178 
0.575563 -0.569894 2.66373 137 143 177 
0.538786 0.425214 2.46749 107 113 129 
0.549345 0.405522 2.4863 101 104 123 
0.548321 0.543872 2.45595 108 109 137 
0.592609 -0.0706042 2.61665 137 146 177 
0.599915 -0.0633174 2.6215 79 88 121 
0.599975 -0.0767896 2.62067 64 78 107 
0.580162 0.414933 2.52345 66 67 69 
0.598647 0.2886 2.60047 155 163 199 
0.624023 -0.312719 2.70678 151 160 193 
0.615757 -0.106298 2.65872 24 27 34 
0.618273 -0.100535 2.63136 58 65 71 
0.635409 -0.333834 2.6975 78 87 126 
0.621963 -0.091344 2.63971 27 29 42 
0.619203 0.0419144 2.62688 113 118 150 
0.621121 -0.1284 2.62568 86 93 112 
0.622735 -0.0177969 2.62973 39 45 59 
0.622827 0.0721451 2.6214 33 38 57 
0.648575 -0.352447 2.72826 147 159 199 
0.599452 0.555976 2.51838 85 93 116 
0.632763 0.00123075 2.64548 142 155 187 
0.632254 0.0611977 2.64297 134 145 177 
0.627991 0.210495 2.62168 146 151 189 
0.632419 -0.0173912 2.63476 77 84 102 
0.597852 0.415543 2.48837 19 25 49 
0.631903 0.154387 2.62694 134 143 176 
0.639427 -0.179839 2.65303 107 112 134 
0.661424 -0.401295 2.73438 108 107 149 
0.60766 0.429664 2.50925 90 94 95 
0.650707 -0.00909772 2.68504 31 30 38 
0.613653 0.537113 2.51672 82 83 103 
0.688412 -0.477926 2.78373 169 177 213 
0.667143 0.0557744 2.69517 120 106 131 
0.670981 -0.0054968 2.7076 92 93 114 
0.703874 -0.507456 2.80025 130 130 166 
0.671736 0.320179 2.64238 127 136 167 
0.722387 -0.495811 2.83813 170 178 217 
0.711103 -0.320031 2.78823 77 66 98 
0.715187 -0.487348 2.79587 168 178 214 
0.850615 -0.172266 3.25772 25 24 38 
0.754435 -0.250198 2.87045 46 43 54 
0.748259 -0.521931 2.84603 153 163 198 
0.74468 -0.378703 2.83133 61 52 79 
0.731451 0.324201 2.77993 22 28 62 
0.853309 -0.0337535 3.23979 110 108 130 
0.872417 -0.15002 3.30064 31 29 42 
0.863935 -0.0667032 3.26154 110 105 125 
0.754696 -0.417714 2.84072 81 71 106 
0.874939 -0.166599 3.27823 88 88 114 
0.78595 -0.374685 2.92466 119 115 142 
0.791451 -0.817668 2.94363 137 145 181 
0.877865 -0.0623203 3.24711 119 121 142 
0.890278 -0.0203397 3.29088 34 29 49 
0.826047 -0.812286 3.0469 161 173 213 
0.820955 -0.763138 3.01906 156 169 204 
0.784039 -0.421846 2.87605 55 49 77 
0.899557 -0.0546736 3.30226 104 95 126 
0.788222 -0.436723 2.88068 85 74 108 
0.868478 -0.315578 3.16868 101 98 127 
0.805948 -0.436811 2.93223 121 115 141 
0.832459 -0.35818 3.01904 93 89 116 
0.715998 0.513211 2.58681 43 49 71 
0.806531 -0.439425 2.90437 47 43 68 
0.833031 -0.818334 2.97928 41 47 69 
0.817976 -0.448257 2.92038 111 111 135 
0.851991 -0.858039 3.03073 146 155 194 
0.837193 -0.731412 2.97581 42 49 67 
0.829569 -0.453184 2.93187 45 42 63 
0.874247 -0.419571 3.07348 117 117 145 
0.84133 -0.461527 2.94642 111 107 132 
0.718551 0.528512 2.50059 38 46 67 
0.850587 -0.487971 2.95902 75 69 103 
0.87583 -0.725751 3.0121 147 158 186 
0.867869 -0.471782 2.98006 101 105 130 
0.696816 0.560714 2.38727 27 32 51 
0.944684 -0.254458 3.23728 95 92 121 
0.873896 -0.463238 2.99323 79 82 99 
0.877897 -0.582732 3.0035 37 38 68 
0.886924 -0.744868 3.03176 145 154 183 
0.873433 -0.507156 2.98339 123 114 141 
0.877048 -0.588894 2.99108 116 132 155 
0.951413 0.41763 3.24711 91 89 110 
0.877541 -0.495753 2.99091 81 72 103 
0.951899 0.389649 3.24723 96 91 121 
0.879579 -0.47074 2.99006 37 38 58 
0.889751 -0.582582 3.01569 98 110 134 
0.916062 -0.777544 3.08651 129 135 159 
0.895188 -0.476731 3.01193 102 98 121 
0.938651 -0.888461 3.14708 104 110 134 
0.902669 -0.578753 3.01681 139 157 181 
0.906477 -0.475107 3.02266 41 42 62 
0.982982 0.220272 3.27126 55 51 66 
0.926615 -0.468159 3.05897 85 90 110 
0.945203 -0.801787 3.11736 123 131 152 
0.921626 -0.478696 3.03854 105 107 130 
0.998829 -0.164543 3.28917 94 98 123 
0.810493 0.538826 2.66251 79 92 126 
0.946147 -0.694993 3.1028 152 163 191 
0.962424 -0.398094 3.15032 94 91 118 
0.946043 -0.65819 3.07966 54 54 92 
0.728812 0.570445 2.37036 42 49 68 
0.953873 -0.464769 3.09101 91 88 109 
0.97939 -0.761473 3.16653 127 134 160 
0.950231 -0.476488 3.07178 108 106 130 
1.0222 -0.0209093 3.29508 77 73 100 
0.958437 -0.470349 3.07948 46 41 63 
1.02221 0.0419038 3.26973 88 83 106 
0.981371 -0.457164 3.12177 87 92 112 
0.976559 -0.468201 3.09674 102 102 128 
1.03102 0.00652826 3.26576 100 94 122 
0.983571 -0.516948 3.10686 30 32 44 
1.01306 0.53123 3.20167 44 44 70 
1.02036 0.432309 3.21654 91 78 96 
1.02434 0.448174 3.22446 94 80 103 
1.03619 0.0243781 3.25735 25 23 36 
1.05029 -0.0117255 3.29499 29 27 40 
1.02322 0.466174 3.20457 93 75 97 
1.00195 -0.543353 3.13386 54 57 92 
1.00763 -0.446135 3.15131 88 83 105 
1.02495 0.513303 3.20311 89 89 117 
1.00451 -0.575176 3.13349 136 148 172 
1.03846 0.440828 3.2335 32 24 37 
1.04891 0.371924 3.26539 81 80 98 
1.04674 0.386039 3.25841 83 79 102 
1.01189 -0.450557 3.13803 42 39 58 
1.05514 0.393132 3.26721 43 35 50 
1.03807 0.529131 3.20534 46 43 64 
1.03281 -0.580738 3.18323 124 128 155 
1.05699 0.415178 3.25773 26 26 38 
0.859118 0.571451 2.57988 66 77 109 
1.08543 0.436403 3.23479 93 78 99 
0.976241 0.565158 2.84496 74 88 123 
-0.67434 -0.39653 1.64369 167 184 230 
-0.674963 -0.482494 1.66065 116 132 165 
-0.661588 -0.303995 1.62765 55 59 84 
-0.658363 -0.325399 1.62617 36 41 47 
-0.658668 -0.383154 1.64146 170 187 231 
-0.612108 0.414891 1.51599 42 42 68 
-0.612004 0.346205 1.5296 25 27 40 
-0.60986 0.314526 1.53498 33 37 48 
-0.644312 -0.494596 1.65219 77 84 103 
-0.65992 0.112924 1.62576 27 38 68 
-0.602077 0.336821 1.53837 31 37 53 
-0.633498 -0.286688 1.63849 182 196 225 
-0.638166 -0.267303 1.64973 43 50 60 
-0.632454 -0.248496 1.64003 163 173 208 
-0.6118 0.111288 1.58771 29 44 75 
-0.616182 -0.18081 1.62096 47 44 51 
-0.59116 0.439791 1.53672 113 115 140 
-0.620548 -0.227509 1.64081 87 99 147 
-0.61452 -0.219747 1.63349 126 148 197 
-0.606045 0.137555 1.59073 19 25 47 
-0.628069 -0.471258 1.67865 149 155 189 
-0.587625 0.334704 1.5542 35 36 54 
-0.617626 -0.440614 1.67369 69 69 107 
-0.61598 -0.456816 1.67327 148 159 189 
-0.614517 -0.516568 1.68556 70 66 80 
-0.609951 -0.381957 1.6674 96 112 145 
-0.603256 -0.199096 1.64318 115 133 157 
-0.618726 -0.274998 1.68467 162 179 209 
-0.61925 -0.262242 1.70041 127 133 157 
-0.59873 -0.237434 1.66848 84 97 132 
-0.609724 -0.31813 1.69819 124 125 146 
-0.568574 0.333569 1.57701 48 48 76 
-0.607048 -0.30483 1.69994 45 50 82 
-0.618623 -0.341591 1.75041 94 107 142 
-0.62081 -0.562864 1.77845 33 38 70 
-0.606694 0.012089 1.71189 82 95 130 
-0.614253 -0.305505 1.75796 57 54 71 
-0.611072 -0.689633 1.8042 86 89 134 
-0.607766 -0.408636 1.77235 86 95 128 
-0.583533 0.369169 1.66014 103 111 130 
-0.604789 -0.375514 1.7703 126 141 174 
-0.601232 -0.205381 1.75181 86 94 130 
-0.600911 -0.329581 1.76761 104 111 153 
-0.60259 -0.467745 1.78418 84 96 134 
-0.596369 -0.102663 1.73979 96 92 117 
-0.595382 -0.1669 1.75165 130 136 168 
-0.57404 0.364739 1.66666 47 45 66 
-0.582958 0.286323 1.69337 72 78 40 
-0.598235 -0.542552 1.80129 71 80 119 
-0.58515 0.0187758 1.73402 89 95 131 
-0.51064 0.22829 1.71981 128 150 164 
-0.503282 0.233218 1.72838 110 71 138 
-0.502647 0.227021 1.73817 127 153 166 
-0.510175 0.411312 1.73602 41 37 60 
-0.488718 0.25817 1.73856 52 73 140 
-0.508593 -0.724829 1.92561 105 113 159 
-0.483576 -0.191982 1.88003 104 106 131 
-0.482578 -0.625713 1.94063 87 92 134 
-0.464869 -0.339529 1.92208 130 138 174 
-0.442972 0.211166 1.80414 79 156 224 
-0.455274 0.0660522 1.87497 95 107 145 
-0.445795 0.462212 1.80513 98 103 135 
-0.418924 -0.223469 1.9592 123 141 181 
-0.395825 0.198599 1.84488 22 32 91 
-0.36129 0.48839 1.89654 27 28 58 
-0.357478 0.454862 1.90658 38 38 66 
-0.35872 0.298977 1.94354 104 115 145 
-0.346843 0.388807 1.92231 39 34 56 
-0.3301 0.272681 1.96978 44 52 75 
-0.329214 0.196429 1.98329 62 66 95 
-0.323045 0.324509 1.95517 27 31 42 
-0.317669 0.054171 2.0069 146 173 220 
-0.317394 0.0374621 2.00941 161 190 234 
-0.314873 0.271597 1.97611 95 108 161 
-0.31536 0.304442 1.97191 93 115 173 
-0.303792 0.442441 1.93532 88 119 174 
-0.272579 -0.049462 2.09674 127 131 158 
-0.269192 -0.0173009 2.0956 76 82 114 
-0.0404866 -0.15578 1.88534 102 92 116 
-0.0383183 -0.0620423 1.9055 54 52 74 
-0.0241348 -0.452469 1.96756 152 161 192 
-0.028863 -0.122835 1.89932 22 23 28 
-0.0138824 -0.629198 2.00576 117 115 154 
-0.0439015 0.46833 1.78933 84 66 88 
-0.020313 -0.112673 1.91398 105 103 125 
-0.0282807 0.331098 1.83285 118 117 69 
-0.0299993 0.446926 1.81035 85 80 121 
-0.00938105 -0.146354 1.94657 136 128 152 
-0.00814615 -0.110539 1.93052 105 105 131 
0.0104092 -0.536881 2.00542 173 182 221 
-0.0954699 0.116157 2.40327 25 38 73 
-0.0166965 0.456502 1.82521 213 224 255 
0.00459659 -0.116418 1.93621 91 90 104 
0.00909693 -0.285284 1.98738 133 123 147 
-0.00682949 0.41653 1.84027 44 43 109 
-0.0812265 0.118237 2.41808 146 168 244 
-0.00313716 0.438695 1.8409 86 77 122 
0.0246285 -0.334924 2.00999 69 55 81 
-0.0691709 0.112567 2.43391 9 17 63 
0.031291 -0.346304 2.01974 65 49 76 
0.0408729 -0.55994 2.05587 134 137 180 
-0.0679515 0.365499 2.39814 56 80 108 
0.0383467 -0.356787 2.02924 64 51 77 
0.0714963 -0.624788 2.10774 163 172 213 
0.0775473 -0.636466 2.11673 164 173 214 
0.0813789 -0.488854 2.11146 140 150 186 
0.0867719 -0.431639 2.09688 116 112 137 
0.0962257 -0.405666 2.09897 68 56 80 
0.038835 0.433659 2.14661 135 149 178 
0.117924 -0.599975 2.12719 115 105 130 
0.107037 -0.40625 2.10775 108 94 120 
0.140822 -0.673429 2.16757 119 121 144 
0.120296 -0.438479 2.22898 62 46 72 
0.135047 -0.429674 2.19538 57 43 66 
0.149744 -0.420321 2.16191 54 42 64 
0.16359 -0.607262 2.20846 107 98 125 
0.165164 -0.628102 2.21057 100 88 108 
0.174615 -0.626249 2.2179 91 82 103 
0.176163 -0.598456 2.20765 71 69 83 
0.174035 -0.526716 2.18565 21 20 28 
0.179847 -0.490012 2.19482 51 41 65 
0.191267 -0.651246 2.2334 43 37 63 
0.188474 -0.476197 2.19935 46 33 50 
0.18855 -0.464125 2.19701 54 40 63 
0.132783 0.48533 2.16731 77 90 124 
0.210131 -0.627139 2.24656 55 49 75 
0.138434 0.194014 2.52787 72 81 110 
0.204249 -0.478348 2.21711 55 46 65 
0.237081 -0.385307 2.2555 105 99 125 
0.257772 -0.528017 2.27652 75 70 102 
0.27197 -0.437447 2.28367 95 91 114 
0.35416 -0.61026 2.42185 131 143 191 
0.312173 0.0560547 2.40595 73 86 120 
0.291468 0.510755 2.27846 86 99 133 
0.357686 -0.358604 2.37369 155 168 202 
0.366507 -0.161577 2.37151 119 117 141 
0.369827 -0.125809 2.36201 132 132 158 
0.366854 -0.0401572 2.34018 94 92 116 
0.32396 0.528875 2.26748 38 45 71 
0.368772 -0.0601582 2.34363 105 109 136 
0.379464 -0.161897 2.3826 114 105 136 
0.385953 -0.101945 2.38587 126 127 148 
0.395463 -0.0577885 2.38225 99 113 140 
0.383337 0.185334 2.3388 109 115 141 
0.437701 -0.334564 2.47389 120 128 167 
0.375608 0.406868 2.27826 36 34 48 
0.384171 0.35177 2.31691 107 97 122 
0.417794 0.0312972 2.39668 20 21 26 
0.42816 -0.055452 2.41145 89 101 125 
0.388957 0.536047 2.27103 110 107 128 
0.46665 -0.278885 2.49678 121 133 175 
0.396834 0.51325 2.28014 133 133 157 
0.437702 0.0972746 2.41779 110 100 127 
0.438009 0.110459 2.41507 114 105 134 
0.404512 0.47298 2.29712 107 117 144 
0.406571 0.455961 2.29855 105 108 127 
0.408006 0.483232 2.29741 89 100 122 
0.425759 0.391444 2.34456 51 54 59 
0.47827 -0.11857 2.49036 119 130 175 
0.421172 0.509448 2.30831 100 110 135 
0.434436 0.435532 2.33491 90 94 119 
0.452407 0.28389 2.40114 153 167 204 
0.461726 0.492206 2.35889 27 30 45 
0.575416 -0.56963 2.66253 133 141 180 
0.489516 0.456174 2.39581 27 34 52 
0.51495 0.399115 2.4478 110 114 126 
0.507577 0.473632 2.4098 94 99 121 
0.521547 0.419167 2.44019 95 102 118 
0.602815 -0.196228 2.64533 143 152 193 
0.620642 -0.309573 2.6823 136 144 183 
0.532028 0.505916 2.43336 88 95 123 
0.599894 0.116558 2.59408 96 103 149 
0.649348 -0.32014 2.70912 26 31 51 
0.653413 -0.335824 2.71543 37 44 62 
0.6072 0.128094 2.60916 140 152 194 
0.672461 -0.428925 2.75776 141 153 191 
0.5655 0.529294 2.46874 88 93 122 
0.632247 0.0340721 2.64721 151 160 201 
0.703586 -0.507045 2.79867 117 122 164 
0.623116 0.320679 2.58748 38 41 60 
0.74195 -0.406792 2.82926 129 115 141 
0.771423 -0.0410226 3.1613 25 23 34 
0.771297 -0.0226932 3.15304 14 22 41 
0.774052 -0.524384 2.88296 63 78 107 
0.790311 -0.0384406 3.18199 27 26 40 
0.645882 0.546848 2.5591 29 34 56 
0.787696 -0.536679 2.89626 64 80 114 
0.654589 0.509205 2.57517 100 104 133 
0.829247 -0.192927 3.23084 98 98 132 
0.81753 -0.587695 2.9434 140 152 190 
0.803802 0.254239 3.15261 67 102 122 
0.825386 -0.477795 2.93196 67 59 98 
0.826354 -0.519376 2.91286 93 97 126 
0.8391 -0.502026 2.95557 126 139 171 
0.837102 -0.526308 2.9263 93 103 128 
0.843228 -0.532636 2.93491 48 59 91 
0.721348 0.3386 2.62829 15 30 71 
0.883637 -0.0634982 3.27592 115 122 148 
0.904593 -0.0185392 3.30817 27 25 39 
0.891743 -0.610598 3.02174 102 124 148 
0.909061 -0.357884 3.19493 72 69 86 
0.846877 0.501666 3.16634 23 24 42 
0.924053 -0.0922947 3.31784 37 35 49 
0.906196 -0.560055 3.03239 125 144 176 
0.904571 -0.545297 3.0149 70 93 127 
0.913974 -0.530687 3.02627 84 97 114 
0.944035 -0.0617708 3.31676 40 35 65 
0.94564 -0.0107139 3.31115 49 48 79 
0.95357 -0.709764 3.10145 73 88 129 
0.946597 -0.658598 3.08202 49 48 90 
0.944889 0.105306 3.29393 44 38 66 
0.943716 0.155712 3.28642 42 37 60 
0.993468 -0.78634 3.19231 49 44 74 
0.944115 0.178841 3.28245 45 39 65 
0.943815 0.224747 3.27563 39 30 59 
0.94353 0.247536 3.27262 46 40 68 
0.728035 0.557009 2.41454 33 47 82 
0.963498 -0.454628 3.11828 33 27 37 
0.94357 0.270692 3.27017 48 37 67 
0.942916 0.293784 3.26615 46 40 68 
0.94265 0.317212 3.26204 46 38 61 
0.942801 0.341472 3.25915 47 41 69 
0.96164 0.188184 3.28997 96 92 119 
0.942823 0.36535 3.25544 44 40 65 
0.983333 -0.496828 3.11078 121 126 158 
0.989137 -0.465943 3.12076 38 30 53 
1.00062 -0.542462 3.12874 50 58 104 
0.985874 0.157452 3.28573 71 71 97 
0.795681 0.532338 2.56636 68 80 120 
0.980181 0.426103 3.24135 25 23 36 
1.01832 0.0998351 3.29076 105 125 160 
1.02328 0.0116745 3.25033 106 108 133 
0.820226 0.556822 2.5955 75 87 129 
1.03178 0.0833695 3.29947 38 32 58 
0.987143 0.467908 3.21802 81 72 91 
0.997621 0.424887 3.23758 20 18 31 
1.03483 0.193082 3.28065 53 42 72 
1.00546 0.431816 3.22503 82 73 92 
1.00334 0.449754 3.22044 39 31 46 
0.87614 0.548804 2.73205 76 85 126 
1.04736 0.254665 3.27445 74 70 93 
1.02406 0.511871 3.19941 97 97 125 
1.08083 0.0247839 3.26794 72 71 89 
0.908657 0.55421 2.76791 74 87 129 
1.04751 0.43417 3.23624 86 75 92 
1.05443 0.428106 3.2446 20 16 30 
1.03912 0.529564 3.20943 48 44 67 
0.896258 0.550393 2.68087 71 85 122 
0.866404 0.593817 2.4766 38 65 60 
-0.58358 -0.141828 1.85456 30 34 63 
-0.505951 0.453932 1.73849 47 44 65 
-0.501541 0.402337 1.75177 96 98 119 
-0.498648 0.423796 1.75075 47 43 66 
-0.48138 0.381472 1.77638 55 52 73 
-0.502178 -0.0962725 1.86549 45 47 46 
-0.474763 0.418701 1.77905 44 46 69 
-0.474117 0.382316 1.78542 49 50 70 
-0.469156 0.363659 1.79263 37 38 58 
-0.458147 0.24698 1.77589 55 53 67 
-0.412577 0.262048 1.83057 164 185 238 
-0.407815 0.237013 1.82219 203 217 255 
-0.37917 0.342689 1.85411 52 55 74 
-0.332104 0.329598 1.96518 37 37 47 
-0.330722 0.0594969 2.00751 67 76 105 
-0.30862 0.320607 1.96807 169 191 230 
-0.298238 0.419566 1.93316 35 41 73 
-0.304814 0.323581 1.97849 61 67 103 
-0.281426 0.0845274 2.09044 139 148 179 
-0.277491 -0.0947014 2.10078 122 126 153 
-0.255737 -0.0305956 2.09863 86 77 98 
-0.233413 0.25803 2.09841 53 46 62 
-0.207223 0.301037 2.00902 94 84 108 
-0.220474 -0.0628113 2.17818 33 30 41 
-0.218145 0.276727 2.20113 37 45 66 
-0.126102 -0.396627 1.95699 102 107 137 
-0.0988404 0.487008 1.74585 115 114 148 
-0.100416 -0.22525 1.90218 37 35 46 
-0.0824559 0.4827 1.73566 113 116 151 
-0.078747 -0.0542568 1.8978 47 41 51 
-0.0711098 -0.0783787 1.86549 120 117 136 
-0.0695171 -0.210419 1.88399 118 113 133 
-0.0668882 -0.119107 1.85371 111 108 125 
-0.0670935 -0.184676 1.88161 119 114 137 
-0.0545236 -0.354879 1.8946 103 89 106 
-0.0517421 -0.138316 1.87367 94 93 107 
-0.0457776 -0.249601 1.90704 55 53 67 
-0.0392948 -0.206414 1.89603 120 106 123 
-0.0393557 -0.115414 1.89682 130 128 142 
-0.037672 -0.224617 1.90116 118 105 123 
-0.0349124 -0.144935 1.89093 72 67 87 
-0.0325442 0.258524 1.88264 26 34 53 
-0.0237026 0.439085 1.8208 44 54 89 
-0.0226988 -0.304598 1.92838 125 108 126 
-0.0152825 0.294116 1.89434 81 86 106 
-0.00137424 -0.211362 1.96315 15 13 26 
0.0103449 -0.127794 1.94667 88 91 110 
0.0653635 -0.401947 2.0669 105 93 117 
0.0757947 -0.394097 2.07845 88 73 94 
0.0852865 0.511675 1.95445 82 88 110 
0.10285 -0.453099 2.09412 134 131 148 
0.104994 -0.416007 2.11231 111 98 116 
0.130374 -0.517355 2.13769 63 55 78 
0.157492 -0.492934 2.16452 106 102 119 
0.161449 -0.419965 2.17769 69 56 82 
0.182818 0.296086 2.36124 28 36 59 
0.170144 -0.491287 2.17859 108 95 115 
0.186833 0.525159 2.04887 83 87 112 
0.203815 -0.541184 2.22247 80 74 100 
0.206289 -0.552642 2.23686 142 128 151 
0.220736 -0.482358 2.24851 136 123 143 
0.260078 -0.382267 2.27208 111 107 130 
0.268235 0.500812 2.23863 96 109 141 
0.309313 0.0287886 2.42805 47 41 53 
0.278854 0.520174 2.17819 130 144 181 
0.313299 0.0543407 2.41215 86 92 114 
0.312308 0.20889 2.38125 87 94 122 
0.318007 0.0987452 2.40962 85 86 114 
0.319283 0.199827 2.38541 89 100 130 
0.311079 0.532547 2.28651 43 48 70 
0.338586 0.0599082 2.4071 38 34 48 
0.342798 -0.0809478 2.36206 34 32 43 
0.347275 -0.115788 2.37156 53 51 65 
0.338456 0.53298 2.28349 35 41 63 
0.377653 -0.614016 2.45383 183 197 232 
0.341454 0.55036 2.21794 24 50 39 
0.374141 0.0203466 2.36886 34 31 40 
0.374423 0.0761128 2.36437 43 41 52 
0.376153 0.150948 2.35057 38 36 47 
0.363753 0.390589 2.26945 100 117 143 
0.387434 -0.295882 2.40428 168 182 211 
0.382841 0.0985657 2.35109 120 113 129 
0.371913 0.544091 2.27116 42 42 54 
0.376273 0.408317 2.29069 35 33 44 
0.389668 0.0501492 2.36551 95 93 115 
0.387378 0.141651 2.3508 136 137 158 
0.383028 0.322643 2.31935 109 104 124 
0.387048 0.270569 2.33069 112 108 133 
0.383841 0.378111 2.30084 102 104 67 
0.38199 0.475363 2.27828 53 51 65 
0.409342 -0.260534 2.42209 170 180 215 
0.387421 0.445927 2.28419 92 100 121 
0.387745 0.522089 2.27516 135 131 145 
0.411808 -0.158634 2.40129 73 79 95 
0.425228 0.0679832 2.40933 90 86 111 
0.408457 0.484384 2.30124 87 94 113 
0.428468 0.102754 2.40506 134 134 158 
0.439663 0.111044 2.42738 117 108 135 
0.446869 -0.0548151 2.43668 126 139 171 
0.471292 -0.592853 2.55432 128 137 178 
0.457723 -0.071864 2.42721 160 171 203 
0.47994 0.327784 2.43462 216 230 255 
0.479064 0.362096 2.42899 124 116 155 
0.491611 0.362467 2.44359 73 73 123 
0.485077 0.416918 2.40825 118 125 131 
0.481903 0.540363 2.38103 34 39 59 
0.565367 0.0173658 2.58003 129 132 173 
0.569719 0.0586153 2.55563 117 126 165 
0.542555 0.576931 2.41992 44 59 62 
0.604179 -0.0433575 2.64862 138 152 187 
0.547538 0.580257 2.39656 108 118 145 
0.609321 -0.00333056 2.66062 142 155 189 
0.613967 0.130211 2.67722 152 165 199 
0.599915 0.0812865 2.61516 157 161 196 
0.583022 0.417041 2.53586 66 67 69 
0.610498 0.294647 2.65222 155 163 199 
0.609953 -0.106059 2.63288 24 27 34 
0.423852 0.500936 1.81267 85 85 123 
0.611786 0.227994 2.59815 142 148 182 
0.622514 -0.120194 2.62094 63 68 90 
0.652314 -0.354419 2.74417 147 159 199 
0.58405 0.583921 2.44425 34 44 56 
0.626572 0.137797 2.61932 37 39 60 
0.642817 -0.10505 2.66917 28 30 42 
0.664367 -0.390505 2.75146 158 167 208 
0.631808 0.33959 2.60543 145 158 190 
0.642564 0.148304 2.6298 37 35 48 
0.639825 0.377258 2.6055 111 96 129 
0.617685 0.493006 2.51136 16 30 56 
0.651283 0.142924 2.6377 93 104 126 
0.621052 0.537326 2.49124 70 90 123 
0.669896 0.153053 2.68325 96 98 121 
0.659847 0.331859 2.63495 33 31 45 
0.663365 0.262432 2.64216 131 138 166 
0.709125 -0.511372 2.82073 130 130 166 
0.41277 0.479135 1.61862 75 78 95 
0.67677 0.345324 2.65364 145 146 167 
0.721499 -0.49154 2.82108 168 178 214 
0.71734 -0.362041 2.79165 83 72 104 
0.728899 -0.351824 2.81563 70 61 90 
0.731504 -0.364348 2.81534 82 75 109 
0.68102 0.525726 2.61031 26 35 50 
0.851122 -0.0917589 3.2414 46 45 61 
0.752321 -0.524788 2.86184 153 163 198 
0.751637 -0.395117 2.85148 84 70 105 
0.771988 -0.374526 2.91947 118 111 142 
0.875724 -0.150746 3.3132 31 29 42 
0.865666 -0.0259351 3.27414 38 35 52 
0.751357 -0.431708 2.82649 131 122 153 
0.770628 -0.571679 2.89283 173 182 225 
0.811714 -0.336355 3.05092 46 44 55 
0.877636 -0.110427 3.29381 32 29 46 
0.880554 -0.0698357 3.29859 32 30 51 
0.766495 -0.403797 2.86566 55 46 75 
0.87927 -0.0226704 3.28412 34 30 47 
0.770884 -0.418321 2.87093 81 70 104 
0.791854 -0.377536 2.94749 119 115 142 
0.51825 0.515695 1.91889 123 127 154 
0.874251 -0.0617295 3.23413 119 121 142 
0.775487 -0.439419 2.86443 81 74 108 
0.773956 -0.516153 2.85534 89 98 113 
0.529268 0.516748 1.9396 126 132 164 
0.795796 -0.415666 2.92009 127 121 149 
0.786708 -0.423435 2.88667 55 49 77 
0.793473 -0.439685 2.89997 85 74 108 
0.725759 0.341403 2.64847 23 36 68 
0.802274 -0.435285 2.91808 121 115 141 
0.819352 -0.414983 2.97229 65 60 92 
0.72918 0.338522 2.63468 95 118 150 
0.832232 -0.726796 2.95801 42 49 67 
0.831661 -0.56004 2.94076 39 46 64 
0.692054 0.550868 2.44615 27 37 49 
0.850609 -0.440005 3.00133 124 120 147 
0.866298 -0.415495 3.04667 117 117 145 
0.482949 0.487597 1.6935 61 81 80 
0.853031 -0.825227 2.98833 98 108 133 
0.735763 0.519905 2.5742 122 134 174 
0.856561 -0.465732 2.9705 40 37 58 
0.875335 -0.754208 3.03198 153 158 178 
0.861518 -0.520609 2.97542 44 46 67 
0.876457 -0.679443 3.02607 77 85 121 
0.857244 -0.563423 2.95907 118 115 144 
0.724104 0.540257 2.4983 45 55 82 
0.89328 -0.748238 3.07825 136 150 179 
0.880297 -0.729568 3.02818 147 158 186 
0.884305 -0.757682 3.03977 44 44 78 
0.885204 -0.625901 3.03256 39 43 68 
0.889969 -0.74734 3.04228 145 154 183 
0.87736 -0.509652 2.9973 123 114 141 
0.951314 0.434249 3.25093 93 85 106 
0.911023 -0.790499 3.1073 80 73 91 
0.896579 -0.712007 3.05447 102 112 147 
0.889725 -0.569634 3.02702 119 128 159 
0.894163 -0.603953 3.02849 63 67 94 
0.734778 0.537827 2.48698 111 121 156 
0.918823 -0.779707 3.09667 129 135 159 
0.921463 -0.753274 3.10132 142 146 171 
0.904476 -0.618028 3.03209 146 158 184 
0.980986 0.219732 3.26473 55 51 66 
0.619021 0.534504 2.05465 79 79 115 
0.991236 0.192095 3.29162 95 91 106 
0.628876 0.53691 2.08044 129 129 163 
0.948539 -0.765835 3.13896 50 47 68 
0.94487 -0.748577 3.11409 141 146 168 
0.925856 -0.480718 3.05331 105 107 130 
0.991462 0.38953 3.26597 84 82 104 
0.938741 -0.458274 3.08644 43 42 56 
0.738998 0.548848 2.42221 108 122 157 
0.936698 -0.644872 3.067 156 163 192 
0.958732 -0.749109 3.13988 91 96 126 
0.991069 0.435395 3.2467 75 67 78 
0.945581 -0.76448 3.09438 128 140 166 
0.959126 -0.829018 3.13371 156 164 187 
1.01995 -0.109178 3.32801 85 81 108 
0.958215 -0.788242 3.12037 118 124 146 
0.9575 -0.731936 3.11717 110 114 151 
0.956819 -0.709839 3.11636 87 96 127 
0.50999 0.487902 1.65564 89 113 100 
0.722488 0.565342 2.34983 42 49 68 
1.00057 0.425256 3.2474 29 23 33 
0.959159 -0.651234 3.10855 93 102 135 
0.565372 0.508253 1.82707 79 88 117 
1.02532 -0.060677 3.31786 74 70 93 
0.958571 -0.657331 3.09388 151 166 189 
0.722383 0.573793 2.32608 99 106 132 
0.978691 -0.642684 3.13529 156 169 201 
0.773756 0.550666 2.4736 71 84 116 
1.02148 0.406476 3.26014 102 118 143 
0.719091 0.566538 2.28693 40 56 69 
1.02323 0.426816 3.25606 44 37 53 
0.742187 0.57044 2.35108 104 118 144 
1.01832 0.534148 3.21815 44 44 70 
1.02204 -0.303732 3.22663 29 28 36 
1.02775 0.435702 3.23989 91 78 96 
1.03908 0.429797 3.25735 28 24 39 
1.02185 -0.759593 3.19782 84 89 108 
1.00536 -0.545459 3.14453 54 57 92 
1.01608 -0.432344 3.17594 41 39 52 
1.02226 -0.681279 3.19406 138 149 179 
1.02461 -0.747773 3.19467 116 128 152 
1.00991 -0.461335 3.14284 119 115 140 
1.02729 -0.699084 3.19637 139 146 172 
0.848178 0.549793 2.63877 67 78 110 
1.05553 0.374288 3.2861 81 80 98 
1.02707 -0.710443 3.19338 139 147 170 
1.05552 -0.785456 3.2757 27 30 47 
1.0237 -0.585674 3.17745 86 89 122 
1.02204 -0.574328 3.16859 120 127 155 
1.03326 -0.59698 3.20179 126 132 158 
1.03357 -0.561604 3.19592 109 120 148 
1.03264 -0.431365 3.1776 87 86 104 
1.04092 -0.753228 3.20047 28 29 50 
1.03582 -0.4456 3.16965 106 102 125 
1.036 -0.544266 3.16936 56 48 71 
1.04404 -0.568035 3.1927 49 41 64 
1.0752 0.0203784 3.28446 30 25 32 
1.03404 -0.636099 3.15477 44 41 58 
1.03594 -0.529551 3.15859 53 53 81 
0.855248 0.558844 2.60436 117 131 168 
1.07929 -0.0189886 3.28832 81 77 100 
1.04352 -0.48818 3.1717 30 30 42 
1.0627 -0.290723 3.22664 101 102 132 
1.04331 -0.509848 3.1626 100 118 142 
1.07054 0.5297 3.23904 42 40 53 
1.07761 -0.80852 3.25222 144 163 195 
1.07001 0.385879 3.22058 24 29 58 
1.08177 0.408518 3.25591 96 106 131 
1.06377 -0.41764 3.1955 39 35 58 
1.08488 -0.538763 3.2559 45 52 80 
1.09377 0.00681094 3.2779 92 85 116 
0.899702 0.552361 2.69226 87 98 130 
0.61791 0.509224 1.84275 84 79 119 
1.08694 -0.440107 3.2395 85 80 112 
1.10087 0.392963 3.27378 20 26 40 
1.08437 0.455501 3.22438 92 78 103 
1.10402 -0.220872 3.27851 84 76 100 
1.11721 -0.00952951 3.31786 32 30 44 
1.0941 -0.373474 3.24625 36 34 48 
0.830645 0.577501 2.45983 69 80 110 
1.08847 -0.406152 3.2232 103 99 122 
1.09319 0.426071 3.23328 27 23 37 
1.09515 0.440327 3.22835 32 27 47 
1.09032 0.37808 3.20323 87 93 119 
1.1138 0.393272 3.27204 24 30 52 
1.07915 0.5269 3.16259 35 44 77 
1.0975 0.417764 3.21542 61 67 91 
1.10073 0.432143 3.22176 69 71 94 
1.1081 -0.378805 3.23757 94 95 116 
1.1156 0.41559 3.25115 22 25 40 
1.11823 -0.398684 3.25347 108 102 130 
1.12764 -0.335246 3.27589 85 83 105 
1.14222 -0.200022 3.31127 46 42 57 
1.13671 0.0981668 3.29159 104 123 153 
1.14203 0.0450787 3.30693 37 34 53 
1.13758 -0.0160803 3.28614 81 77 104 
1.13554 -0.37001 3.26466 110 105 128 
1.13727 -0.35615 3.26951 63 54 83 
1.14809 0.0564196 3.30064 88 82 108 
0.871151 0.582873 2.5006 71 80 111 
1.14945 0.0376124 3.29958 103 108 130 
0.970338 0.568761 2.78068 80 93 125 
0.869717 0.59659 2.4874 44 64 65 
1.1609 -0.282014 3.31848 40 36 51 
1.14172 0.408758 3.26511 97 107 134 
1.14234 0.0876991 3.26557 45 33 57 
1.13928 0.37851 3.25622 113 122 153 
1.14622 -0.319193 3.27227 96 92 115 
1.15104 -0.310125 3.28606 31 28 47 
1.15813 0.212574 3.29662 50 40 65 
1.13067 0.546495 3.21706 121 133 173 
1.15326 0.210909 3.2811 50 40 65 
1.15908 -0.268332 3.29475 81 76 98 
1.14723 0.247515 3.26077 56 44 68 
1.1533 -0.330861 3.27293 98 89 118 
1.15994 0.0915793 3.29243 52 41 55 
1.17019 -0.00983899 3.31907 49 45 62 
1.17121 0.0509289 3.3197 44 42 56 
1.14688 0.335252 3.24268 55 51 74 
1.17067 -0.276245 3.30782 31 26 46 
1.15399 0.369045 3.26056 55 53 75 
1.1569 0.239219 3.26711 60 57 74 
1.14873 0.442606 3.24371 91 77 103 
1.17785 -0.232292 3.31824 89 87 111 
1.17263 0.0240485 3.30155 26 23 34 
1.18445 -0.20894 3.33193 45 38 54 
1.16775 0.317407 3.28601 47 39 52 
1.15133 0.497667 3.23178 95 87 110 
1.17353 0.00850431 3.29264 39 35 50 
0.95231 0.580278 2.66984 64 75 105 
1.18405 -0.0496621 3.32025 94 82 104 
1.18803 -0.241425 3.32899 34 31 48 
1.18764 0.0401286 3.31697 98 100 121 
1.18719 0.0653083 3.31145 113 111 133 
1.18278 0.104312 3.29623 98 86 108 
1.16297 0.427615 3.23973 23 22 30 
1.20562 -0.412563 3.35307 159 176 206 
1.20135 -0.201276 3.33728 31 27 44 
1.20217 -0.154738 3.33914 81 78 99 
1.20798 -0.127029 3.34803 52 45 61 
1.17897 0.0165475 3.26742 115 112 133 
1.1958 -0.220515 3.30776 95 87 111 
1.20632 -0.112811 3.33218 84 80 103 
1.19518 0.0112501 3.30128 96 90 118 
0.565302 0.476036 1.55495 77 83 119 
1.1866 0.326278 3.27435 90 88 112 
0.966961 0.599078 2.665 118 133 172 
1.18706 0.379805 3.27293 93 98 118 
1.18853 0.416306 3.26925 73 75 96 
1.20824 -0.181303 3.31831 87 77 104 
1.20251 0.210758 3.3028 43 36 52 
1.21711 -0.119158 3.34016 30 22 43 
1.16139 0.575098 3.1779 132 146 185 
1.214 0.0835931 3.31874 82 81 97 
1.22172 -0.0794872 3.33962 33 29 43 
1.19257 0.438445 3.25993 67 66 84 
1.21499 -0.141289 3.31907 92 79 105 
1.19268 0.456117 3.25835 73 64 81 
1.22075 -0.00607791 3.33345 30 26 41 
1.22525 -0.0376311 3.34078 40 34 48 
0.997605 0.588043 2.71797 66 79 111 
1.21502 0.164508 3.30851 84 81 100 
1.18957 0.544176 3.23592 63 57 71 
1.21234 0.226547 3.28365 39 33 45 
1.22285 0.0597607 3.31166 75 72 91 
1.23529 -0.0628485 3.34448 90 77 103 
1.20999 0.202098 3.27487 37 34 53 
1.2164 0.326194 3.29076 79 79 103 
1.2259 0.16022 3.31536 35 29 43 
1.23277 -0.0227007 3.33115 91 77 102 
1.20526 0.414978 3.25489 35 37 52 
1.22418 0.368254 3.30537 80 85 105 
1.24507 0.0646139 3.36177 52 48 65 
1.20976 0.450122 3.26609 35 32 43 
1.20451 0.461016 3.24856 35 32 43 
1.22196 0.182861 3.29408 72 70 84 
1.2178 0.349012 3.28233 32 34 47 
1.20282 0.483921 3.24192 38 36 50 
1.22219 0.219673 3.29111 106 103 120 
1.20486 0.505274 3.24434 42 38 55 
1.22 0.276733 3.28314 41 37 51 
1.22006 0.314088 3.2825 36 30 42 
0.580598 0.475586 1.55249 125 136 168 
1.20156 0.521131 3.22493 25 29 40 
1.21841 0.069795 3.26835 23 21 35 
1.24643 0.0418855 3.34067 23 21 34 
1.22528 0.340143 3.28116 81 83 106 
0.999598 0.596847 2.67441 131 144 186 
1.23294 0.258188 3.30033 105 97 121 
1.22385 0.380923 3.27288 80 84 109 
1.20571 0.491352 3.22122 132 128 143 
1.23561 0.329217 3.29505 85 95 120 
1.19747 0.565172 3.19035 132 147 180 
1.25861 0.00204424 3.35151 26 27 45 
1.24111 0.17234 3.30378 52 56 81 
1.2352 0.367241 3.28764 88 94 116 
1.23107 0.443617 3.27378 128 126 148 
1.25846 0.0791226 3.34056 93 95 118 
1.26428 0.100309 3.3483 160 171 201 
1.21255 0.531213 3.21196 95 101 125 
1.25603 0.24822 3.32125 35 33 47 
1.2819 0.0905437 3.38907 42 49 78 
1.2474 0.33099 3.29663 57 62 91 
1.24593 0.360788 3.29163 33 40 56 
1.25821 0.188426 3.32131 107 115 138 
1.25382 0.224837 3.3098 110 102 125 
1.25463 0.237056 3.30761 113 108 131 
1.23961 0.410015 3.26728 101 110 139 
1.23145 0.509954 3.24583 139 135 160 
1.25226 0.432259 3.2949 54 50 67 
1.29525 -0.00579093 3.40666 36 41 61 
1.22343 0.560732 3.21319 127 117 141 
1.24043 0.5959 3.25684 84 83 115 
1.31275 -0.181993 3.44465 152 165 199 
1.0022 0.619395 2.62535 106 117 135 
1.24098 0.585504 3.25313 131 126 148 
1.27788 0.177381 3.3478 99 100 131 
1.01385 0.620846 2.65078 45 63 67 
1.29981 -0.00588419 3.39447 82 89 108 
1.27868 0.212679 3.33899 100 99 131 
1.26142 0.372579 3.29273 104 116 166 
1.30635 -0.0664373 3.40684 148 165 195 
1.27333 0.358814 3.3192 232 239 255 
1.24749 0.577712 3.24838 71 60 90 
1.28371 0.341973 3.3419 111 112 142 
1.26276 0.443422 3.28714 155 171 197 
1.27203 0.391942 3.30992 235 241 255 
1.24388 0.588707 3.23496 67 64 93 
1.29898 0.00928029 3.37512 122 138 171 
1.30823 0.354593 3.39774 112 120 157 
1.25847 0.508464 3.26749 154 159 189 
1.30726 -0.0128395 3.39256 70 85 108 
1.27563 0.375526 3.30837 104 121 175 
1.31245 -0.0410822 3.39804 153 163 199 
1.26232 0.457933 3.26652 163 169 201 
1.04125 0.611316 2.69013 64 73 104 
1.26274 0.592763 3.25827 99 101 122 
1.25316 0.42944 3.22988 24 33 74 
1.25754 0.508069 3.23277 45 54 93 
1.18002 0.546543 3.02684 38 52 81 
1.26326 0.447105 3.23954 154 173 205 
1.24804 0.588516 3.19942 42 54 92 
1.441 -0.661104 3.6858 183 197 232 
1.2786 0.503946 3.26245 157 164 193 
1.25142 0.492203 3.18984 156 163 192 
1.28552 0.540653 3.27327 95 102 118 
1.24818 0.58958 3.1764 128 144 177 
1.3755 -0.528149 3.49376 167 180 215 
1.46269 -0.926855 3.71417 107 107 143 
1.0803 0.62109 2.73972 66 76 103 
1.28627 0.495979 3.2548 158 161 192 
1.20829 0.606601 3.05413 89 100 130 
1.19787 0.600713 3.02645 89 100 130 
1.30302 0.527456 3.29205 72 79 98 
1.26637 0.60843 3.1919 129 141 179 
1.31421 0.603443 3.3122 54 66 92 
1.4815 -0.712517 3.72708 185 202 230 
1.49572 -0.950994 3.75291 114 111 142 
1.47444 -0.74833 3.6971 120 115 155 
1.47023 -0.536983 3.68553 168 180 218 
1.35966 0.523656 3.38385 163 170 196 
1.43145 -0.257665 3.56136 122 135 169 
1.44848 0.091285 3.59645 159 172 204 
1.24115 0.609476 3.07705 90 100 135 
1.35699 0.53451 3.35965 92 99 117 
1.49103 0.0295189 3.67358 168 178 213 
1.37312 0.51855 3.38053 156 165 194 
1.51215 -0.536801 3.72155 146 151 183 
1.33673 0.626369 3.28847 47 56 87 
1.54052 -1.0326 3.78629 57 79 129 
1.35745 0.615129 3.33696 37 48 78 
1.5149 -0.546837 3.71821 53 46 77 
1.26016 0.610959 3.09161 85 98 130 
1.51925 -0.56029 3.72593 41 36 58 
1.43506 0.186012 3.52031 170 179 218 
1.5241 -0.583215 3.73312 127 122 144 
1.42191 0.465298 3.48347 134 123 155 
1.46761 0.121984 3.5941 66 69 110 
1.47321 -0.0323321 3.60742 152 160 197 
1.57163 -0.725912 3.84022 112 107 137 
1.36501 0.537527 3.33596 22 36 65 
1.57617 -0.941318 3.84826 131 117 140 
1.38203 0.6276 3.37358 91 105 131 
1.49737 0.302307 3.65316 168 176 213 
1.37413 0.535467 3.34963 118 134 157 
1.5314 -0.574337 3.72933 109 116 135 
1.50122 -0.137268 3.65531 122 130 169 
1.47816 0.100962 3.59865 32 38 54 
1.48782 -0.077017 3.62064 160 163 198 
0.679792 0.490835 1.64878 127 132 162 
1.52068 -0.114394 3.69297 166 176 212 
1.56849 -0.528305 3.80186 148 161 193 
1.48058 0.359758 3.58875 172 178 212 
1.46913 0.357061 3.56011 172 178 212 
1.47984 0.101849 3.57818 75 83 96 
0.693182 0.493232 1.67052 133 130 161 
1.48129 0.116907 3.57831 89 106 126 
1.56033 -0.546693 3.76756 85 84 102 
1.56832 -0.539749 3.78401 49 42 73 
1.51216 0.20962 3.64881 24 27 42 
1.53016 -0.147354 3.69118 168 181 216 
1.58076 -0.590369 3.80994 125 121 144 
1.52239 -0.0524492 3.67075 40 47 66 
1.52091 -0.128436 3.6653 88 82 116 
1.48452 0.527157 3.57476 128 131 176 
1.17872 0.6453 2.8355 17 38 31 
0.850544 0.538774 2.04271 66 68 109 
1.16709 0.6454 2.80303 111 118 146 
1.5529 -0.235418 3.7308 125 129 166 
1.48343 0.102528 3.56053 29 30 48 
1.48118 0.543157 3.55512 98 91 125 
1.47263 0.511184 3.53233 108 120 172 
1.51124 0.295121 3.62234 93 94 125 
1.50893 0.110674 3.61463 115 116 136 
1.51694 0.38348 3.63415 123 115 139 
1.48006 0.54855 3.54441 88 92 117 
1.48665 0.499029 3.56009 233 238 255 
1.53317 0.213241 3.67055 28 37 54 
1.48241 0.531222 3.5431 232 237 255 
1.47542 0.579715 3.52303 107 117 127 
1.58756 -0.538887 3.78892 104 102 123 
1.50335 0.492212 3.58561 100 99 143 
1.55107 0.0503178 3.69672 116 128 152 
1.51358 0.115679 3.60576 90 81 108 
1.6745 -0.88791 3.98499 83 73 110 
1.73422 0.0917398 4.12392 115 111 136 
1.50856 0.506849 3.58731 121 112 157 
1.6514 -0.605237 3.92179 28 31 50 
1.60153 -0.289866 3.79715 167 180 215 
1.56829 0.0460038 3.7184 32 22 47 
1.35685 0.624949 3.21053 122 131 164 
1.64707 -0.696736 3.89446 105 104 135 
1.6269 -0.386443 3.84342 170 180 216 
1.69241 -0.881722 3.99832 85 75 112 
1.53045 0.555742 3.61416 114 109 131 
1.58492 -0.24299 3.74138 166 178 216 
1.7638 0.307739 4.16371 159 163 192 
1.62266 -0.347203 3.82377 156 162 194 
1.63057 -0.456496 3.84173 151 157 193 
1.69231 -0.615319 3.98307 47 47 75 
1.93808 0.106448 4.56615 55 41 58 
1.90874 0.141332 4.49132 57 44 61 
1.902 0.180512 4.46718 50 43 59 
1.56373 0.573837 3.66875 34 33 47 
1.64813 -0.532256 3.86381 85 86 104 
1.54776 0.576967 3.62723 94 100 100 
1.57616 0.615114 3.69264 78 85 103 
1.71944 -0.845974 4.02492 152 151 183 
1.7047 -0.58663 3.98133 129 131 152 
1.63623 -0.146858 3.81591 122 113 142 
1.66738 -0.528497 3.88449 92 94 109 
1.52612 0.648378 3.55585 43 51 74 
1.54417 0.595645 3.58991 89 93 96 
1.6844 -0.520573 3.91119 48 47 81 
1.55826 0.590377 3.61909 30 32 45 
1.75461 -0.875453 4.0722 85 77 116 
1.84766 0.586466 4.28723 88 94 118 
1.68916 -0.509371 3.91618 153 159 191 
1.53194 0.691481 3.55324 129 145 161 
1.76854 -0.828892 4.09938 71 67 94 
1.76502 0.451766 4.08781 140 145 177 
1.27559 0.649426 2.95148 80 91 121 
1.65121 -0.143726 3.8202 128 123 143 
1.67743 -0.546261 3.87968 97 103 115 
1.98772 0.557706 4.59605 147 152 181 
1.73255 -0.583373 3.99858 28 29 49 
1.76409 -0.86761 4.07027 83 76 110 
1.64824 -0.176328 3.80203 39 36 55 
1.70406 -0.516052 3.93019 53 52 86 
1.99841 0.123403 4.6114 30 35 39 
1.69707 -0.530476 3.91223 44 46 69 
1.68508 -0.365826 3.8824 99 101 126 
1.91472 0.553298 4.41329 39 45 69 
1.68087 -0.323001 3.87043 115 120 142 
1.57839 0.590513 3.63289 97 105 128 
1.71824 -0.453546 3.95457 59 63 88 
1.87541 0.650754 4.31314 37 54 74 
1.78931 -0.701705 4.10654 104 104 130 
1.78276 -0.864375 4.09015 85 75 110 
1.69992 -0.415739 3.90054 93 98 120 
1.66335 -0.239584 3.81439 100 98 119 
1.71339 -0.526177 3.92735 44 44 68 
1.68844 -0.134172 3.87174 28 23 29 
1.71095 -0.399376 3.91556 54 51 78 
1.72846 -0.518956 3.95252 96 104 117 
1.99874 0.244244 4.57316 129 136 162 
2.08716 0.175287 4.77258 75 73 94 
1.6851 -0.206268 3.84796 42 34 58 
1.72011 -0.44288 3.92739 111 113 136 
1.69568 -0.217772 3.87024 115 106 127 
1.68602 -0.187324 3.84781 113 101 123 
1.78475 -0.733225 4.07069 110 106 129 
1.73034 -0.362284 3.94602 44 40 67 
1.88538 0.618933 4.29568 135 159 187 
1.80381 -0.779302 4.10783 154 150 175 
1.91165 0.568948 4.34591 103 116 151 
1.70089 -0.183746 3.8622 114 107 123 
1.83887 -0.83664 4.17414 156 147 176 
1.32441 0.672938 3.00477 63 80 90 
2.00927 0.591154 4.56305 169 186 212 
1.73654 -0.404857 3.93916 93 95 118 
1.80081 -0.570372 4.08491 135 133 154 
1.72648 -0.425459 3.91273 33 39 61 
1.90752 0.214733 4.32025 36 32 49 
1.75841 -0.503113 3.98128 52 47 79 
1.83417 0.748046 4.15268 24 22 33 
1.74301 -0.330324 3.94289 119 111 135 
1.34255 0.660716 3.03163 82 91 122 
1.99381 0.577658 4.50533 56 69 113 
1.80037 0.751358 4.06727 72 85 117 
1.92843 0.657759 4.35694 161 175 210 
1.93498 0.258424 4.36542 35 31 48 
1.83311 -0.800692 4.13046 67 65 89 
1.8628 0.657245 4.19865 29 31 44 
0.759793 0.499004 1.7048 68 73 111 
1.78515 -0.50159 4.01716 53 48 80 
1.97293 0.662511 4.44257 79 92 134 
1.79873 -0.557362 4.04167 38 39 60 
1.76588 -0.373696 3.96683 28 31 46 
2.07154 0.318696 4.65612 30 30 38 
1.98523 0.577445 4.45637 164 191 218 
1.28169 0.654648 2.86992 52 75 67 
1.80539 -0.507857 4.04192 92 88 105 
1.85762 0.62864 4.15855 154 169 198 
1.98565 0.611317 4.44093 98 110 160 
1.97359 0.578522 4.41096 82 87 143 
1.9792 0.636746 4.42026 83 88 130 
2.06597 0.617743 4.61257 208 227 255 
2.09629 0.556276 4.67744 24 24 34 
2.05882 0.65089 4.59336 213 230 255 
1.77623 -0.159488 3.95546 29 26 35 
2.05237 0.599857 4.56876 58 73 130 
1.3799 0.68163 3.06785 53 65 79 
2.08394 0.581166 4.63292 188 201 235 
1.89848 -0.470655 4.20936 162 175 210 
1.81451 -0.806687 4.02223 84 83 115 
1.85665 0.618506 4.1169 30 21 48 
1.79582 -0.170453 3.9739 94 93 107 
0.78109 0.501577 1.722 61 69 106 
1.83283 0.762217 4.05422 25 29 40 
2.06347 0.654501 4.56153 153 159 191 
1.90562 -0.645782 4.1932 41 43 66 
1.91017 -0.552169 4.19089 41 43 66 
1.88846 -0.495594 4.13619 93 88 110 
1.89975 0.704615 4.1622 31 32 37 
1.78568 0.548287 3.91152 16 16 24 
1.89224 -0.485611 4.13777 57 55 92 
1.93233 -0.662561 4.22 125 126 146 
1.90814 -0.422087 4.15877 177 187 223 
1.9107 -0.835767 4.16283 138 134 167 
1.90755 -0.488223 4.14641 102 106 131 
1.44853 0.690786 3.13795 42 61 65 
1.94995 -0.686076 4.22476 116 119 160 
1.95241 -0.661499 4.2273 114 119 157 
1.42868 0.687529 3.09208 118 125 151 
0.773439 0.4946 1.66778 82 90 129 
1.92181 0.602548 4.15775 34 37 42 
1.91853 -0.520641 4.13704 113 121 157 
1.93677 -0.481549 4.1729 103 108 128 
1.99205 -0.497306 4.28983 106 107 128 
1.87447 0.786411 4.02299 21 25 37 
1.88637 0.624957 4.04629 58 74 97 
2.00475 -0.523203 4.28977 254 254 254 
1.98073 -0.492846 4.23209 59 64 94 
1.93748 0.0932816 4.13736 94 94 118 
1.94741 -0.471042 4.14794 253 254 255 
1.90983 0.300079 4.06901 107 123 156 
1.9053 0.286276 4.0597 39 39 67 
1.97226 0.309038 4.20266 112 125 157 
2.73425 -0.563719 5.82796 248 255 255 
2.25099 0.422739 4.78257 122 136 173 
1.87587 0.217538 3.98242 111 108 127 
2.04439 0.419293 4.34044 126 142 178 
1.9538 0.287825 4.14609 137 134 153 
1.52003 0.705751 3.21981 119 125 149 
2.01421 0.439781 4.2684 127 145 183 
1.95918 0.4667 4.14872 126 144 182 
2.11534 0.537612 4.4743 125 143 181 
2.76463 -0.558191 5.84557 250 254 255 
1.92154 -0.000734713 4.0586 89 94 123 
1.93013 0.139931 4.07377 37 35 56 
2.02577 0.582249 4.27503 115 131 167 
1.95736 -0.0150984 4.12927 30 30 54 
2.14115 -0.0577256 4.52027 99 101 122 
1.45822 0.682539 3.07369 35 52 62 
1.95996 0.411221 4.12464 28 31 64 
2.00531 0.446938 4.21799 45 40 72 
2.82637 -0.607072 5.93788 214 215 219 
1.91592 0.635802 4.02053 36 40 52 
2.49141 0.684697 5.22932 65 73 119 
1.90775 0.640533 3.9975 108 118 143 
2.0091 0.209771 4.20445 51 49 63 
2.74975 -0.52951 5.75767 45 38 116 
1.89244 0.789231 3.94646 25 33 44 
2.97074 -0.423028 6.18616 115 122 174 
2.8046 -0.544419 5.83851 253 255 254 
5.22974 1.35307 10.8748 53 59 93 
2.74868 -1.44014 5.69296 64 62 135 
1.94712 0.723635 4.03001 75 102 149 
1.92448 0.75676 3.97746 121 128 154 
1.94837 0.799486 4.02381 127 118 135 
1.94186 0.704736 4.00851 81 95 130 
1.6556 0.734814 3.41582 64 89 83 
1.96473 0.74223 4.05279 97 100 133 
1.97006 0.697649 4.059 201 221 254 
1.965 0.730005 4.04383 200 223 255 
1.99081 0.691198 4.09653 60 66 100 
2.00885 0.736783 4.11279 94 90 141 
1.9826 0.775041 4.05863 130 136 162 
4.64582 0.558173 9.51414 68 70 109 
4.46548 1.39938 9.11865 62 53 70 
1.91603 0.806468 3.89736 115 128 147 
3.57254 1.27847 7.26155 32 35 44 
4.23364 0.994677 8.58781 86 95 136 
3.25286 -1.19106 6.58098 205 214 255 
3.1829 -1.23583 6.43223 60 60 130 
4.87143 0.335989 9.84783 112 124 164 
3.67225 1.27973 7.42003 30 28 42 
2.87516 -0.466231 5.79087 254 254 254 
3.22848 -1.1768 6.49275 42 54 106 
2.84433 -0.445037 5.7033 250 248 253 
3.68206 1.21479 7.37539 85 85 123 
2.86388 -0.433618 5.7248 172 175 210 
2.87473 -0.442475 5.73759 169 167 214 
2.90238 -0.478606 5.78725 252 255 255 
3.59301 1.23224 7.15888 35 37 49 
2.89277 -0.453392 5.76074 33 34 90 
4.80404 0.552082 9.5424 59 68 109 
5.792 1.28895 11.5011 25 31 53 
2.93607 -1.67682 5.81306 253 254 255 
4.53427 1.45866 8.9797 29 32 63 
2.90795 -1.63564 5.74787 253 255 252 
3.56168 0.761172 7.03967 70 71 101 
2.9279 -1.65872 5.77983 159 162 217 
5.7104 1.30701 11.2721 75 83 120 
3.98623 0.977606 7.85731 83 88 130 
3.13204 -0.0223027 6.16653 17 21 33 
2.94981 -0.0878795 5.80502 14 21 31 
2.958 -1.50541 5.80636 234 243 255 
2.89493 -1.27171 5.68075 75 65 138 
2.89679 -1.44352 5.68158 37 50 82 
5.00427 1.17073 9.81846 40 39 70 
4.5953 1.20244 9.0148 79 94 135 
3.10311 -0.561071 6.07819 187 188 208 
3.08686 -0.0416005 6.04391 62 76 102 
2.8678 -0.633475 5.61096 217 217 229 
2.86492 -1.65579 5.59769 253 253 255 
2.95459 -0.444063 5.777 253 255 254 
2.91607 -1.52965 5.69437 168 180 232 
4.96611 1.27736 9.7054 97 117 154 
4.80688 1.27464 9.39256 88 106 146 
3.07416 -0.102551 5.99765 64 85 132 
2.98506 -1.67704 5.81869 139 144 186 
5.35461 1.13687 10.4314 17 23 35 
2.92811 -1.58342 5.69364 80 85 143 
4.25441 0.838768 8.2815 69 86 129 
3.06899 -1.18719 5.96616 255 255 253 
2.99156 -1.65085 5.81313 171 184 229 
4.11386 0.997154 8.00179 36 38 59 
2.83762 -1.65254 5.51065 222 241 255 
2.93755 -0.0762309 5.70567 15 19 31 
2.84491 -1.33405 5.52284 52 66 101 
2.95104 -1.61347 5.72483 172 190 228 
2.93702 -1.57551 5.68889 251 255 255 
2.92181 -1.73335 5.65671 224 230 255 
4.25591 0.777551 8.24808 20 27 45 
4.58996 1.29518 8.89726 50 59 92 
4.73723 1.49017 9.18215 65 78 123 
3.33078 -0.017464 6.44998 19 23 35 
3.04401 -0.572481 5.88301 250 249 255 
2.95717 -1.33081 5.6815 247 245 246 
3.02914 -0.0687318 5.81591 22 23 41 
3.02205 -1.11587 5.79505 35 48 82 
3.20634 -1.04624 6.13454 252 253 255 
3.32997 -0.00594188 6.37164 78 97 139 
3.11646 -1.03842 5.92165 34 42 79 
3.08053 -0.399208 5.84196 243 252 255 
5.02808 1.14757 9.54279 87 110 144 
4.89196 1.37979 9.27776 81 92 138 
5.61888 1.20109 10.6496 20 31 51 
2.95661 -0.796777 5.59503 244 245 249 
4.8791 1.34396 9.24276 67 81 126 
4.75559 1.33067 9.00368 120 142 183 
5.0917 1.48893 9.63371 65 82 128 
4.86626 1.47132 9.20004 67 83 134 
3.00208 -1.02528 5.66493 254 254 254 
4.8842 1.35764 9.20636 110 132 173 
4.99328 1.43378 9.40967 108 127 169 
5.01662 1.40918 9.42636 68 82 111 
5.00649 1.36741 9.4081 60 64 101 
6.12809 1.42261 11.4793 21 27 43 
3.29014 -0.13166 6.14865 30 37 81 
4.91044 1.39826 9.17853 109 121 133 
4.96288 1.46241 9.26716 35 42 68 
5.08708 1.3709 9.49009 23 27 52 
6.01216 1.62274 11.2123 21 28 57 
4.98563 0.419378 9.26331 44 40 73 
5.0911 1.151 9.43658 36 50 95 
5.39511 1.51622 9.99443 103 125 162 
5.00854 1.3476 9.25456 34 49 92 
4.98152 1.31741 9.20275 34 38 86 
4.96952 1.39244 9.17007 51 69 119 
5.02557 1.37106 9.26871 113 133 170 
4.83689 1.42947 8.9165 56 69 121 
5.20604 1.39136 9.58695 92 122 158 
5.17783 0.576782 9.52906 66 74 87 
-0.512364 0.399157 1.73581 41 42 62 
-0.508792 0.410444 1.73318 36 37 55 
-0.502989 0.232986 1.72782 116 65 132 
-0.379589 0.449848 1.51416 143 132 149 
-0.49423 0.193398 1.73795 97 121 181 
-0.472813 0.253215 1.70788 55 75 144 
-1.38125 -0.682921 3.37547 120 138 186 
-0.496619 0.225975 1.75546 149 179 190 
-0.485636 0.229446 1.74877 44 65 110 
-0.479423 0.25867 1.7482 97 126 186 
-0.473677 0.180612 1.75511 145 166 223 
-0.463028 0.178302 1.73637 158 175 229 
-0.546281 -0.275855 1.89315 11 14 31 
-0.532718 -0.182732 1.88736 82 80 101 
-0.45909 0.239127 1.75514 146 169 210 
-0.458039 0.204049 1.75763 144 166 205 
-0.536031 -0.346133 1.91706 76 78 101 
-0.46547 0.213528 1.78488 161 184 226 
-0.330039 0.450781 1.52163 70 75 97 
-0.459305 0.244383 1.77524 93 112 142 
-0.535177 -0.388761 1.92627 66 71 103 
-0.490403 -0.0934838 1.8417 37 49 47 
-0.457516 0.233673 1.77994 79 93 132 
-0.45005 0.21018 1.76853 61 82 125 
-0.487593 0.156575 1.85677 113 121 167 
-0.48273 0.250181 1.84798 165 184 224 
-0.448208 0.185448 1.78692 143 162 220 
-0.427777 0.250003 1.76187 82 156 219 
-0.432169 0.251308 1.7712 83 159 221 
-0.443369 0.211239 1.80499 83 162 229 
-0.268254 0.44464 1.46066 139 138 170 
