ply                 
format ascii 1.0    
element vertex 1276
property float x    
property float y    
property float z    
property uchar red  
property uchar green
property uchar blue 
end_header          
-0.455022 0.0660913 1.8748 95 107 145 
-0.445525 0.462215 1.80495 98 103 135 
-0.418687 -0.223405 1.95902 123 141 181 
-0.395571 0.198624 1.84471 22 32 91 
-0.361013 0.488381 1.89634 27 28 58 
-0.357202 0.454857 1.90638 38 38 66 
-0.358453 0.298988 1.94333 104 115 145 
-0.346572 0.388809 1.9221 39 34 56 
-0.329834 0.272694 1.96957 44 52 75 
-0.328953 0.19645 1.98308 62 66 95 
-0.322777 0.324515 1.95496 27 31 42 
-0.317418 0.0542071 2.0067 146 173 220 
-0.317144 0.0374999 2.0092 161 190 234 
-0.314609 0.271609 1.9759 95 108 161 
-0.315094 0.30445 1.9717 93 115 173 
-0.303519 0.442433 1.9351 88 119 174 
-0.272333 -0.0494157 2.09652 127 131 158 
-0.268945 -0.0172581 2.09538 76 82 114 
-0.0402766 -0.155734 1.88516 102 92 116 
-0.0381016 -0.0620046 1.90531 54 52 74 
-0.0239439 -0.4524 1.9674 152 161 192 
-0.0286512 -0.122793 1.89914 22 23 28 
-0.0137033 -0.629118 2.0056 117 115 154 
-0.0436511 0.468312 1.78912 84 66 88 
-0.0201008 -0.112631 1.91379 105 103 125 
-0.0280396 0.331095 1.83264 118 117 69 
-0.0297505 0.44691 1.81014 85 80 121 
-0.00917111 -0.146309 1.94638 136 128 152 
-0.00793423 -0.110498 1.93033 105 105 131 
0.0105927 -0.536807 2.00526 173 182 221 
-0.0952174 0.116178 2.40295 25 38 73 
-0.0164473 0.456483 1.825 213 224 255 
0.00480728 -0.116376 1.93602 91 90 104 
0.00929702 -0.285227 1.9872 133 123 147 
-0.00658331 0.416514 1.84005 44 43 109 
-0.0809752 0.118257 2.41775 146 168 244 
-0.00288967 0.438676 1.84068 86 77 122 
0.0248244 -0.334863 2.00981 69 55 81 
-0.0689212 0.112587 2.43358 9 17 63 
0.0314859 -0.346242 2.01956 65 49 76 
0.0410532 -0.559863 2.0557 134 137 180 
-0.0676832 0.365476 2.39778 56 80 108 
0.0385405 -0.356724 2.02906 64 51 77 
0.0716702 -0.624706 2.10757 163 172 213 
0.0777204 -0.636383 2.11656 164 173 214 
0.0815614 -0.48878 2.11127 140 150 186 
0.0869577 -0.43157 2.09668 116 112 137 
0.0964125 -0.405598 2.09877 68 56 80 
0.0390875 0.433627 2.14631 135 149 178 
0.118096 -0.599895 2.12701 115 105 130 
0.107223 -0.406182 2.10755 108 94 120 
0.140987 -0.673344 2.16739 119 121 144 
0.12048 -0.438405 2.22877 62 46 72 
0.135229 -0.429601 2.19517 57 43 66 
0.149925 -0.420251 2.1617 54 42 64 
0.163758 -0.607179 2.20827 107 98 125 
0.16533 -0.628018 2.21039 100 88 108 
0.174782 -0.626165 2.21771 91 82 103 
0.176331 -0.598375 2.20746 71 69 83 
0.174208 -0.526639 2.18546 21 20 28 
0.180021 -0.489937 2.19462 51 41 65 
0.191431 -0.651161 2.23321 43 37 63 
0.188649 -0.476123 2.19914 46 33 50 
0.188725 -0.464052 2.1968 54 40 63 
0.133029 0.485283 2.16699 77 90 124 
0.210294 -0.627055 2.24636 55 49 75 
0.138662 0.194012 2.52749 72 81 110 
0.204422 -0.478273 2.2169 55 46 65 
0.237258 -0.385239 2.25527 105 99 125 
0.257937 -0.527938 2.2763 75 70 102 
0.272139 -0.437375 2.28344 95 91 114 
0.35431 -0.610173 2.42162 131 143 191 
0.312367 0.0560717 2.40562 73 86 120 
0.291693 0.51069 2.27808 86 99 133 
0.357851 -0.358537 2.37343 155 168 202 
0.366682 -0.161531 2.37122 119 117 141 
0.370004 -0.125768 2.36171 132 132 158 
0.367035 -0.0401279 2.33987 94 92 116 
0.324182 0.528804 2.2671 38 45 71 
0.368952 -0.0601262 2.34332 105 109 136 
0.379637 -0.161851 2.3823 114 105 136 
0.386129 -0.101907 2.38556 126 127 148 
0.395639 -0.057757 2.38194 99 113 140 
0.383529 0.185327 2.33845 109 115 141 
0.437857 -0.334498 2.4736 120 128 167 
0.375815 0.406821 2.27789 36 34 48 
0.384372 0.351732 2.31653 107 97 122 
0.417972 0.031315 2.39634 20 21 26 
0.428332 -0.0554215 2.41113 89 101 125 
0.389169 0.53597 2.27064 110 107 128 
0.466804 -0.278826 2.49647 121 133 175 
0.397043 0.513178 2.27975 133 133 157 
0.43788 0.0972811 2.41743 110 100 127 
0.438188 0.110463 2.41472 114 105 134 
0.404718 0.472916 2.29673 107 117 144 
0.406775 0.4559 2.29816 105 108 127 
0.408211 0.483165 2.29702 89 100 122 
0.425956 0.391395 2.34417 51 54 59 
0.47843 -0.11853 2.49002 119 130 175 
0.421376 0.509374 2.3079 100 110 135 
0.434634 0.435473 2.33451 90 94 119 
0.452593 0.283862 2.40075 153 167 204 
0.461921 0.492132 2.35847 27 30 45 
0.575541 -0.569539 2.66224 133 141 180 
0.489704 0.456106 2.39538 27 34 52 
0.51513 0.399058 2.44737 110 114 126 
0.507762 0.473559 2.40936 94 99 121 
0.521726 0.419105 2.43975 95 102 118 
0.60295 -0.196179 2.64496 143 152 193 
0.620769 -0.309508 2.68195 136 144 183 
0.532209 0.505832 2.43291 88 95 123 
0.600042 0.116555 2.59365 96 103 149 
0.64947 -0.320074 2.70876 26 31 51 
0.653533 -0.335756 2.71507 37 44 62 
0.607347 0.128088 2.60873 140 152 194 
0.672575 -0.428846 2.75741 141 153 191 
0.565675 0.529202 2.46827 88 93 122 
0.632385 0.0340841 2.64679 151 160 201 
0.703692 -0.506957 2.79833 117 122 164 
0.623268 0.320632 2.58701 38 41 60 
0.742052 -0.406714 2.82888 129 115 141 
0.771514 -0.0409971 3.16071 25 23 34 
0.771388 -0.0226717 3.15245 14 22 41 
0.774145 -0.524293 2.88259 63 78 107 
0.790397 -0.038416 3.1814 27 26 40 
0.646038 0.546742 2.55858 29 34 56 
0.787786 -0.536586 2.89589 64 80 114 
0.654741 0.509109 2.57465 100 104 133 
0.82932 -0.192872 3.23027 98 98 132 
0.817613 -0.587597 2.94304 140 152 190 
0.803891 0.254193 3.15194 67 102 122 
0.82547 -0.477708 2.93157 67 59 98 
0.826438 -0.519285 2.91249 93 97 126 
0.839181 -0.501935 2.95518 126 139 171 
0.837184 -0.526216 2.92593 93 103 128 
0.843309 -0.532544 2.93454 48 59 91 
0.721479 0.338544 2.62779 15 30 71 
0.883698 -0.0634701 3.27529 115 122 148 
0.904648 -0.0185214 3.30752 27 25 39 
0.891812 -0.610496 3.02136 102 124 148 
0.909119 -0.357805 3.19442 72 69 86 
0.846956 0.501543 3.16558 23 24 42 
0.924103 -0.092261 3.31721 37 35 49 
0.906262 -0.559958 3.03199 125 144 176 
0.904639 -0.545202 3.01451 70 93 127 
0.91404 -0.530593 3.02587 84 97 114 
0.94408 -0.0617443 3.31611 40 35 65 
0.945685 -0.0106989 3.31049 49 48 79 
0.953626 -0.709653 3.10108 73 88 129 
0.946655 -0.658492 3.08164 49 48 90 
0.944935 0.105292 3.29323 44 38 66 
0.943763 0.155686 3.28571 42 37 60 
0.993514 -0.786221 3.19194 49 44 74 
0.944162 0.178808 3.28174 45 39 65 
0.943862 0.224702 3.2749 39 30 59 
0.943577 0.247484 3.27188 46 40 68 
0.728179 0.556901 2.41404 33 47 82 
0.963551 -0.45454 3.11782 33 27 37 
0.943618 0.270634 3.26943 48 37 67 
0.942964 0.293719 3.2654 46 40 68 
0.942697 0.31714 3.26128 46 38 61 
0.942848 0.341393 3.25839 47 41 69 
0.961682 0.188148 3.28924 96 92 119 
0.942871 0.365264 3.25467 44 40 65 
0.983383 -0.496736 3.11034 121 126 158 
0.989186 -0.465853 3.1203 38 30 53 
1.00067 -0.542364 3.12831 50 58 104 
0.98591 0.157424 3.28501 71 71 97 
0.795802 0.532227 2.56582 68 80 120 
0.980219 0.425996 3.24057 25 23 36 
1.01835 0.0998212 3.29006 105 125 160 
1.02331 0.0116819 3.24968 106 108 133 
0.82034 0.556702 2.59494 75 87 129 
1.03181 0.0833593 3.29878 38 32 58 
0.98718 0.467787 3.21722 81 72 91 
0.997654 0.42478 3.23679 20 18 31 
1.03485 0.193043 3.27992 53 42 72 
1.00549 0.431706 3.22424 82 73 92 
1.00338 0.449639 3.21965 39 31 46 
0.876233 0.548679 2.73143 76 85 126 
1.04738 0.254608 3.2737 74 70 93 
1.02408 0.511734 3.1986 97 97 125 
1.08085 0.0247867 3.26727 72 71 89 
0.90874 0.55408 2.76727 74 87 129 
1.04753 0.434057 3.23545 86 75 92 
1.05445 0.427995 3.2438 20 16 30 
1.03914 0.52942 3.20861 48 44 67 
0.896348 0.550268 2.68027 71 85 122 
0.866513 0.593686 2.47606 38 65 60 
-0.583532 -0.141782 1.85473 30 34 63 
-0.505819 0.454045 1.73856 47 44 65 
-0.501415 0.402445 1.75184 96 98 119 
-0.498518 0.423905 1.75082 47 43 66 
-0.481253 0.381577 1.77646 55 52 73 
-0.502112 -0.096225 1.86566 45 47 46 
-0.47463 0.41881 1.77913 44 46 69 
-0.473988 0.382421 1.7855 49 50 70 
-0.469029 0.363762 1.79271 37 38 58 
-0.458032 0.247065 1.77599 55 53 67 
-0.412454 0.262136 1.83068 164 185 238 
-0.407694 0.237097 1.8223 203 217 255 
-0.379032 0.342784 1.85421 52 55 74 
-0.331961 0.329697 1.96531 37 37 47 
-0.330612 0.0595637 2.00769 67 76 105 
-0.308475 0.320703 1.96819 169 191 230 
-0.29808 0.419668 1.93326 35 41 73 
-0.304668 0.323677 1.97862 61 67 103 
-0.281306 0.0845999 2.09064 139 148 179 
-0.277391 -0.094656 2.10102 122 126 153 
-0.255627 -0.0305421 2.09886 86 77 98 
-0.233265 0.258121 2.09857 53 46 62 
-0.207066 0.301123 2.00915 94 84 108 
-0.220363 -0.0627599 2.17843 33 30 41 
-0.217993 0.276827 2.20131 37 45 66 
-0.126012 -0.396663 1.95725 102 107 137 
-0.0986459 0.487078 1.74588 115 114 148 
-0.100303 -0.22526 1.90239 37 35 46 
-0.0822597 0.482767 1.73568 113 116 151 
-0.078612 -0.0542395 1.89798 47 41 51 
-0.0709762 -0.0783687 1.86566 120 117 136 
-0.0693979 -0.210431 1.8842 118 113 133 
-0.0667585 -0.119105 1.85389 111 108 125 
-0.0669712 -0.184684 1.88181 119 114 137 
-0.0544174 -0.354919 1.89484 103 89 106 
-0.0516122 -0.138318 1.87387 94 93 107 
-0.0456589 -0.249622 1.90726 55 53 67 
-0.0391704 -0.206428 1.89624 120 106 123 
-0.0392214 -0.115411 1.89702 130 128 142 
-0.0375494 -0.224634 1.90137 118 105 123 
-0.0347806 -0.144939 1.89113 72 67 87 
-0.0323671 0.258577 1.88274 26 34 53 
-0.0235044 0.439148 1.82085 44 54 89 
-0.022582 -0.304629 1.92862 125 108 126 
-0.0150993 0.294172 1.89444 81 86 106 
-0.00124436 -0.211375 1.96339 15 13 26 
0.0104855 -0.127794 1.94688 88 91 110 
0.0654857 -0.401997 2.06721 105 93 117 
0.0759195 -0.394146 2.07876 88 73 94 
0.0855035 0.51174 1.9545 82 88 110 
0.102974 -0.453162 2.09445 134 131 148 
0.105122 -0.416062 2.11264 111 98 116 
0.130498 -0.517432 2.13804 63 55 78 
0.157623 -0.493007 2.16488 106 102 119 
0.161587 -0.420023 2.17804 69 56 82 
0.183024 0.296162 2.36143 28 36 59 
0.170278 -0.491361 2.17895 108 95 115 
0.18706 0.52522 2.04892 83 87 112 
0.203951 -0.54127 2.22286 80 74 100 
0.206424 -0.552729 2.23725 142 128 151 
0.220881 -0.482431 2.2489 136 123 143 
0.26024 -0.382321 2.27247 111 107 130 
0.268467 0.500878 2.23871 96 109 141 
0.309516 0.0288252 2.42836 47 41 53 
0.279088 0.520233 2.17825 130 144 181 
0.313504 0.0543797 2.41245 86 92 114 
0.312524 0.208947 2.38147 87 94 122 
0.318216 0.0987901 2.4099 85 86 114 
0.319499 0.199882 2.38564 89 100 130 
0.311316 0.532613 2.28659 43 48 70 
0.338796 0.0599454 2.4074 38 34 48 
0.343 -0.0809393 2.3624 34 32 43 
0.347475 -0.115787 2.37192 53 51 65 
0.338695 0.533041 2.28355 35 41 63 
0.37782 -0.614122 2.45432 183 197 232 
0.341694 0.550415 2.21799 24 50 39 
0.374355 0.020371 2.36917 34 31 40 
0.37464 0.0761456 2.36465 43 41 52 
0.376374 0.15099 2.35081 38 36 47 
0.363984 0.390641 2.26955 100 117 143 
0.38763 -0.295922 2.40471 168 182 211 
0.38306 0.0985999 2.35136 120 113 129 
0.372153 0.544146 2.27121 42 42 54 
0.376505 0.40837 2.29079 35 33 44 
0.389886 0.0501768 2.3658 95 93 115 
0.3876 0.141691 2.35105 136 137 158 
0.383257 0.322695 2.31949 109 104 124 
0.387275 0.270618 2.33086 112 108 133 
0.384073 0.378164 2.30096 102 104 67 
0.382227 0.475415 2.27835 53 51 65 
0.409547 -0.260567 2.42252 170 180 215 
0.387656 0.445978 2.28427 92 100 121 
0.387984 0.522141 2.27521 135 131 145 
0.41202 -0.158646 2.40169 73 79 95 
0.425453 0.0680138 2.40963 90 86 111 
0.408696 0.484435 2.30131 87 94 113 
0.428695 0.102789 2.40534 134 134 158 
0.439892 0.111081 2.42766 117 108 135 
0.447093 -0.0548061 2.43706 126 139 171 
0.471484 -0.592961 2.55485 128 137 178 
0.457949 -0.0718603 2.42759 160 171 203 
0.480178 0.327836 2.43478 216 230 255 
0.479303 0.362148 2.42913 124 116 155 
0.49185 0.362519 2.44373 73 73 123 
0.485317 0.416968 2.40836 118 125 131 
0.482146 0.54041 2.38108 34 39 59 
0.565619 0.0173888 2.58043 129 132 173 
0.569973 0.0586433 2.556 117 126 165 
0.5428 0.57697 2.41993 44 59 62 
0.604441 -0.0433451 2.64909 138 152 187 
0.547783 0.580293 2.39657 108 118 145 
0.609584 -0.00330934 2.66107 142 155 189 
0.614228 0.130256 2.67758 152 165 199 
0.600175 0.0813203 2.61555 157 161 196 
0.583267 0.417091 2.53597 66 67 69 
0.610752 0.294704 2.65245 155 163 199 
0.610216 -0.106063 2.63338 24 27 34 
0.424082 0.500927 1.81259 85 85 123 
0.612042 0.228042 2.59842 142 148 182 
0.62278 -0.120204 2.62144 63 68 90 
0.652576 -0.354481 2.74478 147 159 199 
0.584294 0.583954 2.44426 34 44 56 
0.626835 0.137837 2.61967 37 39 60 
0.643089 -0.105054 2.66969 28 30 42 
0.66463 -0.390577 2.75209 158 167 208 
0.632059 0.339641 2.60561 145 158 190 
0.642829 0.148345 2.63015 37 35 48 
0.640074 0.377307 2.60565 111 96 129 
0.617927 0.493044 2.5114 16 30 56 
0.651551 0.142964 2.63805 93 104 126 
0.621293 0.537359 2.49125 70 90 123 
0.670167 0.153096 2.68361 96 98 121 
0.660102 0.331909 2.63514 33 31 45 
0.663625 0.262482 2.64241 131 138 166 
0.70939 -0.511475 2.8214 130 130 166 
0.412996 0.479105 1.6185 75 78 95 
0.677024 0.345374 2.65382 145 146 167 
0.721771 -0.49164 2.82176 168 178 214 
0.717623 -0.36211 2.79231 83 72 104 
0.729186 -0.351891 2.81629 70 61 90 
0.73179 -0.364417 2.81601 82 75 109 
0.681263 0.525762 2.61034 26 35 50 
0.851452 -0.0917355 3.24214 46 45 61 
0.752599 -0.524897 2.86254 153 163 198 
0.751927 -0.395195 2.85217 84 70 105 
0.772286 -0.374595 2.92018 118 111 142 
0.876062 -0.150734 3.314 31 29 42 
0.865999 -0.0258943 3.27485 38 35 52 
0.751644 -0.431797 2.82718 131 122 153 
0.770907 -0.571799 2.89355 173 182 225 
0.812027 -0.336409 3.05168 46 44 55 
0.877974 -0.110407 3.29459 32 29 46 
0.880894 -0.0698053 3.29935 32 30 51 
0.76679 -0.403878 2.86636 55 46 75 
0.879608 -0.0226294 3.28485 34 30 47 
0.771178 -0.418406 2.87163 81 70 104 
0.792158 -0.377607 2.94822 119 115 142 
0.518477 0.515677 1.91879 123 127 154 
0.87459 -0.0617017 3.23487 119 121 142 
0.775781 -0.439511 2.86514 81 74 108 
0.774242 -0.516264 2.85605 89 98 113 
0.529494 0.516729 1.9395 126 132 164 
0.7961 -0.415751 2.92082 127 121 149 
0.787008 -0.423523 2.88739 55 49 77 
0.793773 -0.439776 2.90069 85 74 108 
0.726014 0.341446 2.64864 23 36 68 
0.802577 -0.435375 2.91881 121 115 141 
0.819662 -0.415066 2.97304 65 60 92 
0.729435 0.338563 2.63484 95 118 150 
0.832511 -0.726956 2.95877 42 49 67 
0.831961 -0.560164 2.94151 39 46 64 
0.692284 0.550876 2.44609 27 37 49 
0.850927 -0.440097 3.0021 124 120 147 
0.866625 -0.415578 3.04747 117 117 145 
0.48317 0.487558 1.69336 61 81 80 
0.853305 -0.82541 2.98909 98 108 133 
0.735996 0.519923 2.57419 122 134 174 
0.85688 -0.465834 2.97127 40 37 58 
0.875625 -0.754375 3.03277 153 158 178 
0.861833 -0.520725 2.9762 44 46 67 
0.876757 -0.679595 3.02686 77 85 121 
0.857553 -0.563551 2.95984 118 115 144 
0.724332 0.540266 2.49824 45 55 82 
0.893576 -0.748403 3.07906 136 150 179 
0.880592 -0.729732 3.02896 147 158 186 
0.884597 -0.757851 3.04056 44 44 78 
0.885514 -0.626041 3.03336 39 43 68 
0.890264 -0.747508 3.04307 145 154 183 
0.877682 -0.509767 2.99809 123 114 141 
0.951595 0.434328 3.25119 93 85 106 
0.911319 -0.790674 3.10812 80 73 91 
0.896882 -0.712167 3.05527 102 112 147 
0.890044 -0.569763 3.02782 119 128 159 
0.894478 -0.60409 3.02929 63 67 94 
0.735004 0.537831 2.48692 111 121 156 
0.919123 -0.779882 3.09748 129 135 159 
0.921768 -0.753443 3.10214 142 146 171 
0.904794 -0.61817 3.03289 146 158 184 
0.981327 0.219808 3.26529 55 51 66 
0.619239 0.534476 2.05452 79 79 115 
0.991586 0.192169 3.29222 95 91 106 
0.629093 0.536882 2.08031 129 129 163 
0.94885 -0.766008 3.13979 50 47 68 
0.945183 -0.748747 3.11492 141 146 168 
0.926199 -0.480828 3.05413 105 107 130 
0.991755 0.389607 3.26628 84 82 104 
0.939091 -0.458377 3.08728 43 42 56 
0.739216 0.548839 2.42211 108 122 157 
0.937023 -0.645022 3.06783 156 163 192 
0.95905 -0.74928 3.14072 91 96 126 
0.991347 0.435466 3.24694 75 67 78 
0.945893 -0.764657 3.09521 128 140 166 
0.959432 -0.829207 3.13454 156 164 187 
1.02035 -0.109173 3.3289 85 81 108 
0.958527 -0.788423 3.1212 118 124 146 
0.957819 -0.732104 3.11801 110 114 151 
0.957142 -0.710003 3.1172 87 96 127 
0.510206 0.487851 1.65548 89 113 100 
0.722705 0.565326 2.34971 42 49 68 
1.00085 0.425328 3.24765 29 23 33 
0.959491 -0.651386 3.10939 93 102 135 
0.565587 0.508208 1.82692 79 88 117 
1.02573 -0.0606593 3.31874 74 70 93 
0.958902 -0.657485 3.09472 151 166 189 
0.722598 0.573773 2.32595 99 106 132 
0.97903 -0.642834 3.13614 156 169 201 
0.773969 0.550655 2.47349 71 84 116 
1.02177 0.406548 3.26041 102 118 143 
0.719304 0.566512 2.2868 40 56 69 
1.02351 0.426885 3.2563 44 37 53 
0.742399 0.570418 2.35095 104 118 144 
1.01856 0.534198 3.21823 44 44 70 
1.02243 -0.303793 3.22754 29 28 36 
1.02802 0.435766 3.2401 91 78 96 
1.03935 0.429863 3.25758 28 24 39 
1.02219 -0.759772 3.1987 84 89 108 
1.00573 -0.545591 3.14541 54 57 92 
1.01647 -0.432446 3.17684 41 39 52 
1.02261 -0.681441 3.19495 138 149 179 
1.02495 -0.74795 3.19556 116 128 152 
1.01029 -0.461447 3.14373 119 115 140 
1.02763 -0.69925 3.19726 139 146 172 
0.848388 0.549787 2.63867 67 78 110 
1.05583 0.374361 3.28642 81 80 98 
1.02741 -0.710612 3.19426 139 147 170 
1.05587 -0.785639 3.27661 27 30 47 
1.02406 -0.585816 3.17834 86 89 122 
1.02241 -0.574467 3.16948 120 127 155 
1.03363 -0.597124 3.20269 126 132 158 
1.03394 -0.56174 3.19682 109 120 148 
1.03303 -0.431469 3.17852 87 86 104 
1.04127 -0.753409 3.20135 28 29 50 
1.03621 -0.445709 3.17056 106 102 125 
1.03637 -0.544401 3.17026 56 48 71 
1.04442 -0.568175 3.19361 49 41 64 
1.07563 0.0204107 3.28532 30 25 32 
1.0344 -0.636256 3.15565 44 41 58 
1.03632 -0.529683 3.15949 53 53 81 
0.85545 0.558828 2.60423 117 131 168 
1.07972 -0.0189676 3.28921 81 77 100 
1.0439 -0.488302 3.17261 30 30 42 
1.06312 -0.290788 3.22759 101 102 132 
1.04369 -0.509976 3.1635 100 118 142 
1.07078 0.529741 3.23909 42 40 53 
1.07796 -0.808713 3.25313 144 163 195 
1.0703 0.385941 3.22085 24 29 58 
1.08205 0.408579 3.25615 96 106 131 
1.06418 -0.417745 3.19644 39 35 58 
1.08527 -0.538898 3.25685 45 52 80 
1.09421 0.00683697 3.27879 92 85 116 
0.899899 0.552346 2.69212 87 98 130 
0.618113 0.509165 1.84256 84 79 119 
1.08735 -0.440217 3.24046 85 80 112 
1.10116 0.393026 3.27404 20 26 40 
1.08462 0.45555 3.22452 92 78 103 
1.10447 -0.220918 3.2795 84 76 100 
1.11767 -0.00950742 3.3188 32 30 44 
1.09452 -0.373567 3.24722 36 34 48 
0.830838 0.577465 2.45964 69 80 110 
1.08889 -0.406255 3.22416 103 99 122 
1.09346 0.426124 3.23347 27 23 37 
1.09541 0.440375 3.2285 32 27 47 
1.09061 0.378136 3.20349 87 93 119 
1.11409 0.393333 3.27229 24 30 52 
1.07937 0.526925 3.16257 35 44 77 
1.09777 0.417815 3.21559 61 67 91 
1.10099 0.432191 3.22191 69 71 94 
1.10853 -0.378903 3.23855 94 95 116 
1.11587 0.415644 3.25135 22 25 40 
1.11866 -0.398788 3.25446 108 102 130 
1.12808 -0.335331 3.2769 85 83 105 
1.14269 -0.200064 3.3123 46 42 57 
1.13716 0.0982149 3.29244 104 123 153 
1.1425 0.0451136 3.30785 37 34 53 
1.13806 -0.0160652 3.28711 81 77 104 
1.13598 -0.370107 3.26566 110 105 128 
1.13772 -0.356243 3.27052 63 54 83 
1.14856 0.0564567 3.30155 88 82 108 
0.871332 0.582829 2.50038 71 80 111 
1.14993 0.0376438 3.30052 103 108 130 
0.970517 0.568735 2.7805 80 93 125 
0.869898 0.596544 2.48718 44 64 65 
1.16138 -0.282084 3.31952 40 36 51 
1.142 0.408811 3.26532 97 107 134 
1.1428 0.0877423 3.26645 45 33 57 
1.13957 0.378567 3.25649 113 122 153 
1.14668 -0.319277 3.2733 96 92 115 
1.1515 -0.310206 3.28709 31 28 47 
1.15854 0.212642 3.2973 50 40 65 
1.13087 0.546508 3.21699 121 133 173 
1.15368 0.210977 3.2818 50 40 65 
1.15955 -0.268401 3.29579 81 76 98 
1.14762 0.247583 3.26136 56 44 68 
1.15377 -0.33095 3.27395 98 89 118 
1.16041 0.0916244 3.29332 52 41 55 
1.17069 -0.00982271 3.32008 49 45 62 
1.17169 0.050964 3.32066 44 42 56 
1.1472 0.335314 3.24305 55 51 74 
1.17115 -0.276317 3.30887 31 26 46 
1.15429 0.369102 3.26085 55 53 75 
1.15729 0.239286 3.26772 60 57 74 
1.14897 0.442645 3.24382 91 77 103 
1.17834 -0.23235 3.3193 89 87 111 
1.17313 0.0240738 3.30253 26 23 34 
1.18495 -0.20899 3.333 45 38 54 
1.1681 0.317474 3.28645 47 39 52 
1.15154 0.497688 3.23176 95 87 110 
1.17403 0.00852385 3.29364 39 35 50 
0.952477 0.580234 2.66961 64 75 105 
1.18456 -0.0496606 3.3213 94 82 104 
1.18853 -0.241487 3.33007 34 31 48 
1.18815 0.0401589 3.31797 98 100 121 
1.18769 0.0653457 3.31243 113 111 133 
1.18326 0.104359 3.29714 98 86 108 
1.16322 0.427654 3.23985 23 22 30 
1.2061 -0.412676 3.35414 159 176 206 
1.20186 -0.201326 3.33837 31 27 44 
1.20269 -0.154773 3.34023 81 78 99 
1.2085 -0.127055 3.34913 52 45 61 
1.17948 0.016567 3.26843 115 112 133 
1.19631 -0.220574 3.30884 95 87 111 
1.20685 -0.112833 3.33328 84 80 103 
1.1957 0.011269 3.30231 96 90 118 
0.565502 0.475956 1.55474 77 83 119 
1.18694 0.326341 3.27477 90 88 112 
0.96712 0.599025 2.66474 118 133 172 
1.18735 0.379858 3.27319 93 98 118 
1.18879 0.416349 3.26941 73 75 96 
1.20876 -0.18135 3.31942 87 77 104 
1.20295 0.210825 3.30355 43 36 52 
1.21764 -0.119184 3.34128 30 22 43 
1.16155 0.575082 3.17771 132 146 185 
1.21451 0.0836347 3.31973 82 81 97 
1.22226 -0.0794995 3.34074 33 29 43 
1.19281 0.438477 3.26 67 66 84 
1.21552 -0.141323 3.32018 92 79 105 
1.19291 0.456143 3.25839 73 64 81 
1.22129 -0.00606481 3.33454 30 26 41 
1.2258 -0.0376289 3.34189 40 34 48 
0.997754 0.587989 2.7177 66 79 111 
1.21551 0.164569 3.30938 84 81 100 
1.18974 0.544172 3.23576 63 57 71 
1.21278 0.226614 3.28437 39 33 45 
1.22339 0.0597938 3.3127 75 72 91 
1.23584 -0.0628563 3.34562 90 77 103 
1.21046 0.202164 3.27566 37 34 53 
1.21674 0.326256 3.29118 79 79 103 
1.22639 0.16028 3.31626 35 29 43 
1.23332 -0.0226951 3.33227 91 77 102 
1.20551 0.415014 3.25502 35 37 52 
1.22449 0.368309 3.30568 80 85 105 
1.24562 0.0646509 3.36286 52 48 65 
1.20997 0.450145 3.26611 35 32 43 
1.20472 0.461035 3.24856 35 32 43 
1.22244 0.182924 3.29492 72 70 84 
1.21812 0.349068 3.28267 32 34 47 
1.20301 0.48393 3.24185 38 36 50 
1.22264 0.219741 3.29186 106 103 120 
1.20504 0.505277 3.24423 42 38 55 
1.2204 0.2768 3.28372 41 37 51 
1.22042 0.314151 3.28296 36 30 42 
0.580793 0.4755 1.55227 125 136 168 
1.20172 0.521125 3.22478 25 29 40 
1.21894 0.0698282 3.26936 23 21 35 
1.24699 0.0419131 3.34177 23 21 34 
1.22561 0.3402 3.28153 81 83 106 
0.999737 0.596781 2.6741 131 144 186 
1.23337 0.258257 3.30099 105 97 121 
1.22413 0.380968 3.27311 80 84 109 
1.20589 0.491352 3.2211 132 128 143 
1.23596 0.329277 3.29546 85 95 120 
1.19761 0.565145 3.1901 132 147 180 
1.25919 0.00205752 3.35266 26 27 45 
1.24162 0.172402 3.30468 52 56 81 
1.2355 0.367291 3.28792 88 94 116 
1.23129 0.443639 3.2738 128 126 148 
1.25902 0.0791618 3.34165 93 95 118 
1.26484 0.100355 3.34938 160 171 201 
1.2127 0.531195 3.21174 95 101 125 
1.25648 0.248291 3.32198 35 33 47 
1.28247 0.0905885 3.39018 42 49 78 
1.24775 0.33105 3.29705 57 62 91 
1.24624 0.36084 3.29193 33 40 56 
1.25871 0.188492 3.32221 107 115 138 
1.25429 0.224907 3.31061 110 102 125 
1.25509 0.237126 3.30836 113 108 131 
1.23986 0.410047 3.26739 101 110 139 
1.23161 0.509943 3.24565 139 135 160 
1.25248 0.432283 3.29495 54 50 67 
1.29586 -0.00577992 3.40788 36 41 61 
1.22356 0.560701 3.21292 127 117 141 
1.24055 0.595861 3.25653 84 83 115 
1.31334 -0.182046 3.4459 152 165 199 
1.00234 0.619317 2.62502 106 117 135 
1.24109 0.585465 3.25282 131 126 148 
1.27842 0.177447 3.34876 99 100 131 
1.01398 0.620767 2.65044 45 63 67 
1.30042 -0.00587472 3.3957 82 89 108 
1.27918 0.212749 3.33985 100 99 131 
1.26172 0.372624 3.29298 104 116 166 
1.30696 -0.0664507 3.40809 148 165 195 
1.27364 0.358866 3.31952 232 239 255 
1.2476 0.577671 3.24805 71 60 90 
1.28406 0.342033 3.34231 111 112 142 
1.26296 0.443436 3.28712 155 171 197 
1.2723 0.391981 3.3101 235 241 255 
1.24399 0.588661 3.23463 67 64 93 
1.29959 0.00929387 3.37634 122 138 171 
1.30859 0.354658 3.39817 112 120 157 
1.25862 0.508448 3.26728 154 159 189 
1.30788 -0.0128339 3.39381 70 85 108 
1.27592 0.37557 3.30862 104 121 175 
1.31307 -0.0410877 3.39931 153 163 199 
1.2625 0.457934 3.26641 163 169 201 
1.04137 0.611232 2.68976 64 73 104 
1.26283 0.592712 3.25791 99 101 122 
1.25336 0.42945 3.22986 24 33 74 
1.25766 0.50804 3.2325 45 54 93 
1.18011 0.546481 3.02646 38 52 81 
1.26343 0.447103 3.23943 154 173 205 
1.24812 0.588457 3.19903 42 54 92 
1.44152 -0.661288 3.687 183 197 232 
1.27871 0.503916 3.26218 157 164 193 
1.25154 0.49217 3.18955 156 163 192 
1.28561 0.54061 3.27292 95 102 118 
1.24825 0.589513 3.17598 128 144 177 
1.37603 -0.528308 3.49492 167 180 215 
1.46316 -0.927096 3.71531 107 107 143 
1.0804 0.620997 2.73932 66 76 103 
1.28637 0.495946 3.2545 158 161 192 
1.20836 0.606517 3.05368 89 100 130 
1.19793 0.600629 3.026 89 100 130 
1.30311 0.527414 3.2917 72 79 98 
1.26642 0.608352 3.19144 129 141 179 
1.31427 0.603376 3.31175 54 66 92 
1.48203 -0.712716 3.7283 185 202 230 
1.49619 -0.951241 3.75406 114 111 142 
1.47495 -0.748537 3.69828 120 115 155 
1.4708 -0.537144 3.68681 168 180 218 
1.35973 0.523613 3.38349 163 170 196 
1.4321 -0.257753 3.56274 122 135 169 
1.44921 0.0913365 3.59793 159 172 204 
1.24118 0.609377 3.07653 90 100 135 
1.35703 0.534453 3.35922 92 99 117 
1.4918 0.0295466 3.67515 168 178 213 
1.37317 0.5185 3.38012 156 165 194 
1.51274 -0.536965 3.72285 146 151 183 
1.33674 0.626271 3.28791 47 56 87 
1.54099 -1.03286 3.78744 57 79 129 
1.35746 0.615036 3.33639 37 48 78 
1.51549 -0.547005 3.71951 53 46 77 
1.26018 0.610851 3.09105 85 98 130 
1.51983 -0.560461 3.72723 41 36 58 
1.43577 0.186095 3.52165 170 179 218 
1.52468 -0.583391 3.73441 127 122 144 
1.42204 0.46529 3.48328 134 123 155 
1.46838 0.122049 3.59563 66 69 110 
1.47398 -0.0323357 3.60898 152 160 197 
1.57219 -0.726118 3.8415 112 107 137 
1.36502 0.537453 3.33544 22 36 65 
1.57667 -0.941566 3.84947 131 117 140 
1.38202 0.627498 3.37298 91 105 131 
1.49795 0.302409 3.65416 168 176 213 
1.37414 0.535394 3.34911 118 134 157 
1.53199 -0.574513 3.73063 109 116 135 
1.50197 -0.137314 3.65686 122 130 169 
1.47894 0.101017 3.6002 32 38 54 
1.48858 -0.0770405 3.6222 160 163 198 
0.679963 0.490731 1.64851 127 132 162 
1.52145 -0.114432 3.69458 166 176 212 
1.56912 -0.528469 3.80322 148 161 193 
1.481 0.359834 3.58934 172 178 212 
1.46955 0.357134 3.56067 172 178 212 
1.48064 0.101903 3.57978 75 83 96 
0.693349 0.493126 1.67024 133 130 161 
1.48209 0.116969 3.57991 89 106 126 
1.56094 -0.546864 3.7689 85 84 102 
1.56893 -0.539917 3.78536 49 42 73 
1.51293 0.209719 3.65029 24 27 42 
1.53092 -0.147406 3.69276 168 181 216 
1.58137 -0.590549 3.81128 125 121 144 
1.52319 -0.0524626 3.6724 40 47 66 
1.52168 -0.128482 3.66689 88 82 116 
1.48453 0.527102 3.57427 128 131 176 
1.17876 0.645174 2.83497 17 38 31 
0.850669 0.538658 2.04236 66 68 109 
1.16714 0.645273 2.80251 111 118 146 
1.55363 -0.235502 3.73234 125 129 166 
1.48427 0.102583 3.5622 29 30 48 
1.48116 0.543084 3.55455 98 91 125 
1.47264 0.511128 3.53184 108 120 172 
1.51187 0.295227 3.62345 93 94 125 
1.50978 0.110735 3.61632 115 116 136 
1.51733 0.383549 3.63463 123 115 139 
1.48003 0.54847 3.54381 88 92 117 
1.48669 0.498985 3.55967 233 238 255 
1.53397 0.213344 3.67209 28 37 54 
1.48238 0.53115 3.54253 232 237 255 
1.47535 0.579613 3.52234 107 117 127 
1.58819 -0.539058 3.79028 104 102 123 
1.50339 0.492173 3.58522 100 99 143 
1.55196 0.0503523 3.69853 116 128 152 
1.51444 0.115741 3.60748 90 81 108 
1.67506 -0.888151 3.98628 83 73 110 
1.73523 0.0918138 4.12603 115 111 136 
1.50856 0.506794 3.58681 121 112 157 
1.65204 -0.605422 3.92319 28 31 50 
1.60228 -0.289969 3.7987 167 180 215 
1.5692 0.0460364 3.72024 32 22 47 
1.35679 0.624807 3.2098 122 131 164 
1.64767 -0.696944 3.8958 105 104 135 
1.62761 -0.386574 3.84492 170 180 216 
1.69297 -0.881965 3.99963 85 75 112 
1.53037 0.555646 3.61345 114 109 131 
1.58568 -0.243081 3.74295 166 178 216 
1.76477 0.307913 4.16565 159 163 192 
1.62339 -0.347325 3.8253 156 162 194 
1.63126 -0.456649 3.84319 151 157 193 
1.69296 -0.615506 3.9845 47 47 75 
1.93928 0.10655 4.56873 55 41 58 
1.90992 0.14145 4.49384 57 44 61 
1.90323 0.180655 4.4698 50 43 59 
1.56359 0.573722 3.66793 34 33 47 
1.64879 -0.532428 3.86523 85 86 104 
1.54763 0.576848 3.6264 94 100 100 
1.57601 0.614984 3.69178 78 85 103 
1.72003 -0.846212 4.02626 152 151 183 
1.70537 -0.586813 3.98278 129 131 152 
1.63709 -0.146916 3.81769 122 113 142 
1.66805 -0.528669 3.88593 92 94 109 
1.52596 0.64822 3.55494 43 51 74 
1.54399 0.595499 3.58897 89 93 96 
1.68508 -0.520744 3.91265 48 47 81 
1.55808 0.590233 3.61814 30 32 45 
1.75519 -0.875697 4.07355 85 77 116 
1.84762 0.586425 4.2867 88 94 118 
1.68985 -0.509539 3.91765 153 159 191 
1.53179 0.691315 3.55235 129 145 161 
1.76915 -0.829128 4.10077 71 67 94 
1.76535 0.451834 4.08818 140 145 177 
1.27556 0.649269 2.9508 80 91 121 
1.65209 -0.143783 3.82198 128 123 143 
1.6781 -0.546441 3.88111 97 103 115 
1.98798 0.557773 4.59625 147 152 181 
1.73323 -0.583558 4.00005 28 29 49 
1.76468 -0.867855 4.07163 83 76 110 
1.64909 -0.176399 3.80376 39 36 55 
1.70476 -0.516223 3.93167 53 52 86 
1.99973 0.123517 4.6142 30 35 39 
1.69776 -0.530651 3.91369 44 46 69 
1.68584 -0.365958 3.88397 99 101 126 
1.91481 0.553307 4.41307 39 45 69 
1.68165 -0.323121 3.87204 115 120 142 
1.57816 0.590353 3.63185 97 105 128 
1.71897 -0.453703 3.95613 59 63 88 
1.87518 0.650633 4.31213 37 54 74 
1.78998 -0.701917 4.10801 104 104 130 
1.78337 -0.86462 4.09152 85 75 110 
1.70067 -0.415888 3.90209 93 98 120 
1.66418 -0.23968 3.81607 100 98 119 
1.71408 -0.526352 3.92883 44 44 68 
1.68937 -0.134227 3.87362 28 23 29 
1.71171 -0.39952 3.91714 54 51 78 
1.72917 -0.51913 3.95402 96 104 117 
2.00013 0.244436 4.57606 129 136 162 
2.08866 0.175446 4.77575 75 73 94 
1.68597 -0.206353 3.84971 42 34 58 
1.72085 -0.443036 3.92894 111 113 136 
1.69654 -0.21786 3.87198 115 106 127 
1.6869 -0.187402 3.8496 113 101 123 
1.78539 -0.733445 4.07212 110 106 129 
1.73112 -0.362416 3.94765 44 40 67 
1.88514 0.618815 4.29467 135 159 187 
1.80445 -0.779531 4.10926 154 150 175 
1.91154 0.568893 4.34524 103 116 151 
1.70178 -0.183823 3.864 114 107 123 
1.8395 -0.83688 4.17557 156 147 176 
1.32435 0.672767 3.00405 63 80 90 
2.00919 0.591117 4.56247 169 186 212 
1.73731 -0.405003 3.94075 93 95 118 
1.80154 -0.570558 4.08646 135 133 154 
1.72723 -0.425612 3.91429 33 39 61 
1.90887 0.214897 4.32304 36 32 49 
1.75914 -0.503285 3.98282 52 47 79 
1.83382 0.747836 4.15141 24 22 33 
1.74383 -0.330449 3.94456 119 111 135 
1.34246 0.660536 3.03085 82 91 122 
1.99371 0.577613 4.50471 56 69 113 
1.80004 0.751144 4.06602 72 85 117 
1.92804 0.657586 4.35562 161 175 210 
1.93636 0.258618 4.36824 35 31 48 
1.83376 -0.800928 4.13189 67 65 89 
1.86239 0.657048 4.19725 29 31 44 
0.75994 0.498884 1.70449 68 73 111 
1.7859 -0.501762 4.01872 53 48 80 
1.97252 0.662335 4.4412 79 92 134 
1.79945 -0.557547 4.0432 38 39 60 
1.76668 -0.373835 3.96847 28 31 46 
2.07308 0.318951 4.65931 30 30 38 
1.98503 0.577367 4.45552 164 191 218 
1.28163 0.654471 2.86921 52 75 67 
1.80614 -0.508032 4.04349 92 88 105 
1.85715 0.628431 4.15704 154 169 198 
1.98527 0.611171 4.43965 98 110 160 
1.9733 0.578413 4.40989 82 87 143 
1.97872 0.636557 4.41876 83 88 130 
2.06562 0.617619 4.61138 208 227 255 
2.09641 0.556301 4.67732 24 24 34 
2.05835 0.650714 4.59189 213 230 255 
1.7772 -0.159558 3.95741 29 26 35 
2.05204 0.599743 4.56764 58 73 130 
1.37979 0.68144 3.06704 53 65 79 
2.08376 0.581103 4.63214 188 201 235 
1.8993 -0.470819 4.21107 162 175 210 
1.81515 -0.806929 4.02361 84 83 115 
1.85609 0.618268 4.1152 30 21 48 
1.7968 -0.170529 3.97586 94 93 107 
0.781231 0.501453 1.72168 61 69 106 
1.83242 0.761962 4.0528 25 29 40 
2.06285 0.654276 4.55976 153 159 191 
1.90636 -0.64599 4.19476 41 43 66 
1.91096 -0.552356 4.19253 41 43 66 
1.88926 -0.495768 4.13784 93 88 110 
1.89914 0.70432 4.16038 31 32 37 
1.78501 0.548027 3.90959 16 16 24 
1.89304 -0.485784 4.13943 57 55 92 
1.93307 -0.662774 4.22157 125 126 146 
1.909 -0.422243 4.16051 177 187 223 
1.91136 -0.836015 4.16426 138 134 167 
1.90837 -0.488398 4.14808 102 106 131 
1.44836 0.690572 3.13704 42 61 65 
1.95069 -0.686296 4.22631 116 119 160 
1.95316 -0.661713 4.22887 114 119 157 
1.42852 0.687318 3.0912 118 125 151 
0.773585 0.494476 1.66748 82 90 129 
1.9209 0.602211 4.15534 34 37 42 
1.91934 -0.520826 4.13868 113 121 157 
1.9376 -0.481724 4.1746 103 108 128 
1.9929 -0.497481 4.29158 106 107 128 
1.87398 0.786112 4.02144 21 25 37 
1.88541 0.624577 4.04379 58 74 97 
2.0056 -0.523388 4.2915 254 254 254 
1.98157 -0.493024 4.23382 59 64 94 
1.93904 0.0933543 4.14043 94 94 118 
1.94825 -0.471216 4.14963 253 254 255 
1.91201 0.300401 4.07334 107 123 156 
1.9075 0.286586 4.06408 39 39 67 
1.97464 0.309396 4.20744 112 125 157 
2.73549 -0.563887 5.83067 248 255 255 
2.25416 0.423337 4.78904 122 136 173 
1.87786 0.217749 3.98634 111 108 127 
2.04668 0.419749 4.345 126 142 178 
1.95611 0.288149 4.15071 137 134 153 
1.51981 0.705517 3.21881 119 125 149 
2.01548 0.44004 4.27075 127 145 183 
1.95874 0.466566 4.1474 126 144 182 
2.11406 0.537261 4.4712 125 143 181 
2.76588 -0.55836 5.84829 250 254 255 
1.92289 -0.0007356 4.06121 89 94 123 
1.93187 0.140046 4.07717 37 35 56 
2.02416 0.581739 4.27121 115 131 167 
1.95871 -0.0151058 4.13189 30 30 54 
2.14259 -0.0577444 4.52312 99 101 122 
1.45803 0.682312 3.07275 35 52 62 
1.9622 0.411667 4.12903 28 31 64 
2.00608 0.447087 4.21926 45 40 72 
2.82762 -0.607254 5.94061 214 215 219 
1.91475 0.635341 4.01762 36 40 52 
2.48928 0.684103 5.2245 65 73 119 
1.90662 0.64008 3.99468 108 118 143 
2.01122 0.20998 4.20862 51 49 63 
2.75102 -0.529675 5.76038 45 38 116 
1.89191 0.788908 3.94486 25 33 44 
2.97222 -0.42315 6.18933 115 122 174 
2.80588 -0.544588 5.84125 253 255 254 
5.22851 1.35295 10.8722 53 59 93 
2.74946 -1.44049 5.69487 64 62 135 
1.94626 0.72323 4.02778 75 102 149 
1.92382 0.756403 3.97561 121 128 154 
1.94778 0.799148 4.02213 127 118 135 
1.94092 0.704313 4.00613 81 95 130 
1.65529 0.734549 3.41467 64 89 83 
1.96391 0.741835 4.05066 97 100 133 
1.96902 0.697202 4.05642 201 221 254 
1.96413 0.729595 4.04158 200 223 255 
1.9897 0.690734 4.0938 60 66 100 
2.00791 0.736358 4.11044 94 90 141 
1.98188 0.774669 4.05671 130 136 162 
4.65201 0.559084 9.52694 68 70 109 
4.462 1.39838 9.11136 62 53 70 
1.91553 0.806152 3.89588 115 128 147 
3.57053 1.27776 7.25716 32 35 44 
4.23163 0.994319 8.58364 86 95 136 
3.25394 -1.19136 6.58349 205 214 255 
3.18393 -1.23614 6.43462 60 60 130 
4.87623 0.336504 9.85775 112 124 164 
3.66996 1.27895 7.41513 30 28 42 
2.87651 -0.466381 5.79364 254 254 254 
3.22954 -1.1771 6.4952 42 54 106 
2.84569 -0.445186 5.70606 250 248 253 
3.67909 1.21383 7.36918 85 85 123 
2.86526 -0.433763 5.72759 172 175 210 
2.8761 -0.442623 5.74037 169 167 214 
2.90373 -0.478764 5.79 252 255 255 
3.59045 1.23137 7.1535 35 37 49 
2.89413 -0.453542 5.76351 33 34 90 
4.80941 0.552857 9.5532 59 68 109 
5.78167 1.28686 11.4807 25 31 53 
2.93682 -1.6772 5.81493 253 254 255 
4.53049 1.45751 8.97204 29 32 63 
2.90871 -1.63602 5.74973 253 255 252 
3.55764 0.760369 7.03153 70 71 101 
2.92866 -1.65911 5.78168 159 162 217 
5.70341 1.3056 11.2584 75 83 120 
3.98069 0.976317 7.84625 83 88 130 
3.13413 -0.0222576 6.17063 17 21 33 
2.95168 -0.0878852 5.80867 14 21 31 
2.95881 -1.50577 5.80828 234 243 255 
2.8958 -1.27204 5.68272 75 65 138 
2.8976 -1.44387 5.68347 37 50 82 
4.99799 1.1694 9.80614 40 39 70 
4.58933 1.20097 9.003 79 94 135 
3.10447 -0.561247 6.08097 187 188 208 
3.08891 -0.0415733 6.04789 62 76 102 
2.86898 -0.633678 5.61335 217 217 229 
2.86564 -1.65617 5.59946 253 253 255 
2.95597 -0.444212 5.77976 253 255 254 
2.91686 -1.53002 5.69624 168 180 232 
4.95961 1.27581 9.69263 97 117 154 
4.80071 1.27311 9.38043 88 106 146 
3.07605 -0.102559 6.00133 64 85 132 
2.98583 -1.67743 5.82055 139 144 186 
5.34936 1.13591 10.4212 17 23 35 
2.92888 -1.5838 5.69548 80 85 143 
4.25358 0.838704 8.27984 69 86 129 
3.06996 -1.1875 5.9683 255 255 253 
2.99233 -1.65124 5.815 171 184 229 
4.10908 0.996067 7.99237 36 38 59 
2.83834 -1.65293 5.51238 222 241 255 
2.93938 -0.0762351 5.70918 15 19 31 
2.84573 -1.33439 5.52469 52 66 101 
2.95181 -1.61385 5.72667 172 190 228 
2.93779 -1.57589 5.69073 251 255 255 
2.92253 -1.73375 5.65848 224 230 255 
4.2571 0.777868 8.25035 20 27 45 
4.58492 1.29383 8.88736 50 59 92 
4.73326 1.48899 9.17431 65 78 123 
3.33299 -0.0174111 6.45426 19 23 35 
3.0453 -0.572661 5.88559 250 249 255 
2.95802 -1.33115 5.68341 247 245 246 
3.03101 -0.0687307 5.81947 22 23 41 
3.02301 -1.11617 5.79713 35 48 82 
3.2074 -1.04652 6.13681 252 253 255 
3.33209 -0.00588702 6.37571 78 97 139 
3.11749 -1.03871 5.92382 34 42 79 
3.08196 -0.39934 5.84471 243 252 255 
5.02266 1.14644 9.53248 87 110 144 
4.88689 1.37844 9.26806 81 92 138 
5.61424 1.20025 10.6409 20 31 51 
2.95769 -0.797019 5.5972 244 245 249 
4.87421 1.3427 9.23342 67 81 126 
4.7511 1.32949 8.9951 120 142 183 
5.08694 1.48762 9.62463 65 82 128 
4.86223 1.47017 9.1923 67 83 134 
3.00306 -1.02557 5.66698 254 254 254 
4.8796 1.35643 9.19759 110 132 173 
4.98868 1.43254 9.40091 108 127 169 
5.01198 1.40796 9.41757 68 82 111 
5.00194 1.36625 9.39949 60 64 101 
6.12082 1.42109 11.4658 21 27 43 
3.29194 -0.131683 6.15203 30 37 81 
4.9062 1.39713 9.17052 109 121 133 
4.95884 1.46128 9.25953 35 42 68 
5.0827 1.3698 9.48185 23 27 52 
6.00649 1.62134 11.2018 21 28 57 
4.98828 0.419733 9.2684 44 40 73 
5.08676 1.15012 9.42852 36 50 95 
5.39017 1.51493 9.98524 103 125 162 
5.0044 1.34656 9.24683 34 49 92 
4.97735 1.31638 9.19499 34 38 86 
4.96561 1.39141 9.16279 51 69 119 
5.0215 1.37002 9.26115 113 133 170 
4.83351 1.42852 8.91014 56 69 121 
5.20172 1.39029 9.57896 92 122 158 
5.17967 0.57712 9.53259 66 74 87 
-0.511828 0.399068 1.73515 41 42 62 
-0.508256 0.41035 1.73251 36 37 55 
-0.502553 0.232986 1.72732 116 65 132 
-0.379231 0.449797 1.5138 143 132 149 
-0.493835 0.193418 1.73752 97 121 181 
-0.472347 0.253195 1.70731 55 75 144 
-1.38314 -0.683588 3.37934 120 138 186 
-0.496185 0.225979 1.75495 149 179 190 
-0.485194 0.229445 1.74825 44 65 110 
-0.478954 0.258651 1.74762 97 126 186 
-0.473294 0.180636 1.75468 145 166 223 
-0.462659 0.178327 1.73598 158 175 229 
-0.546303 -0.275857 1.89348 11 14 31 
-0.532729 -0.182713 1.88768 82 80 101 
-0.458641 0.239117 1.75459 146 169 210 
-0.457665 0.204067 1.75721 144 166 205 
-0.536077 -0.346161 1.91744 76 78 101 
-0.465028 0.21353 1.78433 161 184 226 
-0.329699 0.450732 1.52128 70 75 97 
-0.458831 0.244365 1.77463 93 112 142 
-0.535233 -0.388803 1.92668 66 71 103 
-0.490372 -0.0934452 1.84195 37 49 47 
-0.457072 0.233667 1.77939 79 93 132 
-0.449662 0.210193 1.76808 61 82 125 
-0.487291 0.156625 1.8565 113 121 167 
-0.482268 0.250173 1.84739 165 184 224 
-0.447832 0.185471 1.78649 143 162 220 
-0.427274 0.249966 1.76117 82 156 219 
-0.43167 0.251274 1.77052 83 159 221 
-0.442945 0.211244 1.80446 83 162 229 
-0.267978 0.444624 1.46043 139 138 170 
-0.311673 0.454629 1.56203 49 55 87 
-0.428429 0.188723 1.81472 159 179 232 
-0.390501 0.192681 1.73695 70 71 76 
-0.460256 -0.143665 1.88253 119 125 157 
-0.427139 0.23794 1.82231 56 102 179 
-0.408701 0.251979 1.78369 74 152 218 
-0.418564 0.207442 1.80828 57 58 104 
-0.439306 0.206761 1.85424 75 61 97 
-0.412292 0.193118 1.80449 26 34 80 
-0.477345 -0.280037 1.94241 74 69 91 
-0.451045 0.118422 1.89047 110 96 129 
-0.279818 0.452652 1.52729 57 64 92 
-0.39922 0.183985 1.79043 179 200 247 
-0.461059 -0.409301 1.92798 115 125 160 
-0.454949 -0.313933 1.92347 122 128 162 
-0.441617 0.26217 1.91119 103 125 175 
-0.295787 0.459359 1.58835 58 62 89 
-0.396368 0.221272 1.82333 36 51 84 
-0.394792 0.24729 1.83218 19 28 67 
-0.401797 0.254202 1.85093 136 159 213 
-0.377228 0.223719 1.79686 158 177 235 
-0.406401 0.447962 1.87257 47 56 85 
-0.39458 0.19831 1.84239 26 40 89 
-0.397123 0.224251 1.85118 130 155 211 
-0.382239 0.475163 1.82615 68 89 136 
-0.421748 0.201084 1.91964 106 129 181 
-0.420627 0.171711 1.9168 118 130 170 
-0.396237 0.304118 1.8625 158 174 207 
-0.441231 0.332015 1.96825 53 54 48 
-0.338784 0.236375 1.73856 46 57 89 
-0.39339 0.370342 1.87034 105 129 173 
-0.396431 0.452438 1.87982 34 38 65 
-0.379864 0.185482 1.83938 29 38 67 
-0.375965 0.296858 1.83464 66 84 124 
-0.387445 0.327565 1.86223 126 150 196 
-0.389629 0.177076 1.87446 29 28 70 
-0.415472 -0.222302 1.95156 115 129 164 
-0.379224 0.315018 1.88126 48 57 54 
-0.373613 0.366244 1.87167 43 44 65 
-0.121042 0.154991 1.30435 142 146 175 
-0.359879 0.396476 1.95754 37 34 55 
-0.193789 0.456361 1.54519 57 69 107 
-0.266781 0.246995 1.79164 44 55 75 
-0.395635 0.511293 2.15525 21 23 36 
-0.315865 0.40756 1.9417 18 20 33 
-0.299535 0.366185 1.90279 28 31 48 
-0.310413 0.302392 1.95833 93 115 165 
-0.306708 0.401182 1.95234 125 147 194 
-0.292585 0.299326 1.91318 240 243 255 
-0.305596 0.424924 1.95512 36 49 83 
-0.289713 0.358957 1.9093 116 133 179 
-0.3372 -0.0158183 2.04931 24 30 56 
-0.336705 0.323576 2.05558 88 104 137 
-0.299772 0.444238 1.95705 16 19 34 
-0.30528 0.0374487 1.97385 151 172 217 
-0.334911 0.339868 2.06765 61 58 79 
-0.32011 0.434977 2.02814 19 21 34 
-0.308483 0.500649 2.00472 22 24 36 
-0.357613 0.416512 2.16228 26 28 40 
-0.313387 -0.378557 2.06074 71 93 140 
-0.318194 -0.227863 2.08347 35 47 73 
-0.272145 0.324812 1.96143 42 50 63 
-0.310396 -0.355046 2.06829 25 32 58 
-0.215452 0.281601 1.82619 113 120 149 
-0.278815 0.116307 2.06435 143 149 183 
-0.258127 0.0832776 2.01421 148 154 186 
-0.260612 0.0260157 2.02842 143 148 178 
-0.265205 0.228414 2.049 152 156 185 
-0.259458 -0.0893984 2.04015 128 132 161 
-0.271468 -0.314431 2.0805 98 107 140 
-0.262063 -0.03888 2.05851 139 149 176 
-0.281503 -0.0180931 2.13718 78 87 120 
-0.218509 0.118175 1.93585 97 83 109 
-0.269703 -0.109084 2.10818 25 27 48 
-0.258298 0.0765079 2.07665 94 81 107 
-0.267587 0.0607847 2.10887 147 156 187 
-0.262508 -0.00960001 2.10094 136 145 174 
-0.250128 0.180734 2.06845 106 96 121 
-0.26017 0.156711 2.1105 102 88 114 
-0.254749 0.00859748 2.0906 84 95 125 
-0.255767 -0.00216678 2.09437 85 91 123 
-0.224121 -0.117553 2.07796 31 33 56 
-0.212492 0.260277 2.11049 52 48 62 
-0.224247 -0.0566802 2.155 111 106 129 
-0.213577 0.281841 2.13419 67 57 81 
-0.209675 0.273016 2.1248 114 122 145 
-0.228595 0.0645745 2.19358 106 110 137 
-0.226474 0.27278 2.20087 57 53 68 
-0.225925 -0.00129001 2.19458 34 33 51 
-0.160694 0.275483 1.94872 116 116 140 
-0.208329 0.0167007 2.13926 112 116 145 
-0.216125 -0.0697725 2.16818 80 78 99 
-0.205976 0.00677411 2.13303 109 115 141 
-0.216459 0.276148 2.19515 30 36 58 
-0.220169 0.000145142 2.20512 39 35 52 
-0.205897 0.283688 2.16163 105 111 137 
-0.0914391 0.477562 1.71684 122 126 163 
-0.155729 -0.233615 1.95627 80 80 108 
-0.14331 -0.120889 1.91668 65 62 73 
-0.231069 -0.000765597 2.29112 15 22 38 
-0.219913 -0.0408683 2.25206 86 81 104 
-0.219092 -0.00483497 2.25736 25 37 49 
-0.128151 -0.172601 1.91176 75 71 94 
-0.116631 -0.233311 1.91517 12 17 36 
-0.068181 0.48269 1.744 137 138 168 
-0.13235 -0.43333 1.99976 95 100 132 
-0.0960524 -0.126967 1.87515 67 65 79 
-0.102711 -0.227438 1.91435 36 36 48 
-0.019358 0.458385 1.55582 137 144 186 
-0.0642672 0.446185 1.78081 153 150 169 
-0.0727303 -0.131422 1.86596 32 31 36 
-0.0457965 0.489268 1.77241 59 64 96 
-0.0751237 -0.0348204 1.89867 115 124 157 
-0.0675022 -0.141899 1.85648 85 88 97 
-0.0686634 -0.186169 1.89111 125 121 144 
-0.0602596 0.282423 1.8894 48 52 63 
-0.0502291 -0.150071 1.87671 41 40 48 
-0.0493617 -0.126119 1.87526 125 121 136 
-0.0299494 0.466447 1.80481 110 108 132 
-0.0490537 -0.198754 1.87967 54 51 70 
-0.04725 0.264506 1.91351 129 127 148 
-0.0452299 -0.158335 1.91191 120 106 131 
-0.0402572 -0.191951 1.88968 127 112 131 
-0.0407097 -0.208 1.90483 123 108 127 
-0.0397399 -0.0625488 1.91366 58 50 74 
-0.0403424 -0.277069 1.9173 71 62 81 
-0.0158246 0.430709 1.81866 234 237 254 
-0.0332068 -0.288567 1.90276 64 55 74 
-0.0320235 -0.124188 1.91757 25 24 29 
-0.0273368 -0.117871 1.90559 28 29 34 
-0.029588 -0.152215 1.92615 135 123 145 
-0.0314662 -0.176733 1.94006 164 161 182 
-0.0074491 0.4699 1.84493 38 34 84 
-0.00966158 0.42083 1.85729 58 59 123 
-0.0289436 -0.202878 1.94158 164 160 183 
-0.00358355 0.434465 1.84601 118 104 140 
-0.0967518 0.151142 2.4086 34 47 82 
-0.00482188 0.487069 1.86182 96 79 98 
-0.0262991 -0.340032 1.9458 20 20 22 
-0.0975814 0.116933 2.41701 33 42 71 
-0.0198824 -0.0813749 1.92572 131 123 147 
-0.0917326 0.158748 2.39921 13 20 39 
-0.0019281 0.457745 1.85603 161 153 174 
-0.092146 0.10793 2.40451 16 20 47 
-0.00984503 0.298268 1.90485 25 32 61 
-0.0192661 -0.322633 1.94285 123 110 128 
-0.0845081 0.202583 2.40015 20 24 36 
-0.00730315 -0.0598219 1.89161 121 116 138 
0.00747155 0.308736 1.83849 113 107 119 
-0.0825962 0.151623 2.42428 153 171 245 
0.00424476 0.336447 1.87147 119 121 116 
-0.0814023 0.118325 2.42019 151 169 241 
0.0291809 0.483182 1.73662 73 72 104 
-0.0680355 0.365775 2.40013 59 83 107 
-0.00378332 -0.118779 1.94266 27 26 32 
-0.000155019 0.3279 1.94833 16 24 45 
-0.0695379 0.112552 2.43761 4 17 59 
-0.00333251 -0.438614 1.99824 169 174 204 
0.00853181 -0.419066 1.98482 68 69 74 
0.0782055 0.466662 1.59398 75 72 115 
0.0365831 -0.40483 2.03228 71 67 81 
0.0120403 0.407199 2.42353 34 34 44 
0.109207 0.465087 1.56946 145 148 181 
0.0253068 0.341886 2.46325 77 77 101 
0.0280228 0.36256 2.45825 78 83 105 
0.112212 0.477722 1.66975 61 68 97 
0.0411014 0.414259 2.45535 32 34 47 
0.0554905 0.300019 2.5088 81 86 116 
0.0774952 0.25644 2.50219 51 48 67 
0.110519 0.485237 2.07177 158 167 196 
0.076595 0.225294 2.51932 50 47 64 
0.0760864 0.139065 2.53644 43 40 51 
0.129 0.504402 2.01867 97 103 135 
0.120725 -0.437101 2.12195 119 105 120 
0.11931 0.284983 2.37348 20 28 47 
0.124075 0.429728 2.31852 96 107 137 
0.165803 0.473595 1.62733 71 76 108 
0.129344 -0.523633 2.15634 57 48 69 
0.131866 -0.439137 2.13051 93 90 107 
0.132182 0.432553 2.36641 28 35 63 
0.170511 0.471128 1.60737 133 138 170 
0.133172 0.288079 2.38639 13 22 39 
0.138216 0.194527 2.53456 84 90 114 
0.149329 -0.422347 2.1712 56 40 66 
0.198674 0.467515 1.55714 75 74 118 
0.187997 -0.480611 2.21812 39 26 43 
0.212083 0.476593 1.63085 75 75 109 
0.197005 -0.501368 2.21399 108 96 120 
0.242507 0.544206 2.14251 136 136 164 
0.243062 0.547672 2.16978 84 98 107 
0.240265 -0.390673 2.26109 70 54 80 
0.267907 0.495234 2.21773 106 121 154 
0.261577 -0.531158 2.28997 126 121 144 
0.293612 0.537817 2.11141 128 135 164 
0.299232 0.531344 2.08108 127 126 157 
0.309271 0.521846 2.245 48 54 76 
0.314363 0.2121 2.42131 99 106 132 
0.289808 0.484784 1.70234 77 80 113 
0.318115 0.523535 2.2075 148 164 197 
0.331605 0.377755 2.30023 14 22 45 
0.302774 0.487143 1.71227 82 88 114 
0.337545 0.527767 2.26486 43 49 73 
0.33882 0.125879 2.36532 81 83 104 
0.333634 0.547244 2.17341 70 69 103 
0.319733 0.513792 1.90918 77 81 118 
0.346806 -0.0985428 2.36247 78 79 99 
0.343746 -0.110985 2.31389 59 58 72 
0.342321 -0.108387 2.2712 57 54 71 
0.345261 -0.612837 2.41453 144 149 191 
0.345052 -0.370798 2.35737 169 176 205 
0.359798 0.178217 2.38546 52 45 63 
0.356644 0.551392 2.25426 115 128 160 
0.35411 -0.192866 2.35762 124 114 139 
0.357922 -0.161398 2.35548 133 129 152 
0.365906 0.119873 2.34045 51 47 62 
0.370669 0.538641 2.25168 57 57 69 
0.370442 -0.379604 2.40797 131 140 173 
0.371545 -0.155075 2.37421 62 51 81 
0.374527 0.200169 2.32649 56 52 67 
0.376309 0.218438 2.32862 57 54 73 
0.380031 -0.16187 2.38958 113 106 137 
0.326743 0.47483 1.62021 79 83 118 
0.383177 -0.124261 2.37645 121 117 140 
0.374452 0.541148 2.16031 87 88 118 
0.391527 0.121854 2.36158 143 143 169 
0.388674 0.555723 2.25207 62 80 100 
0.393815 0.534389 2.27286 69 67 91 
0.397591 0.0293832 2.38 27 30 35 
0.398155 0.517706 2.29857 144 146 167 
0.398287 -0.290905 2.42086 145 151 187 
0.400854 -0.148742 2.40967 47 47 59 
0.398495 0.557045 2.26228 128 133 162 
0.400413 -0.0731883 2.37376 25 24 32 
0.397261 0.55474 2.23545 66 78 92 
0.406025 0.506721 2.28956 68 70 93 
0.344498 0.481849 1.65262 60 62 100 
0.413503 0.324287 2.3518 130 133 164 
0.415088 -0.209282 2.42481 180 193 228 
0.420728 -0.167377 2.41456 174 180 212 
0.42041 0.557975 2.26158 72 67 107 
0.431541 0.448857 2.3229 100 102 127 
0.440719 0.517976 2.32448 89 101 127 
0.447016 0.0768126 2.41875 175 185 220 
0.453427 0.209844 2.41563 178 192 229 
0.456195 0.0582501 2.42643 179 191 231 
0.379057 0.487227 1.70845 59 65 99 
0.460002 -0.072751 2.44425 170 179 218 
0.459956 0.562038 2.35656 52 58 80 
0.470105 -0.401314 2.52009 148 152 189 
0.461089 0.564805 2.30279 71 75 112 
0.471916 0.330438 2.41108 69 82 127 
