ply                 
format ascii 1.0    
element vertex 1261
property float x    
property float y    
property float z    
property uchar red  
property uchar green
property uchar blue 
end_header          
0.871496 -0.524695 2.97154 87 107 131 
0.880766 -0.592522 3.00884 142 157 180 
0.883695 -0.473978 3.00846 31 28 45 
0.961091 0.42559 3.23712 33 25 38 
0.899873 -0.715653 3.06863 113 118 156 
0.898308 -0.467114 3.0309 117 120 137 
0.893518 -0.524027 3.00664 31 31 43 
0.797546 0.534423 2.57537 82 92 127 
0.900944 -0.574184 3.03067 33 33 61 
0.984878 0.221212 3.28046 55 50 70 
0.901199 -0.555212 3.01094 138 154 180 
0.910043 -0.477711 3.03836 36 32 47 
0.580411 0.497141 1.74723 80 88 127 
0.985756 0.281829 3.26059 104 108 135 
0.985785 0.319534 3.25603 83 80 99 
0.985168 0.387094 3.24396 93 93 119 
0.930641 -0.821874 3.10961 130 135 157 
0.938679 -0.82456 3.11684 83 94 124 
0.942577 -0.460952 3.10184 34 33 41 
0.943284 -0.759093 3.11868 45 50 70 
0.942838 -0.811526 3.11729 80 81 111 
0.964888 -0.399559 3.16163 100 96 121 
1.00684 -0.136569 3.28636 99 93 121 
0.954697 -0.646474 3.09295 93 97 134 
0.844513 0.547672 2.62687 71 84 116 
1.00956 -0.276847 3.25496 77 69 90 
0.569993 0.486736 1.64726 71 79 118 
0.963728 -0.474213 3.10157 42 33 50 
1.00946 0.529107 3.1881 50 48 69 
0.995931 -0.788988 3.2037 59 59 87 
0.972431 -0.592314 3.10259 143 149 181 
1.03224 0.375556 3.24939 63 53 77 
1.03344 0.397149 3.24924 56 44 68 
0.986148 -0.498795 3.12277 148 148 182 
0.650789 0.515821 1.89786 80 79 119 
1.03235 0.0248555 3.24285 28 26 37 
0.739582 0.553668 2.191 70 91 94 
1.04465 0.414713 3.24762 85 86 106 
1.0455 0.370583 3.25291 95 92 111 
0.999132 -0.600351 3.14332 57 59 97 
1.02724 -0.610315 3.19001 148 159 187 
1.0217 -0.474792 3.15699 80 65 96 
1.0698 0.442578 3.21885 48 36 50 
0.793123 0.28345 2.23643 26 28 43 
0.64238 0.496257 1.7188 60 64 99 
0.647922 0.496301 1.73205 131 144 179 
0.639281 0.492329 1.67127 68 71 106 
-0.483099 0.245801 1.74999 89 120 213 
-0.450899 0.220622 1.79018 165 187 228 
-0.445985 0.19911 1.80883 69 69 79 
-0.419506 0.182734 1.75787 162 182 235 
-0.419317 0.245614 1.81219 20 28 47 
-0.413877 0.220553 1.82 33 50 78 
-0.315784 0.355254 1.94696 25 27 40 
-0.27524 0.0734238 2.08021 154 159 189 
-0.262036 0.00158152 2.10379 143 149 181 
-0.0140021 -0.184245 1.94741 63 62 94 
0.0247006 0.342505 2.46642 77 77 101 
0.0277018 0.362514 2.45838 78 83 105 
0.13218 -0.436488 2.12083 93 90 107 
0.304674 -0.330612 2.32498 123 117 143 
0.316193 0.440376 2.33697 42 43 61 
0.350846 -0.216682 2.36301 88 79 108 
0.356613 0.533599 2.28718 31 32 50 
0.354949 0.385181 2.27155 60 74 109 
0.376924 0.0822964 2.35148 44 40 55 
0.376388 0.0057987 2.35533 49 39 48 
0.390526 -0.604184 2.46391 146 147 191 
0.392268 0.472095 2.28462 124 128 155 
0.398162 0.481282 2.29061 120 125 145 
0.418601 0.45366 2.31678 105 107 130 
0.423813 0.136475 2.40018 117 111 137 
0.444636 0.218456 2.40635 171 184 219 
0.4519 0.388779 2.3885 124 133 132 
0.458601 0.521955 2.35388 37 43 65 
0.493186 0.352539 2.44097 148 153 191 
0.492964 0.395026 2.43328 118 126 128 
0.585986 0.492311 2.49735 29 36 55 
0.605523 -0.00259063 2.63974 158 170 208 
0.715065 -0.332919 2.79193 72 61 95 
0.829768 -0.0393529 3.21919 53 47 73 
0.852101 -0.0183225 3.25854 99 96 123 
0.819462 -0.744364 2.96927 146 159 201 
0.941354 -0.0865988 3.31701 45 41 58 
0.936732 0.42509 3.23859 41 37 51 
0.86912 -0.486446 2.91947 115 108 139 
0.93089 -0.779835 3.10616 79 83 110 
0.931382 -0.796227 3.10831 87 84 105 
1.09198 0.102778 3.55541 117 132 165 
1.01067 0.529948 3.19236 50 48 69 
1.03532 -0.233849 3.27946 71 67 90 
1.03808 -0.392014 3.20173 104 99 129 
1.04094 -0.413508 3.20139 42 39 48 
1.03675 -0.764678 3.20285 33 31 53 
1.07028 0.424917 3.23465 45 34 51 
1.05465 -0.616854 3.20231 90 88 110 
1.09611 0.172824 3.28938 62 53 74 
1.09479 0.262157 3.27547 65 53 75 
1.05199 -0.497615 3.17742 97 114 134 
1.06684 -0.419954 3.20715 37 32 54 
1.06787 -0.489881 3.18669 23 29 45 
1.1086 -0.222942 3.294 99 91 115 
1.15403 0.0880852 3.30226 47 38 59 
-0.0427838 -0.125081 1.88439 28 27 33 
-0.0118424 0.279251 1.88577 73 78 98 
-0.00247075 -0.200521 1.95921 31 28 39 
0.283461 -0.309016 2.32508 31 29 40 
0.291184 -0.316938 2.32055 41 39 50 
0.550511 0.395978 2.49776 63 74 102 
0.598966 -0.0426843 2.62678 138 152 187 
0.585331 0.419408 2.54688 66 67 69 
0.705487 -0.473207 2.79672 162 168 200 
0.880552 -0.0622545 3.25826 119 121 142 
1.01039 -0.108891 3.29654 85 81 108 
1.02114 -0.0612398 3.30415 74 70 93 
1.02467 0.0420804 3.27868 88 83 106 
0.988221 -0.444707 3.14295 42 40 53 
1.0179 0.424799 3.24015 44 37 53 
1.02261 0.433608 3.22479 91 78 96 
1.02535 0.467824 3.21235 93 75 97 
1.017 -0.526586 3.14357 145 161 186 
1.07304 -0.293515 3.25923 101 102 132 
1.05966 0.524556 3.20747 42 40 53 
1.10291 0.0247234 3.28776 25 23 34 
1.07864 0.433197 3.21569 93 78 99 
1.08498 -0.477348 3.21611 34 34 46 
1.08451 -0.404227 3.21295 103 99 122 
1.10076 -0.523289 3.2205 160 169 202 
1.1373 0.0198564 3.29194 27 26 34 
0.8664 0.579978 2.48784 71 80 111 
1.152 -0.27934 3.29465 40 36 51 
1.1501 0.00697764 3.27505 115 111 136 
1.11245 0.537548 3.16642 121 133 173 
1.16442 -0.243214 3.30047 43 41 54 
1.14402 0.441144 3.23141 91 77 103 
1.17729 -0.206987 3.3135 45 38 54 
1.1606 0.315585 3.26683 47 39 52 
1.18381 0.128053 3.29625 99 90 111 
1.1829 0.221722 3.2827 100 98 119 
1.20696 -0.159518 3.33071 29 25 42 
1.18187 0.357879 3.26076 93 100 119 
1.18137 0.378208 3.25826 93 98 118 
1.19748 0.209787 3.28989 43 36 52 
1.1846 0.435488 3.23916 67 66 84 
1.18433 0.453321 3.23643 73 64 81 
1.2102 0.126473 3.30362 83 78 100 
1.17426 0.560429 3.16917 125 141 175 
1.01137 0.604152 2.7076 131 144 186 
-0.49036 0.0281395 1.84108 92 105 139 
-0.45597 0.400972 1.80103 40 41 61 
-0.449346 0.24649 1.79265 143 145 168 
-0.381193 0.369849 1.88883 43 44 65 
-0.374576 0.484896 1.88318 79 87 110 
-0.301275 0.336844 1.95639 141 154 196 
-0.312827 0.194013 1.99097 148 173 213 
-0.310133 0.265883 1.98508 103 118 157 
-0.309926 0.0903745 2.01354 94 110 146 
-0.280635 -0.0457658 2.08598 94 100 132 
-0.253992 0.181867 2.08128 106 96 121 
-0.0746955 0.267833 1.81556 99 98 114 
-0.0417685 0.481841 1.76093 125 123 160 
-0.0657283 -0.0744174 1.87406 73 63 88 
-0.0626629 -0.251336 1.88609 121 103 127 
-0.0550867 -0.0873372 1.86985 127 117 142 
-0.0505488 -0.0641241 1.89339 64 56 79 
-0.0297073 0.397191 1.81762 135 141 163 
-0.0430934 0.238823 1.8939 159 174 203 
-0.0422169 -0.18067 1.88607 130 116 133 
-0.0311891 0.27994 1.8606 39 41 54 
-0.0369773 -0.0530148 1.91599 62 55 71 
-0.0357566 -0.242823 1.904 129 116 133 
-0.0322284 -0.214765 1.90254 79 69 94 
-0.0270177 -0.062407 1.91944 71 66 89 
-0.0269799 -0.288057 1.92009 129 110 129 
-0.0248722 -0.170046 1.92851 163 165 186 
-0.0141064 -0.215493 1.95021 143 129 152 
-0.0114524 -0.231527 1.95415 160 148 172 
-0.00908166 -0.246735 1.95964 155 139 165 
-0.0683188 0.160507 2.42552 14 22 59 
-0.00121534 -0.278163 1.97298 154 140 163 
0.0171715 0.511496 2.19609 136 147 179 
0.00812935 0.414577 2.45786 34 34 44 
0.0778258 0.488957 1.95097 159 170 202 
0.0422192 0.412279 2.43921 32 34 47 
0.111553 0.498471 2.06353 159 166 195 
0.105996 -0.0131983 2.34087 69 71 84 
0.132486 0.496699 2.08712 163 170 196 
0.147244 0.517361 1.99907 86 104 106 
0.204919 0.528559 2.09095 143 157 186 
0.205985 0.517525 2.0928 89 96 124 
0.224393 0.303414 2.46014 45 51 77 
0.217746 -0.403001 2.23479 68 56 80 
0.249172 0.280761 2.42291 85 91 117 
0.264165 0.519748 2.15828 156 169 201 
0.258091 -0.358243 2.29108 43 40 49 
0.292888 0.523366 2.19039 151 165 194 
0.28793 -0.323137 2.30952 54 48 62 
0.314414 0.189079 2.39609 59 57 78 
0.311942 -0.154403 2.39117 34 32 43 
0.308908 -0.33772 2.32656 133 135 158 
0.314843 -0.304759 2.33227 87 72 101 
0.321422 -0.141181 2.3845 76 79 98 
0.335268 -0.26259 2.34897 83 68 99 
0.339219 -0.241018 2.35205 131 123 147 
0.347497 0.0998217 2.37742 80 79 95 
0.355055 -0.200179 2.36283 93 82 114 
0.36213 -0.080574 2.35705 113 100 126 
0.362161 -0.109544 2.35884 136 127 148 
0.3665 0.120443 2.3516 51 47 62 
0.374439 -0.0810893 2.3666 54 41 67 
0.376399 0.459743 2.27696 43 43 55 
0.387884 0.495527 2.27268 64 59 82 
0.395878 0.549048 2.27894 103 108 130 
0.407838 -0.105163 2.38785 115 117 138 
0.415063 0.428095 2.31418 59 64 86 
0.422618 0.161729 2.39085 120 111 138 
0.431154 0.0102939 2.40512 94 89 112 
0.440014 0.551187 2.32792 49 55 77 
0.445067 0.516161 2.33661 44 54 79 
0.465247 -0.170799 2.47973 136 144 183 
0.500494 0.559197 2.39349 112 114 137 
0.588387 0.402526 2.54099 64 77 109 
0.597288 0.0810483 2.601 166 170 207 
0.598164 0.287471 2.58309 166 177 209 
0.606161 0.0330859 2.60899 159 172 207 
0.620867 0.00878253 2.63352 82 95 130 
0.6218 0.169318 2.61247 123 132 173 
0.609638 0.406054 2.49607 83 108 149 
0.642928 -0.116658 2.65108 59 64 93 
0.646503 -0.176719 2.66105 68 72 107 
0.659597 -0.437987 2.73751 138 148 184 
0.660124 -0.385953 2.7316 165 176 221 
0.6647 0.335273 2.66031 38 36 47 
0.648573 0.528688 2.56193 37 42 62 
0.665056 0.511248 2.58377 111 111 139 
0.673676 0.432507 2.62095 61 57 80 
0.818452 -0.125744 3.22042 109 106 135 
0.732867 -0.489541 2.82797 70 81 113 
0.836421 -0.0396632 3.22364 104 101 128 
0.84424 -0.0300104 3.24951 33 31 44 
0.755258 -0.435297 2.84336 133 124 155 
0.764655 -0.411627 2.85686 122 112 137 
0.779396 -0.432859 2.87191 128 118 143 
0.903196 -0.148301 3.30156 44 36 49 
0.830443 -0.409264 2.98759 128 125 152 
0.84099 -0.469662 2.95411 82 68 103 
0.705171 0.572767 2.33548 40 59 74 
0.936381 0.202506 3.27897 97 92 114 
0.938211 0.425923 3.24439 41 37 51 
0.865818 -0.488439 2.9816 125 121 148 
0.965059 0.427318 3.25213 33 25 38 
0.898128 -0.51073 3.03106 115 108 139 
0.767104 0.544998 2.45006 79 92 127 
0.988275 0.241536 3.27419 84 81 102 
0.987837 0.282591 3.26835 104 108 135 
0.98825 0.421237 3.24453 78 70 85 
0.983916 0.512924 3.22273 34 31 42 
0.935425 -0.500955 3.05912 83 73 107 
0.964771 -0.497748 3.09336 84 83 115 
1.04762 0.067028 3.30502 90 87 108 
0.986407 -0.518791 3.11848 30 30 42 
0.993164 -0.486442 3.12329 82 75 106 
0.804182 0.58463 2.40936 69 86 102 
1.0585 0.0833132 3.30001 27 27 39 
1.01222 -0.430034 3.16343 42 34 47 
0.854447 0.56799 2.56452 75 86 118 
1.05731 0.522755 3.19601 49 47 61 
1.03966 -0.437656 3.17656 35 31 48 
1.03983 -0.547264 3.18285 64 56 80 
1.07836 0.370347 3.25378 111 125 154 
1.07515 -0.295279 3.26909 102 107 137 
1.09441 0.157034 3.2868 61 47 72 
1.06354 -0.393812 3.21478 42 36 48 
1.0933 0.28333 3.26782 59 50 71 
1.07863 0.453617 3.20666 102 88 113 
1.08959 0.00705365 3.26517 109 102 133 
1.05983 -0.425752 3.18827 117 111 137 
1.11265 -0.00893171 3.30438 35 34 50 
1.08061 0.528878 3.16752 39 49 85 
1.09033 -0.371258 3.23533 39 37 51 
1.11639 0.405288 3.25754 25 24 40 
0.96155 0.563192 2.7539 87 102 131 
1.09967 -0.413538 3.23519 71 65 99 
1.12378 0.527887 3.2144 50 48 62 
0.962951 0.354851 2.7189 45 34 50 
1.14819 -0.162823 3.31406 57 53 70 
1.10914 0.534862 3.15211 129 141 181 
1.13862 0.0258217 3.26297 88 86 107 
1.13814 -0.37084 3.2738 124 116 140 
0.920429 0.604917 2.54485 136 143 171 
1.14953 0.416929 3.25008 51 45 71 
1.15153 0.384292 3.25778 62 57 87 
1.15104 0.337426 3.25636 60 58 80 
1.15791 -0.00504876 3.2952 55 47 68 
1.15937 0.220861 3.28149 85 88 103 
1.15296 0.427042 3.24196 32 24 37 
1.14541 0.495065 3.21503 109 103 131 
1.1621 -0.287958 3.29121 96 92 117 
1.18354 -0.23977 3.31664 32 29 46 
1.1747 0.427408 3.24795 24 24 32 
1.18847 -0.192448 3.32107 96 90 116 
1.18451 0.0058094 3.28583 120 117 138 
1.18217 0.414947 3.25152 80 81 111 
1.19817 -0.153503 3.3284 96 90 116 
1.19599 0.0929035 3.30199 54 43 59 
1.203 0.000908368 3.31789 62 49 75 
1.20293 -0.25487 3.32786 130 132 157 
1.1923 0.428531 3.24416 21 19 32 
1.21301 0.0285646 3.31199 29 27 40 
1.20954 0.24318 3.284 92 90 111 
1.21337 0.148333 3.29631 36 32 46 
1.22019 0.0425099 3.31695 30 26 41 
1.24798 -0.596297 3.42608 133 134 180 
0.731335 0.499252 1.73862 136 140 165 
-0.470203 0.190194 1.83323 163 182 238 
-0.381339 0.455154 1.83931 35 32 51 
-0.0853037 0.474505 1.76033 37 39 51 
-0.0711107 0.203212 1.91122 156 166 202 
-0.0319637 -0.267066 1.91211 142 127 146 
-0.00322723 -0.113496 1.8459 27 28 30 
-0.036866 0.247301 1.89828 120 121 142 
-0.000673754 0.479659 1.83608 96 77 97 
-0.0839447 0.211667 2.40381 129 131 130 
0.245545 -0.357503 2.28529 44 37 44 
0.267498 0.502543 2.24782 110 125 156 
0.351827 -0.124672 2.3597 62 57 77 
0.376289 0.219175 2.33526 63 59 74 
0.399356 -0.147418 2.38837 52 50 61 
0.391411 0.0722875 2.36064 144 146 171 
0.428763 -0.0717527 2.41482 27 31 40 
0.447197 0.0768968 2.42546 177 187 222 
0.52345 -0.353227 2.57664 145 152 194 
0.523582 0.476087 2.43336 44 49 69 
0.533584 0.488409 1.68142 140 145 185 
0.565203 -0.0236414 2.5778 135 140 178 
0.582048 -0.184073 2.59055 179 189 224 
0.586186 -0.0993726 2.60764 86 90 128 
0.596572 -0.1498 2.62895 117 129 155 
0.606968 -0.226546 2.66812 149 159 195 
0.617805 -0.30649 2.66425 166 170 205 
0.616148 -0.158403 2.6381 47 53 69 
0.599555 0.510748 2.50966 96 100 125 
0.636399 0.307248 2.58536 113 118 148 
0.673332 -0.00522847 2.72342 137 129 152 
0.65986 0.321259 2.61459 132 143 173 
0.69714 -0.337595 2.75222 128 115 145 
0.700688 -0.333704 2.77119 147 143 168 
0.677858 0.522045 2.59306 34 40 52 
0.740258 -0.395898 2.82433 149 144 166 
0.759079 0.17554 3.11315 63 64 121 
0.78306 -0.0447336 3.17304 114 115 143 
0.794004 -0.273071 3.09082 57 47 58 
0.712885 0.510681 2.5706 45 55 80 
0.802583 -0.133632 3.21234 27 27 39 
0.802214 -0.0809856 3.20037 26 28 43 
0.792139 -0.379522 2.95768 130 124 152 
0.794401 -0.442287 2.91319 74 64 99 
0.720517 0.523253 2.56562 50 57 86 
0.812661 -0.0369422 3.20486 101 104 123 
0.814845 -0.0624694 3.20486 128 125 152 
0.694276 0.556756 2.23588 121 122 153 
0.731872 0.530952 2.49467 120 134 171 
0.845379 -0.030288 3.25941 34 31 42 
0.838363 -0.355747 3.07517 105 102 119 
0.718831 0.558837 2.32348 46 53 72 
0.875429 -0.031052 3.26769 52 47 70 
0.783103 0.490082 2.6805 132 141 184 
0.872809 -0.526404 2.97827 91 111 135 
0.748719 0.576039 2.35077 58 83 80 
0.891293 -0.357164 3.13421 88 89 109 
0.942786 -0.3899 3.37566 93 88 108 
0.898126 -0.479082 3.02644 113 103 128 
0.91256 -0.541903 3.01914 132 149 179 
0.942845 -0.286497 3.24033 29 25 39 
0.945694 -0.0357696 3.31479 49 44 67 
0.947084 -0.255718 3.24865 103 96 127 
0.931883 -0.527491 3.05151 29 32 39 
0.944477 0.225254 3.27965 46 39 57 
0.944362 0.24807 3.27735 55 45 70 
0.944625 0.271394 3.276 55 47 71 
0.943463 0.294212 3.26959 53 45 69 
0.943638 0.342193 3.26396 56 44 66 
0.822515 0.556699 2.5197 73 84 116 
0.963437 0.188744 3.29889 105 100 123 
0.956787 -0.533963 3.07035 157 169 195 
0.953886 0.391235 3.25708 101 96 126 
0.965982 -0.542119 3.07683 159 176 206 
0.966555 0.428735 3.26116 33 25 40 
1.00609 -0.275249 3.24014 72 64 88 
0.989842 0.422447 3.25365 78 69 86 
1.01497 -0.452759 3.15032 39 35 52 
1.02063 0.0246148 3.26045 76 74 95 
1.02592 0.0420976 3.28556 97 93 118 
1.03277 0.0831782 3.3043 39 34 56 
1.03956 -0.00576897 3.29828 51 41 65 
1.04672 0.0245777 3.30012 30 28 42 
1.03217 0.375153 3.24904 58 48 72 
1.02648 0.468183 3.21839 102 86 112 
1.04823 0.255187 3.27877 82 79 100 
1.0488 0.435286 3.24215 82 69 87 
1.04002 0.530663 3.21377 53 48 68 
-0.45338 0.186029 1.79261 146 162 221 
-0.460088 0.214516 1.79943 177 193 219 
-0.494476 0.204504 1.85939 63 63 63 
-0.449624 0.448129 1.81298 83 92 123 
-0.475462 -0.299633 1.93302 118 127 160 
-0.453617 0.066254 1.87389 100 110 145 
-0.421531 0.202708 1.82415 212 223 255 
-0.418779 0.221201 1.82533 31 46 75 
-0.446348 0.117927 1.88 114 101 131 
-0.425342 0.225223 1.87694 158 179 236 
-0.406226 0.460301 1.84299 45 42 59 
-0.402605 0.481135 1.84067 26 31 53 
-0.379438 0.299335 1.83459 134 152 190 
-0.389098 0.326948 1.85869 125 152 197 
-0.394681 0.460229 1.8556 35 32 51 
-0.390706 0.376839 1.86087 59 69 104 
-0.41946 0.338698 1.95062 51 57 55 
-0.351427 0.45295 1.90063 36 37 58 
-0.323631 0.472611 1.94434 21 20 34 
-0.317028 0.374592 1.94964 31 30 48 
-0.292653 0.428025 1.9347 43 50 92 
-0.314239 0.0368734 2.01697 205 224 254 
-0.297071 0.45831 1.94813 54 70 96 
-0.312282 -0.0193192 2.03331 32 29 56 
-0.314893 -0.305013 2.07369 44 46 69 
-0.279222 0.083785 2.07911 152 159 188 
-0.272877 0.0730803 2.07675 152 159 187 
-0.275035 -0.0403794 2.09812 141 151 178 
-0.0975833 0.482449 1.78097 37 39 51 
-0.114627 -0.115262 1.89475 74 72 86 
-0.0508486 0.484242 1.73149 144 149 179 
-0.0720741 0.325535 1.79413 127 128 84 
-0.0809668 -0.158762 1.87629 52 51 57 
-0.114575 -0.0377842 1.92152 31 28 35 
-0.0457093 -0.138593 1.88809 107 103 120 
-0.0104879 0.432077 1.84269 46 49 104 
0.00274343 0.456395 1.85424 167 162 184 
0.0127065 -0.283881 1.98231 169 151 173 
-0.0662915 0.384081 2.19598 122 132 159 
-0.101035 0.204438 2.38601 16 25 40 
-0.0939576 0.210222 2.39668 26 33 49 
-0.0887462 0.134096 2.41301 27 33 57 
-0.0859178 0.202531 2.39715 20 26 38 
-0.082892 0.151293 2.41887 156 174 248 
-0.0756597 0.213509 2.41989 30 40 50 
0.103721 0.5168 1.96807 83 103 91 
0.0331994 0.31732 2.4884 28 27 35 
0.0605471 0.392464 2.4408 21 24 39 
0.319058 0.0422462 2.41476 99 106 132 
0.360244 -0.244547 2.37699 108 103 133 
0.350804 0.297879 2.34664 62 51 67 
0.367486 -0.0205842 2.35543 36 33 44 
0.373491 0.020728 2.35825 41 40 46 
0.358235 0.532606 2.28155 32 35 52 
0.400884 -0.346877 2.43802 131 134 169 
0.438135 0.0394789 2.42593 124 111 129 
0.458372 -0.367325 2.50645 146 154 193 
0.445274 0.0636106 2.43039 169 182 217 
0.432537 0.473138 2.33418 120 128 147 
0.463746 0.349766 2.41393 125 117 156 
0.475548 0.304637 2.43152 138 131 162 
0.477141 0.458908 2.3842 96 101 121 
0.51236 -0.111392 2.53163 144 152 188 
0.51778 0.532966 2.4198 57 57 83 
0.523601 0.476515 2.43425 44 49 69 
0.533187 0.411204 2.46684 45 53 64 
0.536803 0.557296 2.43518 51 52 82 
0.597566 -0.133917 2.63167 100 110 137 
0.606371 -0.224244 2.65436 149 159 195 
0.606809 -0.00183205 2.6312 150 162 202 
0.626557 -0.141753 2.64292 38 46 57 
0.612368 0.220768 2.59641 111 115 153 
0.606339 0.369671 2.56695 166 176 212 
0.641307 -0.308448 2.70583 81 93 117 
0.608215 0.44932 2.5114 99 102 121 
0.640579 0.00769777 2.66022 129 106 134 
0.639648 0.187412 2.63371 128 115 143 
0.617935 0.548283 2.48596 65 88 120 
0.654616 0.132479 2.64105 138 144 170 
0.676355 -0.244107 2.73544 103 92 126 
0.64599 0.457901 2.57623 113 120 146 
0.658911 0.349999 2.63267 149 146 167 
0.721076 -0.38585 2.81514 133 123 150 
0.739939 -0.0494902 3.12691 83 85 106 
0.756977 -0.0519111 3.14192 41 42 70 
0.747014 0.135605 3.10915 212 223 255 
0.75232 0.152377 3.11412 55 59 123 
0.757721 -0.511505 2.86416 77 97 124 
0.783073 -0.262178 3.19298 28 25 32 
0.785069 -0.249747 3.19648 98 99 120 
0.768138 0.152535 3.12494 26 33 52 
0.79046 -0.0779405 3.17816 122 124 145 
0.810217 -0.0741827 3.20351 119 125 149 
0.810369 -0.0443037 3.19801 104 104 128 
0.817058 -0.0638766 3.22488 128 125 152 
0.823509 -0.0418374 3.2128 108 109 130 
0.815135 -0.454453 2.91523 74 64 99 
0.84929 -0.14633 3.25927 36 36 48 
0.87091 -0.149178 3.29364 30 29 37 
0.870355 -0.317208 3.18406 112 109 136 
0.778041 0.480893 2.63854 132 141 184 
0.889801 -0.143204 3.30075 106 103 132 
0.88308 -0.449468 3.05205 128 116 140 
0.902054 -0.0278621 3.3008 53 44 71 
0.909153 0.0241304 3.31027 84 87 106 
0.916121 -0.0577482 3.31934 124 120 143 
0.915258 -0.0250252 3.31445 49 41 65 
0.909785 -0.351135 3.15327 93 88 108 
0.943747 -0.537175 3.05403 84 105 134 
0.999369 -0.520226 3.12182 47 68 89 
1.00187 -0.532403 3.12033 93 103 138 
0.983658 0.512093 3.22115 35 32 41 
1.02334 -0.512279 3.14193 68 84 110 
1.07495 -0.495807 3.19261 94 111 129 
1.09608 0.198101 3.28812 65 57 80 
1.12862 -0.165623 3.31071 92 96 125 
1.14692 -0.359388 3.27881 117 115 136 
-2.2516 2.693 22.3645 82 78 95 
-0.0689091 -0.0371837 1.88247 41 38 55 
-0.150867 0.992143 8.39442 16 27 45 
0.621978 0.230335 2.59799 36 43 61 
0.874997 -0.0692715 3.27792 32 30 51 
0.94051 -0.647033 3.08098 156 163 192 
1.16025 0.24092 3.27802 60 57 74 
1.21029 0.0835148 3.30977 82 81 97 
1.22185 -0.0370525 3.33252 40 34 48 
1.21146 0.164202 3.29987 84 81 100 
1.1778 0.538923 3.20519 63 57 71 
1.18327 0.506473 3.21658 94 90 107 
1.21054 0.325026 3.27595 79 79 103 
1.21126 0.36383 3.27136 80 85 105 
1.21255 0.347613 3.26917 32 34 47 
1.19759 0.482064 3.22881 38 36 50 
1.19801 0.502588 3.22698 42 38 55 
1.22848 0.258408 3.28958 105 97 121 
1.2192 0.380145 3.26145 80 84 109 
1.23066 0.365942 3.2765 88 94 116 
1.4666 -0.535284 3.67776 168 180 218 
1.32912 0.512502 3.30871 163 170 196 
1.34143 0.528719 3.32168 92 99 117 
1.46137 0.35504 3.54231 172 178 212 
-0.420142 0.270192 1.82118 95 89 89 
-0.395293 0.256804 1.8443 121 150 206 
-0.38202 0.125614 1.95224 117 110 144 
-0.326076 0.0859038 1.99642 52 62 87 
0.00810731 -0.435437 2.0039 131 133 172 
0.0274375 -0.440837 2.02695 98 106 142 
0.0504628 -0.408363 2.04455 159 163 188 
0.0485672 -0.504787 2.06033 135 137 178 
0.157116 -0.441079 2.15028 95 86 105 
0.173029 -0.418307 2.18962 73 57 84 
0.383049 -0.604456 2.45285 153 155 194 
0.678928 0.523659 2.60109 30 38 51 
0.806198 -0.355762 3.03375 94 85 116 
0.883812 -0.100656 3.28829 104 104 128 
0.965499 0.0263097 3.30557 33 31 44 
0.917411 -0.748474 3.08832 161 168 197 
0.920928 -0.694191 3.07245 121 130 171 
0.949774 -0.75333 3.13167 147 145 169 
1.0188 -0.702046 3.18689 80 95 134 
1.12133 0.425974 3.25049 32 26 38 
1.11257 -0.370908 3.25344 35 32 51 
1.15614 0.428324 3.25151 32 24 37 
1.18456 0.0404181 3.30883 113 111 135 
1.1921 0.0110965 3.293 105 96 125 
1.19607 0.42991 3.25505 21 19 32 
1.21753 -0.00531766 3.32495 30 26 40 
1.20944 0.287405 3.27844 99 94 117 
1.19978 0.445438 3.2388 35 33 46 
1.19371 0.550152 3.202 38 44 60 
1.20693 0.42879 3.24613 20 22 34 
1.22053 0.241417 3.29193 34 30 47 
1.22034 0.339228 3.2682 90 94 119 
1.22613 0.353666 3.27268 79 84 106 
1.23126 0.327607 3.28372 101 105 134 
1.26734 0.35739 3.30381 244 247 252 
1.27495 0.2869 3.31558 178 187 226 
1.44993 -0.693704 3.66914 138 132 170 
1.47448 -0.869256 3.72499 189 199 234 
1.45408 -0.167873 3.59997 142 144 185 
1.45867 0.455403 3.5163 129 114 145 
1.55714 -0.545259 3.76081 83 88 107 
1.61043 -0.96667 3.86119 112 118 140 
-0.450303 0.234822 1.79427 173 199 232 
-0.474884 0.16946 1.84214 144 155 187 
-0.468317 0.114141 1.86055 119 101 127 
-0.430831 0.212316 1.81117 62 142 213 
-0.415438 0.194167 1.83468 106 128 185 
-0.413458 0.23762 1.82932 216 227 255 
-0.438257 -0.195271 1.94505 88 91 124 
-0.385461 0.185468 1.8543 45 60 91 
-0.385671 0.371182 1.8946 39 40 58 
-0.182136 0.472932 1.67042 121 125 160 
-0.331935 0.164763 1.99013 81 86 116 
-0.331293 0.227969 1.98267 92 96 125 
-0.323395 0.0578079 1.99806 68 81 113 
-0.314566 0.29287 1.97849 164 192 231 
-0.314648 0.246785 1.98511 149 177 216 
-0.313979 0.157871 1.99798 162 187 227 
-0.31177 0.0565323 2.01934 100 114 149 
-0.0750701 0.391507 1.77183 119 116 133 
-0.0629707 -0.315605 1.91782 139 124 147 
-0.06098 -0.0692415 1.88687 69 61 85 
-0.0528362 -0.19895 1.89078 58 55 74 
-0.043961 -0.169278 1.88768 134 116 132 
-0.052419 0.258371 1.85942 126 132 156 
-0.0359624 -0.158725 1.89517 73 65 89 
-0.0347179 -0.197124 1.90181 77 70 88 
-0.0407492 -0.0891598 1.90292 88 77 107 
-0.0476788 0.236479 1.87218 164 175 205 
-0.0240959 0.281575 1.86996 51 54 71 
-0.0208333 -0.229614 1.94789 157 158 186 
-0.00371299 -0.265573 1.97267 58 47 81 
-0.000925411 -0.285651 1.9786 168 148 173 
0.00203612 -0.294351 1.98421 167 147 172 
0.00925259 -0.308864 1.99257 154 141 161 
0.0116877 -0.323357 2.00165 152 129 155 
-0.115871 -0.147885 2.40243 63 68 87 
0.0456483 -0.36762 2.0433 61 48 74 
0.0470108 0.493465 1.91907 147 158 186 
-0.127275 0.137562 2.51685 27 33 57 
-0.0761 0.135246 2.42561 24 35 57 
-0.0434507 0.266645 2.44484 48 79 100 
0.0785562 0.462157 2.11475 96 107 137 
0.0282519 0.424433 2.29513 89 98 131 
0.118922 0.516547 1.99736 152 158 190 
0.0701695 0.0511442 2.53445 22 20 31 
0.246015 -0.40389 2.26317 26 24 25 
0.287549 -0.0382153 2.41704 33 31 42 
0.346243 -0.383604 2.38077 134 140 174 
0.363794 -0.143528 2.36952 100 84 113 
0.379182 -0.0181043 2.35291 120 105 124 
0.406835 -0.121746 2.39189 128 133 155 
0.407612 -0.0829724 2.38665 93 91 112 
0.38802 0.546823 2.27042 57 53 78 
0.400165 0.445684 2.29867 67 73 87 
0.403033 0.548912 2.28932 44 46 59 
0.442492 -0.337858 2.48314 185 190 220 
0.419029 0.462733 2.31866 106 102 125 
0.420148 0.444617 2.32074 46 52 78 
0.433342 0.118532 2.40803 160 169 200 
0.423905 0.430661 2.32759 64 68 95 
0.420961 0.543965 2.30917 62 66 95 
0.431491 0.423554 2.33931 116 124 143 
0.442156 0.48436 2.34108 48 51 70 
0.463785 0.0879096 2.44699 117 126 159 
0.483267 -0.117873 2.50101 133 141 178 
0.47264 0.332622 2.42293 63 75 115 
0.492483 0.320193 2.44818 136 138 186 
0.498647 0.450946 2.40746 46 48 69 
0.508226 0.531477 2.41044 57 63 89 
0.523641 0.534129 2.42662 57 61 88 
0.526296 0.556539 2.42608 61 59 81 
0.568033 -0.125785 2.59728 178 188 223 
0.589607 0.188315 2.58045 139 147 184 
0.588548 0.543585 2.49532 38 45 71 
0.638522 -0.299054 2.70052 81 93 115 
0.643736 -0.38357 2.71812 152 157 197 
0.606817 0.371683 2.58089 166 176 212 
0.631491 -0.0897132 2.64442 76 85 100 
0.660633 -0.387789 2.7412 167 175 221 
0.63848 0.348852 2.60922 118 99 127 
0.635007 0.48147 2.55817 40 46 70 
0.634498 0.515258 2.55211 100 105 134 
0.640592 0.509732 2.56476 112 117 146 
0.660268 0.193015 2.65771 80 61 89 
0.701121 -0.300369 2.77461 69 62 95 
0.734827 0.176115 3.09318 37 57 94 
0.740868 0.151581 3.10103 53 69 120 
0.742214 -0.392995 2.83208 77 60 96 
0.746622 0.168347 3.10572 210 223 255 
0.768617 -0.332826 2.98968 92 88 115 
0.784608 -0.35343 3.01177 89 80 109 
0.793564 -0.341083 3.02807 78 68 93 
0.795335 -0.354837 3.02175 100 91 122 
0.785695 -0.485621 2.87421 54 55 83 
0.793676 -0.492207 2.88395 64 59 81 
0.812295 -0.359403 3.04133 132 124 145 
0.818441 -0.0328006 3.21708 35 32 49 
0.815026 -0.462407 2.92301 121 117 140 
0.825942 -0.514183 2.92502 41 47 61 
0.842136 -0.363458 3.07799 110 106 129 
0.85897 -0.357626 3.10225 90 89 105 
0.876659 -0.168837 3.289 97 95 119 
0.872083 -0.0158382 3.28614 106 100 126 
0.851294 -0.525365 2.95522 35 38 53 
0.779154 0.483567 2.64841 132 141 184 
0.884139 -0.0637785 3.28542 121 126 146 
0.904654 -0.149063 3.3118 45 37 48 
0.897382 -0.351295 3.14318 77 79 92 
0.920167 -0.543693 3.03194 137 155 179 
1.01282 -0.110475 3.3096 90 85 115 
1.02264 0.0242796 3.27109 76 74 95 
0.885164 0.562617 2.5914 82 95 130 
1.04137 -0.549932 3.19054 56 53 74 
1.03902 -0.46389 3.17201 114 100 126 
1.11305 0.0175268 3.64253 30 28 42 
1.04122 -0.439629 3.18422 33 31 45 
1.04952 -0.458611 3.18776 66 56 83 
1.05967 0.0830804 3.30602 26 26 36 
1.065 -0.394707 3.22198 42 34 47 
1.04599 0.416279 3.2537 81 83 104 
1.10425 0.0245626 3.29392 30 28 41 
0.934607 0.590056 2.56692 68 79 107 
1.12169 0.426515 3.26005 40 32 45 
1.15121 0.0784568 3.30298 87 84 105 
1.11443 0.538921 3.17504 129 141 181 
1.15501 0.23449 3.28491 59 52 70 
1.17753 -0.254328 3.30715 97 91 117 
1.18437 -0.285769 3.31792 65 58 89 
1.16143 0.221384 3.29013 84 85 103 
1.15324 0.386099 3.26509 55 52 79 
1.13989 0.503974 3.20715 121 119 133 
1.05368 0.57665 2.86044 88 101 135 
1.19747 -0.125502 3.31862 60 53 71 
1.19726 0.0931708 3.3071 55 43 55 
1.23327 0.00608231 3.33039 100 101 121 
-0.461679 -0.13204 1.8982 83 77 105 
-0.436026 -0.663507 2.00139 78 80 118 
-0.409665 -0.61546 2.02545 72 78 114 
-0.347824 0.294678 1.91451 123 135 161 
0.195265 -0.569012 2.22486 34 31 40 
0.281558 -0.597959 2.33717 179 182 217 
0.866892 -0.0299605 3.22491 55 45 70 
0.945081 -0.598057 3.07564 102 115 149 
-0.459399 0.243041 1.7873 165 187 226 
-0.0511529 0.450362 1.46788 76 79 114 
-0.412369 0.203915 1.83393 204 218 255 
-0.392177 0.228874 1.83613 153 170 226 
-0.391803 0.477619 1.8285 32 34 59 
-0.45072 -0.232841 1.93152 119 131 169 
-0.00699163 0.448838 1.45193 68 73 111 
-0.398277 0.202675 1.85382 136 154 204 
-0.446582 -0.565369 1.95239 72 84 124 
-0.354821 0.181786 1.81847 51 64 98 
-0.394655 0.342297 1.84995 52 50 63 
-0.198376 0.468769 1.65638 135 146 176 
-0.38128 0.304593 1.85297 111 133 174 
-0.384082 0.343608 1.85958 49 54 74 
-0.390999 0.308545 1.87181 33 47 60 
-0.113585 0.461837 1.58848 65 71 103 
-0.423082 -0.22466 1.96493 116 129 164 
0.107672 0.44337 1.38384 63 73 109 
-0.242995 0.278295 1.80324 123 135 161 
-0.313615 0.469462 1.93095 20 23 38 
-0.312256 0.394496 1.94178 42 39 68 
-0.308157 0.365063 1.93982 82 102 137 
-0.295194 0.36483 1.93904 117 135 181 
-0.29156 0.439798 1.94153 12 16 27 
-0.317346 0.277515 1.99358 79 90 120 
-0.31618 0.0324215 2.02291 90 106 142 
-0.30883 -0.697822 2.12264 24 31 49 
-0.163194 0.292453 1.87369 105 112 140 
-0.307627 -0.72827 2.12612 29 35 61 
-0.154926 0.303592 1.87375 92 104 128 
-0.138169 0.296646 1.86246 37 43 57 
-0.155822 -0.123179 1.92144 31 34 43 
-0.0516519 0.485362 1.75932 121 122 150 
0.25599 0.447914 1.38402 77 84 126 
-0.195006 0.152875 1.97028 151 158 187 
-0.0755499 -0.121116 1.86881 125 116 133 
-0.101257 -0.320308 1.92274 71 61 85 
-0.0309092 0.486129 1.76916 131 131 167 
-0.0428692 0.482026 1.78505 75 65 89 
-0.0777754 0.481905 1.83943 91 73 89 
-0.0967647 -0.496811 1.94553 74 64 88 
-0.0286481 0.484339 1.80393 132 125 143 
-0.0442183 -0.225528 1.89342 47 48 66 
0.237391 0.458542 1.47596 92 108 134 
-0.0226936 0.459001 1.83532 237 241 253 
-0.0445446 0.239968 1.90074 145 159 188 
-0.223681 -0.159337 2.18521 121 121 133 
-0.0111917 -0.111012 1.90017 117 114 135 
0.150589 0.472406 1.62759 67 72 110 
0.232844 0.46372 1.51986 97 103 119 
-0.00627025 -0.17994 1.90974 167 170 189 
-0.496082 -0.211063 2.61191 127 124 133 
-0.0177996 -0.147508 1.93782 155 142 160 
-0.0116212 -0.201094 1.94882 64 67 100 
-0.222079 0.269575 2.20755 90 93 112 
-0.00981384 -0.169198 1.95235 183 180 201 
0.300979 0.459324 1.45812 138 152 179 
-0.0242054 -0.550509 2.01216 142 132 166 
-0.22421 0.048272 2.24895 12 17 36 
-0.224523 0.00654723 2.25607 17 23 39 
0.311036 0.457974 1.4501 59 69 104 
-0.00678595 -0.228503 1.9697 156 146 170 
0.237816 0.467783 1.55988 82 86 121 
0.00945979 -0.518793 1.97833 196 201 233 
0.00163609 0.45617 1.90749 62 77 118 
0.339703 0.454366 1.41998 87 99 95 
0.0115633 0.44883 1.90869 129 142 176 
0.0177513 -0.532814 1.99346 191 197 231 
0.669201 -0.0253554 0.992324 31 27 42 
-0.00101279 -0.28939 2.00616 160 145 168 
0.031291 0.338854 1.90103 29 38 67 
0.273478 0.466712 1.55011 77 93 109 
0.35113 0.457915 1.44801 72 72 106 
0.0350774 -0.658185 2.06133 149 154 194 
0.0530381 -0.446711 2.04475 78 81 86 
0.084881 -0.43633 2.02996 103 103 127 
0.296975 0.475945 1.62541 95 96 116 
0.118454 -0.502576 2.11291 138 128 153 
0.119416 -0.506415 2.1247 113 105 129 
-0.0851179 0.221348 2.40567 34 41 57 
0.120715 -0.638481 2.1469 104 100 125 
0.121736 -0.507852 2.15384 117 105 119 
0.12681 -0.638642 2.16011 115 96 116 
0.456684 0.460887 1.45952 151 147 182 
0.13089 -0.552242 2.1766 57 45 67 
0.143986 -0.657495 2.17144 150 140 167 
0.45115 0.464443 1.48042 81 88 114 
0.150213 -0.575566 2.17094 148 134 159 
0.159528 -0.547028 2.16565 74 64 88 
0.291769 0.496593 1.79914 85 85 119 
0.176378 -0.509182 2.16211 131 114 132 
0.16007 -0.619931 2.21468 145 131 148 
0.167752 -0.531737 2.2018 23 21 34 
0.18486 -0.49755 2.1726 74 70 84 
0.178595 -0.581275 2.20865 54 39 60 
0.313527 0.49973 1.81483 85 90 122 
0.18227 -0.614885 2.21297 45 32 50 
0.185263 -0.660635 2.21412 164 147 166 
0.183305 -0.634007 2.21538 42 34 55 
0.189995 -0.527191 2.19627 57 49 64 
-0.00635915 0.0136628 2.51971 64 66 78 
0.186539 -0.65804 2.2279 85 64 97 
0.191226 -0.593484 2.21337 128 108 133 
0.188256 -0.636718 2.22503 142 124 148 
0.192189 -0.611538 2.23992 41 38 45 
0.437813 0.477436 1.60566 85 98 104 
0.200769 -0.621082 2.2402 139 124 143 
0.475638 0.47152 1.54298 86 92 126 
0.505776 0.466416 1.49269 75 76 120 
0.216902 -0.46911 2.21536 157 134 150 
0.228097 -0.477377 2.20891 88 81 97 
0.0673726 0.384602 2.43983 84 83 99 
0.22054 -0.506081 2.23476 74 61 81 
0.215932 0.511112 2.11211 146 160 195 
0.122786 0.431285 2.32417 95 106 138 
0.235867 -0.513242 2.22277 140 121 141 
0.188171 -0.711358 2.3555 36 33 40 
0.490162 0.473321 1.55953 160 165 197 
0.229085 -0.532177 2.26116 72 59 85 
0.232869 -0.657888 2.30001 104 94 119 
0.263834 0.531532 2.07086 83 81 120 
0.131226 0.289353 2.40703 15 22 41 
0.244167 -0.44832 2.2603 48 40 53 
0.536358 0.467727 1.4903 83 99 124 
0.24851 0.535309 2.12567 83 105 103 
0.148053 0.29477 2.38294 62 63 84 
0.131509 0.362648 2.41138 84 85 105 
0.261078 -0.670394 2.29074 154 152 174 
0.266433 -0.593486 2.28295 142 137 157 
0.480017 0.483627 1.64727 81 92 110 
0.263088 -0.689944 2.31072 150 131 159 
0.261399 -0.452864 2.28993 104 92 112 
0.288729 -0.439467 2.24891 179 183 220 
0.27008 -0.364804 2.29053 85 71 104 
0.241539 -0.323046 2.35164 72 70 83 
0.273023 -0.625328 2.32221 142 123 143 
0.272648 -0.579034 2.31779 140 122 148 
0.310856 0.541723 2.15774 75 97 108 
0.460638 0.49982 1.80053 82 85 116 
0.305978 -0.568665 2.3526 138 141 176 
0.31238 -0.343069 2.31115 129 120 151 
0.315197 -0.38366 2.31841 138 129 148 
0.308295 -0.624687 2.3939 147 156 195 
0.308546 -0.42638 2.36986 184 188 225 
0.319499 -0.619954 2.37731 197 207 243 
0.294569 -0.437313 2.41432 183 187 224 
0.322239 -0.291206 2.34155 85 71 104 
0.330117 -0.381867 2.33883 100 102 99 
0.326406 -0.613662 2.38698 150 153 194 
0.328879 -0.277313 2.34802 85 72 100 
0.345141 0.544594 2.19614 33 64 48 
0.34061 -0.722016 2.42827 184 193 232 
0.341667 -0.246972 2.3553 88 74 100 
0.344151 -0.233775 2.36568 94 85 116 
0.353976 0.542944 2.21258 143 153 178 
0.352304 -0.612531 2.4299 143 147 192 
0.506344 0.504783 1.82735 89 88 128 
0.375843 0.549345 2.19308 76 73 104 
0.358414 -0.183516 2.36931 92 82 109 
0.363657 -0.607654 2.43168 142 146 183 
0.335565 0.048879 2.39773 55 44 58 
0.366157 -0.333571 2.38736 170 179 210 
0.354628 0.555041 2.26735 119 127 150 
0.601223 0.479876 1.59322 81 77 110 
0.611141 0.478372 1.56674 71 71 107 
0.508368 0.50736 1.85249 73 79 115 
0.36642 -0.0606562 2.35354 122 123 144 
0.379209 -0.122965 2.33097 126 122 145 
0.354358 0.0355555 2.37837 84 82 96 
0.353363 0.18055 2.35947 60 53 69 
0.368904 0.464014 2.27987 85 84 98 
0.502836 0.511357 1.89356 80 82 121 
0.383024 -0.255513 2.37838 108 105 126 
0.370972 0.54643 2.27132 42 45 62 
0.644257 0.470237 1.50196 86 87 133 
0.37971 0.55544 2.25386 52 76 76 
0.389347 -0.728554 2.4648 43 40 51 
0.392186 -0.736238 2.47058 119 115 132 
0.383254 0.142256 2.3608 148 146 168 
0.593003 0.490351 1.67692 80 84 129 
0.386944 0.538466 2.27982 126 117 134 
0.387984 0.514877 2.28188 155 152 169 
0.567384 0.498701 1.76823 82 92 127 
0.402823 0.474696 2.30514 127 133 157 
0.416227 -0.0808947 2.39085 77 84 92 
0.545995 0.513635 1.89772 90 89 123 
0.416391 0.383005 2.34033 129 139 149 
0.420823 0.513367 2.30778 62 69 95 
0.418718 0.511968 2.31954 113 125 141 
0.429161 0.0180537 2.41145 92 81 98 
0.431511 0.451193 2.33353 110 112 133 
0.436575 -0.0242208 2.41547 171 184 216 
0.437544 0.0137404 2.40631 164 178 207 
0.436887 -0.0382631 2.42301 151 164 196 
0.432931 0.472859 2.33264 110 115 137 
0.434678 0.435934 2.33594 112 110 131 
0.437765 0.179939 2.39724 166 172 204 
0.44226 0.567371 2.30922 135 131 168 
0.646618 0.488464 1.65397 71 77 111 
0.442143 0.55603 2.32401 78 84 106 
0.441019 0.485086 2.34476 51 54 73 
0.447751 -0.0545887 2.44254 133 147 176 
0.454112 0.566441 2.3243 120 117 144 
0.458395 0.213117 2.39619 170 182 220 
0.45548 0.060283 2.44316 176 188 226 
0.469411 -0.588328 2.53797 139 143 181 
0.447343 0.217069 2.44251 169 184 217 
0.464595 -0.0646957 2.44622 167 180 214 
0.479523 0.562042 2.26853 78 80 118 
0.466914 -0.597359 2.56954 137 145 184 
0.472684 -0.656557 2.56316 144 149 187 
0.461225 0.51927 2.35835 101 109 128 
0.462167 0.350829 2.42068 119 111 150 
0.489784 -0.712478 2.58938 146 145 187 
0.471269 0.39224 2.40719 123 128 134 
0.627523 0.504583 1.82145 88 90 128 
0.47824 0.341793 2.43138 234 237 252 
0.478988 0.393861 2.41749 112 112 110 
0.479707 0.540498 2.38178 46 51 71 
0.485449 0.335202 2.43802 52 64 106 
0.500959 0.569784 2.32857 88 92 127 
0.490811 0.31076 2.44612 52 54 111 
0.494555 0.462071 2.40956 94 95 116 
0.493118 0.352717 2.44123 136 140 177 
0.514275 0.399985 2.4536 115 118 133 
0.520082 0.420905 2.4499 103 110 128 
0.529028 0.576847 2.38652 73 88 109 
0.574867 0.375679 2.25177 53 60 76 
0.531381 0.507179 2.43924 99 103 128 
0.53225 0.412037 2.4716 53 62 71 
0.538153 0.567179 2.43011 60 54 80 
0.541467 0.546536 2.42984 72 72 106 
0.573946 -0.670586 2.67049 171 175 213 
0.574097 -0.638984 2.66679 156 161 203 
0.569931 -0.531283 2.66452 145 150 188 
0.59289 0.565373 2.2765 90 94 119 
0.588685 -0.702812 2.65215 155 154 188 
0.583451 -0.664655 2.68466 159 162 203 
0.735134 0.494252 1.67617 83 92 131 
0.569008 0.522821 2.47516 42 48 72 
0.623806 0.558903 2.2312 141 144 179 
0.716143 0.507757 1.81439 83 83 117 
0.577164 0.560191 2.47943 55 53 74 
0.62363 0.563146 2.25802 148 144 169 
0.593923 -0.0647032 2.62162 99 104 142 
0.596112 -0.150341 2.63717 101 115 141 
0.585202 0.493329 2.50199 35 38 57 
0.591649 0.560727 2.46332 86 103 113 
0.596878 0.41657 2.48931 24 30 52 
0.600733 -0.19774 2.66202 149 157 193 
0.58685 0.403348 2.54788 65 76 104 
0.606695 -0.214888 2.64053 93 104 136 
0.617437 -0.633573 2.72208 149 154 192 
0.613155 -0.0386937 2.56058 132 144 182 
0.612021 0.0812385 2.53655 166 172 206 
0.599026 0.413454 2.49905 90 113 154 
0.599054 0.116956 2.60241 111 119 158 
0.613019 -0.087943 2.63963 92 103 135 
0.628186 -0.301301 2.63072 161 167 201 
0.609207 0.398335 2.52713 134 145 177 
0.613604 0.401138 2.51458 33 42 81 
0.617837 0.406276 2.49683 18 31 63 
0.747956 0.504673 1.79301 85 89 126 
0.778606 0.489813 1.63893 89 97 136 
0.622673 -0.0926958 2.64401 25 27 39 
0.713701 0.5251 1.96781 81 84 125 
0.611944 0.548664 2.49182 27 32 61 
0.62602 -0.141389 2.64709 41 51 60 
0.595944 0.379054 2.63547 166 179 213 
0.704929 0.532236 2.02683 86 85 125 
0.765088 0.499981 1.72263 145 154 185 
0.671282 0.555151 2.20046 85 101 117 
0.62954 -0.106228 2.6517 26 26 36 
0.633972 0.0589465 2.61675 141 152 184 
0.63164 0.157121 2.62946 168 178 214 
0.701874 0.545162 2.11011 96 96 130 
0.631445 0.40265 2.54988 131 142 174 
0.625546 0.54224 2.53484 44 47 64 
0.727209 0.528203 1.98959 87 87 125 
0.635137 0.307086 2.59935 116 116 144 
0.62912 0.377348 2.61273 174 186 224 
0.632881 0.363111 2.60066 185 186 217 
0.666395 -0.394512 2.70234 116 117 163 
0.649899 0.142959 2.63831 109 121 147 
0.639683 0.510764 2.56964 115 114 145 
0.656499 0.119809 2.61974 119 130 158 
0.646073 0.457861 2.57548 106 113 139 
0.66146 -0.122169 2.69977 79 56 76 
0.667069 -0.22942 2.71099 162 162 186 
0.680149 -0.350781 2.70478 86 91 113 
0.671667 -0.218851 2.73105 105 94 126 
0.671571 -0.146739 2.71706 80 64 91 
0.669294 -0.00372922 2.67997 123 119 142 
0.671487 -0.10648 2.70867 72 59 85 
0.654382 0.510288 2.5805 112 113 141 
0.673131 -0.159995 2.72572 168 164 187 
0.6742 -0.186674 2.72964 85 66 98 
0.657998 0.324046 2.63576 133 138 167 
0.669793 0.104243 2.65012 63 73 98 
0.65922 0.349767 2.63007 151 143 164 
0.684615 -0.433824 2.77438 67 77 104 
0.6694 0.168923 2.66983 65 51 76 
0.672688 0.12903 2.66824 89 84 114 
0.661661 0.415849 2.63152 136 134 156 
0.677629 -0.0484661 2.72309 59 44 63 
0.680103 -0.0585229 2.72188 45 34 50 
0.690198 -0.264973 2.75446 82 73 104 
0.690269 0.563329 2.46232 22 29 45 
0.67915 0.0112925 2.75742 190 191 209 
0.672614 0.434055 2.63232 65 56 75 
0.786796 0.515805 1.86139 90 84 122 
0.697892 -0.283238 2.76318 59 52 70 
0.704416 -0.477032 2.80933 173 181 218 
0.700914 -0.334597 2.77557 151 143 167 
0.68539 -0.055106 2.77272 47 34 43 
0.699925 -0.301801 2.78212 74 71 98 
0.678885 0.014112 2.79612 73 59 85 
0.689074 -0.0562875 2.76216 49 39 47 
0.655257 -0.13728 3.04145 144 135 164 
0.704961 -0.291094 2.78641 86 77 104 
0.68161 -0.157131 2.92999 201 205 232 
0.67033 0.0364647 2.93088 59 79 106 
0.723679 0.573379 2.3464 36 47 69 
0.731382 0.556315 2.34595 56 62 86 
0.722312 0.54678 2.41503 47 59 85 
0.84233 0.487141 1.60566 152 146 184 
0.668238 0.358813 2.89476 70 81 109 
0.696106 0.439895 2.67172 66 71 93 
0.722392 0.522955 2.49816 43 49 73 
0.795092 0.526924 1.96917 88 97 130 
0.80803 0.519198 1.88921 83 86 119 
0.707577 -0.241853 2.97964 146 132 165 
0.747615 -0.527485 2.87244 172 178 214 
0.731063 0.532262 2.50231 120 134 171 
0.750192 -0.505631 2.85206 83 99 125 
0.723642 0.504719 2.58925 126 142 176 
0.809175 0.524599 1.94377 79 92 109 
0.708546 -0.243862 3.08087 65 56 75 
0.709341 0.330639 2.82442 30 37 65 
0.726235 -0.270899 3.00866 154 154 182 
0.728081 0.495191 2.6288 134 146 186 
0.706474 -0.0887405 3.09394 124 124 148 
0.779045 -0.561572 2.77222 192 202 237 
0.727026 0.468518 2.67653 150 162 200 
0.77062 -0.526174 2.85222 174 189 220 
0.756281 -0.364442 2.90204 78 73 105 
0.787757 0.556345 2.18896 86 81 121 
0.769947 -0.472725 2.8579 57 57 81 
0.720914 0.476632 2.78185 99 104 146 
0.73038 0.326356 2.78371 29 38 69 
0.719276 -0.0880924 3.10322 126 128 151 
0.718861 -0.0502815 3.10223 46 44 58 
0.724105 -0.0586894 3.11223 109 109 133 
0.728182 -0.0775783 3.11188 128 123 153 
0.863428 0.00620286 1.92119 94 95 115 
0.752463 -0.314471 3.03769 63 60 77 
0.729482 -0.119252 3.13576 35 32 43 
0.728732 -0.0928018 3.12838 36 35 49 
0.732332 -0.048241 3.12403 40 37 58 
0.78566 -0.401692 2.87933 155 150 173 
0.846069 0.518466 1.87614 77 72 113 
0.743748 -0.0543765 3.13188 46 43 72 
0.744879 -0.0449725 3.14068 39 37 51 
0.802553 -0.503724 2.8861 114 116 137 
0.805224 -0.545615 2.88685 160 171 199 
0.739728 0.15168 3.11149 53 65 117 
0.757551 -0.231343 3.18403 104 100 127 
0.801932 -0.429327 2.90428 155 157 182 
0.705428 -0.0687299 3.60038 99 99 123 
0.74664 0.135771 3.11456 213 227 255 
0.745835 0.168571 3.11303 211 224 255 
0.756642 -0.0523498 3.1471 46 43 72 
0.805995 -0.414059 2.89273 135 123 147 
0.811519 -0.547158 2.93165 63 76 110 
0.757637 -0.042859 3.15951 38 34 49 
0.879101 0.49534 1.67289 141 141 177 
0.751941 0.152755 3.11959 52 58 116 
0.762017 -0.08185 3.16759 58 66 105 
0.814532 -0.604499 3.01143 131 143 183 
0.811926 -0.467443 2.97686 79 68 102 
0.804932 0.583161 2.40226 66 80 107 
0.75928 0.176644 3.11365 50 53 108 
0.771369 -0.0409033 3.16705 32 29 40 
0.771211 -0.0227339 3.15922 20 28 51 
0.823131 -0.442527 2.90409 133 128 151 
0.834495 -0.694291 2.95908 61 67 89 
0.796053 0.552064 2.56824 74 84 120 
0.873094 0.512215 1.80558 78 76 113 
0.784681 -0.250389 3.20463 102 103 124 
0.76774 0.152727 3.13137 29 40 60 
0.804637 -0.268316 3.03464 60 52 67 
0.827115 -0.471075 2.93979 133 129 154 
0.829948 -0.458254 2.94692 31 27 41 
0.767978 0.434483 3.04247 35 46 68 
0.784524 -0.115192 3.24149 40 41 61 
0.785233 -0.0928532 3.242 44 40 63 
0.78995 -0.0785298 3.18727 130 131 152 
0.897936 0.490735 1.63294 181 185 212 
0.832491 0.572286 2.30443 77 79 118 
0.790223 -0.0388666 3.18947 39 35 50 
0.843686 -0.518773 2.9317 35 34 48 
0.769582 0.48818 3.08799 12 18 32 
0.849119 -0.55836 2.94183 140 137 166 
0.855988 0.544972 2.10034 83 86 117 
0.871739 0.52727 1.94394 86 91 133 
0.856931 -0.60228 2.91144 139 126 154 
0.844449 -0.462069 2.95721 134 122 146 
0.799696 -0.0397245 3.1926 109 107 128 
0.864864 -0.787741 3.03164 20 18 29 
0.80499 -0.0352212 3.20771 34 31 50 
0.820471 0.557824 2.59983 83 92 131 
0.875099 0.530047 1.97619 91 96 138 
0.863268 -0.698043 3.02587 66 71 91 
0.810274 -0.0740776 3.20254 126 128 153 
0.809873 -0.04445 3.20776 107 105 127 
0.84148 -0.364954 3.08667 112 109 130 
0.859423 -0.525593 3.00189 26 34 47 
0.866131 -0.590075 2.98297 68 65 96 
0.864619 -0.559123 2.99354 136 151 174 
0.868546 -0.620959 3.00463 150 160 185 
0.877856 -0.784588 3.0303 134 146 170 
0.899999 0.50683 1.76569 81 83 121 
0.803585 0.255227 3.16351 67 105 124 
0.868936 -0.588679 3.01354 137 142 171 
0.870269 -0.617907 3.01999 77 86 117 
0.818171 -0.0330702 3.22018 37 34 51 
0.871358 -0.645728 3.03593 169 181 205 
0.867902 -0.496787 2.96782 125 115 142 
0.8656 -0.48133 2.99141 67 56 88 
0.871197 -0.531751 2.99861 100 117 143 
0.822791 -0.0419965 3.22888 117 111 137 
0.884901 -0.790162 3.03877 44 40 63 
0.847181 0.587506 2.44394 53 87 73 
0.882462 -0.706107 3.06098 184 199 228 
0.888671 -0.793811 3.06842 162 164 185 
0.835569 -0.164738 3.25672 105 103 125 
0.90287 0.512404 1.80731 87 90 125 
0.887115 -0.753991 3.06622 164 175 203 
0.880217 -0.574953 3.01114 123 130 158 
0.874903 -0.48468 3.00843 122 110 134 
0.887523 -0.73404 3.05521 88 88 122 
0.888124 -0.716944 3.03751 92 93 124 
0.888453 -0.558966 3.0335 65 82 112 
0.884059 -0.440258 3.00615 131 115 141 
0.842465 -0.029829 3.25285 32 30 41 
0.886434 -0.461061 3.01087 43 37 47 
0.895554 -0.607641 3.03669 59 71 97 
0.913086 0.508281 1.78614 59 57 96 
0.914891 0.50805 1.76366 143 142 182 
0.918686 0.503708 1.73379 78 93 112 
0.907556 -0.78475 3.09264 84 80 103 
0.897296 -0.645165 3.12312 160 174 200 
0.893265 -0.492642 3.05321 75 64 94 
0.906284 -0.706028 3.06174 112 120 156 
0.901188 -0.56865 3.01078 37 39 62 
0.854177 -0.0346278 3.2515 123 118 140 
0.896185 -0.481336 3.03924 121 108 134 
0.905238 -0.584249 3.03664 164 178 204 
0.863187 -0.0673029 3.27273 137 134 155 
0.86286 -0.0266787 3.27266 41 38 55 
0.907645 -0.503172 3.03404 67 61 95 
0.924995 -0.781824 3.11221 131 139 162 
0.876048 -0.170019 3.29971 98 93 123 
0.870586 -0.023921 3.29093 47 39 63 
0.931446 -0.790315 3.08809 87 84 103 
0.876384 -0.110339 3.31102 44 39 61 
0.919717 -0.546201 3.04179 149 163 190 
0.847086 0.502365 3.171 21 24 39 
0.875847 -0.0322269 3.27528 59 46 74 
0.930177 -0.735195 3.13694 168 176 212 
0.928837 -0.550723 2.98814 158 163 193 
0.879897 0.546153 2.66014 94 105 137 
0.883452 -0.0643787 3.29855 125 125 149 
0.889951 -0.143256 3.2983 109 106 133 
0.88515 -0.0260783 3.29734 108 104 121 
0.927659 -0.466346 3.04371 103 95 119 
0.942718 -0.680059 3.04935 165 178 212 
0.891041 -0.0212646 3.30915 34 30 47 
0.915348 0.553733 2.14713 79 97 109 
0.911866 -0.258947 3.22337 33 27 37 
0.934286 -0.481015 3.06888 38 31 47 
0.949268 -0.782737 3.15511 152 166 193 
0.941594 0.503584 1.72414 77 84 110 
0.946784 -0.66032 3.0912 57 57 95 
0.899418 -0.0570045 3.30719 116 110 138 
0.944869 -0.599158 3.08142 102 115 149 
0.947616 -0.616343 3.05938 123 131 168 
0.951899 -0.697918 3.0845 98 115 145 
0.926511 0.53863 2.03405 93 95 134 
0.943778 -0.541116 3.07133 89 106 132 
0.939067 -0.456491 3.06534 36 33 42 
0.901941 -0.0283877 3.30985 55 46 73 
0.954456 -0.639456 3.06893 99 101 139 
0.904689 -0.0190697 3.32305 35 28 44 
0.960714 -0.734917 3.16414 199 206 235 
0.958426 -0.660576 3.11204 169 180 208 
0.909102 0.0243393 3.31989 98 100 123 
0.951698 -0.482756 3.11083 129 119 146 
0.916067 -0.057976 3.3272 127 125 147 
0.967581 -0.763459 3.16062 104 110 142 
0.909114 0.0657508 3.3176 94 90 113 
0.915263 -0.0256633 3.31448 51 45 71 
0.931021 0.551762 2.15963 54 80 79 
0.909005 0.555575 2.77362 89 98 139 
0.927445 0.574806 2.32464 157 158 189 
0.977751 -0.694846 3.08139 187 196 229 
0.963331 -0.444999 3.06605 39 33 43 
0.907436 0.339575 3.2828 88 90 113 
0.947127 -0.257691 3.25511 110 105 135 
0.972874 -0.547689 3.0968 184 195 225 
0.975259 -0.599182 3.12967 117 126 157 
0.977058 -0.530474 3.09334 143 159 185 
0.941362 -0.0871135 3.32502 48 39 58 
0.954492 0.523283 1.89472 70 72 113 
0.993408 -0.782187 3.1787 56 56 82 
0.944292 -0.0617242 3.31813 52 46 72 
0.99183 -0.689372 3.16567 185 194 227 
0.934444 0.590857 2.5701 67 76 105 
0.944776 0.0805586 3.30678 50 42 65 
0.991189 -0.545989 3.10913 158 167 196 
0.944002 0.156316 3.3002 56 46 71 
0.962799 0.521954 1.88294 57 61 90 
0.966942 0.509469 1.7768 74 79 121 
0.923392 0.52527 3.27334 42 36 48 
0.989577 -0.468697 3.13242 44 42 56 
0.95918 0.540832 2.02902 72 84 106 
0.98986 -0.440724 3.12065 41 35 45 
0.94383 0.248542 3.28642 58 50 73 
1.00983 -0.768433 3.21274 24 27 34 
0.943867 0.271756 3.28169 56 51 74 
0.943227 0.294848 3.27812 57 47 72 
0.942969 0.318365 3.27492 56 46 70 
1.00586 -0.595639 3.16167 151 165 191 
1.00925 -0.615568 3.1883 154 174 198 
0.964913 0.54345 2.05121 96 89 131 
