ply                 
format ascii 1.0    
element vertex 1277
property float x    
property float y    
property float z    
property uchar red  
property uchar green
property uchar blue 
end_header          
1.13958 0.37887 3.25804 113 122 153 
1.14649 -0.319106 3.27404 96 92 115 
1.15131 -0.310035 3.28784 31 28 47 
1.15849 0.212879 3.29864 50 40 65 
1.13087 0.546877 3.21859 121 133 173 
1.1536 0.211209 3.28306 50 40 65 
1.15936 -0.268229 3.29656 81 76 98 
1.14757 0.247831 3.26273 56 44 68 
1.15358 -0.330779 3.27469 98 89 118 
1.1603 0.0918269 3.29443 52 41 55 
1.17054 -0.00963567 3.32106 49 45 62 
1.17156 0.0511595 3.32172 44 42 56 
1.14719 0.335599 3.24454 55 51 74 
1.17096 -0.276145 3.30965 31 26 46 
1.1543 0.369405 3.26241 55 53 75 
1.15725 0.239533 3.26911 60 57 74 
1.149 0.442981 3.24544 91 77 103 
1.17816 -0.232176 3.32011 89 87 111 
1.17299 0.0242658 3.30356 26 23 34 
1.18477 -0.208815 3.33383 45 38 54 
1.16809 0.317752 3.28794 47 39 52 
1.15157 0.498049 3.23341 95 87 110 
1.17388 0.00871415 3.29462 39 35 50 
0.952429 0.580622 2.67093 64 75 105 
1.1844 -0.0494759 3.32223 94 82 104 
1.18835 -0.241312 3.33087 34 31 48 
1.18801 0.0403544 3.31901 98 100 121 
1.18757 0.0655455 3.3135 113 111 133 
1.18316 0.104567 3.29828 98 86 108 
1.16326 0.427991 3.24151 23 22 30 
1.20592 -0.412506 3.3549 159 176 206 
1.20168 -0.201149 3.3392 31 27 44 
1.20251 -0.154593 3.34109 81 78 99 
1.20833 -0.126874 3.35001 52 45 61 
1.17933 0.0167595 3.26938 115 112 133 
1.19612 -0.220396 3.30963 95 87 111 
1.20668 -0.112651 3.33415 84 80 103 
1.19555 0.0114617 3.3033 96 90 118 
0.565316 0.476298 1.55536 77 83 119 
1.18696 0.326631 3.27632 90 88 112 
0.967074 0.599421 2.66605 118 133 172 
1.18739 0.380174 3.27482 93 98 118 
1.18885 0.416682 3.27107 73 75 96 
1.20857 -0.181169 3.32023 87 77 104 
1.20291 0.211066 3.3049 43 36 52 
1.21746 -0.119001 3.34214 30 22 43 
1.16158 0.575476 3.17934 132 146 185 
1.2144 0.0838406 3.32085 82 81 97 
1.2221 -0.0793131 3.34163 33 29 43 
1.19287 0.438826 3.26171 67 66 84 
1.21534 -0.14114 3.32102 92 79 105 
1.19298 0.456501 3.26011 73 64 81 
1.22114 -0.0058722 3.33552 30 26 41 
1.22564 -0.037439 3.34284 40 34 48 
0.997734 0.58839 2.71908 66 79 111 
1.21544 0.164795 3.31064 84 81 100 
1.18979 0.54456 3.23746 63 57 71 
1.21276 0.226864 3.28576 39 33 45 
1.22327 0.0599962 3.31375 75 72 91 
1.23568 -0.0626674 3.34653 90 77 103 
1.2104 0.202401 3.27695 37 34 53 
1.21679 0.326554 3.29281 79 79 103 
1.22633 0.160506 3.31751 35 29 43 
1.23317 -0.0225028 3.33322 91 77 102 
1.20558 0.415355 3.25672 35 37 52 
1.22456 0.368627 3.30735 80 85 105 
1.2455 0.0648553 3.36393 52 48 65 
1.21008 0.450512 3.26791 35 32 43 
1.2048 0.461397 3.25028 35 32 43 
1.22239 0.183158 3.29622 72 70 84 
1.21818 0.34938 3.28434 32 34 47 
1.2031 0.484306 3.24361 38 36 50 
1.22262 0.219988 3.29324 106 103 120 
1.20512 0.505661 3.24598 42 38 55 
1.22042 0.277074 3.28523 41 37 51 
1.22046 0.314444 3.28455 36 30 42 
0.580619 0.475849 1.5529 125 136 168 
1.2018 0.521516 3.22652 25 29 40 
1.21883 0.0700329 3.27043 23 21 35 
1.24686 0.0421146 3.34281 23 21 34 
1.22568 0.340509 3.2832 81 83 106 
0.999721 0.59719 2.67547 131 144 186 
1.23338 0.258524 3.30248 105 97 121 
1.22422 0.3813 3.27484 80 84 109 
1.20599 0.491741 3.2229 132 128 143 
1.23603 0.329583 3.29713 85 95 120 
1.19768 0.565552 3.19182 132 147 180 
1.25904 0.00225477 3.35365 26 27 45 
1.24157 0.172635 3.30596 52 56 81 
1.23559 0.367619 3.28966 88 94 116 
1.23141 0.444006 3.27561 128 126 148 
1.25891 0.0793708 3.34275 93 95 118 
1.26475 0.100569 3.35053 160 171 201 
1.2128 0.531598 3.21352 95 101 125 
1.2565 0.248556 3.32347 35 33 47 
1.28238 0.090802 3.39136 42 49 78 
1.24783 0.331359 3.29874 57 62 91 
1.24633 0.361166 3.29367 33 40 56 
1.25868 0.188732 3.32355 107 115 138 
1.25428 0.22516 3.312 110 102 125 
1.2551 0.237387 3.30982 113 108 131 
1.23997 0.410398 3.26917 101 110 139 
1.23173 0.510346 3.24749 139 135 160 
1.25261 0.432651 3.29679 54 50 67 
1.29572 -0.00558084 3.40888 36 41 61 
1.22364 0.561108 3.21465 127 117 141 
1.24063 0.596281 3.25827 84 83 115 
1.31317 -0.181858 3.44676 152 165 199 
1.00232 0.619737 2.62636 106 117 135 
1.2412 0.585894 3.25463 131 126 148 
1.27838 0.177684 3.35009 99 100 131 
1.01397 0.62119 2.6518 45 63 67 
1.30029 -0.00567501 3.3967 82 89 108 
1.27919 0.213004 3.34131 100 99 131 
1.26184 0.372964 3.29478 104 116 166 
1.3068 -0.0662556 3.40902 148 165 195 
1.27377 0.359198 3.32132 232 239 255 
1.24771 0.578099 3.24987 71 60 90 
1.28418 0.342356 3.34409 111 112 142 
1.26312 0.443819 3.28903 155 171 197 
1.27244 0.392333 3.31196 235 241 255 
1.24409 0.589091 3.23642 67 64 93 
1.29945 0.00949581 3.37734 122 138 171 
1.3087 0.354981 3.39993 112 120 157 
1.25876 0.508855 3.26916 154 159 189 
1.30773 -0.0126338 3.39479 70 85 108 
1.27606 0.375915 3.31046 104 121 175 
1.31292 -0.0408896 3.40024 153 163 199 
1.26268 0.458333 3.26837 163 169 201 
1.04138 0.611661 2.69118 64 73 104 
1.26295 0.593147 3.25973 99 101 122 
1.25352 0.429827 3.23173 24 33 74 
1.25784 0.508464 3.23445 45 54 93 
1.18022 0.546907 3.02819 38 52 81 
1.26363 0.447505 3.24142 154 173 205 
1.24823 0.588891 3.20081 42 54 92 
1.44141 -0.66113 3.68795 183 197 232 
1.27892 0.504347 3.26419 157 164 193 
1.25174 0.492596 3.19153 156 163 192 
1.28579 0.541046 3.27488 95 102 118 
1.24838 0.589954 3.17778 128 144 177 
1.37588 -0.52813 3.49573 167 180 215 
1.46309 -0.92696 3.71627 107 107 143 
1.08043 0.621435 2.74078 66 76 103 
1.2866 0.496381 3.25656 158 161 192 
1.20846 0.606963 3.05539 89 100 130 
1.19804 0.601073 3.0277 89 100 130 
1.30332 0.527853 3.29371 72 79 98 
1.26654 0.608797 3.19323 129 141 179 
1.3144 0.603818 3.3136 54 66 92 
1.48193 -0.712559 3.72926 185 202 230 
1.49613 -0.951108 3.75505 114 111 142 
1.47485 -0.748382 3.69923 120 115 155 
1.47068 -0.536971 3.68774 168 180 218 
1.35997 0.524059 3.38559 163 170 196 
1.43194 -0.257558 3.56361 122 135 169 
1.4492 0.0915651 3.59929 159 172 204 
1.24132 0.609836 3.0783 90 100 135 
1.3573 0.534912 3.36135 92 99 117 
1.49177 0.0297652 3.67647 168 178 213 
1.37344 0.518953 3.38227 156 165 194 
1.51263 -0.536789 3.72381 146 151 183 
1.3369 0.626733 3.28978 47 56 87 
1.54095 -1.03273 3.78845 57 79 129 
1.35764 0.6155 3.33833 37 48 78 
1.51538 -0.546829 3.72046 53 46 77 
1.26033 0.611315 3.09285 85 98 130 
1.51972 -0.560286 3.72818 41 36 58 
1.43583 0.186354 3.5232 170 179 218 
1.52458 -0.583218 3.73537 127 122 144 
1.42239 0.465735 3.48563 134 123 155 
1.46839 0.122287 3.59704 66 69 110 
1.47387 -0.0321256 3.61007 152 160 197 
1.57212 -0.725962 3.84253 112 107 137 
1.3653 0.537923 3.3376 22 36 65 
1.57663 -0.941433 3.85051 131 117 140 
1.38221 0.627972 3.37495 91 105 131 
1.49823 0.302748 3.65633 168 176 213 
1.37442 0.53586 3.35127 118 134 157 
1.53188 -0.574337 3.73158 109 116 135 
1.50184 -0.137112 3.65788 122 130 169 
1.47895 0.101252 3.60161 32 38 54 
1.48846 -0.0768334 3.62326 160 163 198 
0.679851 0.491112 1.64926 127 132 162 
1.52133 -0.114226 3.69564 166 176 212 
1.56902 -0.528293 3.80424 148 161 193 
1.48135 0.360216 3.59165 172 178 212 
1.4699 0.357517 3.56299 172 178 212 
1.48062 0.102137 3.58111 75 83 96 
0.693245 0.493511 1.67101 133 130 161 
1.48209 0.117207 3.58129 89 106 126 
1.56083 -0.546686 3.76988 85 84 102 
1.56883 -0.53974 3.78635 49 42 73 
1.51309 0.210001 3.65212 24 27 42 
1.5308 -0.147202 3.6938 168 181 216 
1.58127 -0.590377 3.81229 125 121 144 
1.52309 -0.0522507 3.6735 40 47 66 
1.52155 -0.128276 3.66791 88 82 116 
1.48491 0.527586 3.57671 128 131 176 
1.17884 0.645636 2.83653 17 38 31 
0.850646 0.53908 2.04343 66 68 109 
1.16722 0.645736 2.80404 111 118 146 
1.55351 -0.235303 3.73336 125 129 166 
1.48421 0.102815 3.56343 29 30 48 
1.48153 0.543573 3.55695 98 91 125 
1.47305 0.511615 3.53432 108 120 172 
1.51217 0.295567 3.62563 93 94 125 
1.50978 0.110974 3.6177 115 116 136 
1.51774 0.383958 3.6371 123 115 139 
1.48038 0.548959 3.54618 88 92 117 
1.48711 0.499467 3.56218 233 238 255 
1.53416 0.213632 3.67399 28 37 54 
1.48278 0.531642 3.54497 232 237 255 
1.47567 0.580106 3.52462 107 117 127 
1.58809 -0.538878 3.79127 104 102 123 
1.50384 0.492658 3.58778 100 99 143 
1.55191 0.0505801 3.69979 116 128 152 
1.51444 0.115982 3.60886 90 81 108 
1.67503 -0.888016 3.98742 83 73 110 
1.73544 0.092068 4.12804 115 111 136 
1.50902 0.507292 3.58942 121 112 157 
1.65197 -0.605253 3.92428 28 31 50 
1.60217 -0.289772 3.79975 167 180 215 
1.56916 0.0462649 3.72153 32 22 47 
1.357 0.625295 3.21173 122 131 164 
1.64761 -0.696779 3.89686 105 104 135 
1.62751 -0.386385 3.84599 170 180 216 
1.69295 -0.881826 4.00077 85 75 112 
1.53077 0.556148 3.6159 114 109 131 
1.58556 -0.242878 3.74396 166 178 216 
1.76521 0.308278 4.16827 159 163 192 
1.62328 -0.34713 3.82634 156 162 194 
1.63116 -0.456462 3.84422 151 157 193 
1.69291 -0.61534 3.98564 47 47 75 
1.93974 0.106829 4.57144 55 41 58 
1.91041 0.141744 4.4966 57 44 61 
1.90368 0.180964 4.47247 50 43 59 
1.56406 0.574255 3.67056 34 33 47 
1.6487 -0.532247 3.86627 85 86 104 
1.54802 0.577356 3.62883 94 100 100 
1.57632 0.615475 3.69404 78 85 103 
1.72001 -0.846068 4.02742 152 151 183 
1.70532 -0.586641 3.98392 129 131 152 
1.63699 -0.146704 3.81878 122 113 142 
1.66797 -0.528487 3.88699 92 94 109 
1.52623 0.648719 3.55707 43 51 74 
1.5444 0.596025 3.59142 89 93 96 
1.68501 -0.520561 3.91373 48 47 81 
1.5585 0.590762 3.62064 30 32 45 
1.75519 -0.875559 4.07475 85 77 116 
1.84818 0.586959 4.28967 88 94 118 
1.68977 -0.509356 3.91873 153 159 191 
1.532 0.691803 3.55433 129 145 161 
1.76914 -0.828985 4.10198 71 67 94 
1.76628 0.452396 4.09192 140 145 177 
1.2757 0.64975 2.95247 80 91 121 
1.652 -0.14357 3.8231 128 123 143 
1.67802 -0.546257 3.88215 97 103 115 
1.98872 0.558329 4.59971 147 152 181 
1.73318 -0.583384 4.0012 28 29 49 
1.76467 -0.867713 4.07282 83 76 110 
1.64898 -0.176187 3.80484 39 36 55 
1.70469 -0.516039 3.93276 53 52 86 
2.0003 0.123813 4.61714 30 35 39 
1.69768 -0.530467 3.91476 44 46 69 
1.68575 -0.365761 3.88505 99 101 126 
1.91567 0.553907 4.41677 39 45 69 
1.68155 -0.32292 3.87311 115 120 142 
1.57858 0.590878 3.63432 97 105 128 
1.7189 -0.453513 3.95724 59 63 88 
1.87562 0.651159 4.31485 37 54 74 
1.78996 -0.701758 4.10923 104 104 130 
1.78336 -0.864478 4.09273 85 75 110 
1.70058 -0.415692 3.90316 93 98 120 
1.66406 -0.239471 3.81711 100 98 119 
1.71401 -0.526167 3.92991 44 44 68 
1.68927 -0.13401 3.87476 28 23 29 
1.71162 -0.399323 3.91823 54 51 78 
1.7291 -0.518945 3.95512 96 104 117 
2.00098 0.244822 4.57967 129 136 162 
2.08942 0.175783 4.77917 75 73 94 
1.68586 -0.20614 3.85079 42 34 58 
1.72077 -0.442843 3.93002 111 113 136 
1.69644 -0.21765 3.87309 115 106 127 
1.68679 -0.187187 3.85068 113 101 123 
1.78537 -0.733286 4.07331 110 106 129 
1.73105 -0.362218 3.94878 44 40 67 
1.88565 0.619347 4.29749 135 159 187 
1.80444 -0.779379 4.11047 154 150 175 
1.91239 0.569499 4.34884 103 116 151 
1.70169 -0.183608 3.86511 114 107 123 
1.83952 -0.836739 4.17684 156 147 176 
1.32449 0.673249 3.0057 63 80 90 
2.0101 0.591743 4.56627 169 186 212 
1.73723 -0.404806 3.94185 93 95 118 
1.8015 -0.570382 4.08766 135 133 154 
1.72714 -0.425414 3.91536 33 39 61 
1.90953 0.215245 4.32609 36 32 49 
1.75908 -0.503097 3.98394 52 47 79 
1.834 0.748302 4.15344 24 22 33 
1.74375 -0.330246 3.94568 119 111 135 
1.34262 0.661021 3.03256 82 91 122 
1.9947 0.578255 4.50865 56 69 113 
1.8002 0.751607 4.068 72 85 117 
1.92855 0.658132 4.35844 161 175 210 
1.93724 0.259019 4.37183 35 31 48 
1.83376 -0.800777 4.13311 67 65 89 
1.86283 0.657579 4.19988 29 31 44 
0.759878 0.499286 1.70532 68 73 111 
1.78584 -0.501575 4.01988 53 48 80 
1.97303 0.662881 4.44405 79 92 134 
1.79941 -0.557365 4.04437 38 39 60 
1.76661 -0.373635 3.9696 28 31 46 
2.07438 0.319448 4.6639 30 30 38 
1.98605 0.578021 4.4595 164 191 218 
1.28176 0.654951 2.8708 52 75 67 
1.8061 -0.507844 4.04466 92 88 105 
1.85782 0.629028 4.16016 154 169 198 
1.98607 0.611783 4.44314 98 110 160 
1.97436 0.579081 4.41394 82 87 143 
1.97945 0.63716 4.42206 83 88 130 
2.06659 0.618275 4.61528 208 227 255 
2.09774 0.557008 4.68204 24 24 34 
2.05907 0.651317 4.59524 213 230 255 
1.77713 -0.159338 3.95861 29 26 35 
2.05306 0.600402 4.57161 58 73 130 
1.37993 0.681921 3.0687 53 65 79 
2.085 0.581808 4.63663 188 201 235 
1.89931 -0.470634 4.21241 162 175 210 
1.81512 -0.806767 4.02474 84 83 115 
1.85676 0.618857 4.11827 30 21 48 
1.79674 -0.170308 3.97706 94 93 107 
0.78118 0.50186 1.72252 61 69 106 
1.83252 0.762405 4.05463 25 29 40 
2.06353 0.654866 4.56297 153 159 191 
1.90636 -0.64582 4.19604 41 43 66 
1.91096 -0.552175 4.19382 41 43 66 
1.88924 -0.495578 4.13909 93 88 110 
1.8994 0.704804 4.16256 31 32 37 
1.78611 0.54872 3.91352 16 16 24 
1.89302 -0.485592 4.14068 57 55 92 
1.93309 -0.662604 4.22287 125 126 146 
1.90898 -0.422046 4.16179 177 187 223 
1.91137 -0.835861 4.1655 138 134 167 
1.90835 -0.488205 4.14933 102 106 131 
1.4485 0.691049 3.13869 42 61 65 
1.95071 -0.686126 4.22761 116 119 160 
1.95318 -0.661541 4.23017 114 119 157 
1.42866 0.687795 3.09283 118 125 151 
0.773528 0.494878 1.66827 82 90 129 
1.92166 0.602815 4.15856 34 37 42 
1.91931 -0.520633 4.13991 113 121 157 
1.93759 -0.481529 4.17587 103 108 128 
1.99293 -0.497295 4.29297 106 107 128 
1.87396 0.78651 4.02297 21 25 37 
1.88594 0.625124 4.04647 58 74 97 
2.00563 -0.523201 4.29288 254 254 254 
1.98158 -0.492831 4.23514 59 64 94 
1.93918 0.0936251 4.14215 94 94 118 
1.94823 -0.471016 4.15087 253 254 255 
1.91297 0.300848 4.07685 107 123 156 
1.90822 0.286989 4.06708 39 39 67 
1.97558 0.309843 4.21094 112 125 157 
2.73631 -0.563813 5.83411 248 255 255 
2.25638 0.424082 4.79545 122 136 173 
1.87809 0.218059 3.98824 111 108 127 
2.04836 0.42042 4.35015 126 142 178 
1.95694 0.288568 4.15396 137 134 153 
1.51992 0.70598 3.2204 119 125 149 
2.01808 0.440938 4.27784 127 145 183 
1.96221 0.467734 4.15632 126 144 182 
2.11744 0.538479 4.48001 125 143 181 
2.76672 -0.558282 5.85176 250 254 255 
1.92286 -0.000484062 4.06254 89 94 123 
1.93199 0.140328 4.07884 37 35 56 
2.02526 0.582421 4.27512 115 131 167 
1.95872 -0.0148546 4.13331 30 30 54 
2.1428 -0.0574959 4.52506 99 101 122 
1.45816 0.682781 3.07433 35 52 62 
1.96373 0.412312 4.13376 28 31 64 
2.00946 0.448174 4.22794 45 40 72 
2.8285 -0.607193 5.94416 214 215 219 
1.91511 0.635837 4.01991 36 40 52 
2.49024 0.684755 5.22837 65 73 119 
1.90694 0.640566 3.99688 108 118 143 
2.01163 0.21031 4.21095 51 49 63 
2.75181 -0.529579 5.76372 45 38 116 
1.8918 0.789273 3.94618 25 33 44 
2.97345 -0.423056 6.1937 115 122 174 
2.80672 -0.5445 5.8447 253 255 254 
5.21065 1.34886 10.8384 53 59 93 
2.75005 -1.44056 5.69752 64 62 135 
1.94619 0.723598 4.02917 75 102 149 
1.92371 0.756762 3.97691 121 128 154 
1.9476 0.799482 4.0233 127 118 135 
1.94089 0.704689 4.00757 81 95 130 
1.65533 0.734975 3.41612 64 89 83 
1.96378 0.742183 4.05193 97 100 133 
1.96897 0.697571 4.05785 201 221 254 
1.96401 0.729944 4.04286 200 223 255 
1.98964 0.691101 4.09523 60 66 100 
2.00771 0.736678 4.11157 94 90 141 
1.98166 0.774985 4.05779 130 136 162 
4.66956 0.561605 9.56584 68 70 109 
4.44849 1.39464 9.0867 62 53 70 
1.91533 0.80648 3.89697 115 128 147 
3.56523 1.27634 7.24885 32 35 44 
4.19522 0.986226 8.51237 86 95 136 
3.25505 -1.1915 6.58744 205 214 255 
3.18493 -1.23627 6.43831 60 60 130 
4.88845 0.33776 9.88539 112 124 164 
3.66382 1.27729 7.4052 30 28 42 
2.87737 -0.466254 5.79707 254 254 254 
3.2306 -1.17721 6.49902 42 54 106 
2.8465 -0.445044 5.70934 250 248 253 
3.67214 1.212 7.3577 85 85 123 
2.86609 -0.433618 5.73091 172 175 210 
2.87693 -0.44248 5.7437 169 167 214 
2.90458 -0.478633 5.79336 252 255 255 
3.58455 1.22982 7.14415 35 37 49 
2.89498 -0.453403 5.76685 33 34 90 
4.8248 0.555058 9.58667 59 68 109 
5.53353 1.23219 10.991 25 31 53 
2.93748 -1.67733 5.81763 253 254 255 
4.51663 1.45356 8.94749 29 32 63 
2.90934 -1.63613 5.75236 253 255 252 
3.51059 0.750757 6.94067 70 71 101 
2.9293 -1.65922 5.78435 159 162 217 
5.57998 1.2779 11.018 75 83 120 
3.94974 0.969177 7.7877 83 88 130 
3.13583 -0.0219513 6.17585 17 21 33 
2.95287 -0.0876167 5.81277 14 21 31 
2.95948 -1.50585 5.81101 234 243 255 
2.8964 -1.27206 5.68535 75 65 138 
2.89821 -1.44393 5.68606 37 50 82 
4.93488 1.15514 9.68527 40 39 70 
4.55962 1.19369 8.94754 79 94 135 
3.10549 -0.561148 6.08468 187 188 208 
3.0904 -0.0412773 6.05263 62 76 102 
2.86964 -0.63356 5.61621 217 217 229 
2.86622 -1.65626 5.60193 253 253 255 
2.95682 -0.44406 5.78309 253 255 254 
2.91747 -1.53009 5.69882 168 180 232 
4.92235 1.26674 9.62282 97 117 154 
4.77075 1.26567 9.32483 88 106 146 
3.07739 -0.102292 6.00574 64 85 132 
2.9865 -1.67755 5.82325 139 144 186 
5.2948 1.12489 10.318 17 23 35 
2.9295 -1.58388 5.69805 80 85 143 
4.23805 0.836126 8.25219 69 86 129 
3.07072 -1.18753 5.97132 255 255 253 
2.993 -1.65135 5.81769 171 184 229 
4.08052 0.989609 7.93934 36 38 59 
2.83889 -1.653 5.51476 222 241 255 
2.94043 -0.075955 5.71293 15 19 31 
2.84627 -1.3344 5.52713 52 66 101 
2.95244 -1.61394 5.72927 172 190 228 
2.93841 -1.57596 5.6933 251 255 255 
2.92314 -1.73385 5.661 224 230 255 
4.25403 0.777779 8.24697 20 27 45 
4.56534 1.28881 8.85224 50 59 92 
4.71768 1.48461 9.14707 65 78 123 
3.33494 -0.0170881 6.45996 19 23 35 
3.04616 -0.572543 5.88891 250 249 255 
2.95864 -1.33117 5.68602 247 245 246 
3.03212 -0.0684404 5.82334 22 23 41 
3.02369 -1.11616 5.79994 35 48 82 
3.20829 -1.04654 6.14012 252 253 255 
3.33385 -0.00555265 6.38097 78 97 139 
3.11825 -1.03869 5.92682 34 42 79 
3.08284 -0.399158 5.84806 243 252 255 
4.99562 1.14081 9.48415 87 110 144 
4.86857 1.3738 9.23627 81 92 138 
5.58078 1.19368 10.5808 20 31 51 
2.9583 -0.796914 5.59987 244 245 249 
4.85472 1.33785 9.19943 67 81 126 
4.73337 1.32504 8.96439 120 142 183 
5.06821 1.48269 9.59226 65 82 128 
4.84658 1.46597 9.16567 67 83 134 
3.00368 -1.02552 5.66964 254 254 254 
4.86135 1.35189 9.16612 110 132 173 
4.97077 1.42794 9.37015 108 127 169 
4.99351 1.40331 9.38587 68 82 111 
4.98209 1.36137 9.36516 60 64 101 
6.08908 1.41433 11.4099 21 27 43 
3.29319 -0.131402 6.15618 30 37 81 
4.89002 1.39306 9.14321 109 121 133 
4.94328 1.45724 9.23343 35 42 68 
5.06316 1.36509 9.44841 23 27 52 
5.97752 1.61412 11.1513 21 28 57 
4.99394 0.420679 9.28164 44 40 73 
5.06859 1.14656 9.39779 36 50 95 
5.37164 1.51029 9.95407 103 125 162 
4.98794 1.34268 9.21937 34 49 92 
4.96091 1.31258 9.16753 34 38 86 
4.95047 1.38772 9.13777 51 69 119 
5.00552 1.36621 9.23461 113 133 170 
4.82034 1.42517 8.88873 56 69 121 
5.18419 1.38616 9.54972 92 122 158 
5.18402 0.578106 9.54341 66 74 87 
-0.511973 0.399031 1.73501 41 42 62 
-0.508412 0.410315 1.73239 36 37 55 
-0.502605 0.232967 1.72703 116 65 132 
-0.379413 0.449758 1.51365 143 132 149 
-0.493899 0.193416 1.73726 97 121 181 
-0.472416 0.253173 1.70703 55 75 144 
-1.38108 -0.682584 3.3758 120 138 186 
-0.49624 0.225964 1.75466 149 179 190 
-0.485255 0.22943 1.74796 44 65 110 
-0.47901 0.258624 1.74732 97 126 186 
-0.47338 0.180643 1.75445 145 166 223 
-0.462734 0.178333 1.73571 158 175 229 
-0.546411 -0.275749 1.8934 11 14 31 
-0.532857 -0.182625 1.88762 82 80 101 
-0.45869 0.239095 1.75426 146 169 210 
-0.457696 0.204054 1.75686 144 166 205 
-0.536176 -0.346035 1.91736 76 78 101 
-0.465111 0.213527 1.78407 161 184 226 
-0.329899 0.450702 1.52114 70 75 97 
-0.458892 0.244344 1.77432 93 112 142 
-0.53532 -0.388664 1.92658 66 71 103 
-0.490547 -0.0933767 1.84195 37 49 47 
-0.457118 0.233646 1.77905 79 93 132 
-0.449694 0.210178 1.76772 61 82 125 
-0.487397 0.156644 1.85632 113 121 167 
-0.482302 0.250144 1.84703 165 184 224 
-0.447917 0.185477 1.78623 143 162 220 
-0.427342 0.249945 1.76086 82 156 219 
-0.431731 0.25125 1.77019 83 159 221 
-0.443011 0.211237 1.80416 83 162 229 
-0.26818 0.444591 1.46025 139 138 170 
-0.311892 0.454611 1.56192 49 55 87 
-0.428492 0.188723 1.8144 159 179 232 
-0.390646 0.1927 1.73678 70 71 76 
-0.46046 -0.143594 1.8826 119 125 157 
-0.427225 0.237929 1.82203 56 102 179 
-0.408782 0.251961 1.78338 74 152 218 
-0.418639 0.207439 1.80798 57 58 104 
-0.439299 0.206738 1.85377 75 61 97 
-0.41238 0.193123 1.80421 26 34 80 
-0.477504 -0.27994 1.94242 74 69 91 
-0.451148 0.118452 1.89027 110 96 129 
-0.280036 0.452632 1.52716 57 64 92 
-0.399293 0.18399 1.79011 179 200 247 
-0.461202 -0.409178 1.92798 115 125 160 
-0.455129 -0.313839 1.92353 122 128 162 
-0.441666 0.262139 1.91083 103 125 175 
-0.296025 0.459354 1.58828 58 62 89 
-0.396396 0.22125 1.82289 36 51 84 
-0.394837 0.247262 1.83178 19 28 67 
-0.401785 0.254153 1.85039 136 159 213 
-0.377298 0.223708 1.79651 158 177 235 
-0.406731 0.448022 1.87279 47 56 85 
-0.394627 0.198304 1.842 26 40 89 
-0.39713 0.224222 1.85069 130 155 211 
-0.382579 0.475231 1.82638 68 89 136 
-0.421898 0.201103 1.91951 106 129 181 
-0.420748 0.171731 1.91661 118 130 170 
-0.396369 0.3041 1.86229 158 174 207 
-0.441495 0.332048 1.96837 53 54 48 
-0.338722 0.236312 1.73786 46 57 89 
-0.39363 0.370359 1.87037 105 129 173 
-0.396785 0.452515 1.88011 34 38 65 
-0.379929 0.185485 1.83902 29 38 67 
-0.376062 0.296827 1.83433 66 84 124 
-0.387594 0.327547 1.86205 126 150 196 
-0.389701 0.177084 1.87412 29 28 70 
-0.415686 -0.222224 1.95167 115 129 164 
-0.379438 0.315033 1.88124 48 57 54 
-0.37384 0.366255 1.87166 43 44 65 
-0.120961 0.154947 1.3034 142 146 175 
-0.360309 0.396602 1.95806 37 34 55 
-0.194054 0.456375 1.54514 57 69 107 
-0.26631 0.246747 1.78964 44 55 75 
-0.396385 0.511664 2.15673 21 23 36 
-0.316321 0.407713 1.94231 18 20 33 
-0.29991 0.366286 1.90317 28 31 48 
-0.310812 0.302498 1.95881 93 115 165 
-0.307188 0.401353 1.95303 125 147 194 
-0.292882 0.299385 1.91336 240 243 255 
-0.306089 0.42511 1.95584 36 49 83 
-0.29011 0.359071 1.90975 116 133 179 
-0.337441 -0.0157505 2.04944 24 30 56 
-0.337436 0.323844 2.05706 88 104 137 
-0.30027 0.444434 1.9578 16 19 34 
-0.305604 0.0375142 1.97419 151 172 217 
-0.335674 0.340164 2.06923 61 58 79 
-0.320713 0.435238 2.02922 19 21 34 
-0.309051 0.500915 2.00568 22 24 36 
-0.358489 0.416923 2.16424 26 28 40 
-0.313593 -0.378455 2.06086 71 93 140 
-0.318417 -0.227776 2.08361 35 47 73 
-0.272783 0.325059 1.96267 42 50 63 
-0.310606 -0.354947 2.06841 25 32 58 
-0.215511 0.28154 1.82558 113 120 149 
-0.279037 0.116365 2.06437 143 149 183 
-0.258448 0.0833499 2.01455 148 154 186 
-0.260924 0.0260848 2.02875 143 148 178 
-0.265164 0.228356 2.04811 152 156 185 
-0.259745 -0.0893306 2.04044 128 132 161 
-0.2717 -0.314342 2.08067 98 107 140 
-0.262343 -0.0388096 2.05876 139 149 176 
-0.281713 -0.0180161 2.13722 78 87 120 
-0.218976 0.118276 1.93666 97 83 109 
-0.269948 -0.109005 2.10835 25 27 48 
-0.258546 0.0765749 2.07676 94 81 107 
-0.267806 0.0608515 2.1089 147 156 187 
-0.262756 -0.00952626 2.10109 136 145 174 
-0.25044 0.180808 2.06875 106 96 121 
-0.26029 0.15674 2.11015 102 88 114 
-0.255008 0.00866993 2.09077 84 95 125 
-0.256023 -0.00209369 2.09454 85 91 123 
-0.2244 -0.117481 2.07824 31 33 56 
-0.21288 0.26039 2.11107 52 48 62 
-0.224484 -0.0565976 2.15512 111 106 129 
-0.214024 0.281989 2.13501 67 57 81 
-0.210158 0.273181 2.12576 114 122 145 
-0.228788 0.064643 2.19349 106 110 137 
-0.226832 0.272879 2.20136 57 53 68 
-0.226127 -0.00120887 2.19455 34 33 51 
-0.161145 0.275643 1.9495 116 116 140 
-0.208577 0.0167776 2.13939 112 116 145 
-0.216361 -0.0696875 2.16829 80 78 99 
-0.206229 0.00685158 2.13317 109 115 141 
-0.216896 0.276289 2.19596 30 36 58 
-0.220372 0.000226551 2.20509 39 35 52 
-0.206347 0.28384 2.16248 105 111 137 
-0.0918292 0.477726 1.71725 122 126 163 
-0.156048 -0.233573 1.95671 80 80 108 
-0.143672 -0.120846 1.91724 65 62 73 
-0.231208 -0.000678989 2.29085 15 22 38 
-0.220096 -0.0407764 2.25197 86 81 104 
-0.219265 -0.00474926 2.25721 25 37 49 
-0.128501 -0.172566 1.9123 75 71 94 
-0.116964 -0.233279 1.91567 12 17 36 
-0.0685812 0.482879 1.74449 137 138 168 
-0.132617 -0.43327 2.00007 95 100 132 
-0.0964232 -0.126931 1.87577 67 65 79 
-0.103044 -0.227407 1.91486 36 36 48 
-0.0197067 0.458509 1.55603 137 144 186 
-0.064669 0.446373 1.78134 153 150 169 
-0.0730987 -0.131388 1.8666 32 31 36 
-0.0462054 0.489482 1.77298 59 64 96 
-0.0755035 -0.0347589 1.89934 115 124 157 
-0.0678687 -0.141868 1.85712 85 88 97 
-0.0690096 -0.186139 1.89169 125 121 144 
-0.0606568 0.282579 1.89005 48 52 63 
-0.0505838 -0.150037 1.87732 41 40 48 
-0.0497232 -0.126081 1.8759 125 121 136 
-0.0303585 0.466666 1.80543 110 108 132 
-0.0493965 -0.198727 1.88025 54 51 70 
-0.0476405 0.264657 1.91416 129 127 148 
-0.0455744 -0.158297 1.9125 120 106 131 
-0.0405985 -0.191921 1.89026 127 112 131 
-0.0410444 -0.20797 1.90539 123 108 127 
-0.0400994 -0.06249 1.9143 58 50 74 
-0.0406607 -0.277043 1.91781 71 62 81 
-0.0162303 0.430924 1.81931 234 237 254 
-0.0335247 -0.288545 1.90328 64 55 74 
-0.0323699 -0.124142 1.91818 25 24 29 
-0.0276853 -0.117825 1.9062 28 29 34 
-0.029925 -0.152171 1.92672 135 123 145 
-0.0317972 -0.176691 1.94061 164 161 182 
-0.00786017 0.470137 1.84563 38 34 84 
-0.0100639 0.421042 1.85795 58 59 123 
-0.0292695 -0.20284 1.94213 164 160 183 
-0.00398876 0.434688 1.84669 118 104 140 
-0.0970043 0.151214 2.40869 34 47 82 
-0.00523653 0.487319 1.86254 96 79 98 
-0.0265998 -0.340003 1.94626 20 20 22 
-0.0978088 0.117005 2.41696 33 42 71 
-0.0202303 -0.0813175 1.92634 131 123 147 
-0.0919771 0.158816 2.39924 13 20 39 
-0.00233819 0.457982 1.85674 161 153 174 
-0.0923721 0.108003 2.40446 16 20 47 
-0.0102307 0.298434 1.90551 25 32 61 
-0.0195701 -0.322605 1.94333 123 110 128 
-0.084781 0.202657 2.40032 20 24 36 
-0.00766171 -0.0597629 1.89228 121 116 138 
0.00708559 0.308911 1.83913 113 107 119 
-0.0828372 0.151692 2.42429 153 171 245 
0.00385391 0.336633 1.87215 119 121 116 
-0.0816334 0.118398 2.42015 151 169 241 
0.0287889 0.48341 1.73719 73 72 104 
-0.0684307 0.36595 2.40101 59 83 107 
-0.00411912 -0.118727 1.94325 27 26 32 
-0.000532983 0.328069 1.94897 16 24 45 
-0.0697736 0.112628 2.43759 4 17 59 
-0.0036083 -0.438574 1.99864 169 174 204 
0.00825103 -0.419031 1.98525 68 69 74 
0.0778386 0.466865 1.5944 75 72 115 
0.0363071 -0.404787 2.03271 71 67 81 
0.0116419 0.407425 2.4246 34 34 44 
0.108846 0.465298 1.56988 145 148 181 
0.0249505 0.342047 2.46404 77 77 101 
0.0276546 0.362741 2.45914 78 83 105 
0.111844 0.477961 1.6703 61 68 97 
0.0407137 0.414489 2.45644 32 34 47 
0.0551556 0.300158 2.50948 81 86 116 
0.0771766 0.256562 2.50275 51 48 67 
0.110136 0.485533 2.07276 158 167 196 
0.0762855 0.225406 2.51981 50 47 64 
0.0757987 0.139163 2.53674 43 40 51 
0.128622 0.504715 2.01964 97 103 135 
0.120464 -0.437047 2.12239 119 105 120 
0.118978 0.285138 2.37422 20 28 47 
0.12371 0.429984 2.31959 96 107 137 
0.16545 0.473848 1.62788 71 76 108 
0.129094 -0.523568 2.15673 57 48 69 
0.131607 -0.439081 2.13094 93 90 107 
0.131821 0.43281 2.3675 28 35 63 
0.170162 0.471377 1.6079 133 138 170 
0.132841 0.288239 2.38716 13 22 39 
0.137911 0.194645 2.53508 84 90 114 
0.149071 -0.422284 2.17164 56 40 66 
0.198334 0.467767 1.55764 75 74 118 
0.187748 -0.480542 2.21854 39 26 43 
0.211746 0.476866 1.63144 75 75 109 
0.196758 -0.501302 2.21441 108 96 120 
0.242178 0.544581 2.14369 136 136 164 
0.242733 0.548052 2.17099 84 98 107 
0.240013 -0.390602 2.26157 70 54 80 
0.267595 0.495573 2.21891 106 121 154 
0.261338 -0.531083 2.29041 126 121 144 
0.29331 0.538194 2.11256 128 135 164 
0.298933 0.531713 2.0822 127 126 157 
0.308979 0.522213 2.24625 48 54 76 
0.314083 0.212267 2.42218 99 106 132 
0.289504 0.485097 1.70307 77 80 113 
0.317828 0.523909 2.20874 148 164 197 
0.331328 0.378015 2.30131 14 22 45 
0.302476 0.487464 1.71302 82 88 114 
0.33727 0.52815 2.26616 43 49 73 
0.338551 0.126022 2.36611 81 83 104 
0.333355 0.54764 2.17465 70 69 103 
0.319446 0.514148 1.91014 77 81 118 
0.346549 -0.0984433 2.36311 78 79 99 
0.343491 -0.11089 2.31454 59 58 72 
0.342066 -0.108294 2.27185 57 54 71 
0.345033 -0.612746 2.41496 144 149 191 
0.344811 -0.370723 2.35791 169 176 205 
0.359535 0.178381 2.38635 52 45 63 
0.356378 0.551795 2.25557 115 128 160 
0.35386 -0.192778 2.35824 124 114 139 
0.357671 -0.161307 2.35611 133 129 152 
0.365647 0.120019 2.34129 51 47 62 
0.370413 0.539042 2.253 57 57 69 
0.370204 -0.379524 2.40852 131 140 173 
0.371296 -0.154982 2.37484 62 51 81 
0.374268 0.200343 2.32739 56 52 67 
0.376052 0.218621 2.32955 57 54 73 
0.379785 -0.161777 2.39023 113 106 137 
0.326456 0.475142 1.62088 79 83 118 
0.382931 -0.124165 2.37713 121 117 140 
0.374197 0.541549 2.16155 87 88 118 
0.391276 0.122003 2.36243 143 143 169 
0.388428 0.55614 2.25341 62 80 100 
0.393573 0.534791 2.2742 69 67 91 
0.397342 0.0295078 2.38078 27 30 35 
0.397913 0.51809 2.2999 144 146 167 
0.39805 -0.290822 2.42146 145 151 187 
0.400612 -0.148647 2.41035 47 47 59 
0.398255 0.557465 2.26364 128 133 162 
0.400169 -0.073084 2.37448 25 24 32 
0.397019 0.555156 2.23678 66 78 92 
0.405788 0.507098 2.29087 68 70 93 
0.344221 0.482173 1.65334 60 62 100 
0.413264 0.324531 2.35291 130 133 164 
0.41485 -0.209193 2.42546 180 193 228 
0.420491 -0.167284 2.41524 174 180 212 
0.420185 0.558403 2.26295 72 67 107 
0.431317 0.449193 2.32418 100 102 127 
0.440504 0.518371 2.32585 89 101 127 
0.446784 0.0769542 2.41964 175 185 220 
0.453199 0.210034 2.41663 178 192 229 
0.455966 0.0583872 2.4273 179 191 231 
0.378799 0.48757 1.70924 59 65 99 
0.459773 -0.0726426 2.44502 170 179 218 
0.459755 0.562478 2.35804 52 58 80 
0.469882 -0.401231 2.52068 148 152 189 
0.460891 0.56525 2.30423 71 75 112 
0.471707 0.330698 2.41228 69 82 127 
0.486113 0.558061 2.37777 97 99 122 
0.476532 0.564517 2.30366 76 76 112 
0.495684 0.308344 2.44995 173 186 218 
0.496008 0.386929 2.43665 65 77 103 
0.495297 0.464232 2.40105 43 48 70 
0.502623 0.563265 2.40833 112 114 137 
0.524483 0.401455 2.45816 112 117 137 
0.543332 0.391209 2.50963 173 186 220 
0.523741 0.573133 2.36288 134 139 171 
0.534536 0.557931 2.41819 103 107 134 
0.537011 0.568231 2.43106 62 57 87 
0.436204 0.497694 1.77436 75 79 114 
0.453267 0.507088 1.87776 67 66 100 
0.538204 0.568767 2.32849 77 81 108 
0.571719 0.0588026 2.56886 126 133 175 
0.568832 0.522179 2.47248 38 44 70 
0.577889 0.412213 2.50695 69 77 79 
0.580616 0.570072 2.47386 32 39 55 
0.606907 0.292917 2.63272 166 177 209 
0.586329 0.50841 2.49218 40 48 69 
0.583968 0.559147 2.45893 85 100 123 
0.609108 0.310252 2.59838 152 162 198 
0.601425 0.559542 2.53268 94 106 132 
0.611309 0.257517 2.60519 151 161 196 
0.611526 -0.0881082 2.63123 83 97 123 
0.595712 0.413219 2.47401 18 28 55 
0.621651 0.153023 2.61182 83 91 128 
0.614143 0.544538 2.50121 30 37 56 
0.62802 0.372403 2.58373 172 181 222 
0.613925 0.488946 2.49329 16 29 61 
0.612298 0.561571 2.47638 27 37 64 
0.643122 -0.195405 2.66165 121 123 146 
0.635099 0.306897 2.57681 121 120 151 
0.62709 0.546252 2.50828 35 40 69 
0.636198 0.500091 2.55496 46 57 89 
0.5162 0.512589 1.909 138 138 172 
0.647413 0.549744 2.56987 31 38 57 
0.665983 -0.229825 2.70404 168 166 190 
0.660294 0.413089 2.61488 137 135 159 
0.668241 0.207845 2.65568 85 70 99 
0.682273 0.349522 2.68144 156 158 181 
0.664125 0.510379 2.57914 111 111 139 
0.684729 -0.0637652 2.72027 113 108 130 
0.692804 -0.290626 2.76175 132 122 147 
0.693615 -0.414927 2.76202 52 59 77 
0.761777 -0.111602 3.06905 62 60 81 
0.695748 0.415383 2.66744 138 127 143 
0.80044 -0.132845 3.2018 27 27 39 
0.709188 -0.31807 2.77841 63 53 78 
0.804118 -0.0341619 3.19393 37 32 54 
0.802073 -0.0426494 3.18383 52 44 68 
0.68137 0.508132 2.5624 44 56 80 
0.785484 -0.311512 3.08214 115 106 135 
0.81598 -0.125108 3.2081 109 106 135 
0.724183 -0.347963 2.79562 56 48 72 
0.686671 0.544696 2.53362 35 42 61 
0.734614 -0.392843 2.82006 97 82 115 
0.83085 -0.0693527 3.21587 56 60 95 
0.835148 -0.163348 3.24053 103 103 127 
0.715597 0.499953 2.61964 134 149 182 
0.717656 0.346718 2.62927 89 114 155 
0.845001 -0.0695472 3.21977 115 106 135 
0.864878 -0.094884 3.30465 49 48 66 
0.801825 -0.345738 3.04053 115 112 133 
0.850596 -0.0331249 3.22654 124 122 143 
0.545738 0.505902 1.83577 78 88 113 
0.763657 -0.401445 2.85496 49 42 58 
0.772001 -0.399269 2.88081 153 148 171 
0.8698 -0.0155235 3.2731 106 106 130 
0.691091 0.560444 2.45158 20 25 44 
0.726545 0.490589 2.5949 135 149 188 
0.819294 -0.352297 3.05509 108 103 123 
0.796307 -0.400046 2.95732 82 77 109 
0.777696 -0.409144 2.86565 149 147 169 
0.779095 -0.4022 2.84986 134 125 154 
0.830123 -0.357778 3.0631 112 109 130 
0.530705 0.492167 1.70811 91 95 130 
0.803088 -0.463093 2.91222 76 66 93 
0.826248 -0.420278 3.00135 47 45 66 
0.837479 -0.360764 3.04458 91 85 113 
0.850739 -0.360411 3.0891 114 110 133 
0.591496 0.519566 1.93332 72 78 114 
0.604491 0.522968 1.97769 87 87 125 
0.537377 0.49195 1.69858 71 73 112 
0.818895 -0.508713 2.9145 49 57 76 
0.869048 -0.359758 3.10762 94 89 111 
0.831808 -0.455055 2.94324 40 33 51 
0.877894 -0.3556 3.12044 87 83 100 
0.911983 -0.263647 3.24936 33 32 40 
0.842315 -0.505283 2.97227 155 162 190 
0.880765 -0.425054 3.10619 117 114 145 
0.851241 -0.458006 2.97558 96 92 115 
0.729278 0.558828 2.42104 43 52 85 
0.944981 -0.0356638 3.31152 48 44 67 
0.84965 -0.819933 2.97518 113 120 148 
0.8596 -0.732336 2.98925 89 100 132 
0.716177 0.585021 2.34078 124 128 165 
0.853138 -0.531461 2.94709 134 144 171 
0.597874 0.512556 1.87352 70 75 113 
0.544646 0.485956 1.66624 140 149 182 
0.732493 0.575594 2.38853 47 55 78 
0.86077 -0.527479 2.95919 41 53 79 
0.865182 -0.573625 2.97826 137 137 163 
0.954074 0.237845 3.26505 101 98 117 
0.868308 -0.543681 2.97097 163 177 203 
0.881344 -0.622055 3.01922 41 47 71 
0.880018 -0.4978 3.00256 82 68 101 
0.871562 -0.524739 2.97179 87 107 131 
0.880833 -0.592573 3.00909 142 157 180 
0.883765 -0.474018 3.00871 31 28 45 
0.961199 0.425638 3.23739 33 25 38 
0.899941 -0.715716 3.06889 113 118 156 
0.89838 -0.467153 3.03116 117 120 137 
0.893588 -0.524072 3.00689 31 31 43 
0.797615 0.534461 2.57552 82 92 127 
0.901014 -0.574234 3.03092 33 33 61 
0.984986 0.221241 3.28074 55 50 70 
0.901268 -0.55526 3.01119 138 154 180 
0.910117 -0.477753 3.03862 36 32 47 
0.580438 0.497155 1.74728 80 88 127 
0.985865 0.281863 3.26086 104 108 135 
0.985894 0.319572 3.2563 83 80 99 
0.985278 0.387138 3.24422 93 93 119 
0.930711 -0.821948 3.10988 130 135 157 
0.93875 -0.824634 3.11711 83 94 124 
0.942657 -0.460992 3.1021 34 33 41 
0.943356 -0.759162 3.11895 45 50 70 
0.942909 -0.8116 3.11757 80 81 111 
0.964974 -0.399594 3.16191 100 96 121 
1.00694 -0.136577 3.28666 99 93 121 
0.954773 -0.646532 3.09322 93 97 134 
0.844588 0.547712 2.62702 71 84 116 
1.00966 -0.27687 3.25525 77 69 90 
0.570017 0.486747 1.64731 71 79 118 
0.96381 -0.474255 3.10183 42 33 50 
1.00957 0.529161 3.18835 50 48 69 
0.996012 -0.789062 3.20399 59 59 87 
0.97251 -0.592368 3.10286 143 149 181 
1.03235 0.375598 3.24966 63 53 77 
1.03356 0.397192 3.24951 56 44 68 
0.986233 -0.49884 3.12304 148 148 182 
0.650826 0.51584 1.89792 80 79 119 
1.03246 0.0248625 3.24313 28 26 37 
0.739634 0.553696 2.1911 70 91 94 
1.04476 0.414758 3.24789 85 86 106 
1.04562 0.370624 3.25318 95 92 111 
0.999216 -0.600407 3.14359 57 59 97 
1.02733 -0.610372 3.1903 148 159 187 
1.02179 -0.474836 3.15727 80 65 96 
1.06992 0.442624 3.21911 48 36 50 
0.793175 0.283461 2.23654 26 28 43 
0.642411 0.496269 1.71885 60 64 99 
0.647954 0.496314 1.7321 131 144 179 
0.63931 0.49234 1.67132 68 71 106 
-0.483118 0.245825 1.75005 89 120 213 
-0.450917 0.220645 1.79024 165 187 228 
-0.446003 0.199132 1.80889 69 69 79 
-0.419523 0.182754 1.75793 162 182 235 
-0.419333 0.245638 1.81224 20 28 47 
-0.413894 0.220576 1.82006 33 50 78 
-0.315793 0.355282 1.94702 25 27 40 
-0.275251 0.0734436 2.08028 154 159 189 
-0.262049 0.00159901 2.10386 143 149 181 
-0.0140118 -0.184244 1.94746 63 62 94 
0.024711 0.342537 2.46652 77 77 101 
0.0277126 0.362547 2.45847 78 83 105 
0.132171 -0.436494 2.12089 93 90 107 
0.304676 -0.330618 2.32505 123 117 143 
0.316216 0.4404 2.33705 42 43 61 
0.350854 -0.216685 2.36308 88 79 108 
0.356639 0.533625 2.28726 31 32 50 
0.354971 0.3852 2.27162 60 74 109 
0.37694 0.0823027 2.35155 44 40 55 
0.376402 0.00580208 2.3554 49 39 48 
0.390527 -0.604197 2.46399 146 147 191 
0.392294 0.472117 2.2847 124 128 155 
0.398188 0.481304 2.29068 120 125 145 
0.418628 0.453682 2.31686 105 107 130 
0.423834 0.136484 2.40025 117 111 137 
0.44466 0.218467 2.40643 171 184 219 
0.451929 0.388798 2.38857 124 133 132 
0.458633 0.521981 2.35396 37 43 65 
0.493217 0.352557 2.44106 148 153 191 
0.492996 0.395046 2.43337 118 126 128 
0.586027 0.492336 2.49744 29 36 55 
0.605553 -0.0025885 2.63984 158 170 208 
0.715093 -0.332931 2.79203 72 61 95 
0.829825 -0.0393466 3.21934 53 47 73 
0.852161 -0.0183148 3.2587 99 96 123 
0.819486 -0.744391 2.96938 146 159 201 
0.941419 -0.0865968 3.31718 45 41 58 
0.936814 0.425125 3.23876 41 37 51 
0.869154 -0.486468 2.91958 115 108 139 
0.930922 -0.779867 3.10628 79 83 110 
0.931414 -0.796258 3.10843 87 84 105 
1.09208 0.102793 3.55562 117 132 165 
1.01076 0.529988 3.19253 50 48 69 
1.03539 -0.23386 3.27962 71 67 90 
1.03814 -0.392034 3.20187 104 99 129 
1.04099 -0.413529 3.20154 42 39 48 
1.03679 -0.764713 3.20299 33 31 53 
1.07037 0.424948 3.23483 45 34 51 
1.0547 -0.616884 3.20245 90 88 110 
1.09619 0.172837 3.28955 62 53 74 
1.09488 0.262176 3.27564 65 53 75 
1.05204 -0.497641 3.17756 97 114 134 
1.0669 -0.419976 3.2073 37 32 54 
1.06792 -0.489906 3.18684 23 29 45 
1.10867 -0.222954 3.29416 99 91 115 
1.15412 0.0880907 3.30243 47 38 59 
-0.0428084 -0.12508 1.88454 28 27 33 
-0.0118499 0.279284 1.88589 73 78 98 
-0.00249276 -0.200527 1.95936 31 28 39 
0.283467 -0.309035 2.32527 31 29 40 
0.291191 -0.316958 2.32073 41 39 50 
0.550543 0.396 2.49784 63 74 102 
0.599002 -0.0426789 2.62694 138 152 187 
0.585364 0.419428 2.54695 66 67 69 
0.705534 -0.473244 2.79694 162 168 200 
0.880596 -0.0622486 3.25837 119 121 142 
1.01044 -0.108888 3.29664 85 81 108 
1.02119 -0.0612347 3.30424 74 70 93 
1.02471 0.042088 3.27874 88 83 106 
0.988288 -0.444736 3.14317 42 40 53 
1.01791 0.424796 3.24009 44 37 53 
1.02262 0.433604 3.22473 91 78 96 
1.02536 0.467817 3.21227 93 75 97 
1.01707 -0.526626 3.1438 145 161 186 
1.0731 -0.293527 3.25939 101 102 132 
1.05966 0.524543 3.20737 42 40 53 
1.10295 0.02473 3.28781 25 23 34 
1.07864 0.43319 3.2156 93 78 99 
1.08506 -0.477381 3.21633 34 34 46 
1.08458 -0.404251 3.21315 103 99 122 
1.10084 -0.523329 3.22073 160 169 202 
1.13734 0.0198627 3.29199 27 26 34 
0.866421 0.579975 2.48781 71 80 111 
1.15206 -0.279351 3.29481 40 36 51 
1.15014 0.00698348 3.2751 115 111 136 
1.11245 0.53753 3.1663 121 133 173 
1.16448 -0.243221 3.30062 43 41 54 
1.14401 0.441132 3.2313 91 77 103 
1.17735 -0.206991 3.31363 45 38 54 
1.16061 0.315583 3.26675 47 39 52 
1.18383 0.128058 3.29624 99 90 111 
1.18292 0.221725 3.28265 100 98 119 
1.20702 -0.159519 3.33082 29 25 42 
1.18188 0.357872 3.26066 93 100 119 
1.18137 0.378199 3.25816 93 98 118 
1.19749 0.209789 3.28984 43 36 52 
1.18459 0.435474 3.23903 67 66 84 
1.18432 0.453305 3.2363 73 64 81 
1.21022 0.126478 3.3036 83 78 100 
1.17425 0.560403 3.16901 125 141 175 
1.01138 0.604134 2.70752 131 144 186 
-0.490425 0.0281588 1.84123 92 105 139 
-0.456026 0.401024 1.80117 40 41 61 
-0.449405 0.246528 1.79279 143 145 168 
-0.381239 0.369896 1.88897 43 44 65 
-0.374618 0.484953 1.88332 79 87 110 
-0.301311 0.336888 1.95654 141 154 196 
-0.312867 0.194045 1.99112 148 173 213 
-0.310171 0.265921 1.98523 103 118 157 
-0.309968 0.0903979 2.01369 94 110 146 
-0.280676 -0.0457541 2.08614 94 100 132 
-0.254024 0.181898 2.08143 106 96 121 
-0.074718 0.267869 1.8157 99 98 114 
-0.0417825 0.481892 1.76105 125 123 160 
-0.0657601 -0.0744137 1.87421 73 63 88 
-0.0626998 -0.251352 1.88626 121 103 127 
-0.0551181 -0.0873351 1.87001 127 117 142 
-0.0505782 -0.0641193 1.89354 64 56 79 
-0.0297211 0.397235 1.81775 135 141 163 
-0.0431116 0.238855 1.89403 159 174 203 
-0.0422497 -0.180678 1.88623 130 116 133 
-0.0312058 0.279976 1.86073 39 41 54 
-0.0370043 -0.0530088 1.91614 62 55 71 
-0.0357902 -0.242838 1.90417 129 116 133 
-0.0322608 -0.214777 1.9027 79 69 94 
-0.0270441 -0.0624021 1.9196 71 66 89 
-0.0270135 -0.288078 1.92026 129 110 129 
-0.0249017 -0.170053 1.92868 163 165 186 
-0.0141357 -0.215505 1.95038 143 129 152 
-0.0114818 -0.23154 1.95432 160 148 172 
-0.00911114 -0.24675 1.95981 155 139 165 
-0.0683254 0.160533 2.42567 14 22 59 
-0.00124462 -0.278182 1.97315 154 140 163 
0.017175 0.511541 2.19622 136 147 179 
0.00813641 0.414616 2.45799 34 34 44 
0.0778278 0.489003 1.95109 159 170 202 
0.0422281 0.412317 2.43934 32 34 47 
0.11156 0.498515 2.06364 159 166 195 
0.105995 -0.0131866 2.34103 69 71 84 
0.132496 0.496741 2.08723 163 170 196 
0.147253 0.517405 1.99918 86 104 106 
0.204935 0.5286 2.09105 143 157 186 
0.206001 0.517566 2.0929 89 96 124 
0.224411 0.303443 2.46026 45 51 77 
0.217742 -0.403034 2.23499 68 56 80 
0.24919 0.280788 2.42304 85 91 117 
0.264185 0.519785 2.15838 156 169 201 
0.258092 -0.35827 2.29127 43 40 49 
0.29291 0.523402 2.19049 151 165 194 
0.287936 -0.32316 2.30971 54 48 62 
0.314434 0.189102 2.39622 59 57 78 
0.311954 -0.154406 2.39134 34 32 43 
0.308915 -0.337745 2.32676 133 135 158 
0.314852 -0.304779 2.33247 87 72 101 
0.321435 -0.141183 2.38467 76 79 98 
0.335279 -0.262605 2.34916 83 68 99 
0.339232 -0.241031 2.35224 131 123 147 
0.347517 0.099839 2.37756 80 79 95 
0.35507 -0.200187 2.36301 93 82 114 
0.362147 -0.0805708 2.35722 113 100 126 
0.362178 -0.109543 2.35901 136 127 148 
0.366522 0.120462 2.35173 51 47 62 
0.374458 -0.0810861 2.36677 54 41 67 
0.376425 0.459773 2.27705 43 43 55 
0.387911 0.495558 2.27277 64 59 82 
0.395907 0.549078 2.27902 103 108 130 
0.407859 -0.105162 2.38802 115 117 138 
0.415091 0.428123 2.31426 59 64 86 
0.422643 0.161748 2.39097 120 111 138 
0.431178 0.0103044 2.40527 94 89 112 
0.440045 0.551215 2.32799 49 55 77 
0.445098 0.516188 2.33668 44 54 79 
0.465273 -0.170803 2.47991 136 144 183 
0.500526 0.55922 2.39355 112 114 137 
0.58842 0.402545 2.54104 64 77 109 
0.597323 0.0810622 2.60112 166 170 207 
0.598197 0.287491 2.58317 166 177 209 
0.606196 0.0330974 2.60912 159 172 207 
0.620903 0.00879265 2.63364 82 95 130 
0.621835 0.169335 2.61256 123 132 173 
0.609671 0.406073 2.49613 83 108 149 
0.642966 -0.116657 2.65123 59 64 93 
0.646542 -0.176723 2.66122 68 72 107 
0.659639 -0.438018 2.73772 138 148 184 
0.660166 -0.385977 2.7318 165 176 221 
0.664733 0.335289 2.66036 38 36 47 
0.648605 0.528702 2.56195 37 42 62 
0.665088 0.511261 2.58379 111 111 139 
0.673708 0.432522 2.62098 61 57 80 
0.818492 -0.125736 3.22051 109 106 135 
0.732915 -0.489576 2.82819 70 81 113 
0.836458 -0.0396521 3.2237 104 101 128 
0.844277 -0.0299988 3.24957 33 31 44 
0.755308 -0.435325 2.84356 133 124 155 
0.764705 -0.411652 2.85706 122 112 137 
0.779447 -0.432886 2.87211 128 118 143 
0.903235 -0.148293 3.30164 44 36 49 
0.830495 -0.409284 2.98778 128 125 152 
0.841046 -0.469691 2.95432 82 68 103 
0.705201 0.572777 2.33549 40 59 74 
0.936405 0.202515 3.27894 97 92 114 
0.938227 0.425921 3.2443 41 37 51 
0.865876 -0.48847 2.98181 125 121 148 
0.965073 0.427314 3.25204 33 25 38 
0.898187 -0.510762 3.03126 115 108 139 
0.767131 0.545004 2.45007 79 92 127 
0.988295 0.241542 3.27414 84 81 102 
0.987855 0.282596 3.26829 104 108 135 
0.988261 0.421232 3.24444 78 70 85 
0.983924 0.512912 3.22261 34 31 42 
0.935485 -0.500985 3.05932 83 73 107 
0.964833 -0.497776 3.09356 84 83 115 
1.04764 0.0670386 3.30501 90 87 108 
0.98647 -0.518821 3.11868 30 30 42 
0.993226 -0.486468 3.12348 82 75 106 
0.804206 0.584631 2.40935 69 86 102 
1.05853 0.0833235 3.29999 27 27 39 
1.01228 -0.430051 3.1636 42 34 47 
0.854468 0.567988 2.56449 75 86 118 
1.05731 0.522737 3.19587 49 47 61 
1.03972 -0.437674 3.17673 35 31 48 
1.03989 -0.547295 3.18304 64 56 80 
1.07836 0.370342 3.25367 111 125 154 
1.0752 -0.295281 3.2692 102 107 137 
1.09442 0.157042 3.28676 61 47 72 
1.0636 -0.393825 3.21493 42 36 48 
1.09331 0.283331 3.26773 59 50 71 
1.07863 0.453605 3.20654 102 88 113 
1.08962 0.00706404 3.26517 109 102 133 
1.05989 -0.425769 3.18843 117 111 137 
1.11268 -0.00892125 3.30438 35 34 50 
1.0806 0.528858 3.16738 39 49 85 
1.09038 -0.371268 3.23547 39 37 51 
1.11638 0.405278 3.25741 25 24 40 
0.961561 0.56318 2.75383 87 102 131 
1.09973 -0.413552 3.23534 71 65 99 
1.12377 0.527864 3.21423 50 48 62 
0.962972 0.354855 2.71887 45 34 50 
1.14823 -0.162816 3.31411 57 53 70 
1.10913 0.534839 3.15195 129 141 181 
1.13864 0.0258316 3.26296 88 86 107 
1.13819 -0.370848 3.27393 124 116 140 
0.920442 0.604906 2.5448 136 143 171 
1.14952 0.416916 3.24993 51 45 71 
1.15153 0.384283 3.25765 62 57 87 
1.15104 0.337421 3.25624 60 58 80 
1.15794 -0.00503868 3.29519 55 47 68 
1.15937 0.220864 3.28141 85 88 103 
1.15295 0.427028 3.24181 32 24 37 
1.14539 0.495045 3.21486 109 103 131 
1.16215 -0.287958 3.29131 96 92 117 
1.18359 -0.239767 3.31672 32 29 46 
1.17468 0.427393 3.2478 24 24 32 
1.18851 -0.192442 3.32113 96 90 116 
1.18453 0.00581925 3.28581 120 117 138 
1.18215 0.414933 3.25136 80 81 111 
1.19821 -0.153495 3.32843 96 90 116 
1.196 0.0929118 3.30194 54 43 59 
1.20302 0.000918331 3.31787 62 49 75 
1.20298 -0.254867 3.32793 130 132 157 
1.19229 0.428515 3.244 21 19 32 
1.21303 0.0285742 3.31195 29 27 40 
1.20954 0.24318 3.28389 92 90 111 
1.21337 0.148338 3.29624 36 32 46 
1.2202 0.0425193 3.31691 30 26 41 
1.24805 -0.596324 3.42626 133 134 180 
0.73136 0.499262 1.73864 136 140 165 
-0.470259 0.190228 1.83337 163 182 238 
-0.381381 0.455207 1.83944 35 32 51 
-0.0853223 0.474557 1.76045 37 39 51 
-0.0711341 0.203243 1.91137 156 166 202 
-0.032001 -0.267084 1.91229 142 127 146 
-0.00326002 -0.113498 1.84607 27 28 30 
-0.036885 0.247335 1.89842 120 121 142 
-0.000682238 0.479708 1.8362 96 77 97 
-0.0839497 0.211695 2.40395 129 131 130 
0.245542 -0.357533 2.2855 44 37 44 
0.26752 0.502577 2.24791 110 125 156 
0.351841 -0.124675 2.35989 62 57 77 
0.376312 0.219198 2.33538 63 59 74 
0.399375 -0.147424 2.38856 52 50 61 
0.391433 0.0723021 2.36079 144 146 171 
0.428786 -0.0717503 2.415 27 31 40 
0.447224 0.0769112 2.42561 177 187 222 
0.52348 -0.353256 2.57686 145 152 194 
0.523614 0.476103 2.4334 44 49 69 
0.533611 0.488431 1.68147 140 145 185 
0.565238 -0.0236344 2.57795 135 140 178 
0.582084 -0.184082 2.59075 179 189 224 
0.586222 -0.0993719 2.60781 86 90 128 
0.596609 -0.149804 2.62913 117 129 155 
0.607006 -0.226557 2.66831 149 159 195 
0.617845 -0.306511 2.66447 166 170 205 
0.616187 -0.158408 2.63829 47 53 69 
0.599586 0.510755 2.50966 96 100 125 
0.636432 0.30726 2.58539 113 118 148 
0.673371 -0.00522004 2.72354 137 129 152 
0.659891 0.32127 2.61461 132 143 173 
0.697186 -0.337619 2.75244 128 115 145 
0.700735 -0.333727 2.7714 147 143 168 
0.677886 0.522042 2.59302 34 40 52 
0.740308 -0.395928 2.82456 149 144 166 
0.759105 0.175547 3.11309 63 64 121 
0.783093 -0.0447223 3.17306 114 115 143 
0.794048 -0.273074 3.09095 57 47 58 
0.71291 0.510676 2.57055 45 55 80 
0.802618 -0.133622 3.21237 27 27 39 
0.802247 -0.0809748 3.20039 26 28 43 
0.792191 -0.379544 2.95788 130 124 152 
0.794456 -0.44232 2.91341 74 64 99 
0.720541 0.523246 2.56556 50 57 86 
0.812691 -0.0369306 3.20486 101 104 123 
0.814877 -0.0624581 3.20487 128 125 152 
0.694301 0.556753 2.23586 121 122 153 
0.731894 0.530944 2.49461 120 134 171 
0.845406 -0.0302758 3.25938 34 31 42 
0.838414 -0.35576 3.07534 105 102 119 
0.718855 0.558831 2.32344 46 53 72 
0.875455 -0.0310399 3.26765 52 47 70 
0.78312 0.490069 2.6804 132 141 184 
0.872872 -0.526447 2.97851 91 111 135 
0.748739 0.576027 2.35071 58 83 80 
0.891344 -0.357176 3.13436 88 89 109 
0.942828 -0.389901 3.37574 93 88 108 
0.898189 -0.479116 3.02666 113 103 128 
0.912626 -0.541948 3.01938 132 149 179 
0.942889 -0.286496 3.24042 29 25 39 
0.945713 -0.0357572 3.31472 49 44 67 
0.947126 -0.255715 3.24873 103 96 127 
0.931949 -0.527532 3.05174 29 32 39 
0.944475 0.22525 3.27945 46 39 57 
0.944357 0.248064 3.27713 55 45 70 
0.944619 0.271384 3.27577 55 47 71 
0.943455 0.2942 3.26936 53 45 69 
0.943627 0.342174 3.2637 56 44 66 
0.822525 0.556676 2.51959 73 84 116 
0.963434 0.188743 3.29869 105 100 123 
0.956855 -0.534004 3.07058 157 169 195 
0.95387 0.391208 3.2568 101 96 126 
0.966052 -0.542161 3.07706 159 176 206 
0.966533 0.4287 3.26084 33 25 40 
