ply                 
format ascii 1.0    
element vertex 1262
property float x    
property float y    
property float z    
property uchar red  
property uchar green
property uchar blue 
end_header          
3.23551 -1.18093 6.51434 42 54 106 
2.85043 -0.446968 5.72269 250 248 253 
3.6733 1.21183 7.36548 85 85 123 
2.87008 -0.435524 5.74434 172 175 210 
2.88095 -0.444409 5.75716 169 167 214 
2.90866 -0.48065 5.80694 252 255 255 
3.58647 1.22998 7.15339 35 37 49 
2.89905 -0.455361 5.78039 33 34 90 
4.84579 0.556056 9.63377 59 68 109 
5.51354 1.22636 10.9566 25 31 53 
2.94156 -1.68194 5.83108 253 254 255 
4.51504 1.45219 8.94971 29 32 63 
2.91335 -1.64063 5.76565 253 255 252 
3.51895 0.751826 6.96261 70 71 101 
2.93336 -1.66379 5.79772 159 162 217 
5.58259 1.27711 11.0284 75 83 120 
3.94534 0.967296 7.78438 83 88 130 
3.14107 -0.0230555 6.19155 17 21 33 
2.95728 -0.0887989 5.82683 14 21 31 
2.96361 -1.5101 5.82445 234 243 255 
2.90037 -1.27576 5.69849 75 65 138 
2.90218 -1.448 5.6992 37 50 82 
4.93818 1.15477 9.69708 40 39 70 
4.55469 1.19142 8.9432 79 94 135 
3.11012 -0.563418 6.09909 187 188 208 
3.09531 -0.0424023 6.06761 62 76 102 
2.87358 -0.635871 5.62927 217 217 229 
2.87011 -1.66077 5.61485 253 253 255 
2.96103 -0.446004 5.79666 253 255 254 
2.92149 -1.53435 5.71198 168 180 232 
4.91836 1.26461 9.62032 97 117 154 
4.76646 1.2635 9.32174 88 106 146 
3.08219 -0.103547 6.02045 64 85 132 
2.99069 -1.68217 5.83672 139 144 186 
5.31722 1.12834 10.367 17 23 35 
2.93354 -1.58826 5.71122 80 85 143 
4.2576 0.838987 8.29557 69 86 129 
3.07515 -1.19113 5.98523 255 255 253 
2.9972 -1.65592 5.83116 171 184 229 
4.07754 0.988052 7.93885 36 38 59 
2.8427 -1.65748 5.52746 222 241 255 
2.94478 -0.0770953 5.72672 15 19 31 
2.85011 -1.3382 5.53988 52 66 101 
2.95654 -1.6184 5.74252 172 190 228 
2.94247 -1.58033 5.70645 251 255 255 
2.92717 -1.73856 5.67407 224 230 255 
4.27421 0.780437 8.2914 20 27 45 
4.56297 1.28722 8.85293 50 59 92 
4.71653 1.48334 9.15013 65 78 123 
3.34073 -0.0182337 6.47648 19 23 35 
3.05061 -0.574798 5.90281 250 249 255 
2.96275 -1.335 5.69919 247 245 246 
3.0367 -0.0695858 5.83743 22 23 41 
3.02799 -1.11956 5.81342 35 48 82 
3.2131 -1.04988 6.15455 252 253 255 
3.33964 -0.00665945 6.39731 78 97 139 
3.12279 -1.04196 5.94066 34 42 79 
3.08739 -0.401032 5.86191 243 252 255 
5.00245 1.14123 9.50229 87 110 144 
4.86906 1.37294 9.2424 81 92 138 
5.59484 1.19532 10.6126 20 31 51 
2.96241 -0.799577 5.61286 244 245 249 
4.85473 1.33686 9.20466 67 81 126 
4.73335 1.32409 8.96955 120 142 183 
5.06835 1.48169 9.59771 65 82 128 
4.84704 1.46517 9.17174 67 83 134 
3.00791 -1.02869 5.68279 254 254 254 
4.86183 1.35103 9.17221 110 132 173 
4.97133 1.42709 9.37639 108 127 169 
4.99426 1.4025 9.39245 68 82 111 
4.9824 1.36042 9.37093 60 64 101 
6.10049 1.41552 11.4364 21 27 43 
3.29847 -0.132756 6.17121 30 37 81 
4.89141 1.39248 9.15096 109 121 133 
4.9447 1.45669 9.24124 35 42 68 
5.06425 1.36432 9.45559 23 27 52 
5.97844 1.61302 11.1581 21 28 57 
5.01 0.420593 9.31656 44 40 73 
5.07561 1.14701 9.41592 36 50 95 
5.37425 1.5099 9.96402 103 125 162 
4.99048 1.34234 9.22917 34 49 92 
4.96368 1.31229 9.17777 34 38 86 
4.95288 1.38741 9.14733 51 69 119 
5.00812 1.3659 9.24451 113 133 170 
4.82265 1.42494 8.89811 56 69 121 
5.18713 1.38587 9.56022 92 122 158 
5.20174 0.578656 9.58107 66 74 87 
-0.515024 0.399589 1.7396 41 42 62 
-0.511456 0.410895 1.73698 36 37 55 
-0.505595 0.233199 1.73149 116 65 132 
-0.382126 0.450377 1.51768 143 132 149 
-0.496867 0.193572 1.7417 97 121 181 
-0.475337 0.253438 1.71143 55 75 144 
-1.38573 -0.684145 3.38303 120 138 186 
-0.499224 0.22618 1.75917 149 179 190 
-0.488213 0.229651 1.75245 44 65 110 
-0.48196 0.258899 1.75182 97 126 186 
-0.476308 0.180772 1.75892 145 166 223 
-0.465624 0.178455 1.74011 158 175 229 
-0.549504 -0.276451 1.89806 11 14 31 
-0.535913 -0.183158 1.89227 82 80 101 
-0.461588 0.239327 1.75873 146 169 210 
-0.460573 0.204219 1.76129 144 166 205 
-0.539249 -0.346864 1.92204 76 78 101 
-0.468039 0.213714 1.78863 161 184 226 
-0.332515 0.451311 1.52517 70 75 97 
-0.461805 0.244588 1.77886 93 112 142 
-0.538393 -0.389569 1.93126 66 71 103 
-0.493509 -0.0937461 1.84651 37 49 47 
-0.46002 0.233867 1.78359 79 93 132 
-0.452559 0.210352 1.77218 61 82 125 
-0.490391 0.156724 1.86104 113 121 167 
-0.485297 0.250402 1.85179 165 184 224 
-0.450793 0.185607 1.79075 143 162 220 
-0.43018 0.250193 1.76534 82 156 219 
-0.434582 0.251502 1.7747 83 159 221 
-0.445888 0.211414 1.80873 83 162 229 
-0.270667 0.445176 1.46413 139 138 170 
-0.314484 0.455226 1.56603 49 55 87 
-0.431322 0.188852 1.81894 159 179 232 
-0.39339 0.192838 1.74115 70 71 76 
-0.463368 -0.144058 1.88721 119 125 157 
-0.430095 0.238157 1.82669 56 102 179 
-0.411594 0.25221 1.78792 74 152 218 
-0.421461 0.207603 1.81253 57 58 104 
-0.442157 0.206897 1.8584 75 61 97 
-0.415181 0.19326 1.80874 26 34 80 
-0.480457 -0.280652 1.94713 74 69 91 
-0.454022 0.118449 1.89493 110 96 129 
-0.282561 0.453237 1.53119 57 64 92 
-0.402041 0.184104 1.79454 179 200 247 
-0.464133 -0.410117 1.93264 115 125 160 
-0.458049 -0.314613 1.92821 122 128 162 
-0.444632 0.262424 1.91581 103 125 175 
-0.298594 0.459976 1.59245 58 62 89 
-0.399166 0.221433 1.82745 36 51 84 
-0.397635 0.2475 1.83643 19 28 67 
-0.404602 0.254403 1.85509 136 159 213 
-0.380026 0.223894 1.801 158 177 235 
-0.409655 0.448694 1.87782 47 56 85 
-0.397385 0.198441 1.84657 26 40 89 
-0.399914 0.22441 1.85533 130 155 211 
-0.385419 0.475938 1.83124 68 89 136 
-0.424815 0.201263 1.92447 106 129 181 
-0.423609 0.171825 1.92142 118 130 170 
-0.39924 0.304468 1.86718 158 174 207 
-0.444582 0.332515 1.97376 53 54 48 
-0.341299 0.236497 1.74206 46 57 89 
-0.396524 0.370871 1.87536 105 129 173 
-0.399689 0.453194 1.88515 34 38 65 
-0.382638 0.185593 1.84352 29 38 67 
-0.378862 0.29717 1.83909 66 84 124 
-0.390461 0.327966 1.86697 126 150 196 
-0.39244 0.177177 1.87871 29 28 70 
-0.418508 -0.222833 1.95636 115 129 164 
-0.382302 0.315429 1.88622 48 57 54 
-0.37671 0.366765 1.87668 43 44 65 
-0.122711 0.15489 1.30568 142 146 175 
-0.36322 0.397202 1.96344 37 34 55 
-0.196436 0.456983 1.54921 57 69 107 
-0.268792 0.246946 1.79399 44 55 75 
-0.399436 0.512536 2.16273 21 23 36 
-0.319107 0.408316 1.94757 18 20 33 
-0.302664 0.366806 1.90835 28 31 48 
-0.313743 0.302951 1.96453 93 115 165 
-0.309986 0.401959 1.9584 125 147 194 
-0.295572 0.299739 1.91839 240 243 255 
-0.308865 0.425754 1.96117 36 49 83 
-0.292883 0.359597 1.91505 116 133 179 
-0.340051 -0.0160116 2.05414 24 30 56 
-0.340506 0.324374 2.06323 88 104 137 
-0.303007 0.445099 1.96306 16 19 34 
-0.308164 0.0373473 1.9788 151 172 217 
-0.338787 0.340757 2.07557 61 58 79 
-0.323579 0.435936 2.03488 19 21 34 
-0.311821 0.501705 2.0111 22 24 36 
-0.361584 0.417656 2.17061 26 28 40 
-0.316234 -0.379345 2.06566 71 93 140 
-0.321039 -0.228402 2.08842 35 47 73 
-0.275764 0.325639 1.96883 42 50 63 
-0.313237 -0.355796 2.07323 25 32 58 
-0.217917 0.281795 1.83002 113 120 149 
-0.281451 0.116301 2.06882 143 149 183 
-0.26088 0.083246 2.01907 148 154 186 
-0.263418 0.0258889 2.03346 143 148 178 
-0.267304 0.228365 2.05174 152 156 185 
-0.262239 -0.0897178 2.04514 128 132 161 
-0.274255 -0.315121 2.08549 98 107 140 
-0.264822 -0.0391133 2.06344 139 149 176 
-0.28419 -0.0182909 2.14191 78 87 120 
-0.221364 0.118237 1.94113 97 83 109 
-0.272455 -0.109431 2.11314 25 27 48 
-0.260982 0.076453 2.08139 94 81 107 
-0.2702 0.0606993 2.11338 147 156 187 
-0.26521 -0.00978552 2.10575 136 145 174 
-0.252688 0.180801 2.0728 106 96 121 
-0.262587 0.156707 2.11436 102 88 114 
-0.25745 0.0084398 2.09543 84 95 125 
-0.258474 -0.00234159 2.09922 85 91 123 
-0.226844 -0.117923 2.08301 31 33 56 
-0.215248 0.260555 2.11583 52 48 62 
-0.226888 -0.0569412 2.15989 111 106 129 
-0.216425 0.282202 2.13993 67 57 81 
-0.212571 0.273389 2.13074 114 122 145 
-0.23111 0.0644821 2.19803 106 110 137 
-0.22916 0.273022 2.20602 57 53 68 
-0.228498 -0.00146705 2.19926 34 33 51 
-0.163577 0.275935 1.9546 116 116 140 
-0.210935 0.0165514 2.14408 112 116 145 
-0.21875 -0.0700533 2.17307 80 78 99 
-0.208592 0.00661006 2.13789 109 115 141 
-0.219261 0.276464 2.20082 30 36 58 
-0.222724 -3.02953e-05 2.20978 39 35 52 
-0.208733 0.284051 2.16744 105 111 137 
-0.0940785 0.478401 1.72181 122 126 163 
-0.158421 -0.234222 1.96142 80 80 108 
-0.146018 -0.121296 1.92191 65 62 73 
-0.233545 -0.000944398 2.29553 15 22 38 
-0.222452 -0.0411002 2.25672 86 81 104 
-0.221602 -0.00501871 2.26191 25 37 49 
-0.130823 -0.173106 1.91695 75 71 94 
-0.119275 -0.233931 1.92034 12 17 36 
-0.0707883 0.48356 1.7491 137 138 168 
-0.134956 -0.434266 2.0048 95 100 132 
-0.0986974 -0.127395 1.88042 67 65 79 
-0.10533 -0.22805 1.91953 36 36 48 
-0.0218053 0.45914 1.56022 137 144 186 
-0.0668791 0.44699 1.78605 153 150 169 
-0.0753331 -0.131861 1.87124 32 31 36 
-0.0483722 0.490173 1.77766 59 64 96 
-0.0777386 -0.0350635 1.90406 115 124 157 
-0.0700969 -0.142361 1.86175 85 88 97 
-0.0712374 -0.186712 1.89635 125 121 144 
-0.0628849 0.28288 1.89501 48 52 63 
-0.0527801 -0.150548 1.88199 41 40 48 
-0.0519162 -0.126549 1.88056 125 121 136 
-0.0325008 0.467314 1.81018 110 108 132 
-0.0515921 -0.199324 1.8849 54 51 70 
-0.049837 0.264914 1.91912 129 127 148 
-0.0477557 -0.158823 1.91718 120 106 131 
-0.0427759 -0.192506 1.89492 127 112 131 
-0.0432215 -0.208583 1.91006 123 108 127 
-0.0422708 -0.0628483 1.91903 58 50 74 
-0.0428389 -0.277777 1.92248 71 62 81 
-0.0183539 0.43151 1.82412 234 237 254 
-0.0356927 -0.2893 1.90793 64 55 74 
-0.0345278 -0.12461 1.92289 25 24 29 
-0.0298373 -0.118282 1.91092 28 29 34 
-0.0320803 -0.15269 1.93145 135 123 145 
-0.0339537 -0.177252 1.94533 164 161 182 
-0.00995892 0.470783 1.85045 38 34 84 
-0.0121727 0.421597 1.86281 58 59 123 
-0.0314225 -0.203447 1.94684 164 160 183 
-0.00608608 0.435272 1.85153 118 104 140 
-0.0991466 0.151142 2.41358 34 47 82 
-0.00732715 0.487991 1.86738 96 79 98 
-0.0287537 -0.340847 1.95095 20 20 22 
-0.0999495 0.116881 2.42183 33 42 71 
-0.0223658 -0.0817119 1.93109 131 123 147 
-0.0941136 0.158757 2.40414 13 20 39 
-0.00442891 0.458606 1.86159 161 153 174 
-0.0945101 0.107869 2.40933 16 20 47 
-0.0123517 0.298753 1.91045 25 32 61 
-0.021711 -0.323419 1.94802 123 110 128 
-0.0869129 0.202665 2.40528 20 24 36 
-0.00977865 -0.0601177 1.897 121 116 138 
0.00499077 0.309267 1.84401 113 107 119 
-0.0849592 0.151618 2.4292 153 171 245 
0.00175921 0.337033 1.87706 119 121 116 
-0.0837562 0.118276 2.42505 151 169 241 
0.0267647 0.484087 1.74179 73 72 104 
-0.070579 0.36625 2.40632 59 83 107 
-0.00622491 -0.119189 1.948 27 26 32 
-0.00262197 0.328424 1.95391 16 24 45 
-0.071881 0.112495 2.44252 4 17 59 
-0.00572448 -0.439587 2.00337 169 174 204 
0.00615647 -0.420011 1.98996 68 69 74 
0.0759102 0.467518 1.59872 75 72 115 
0.0342633 -0.405746 2.03749 71 67 81 
0.00961468 0.407803 2.43007 34 34 44 
0.106976 0.465949 1.57415 145 148 181 
0.0229577 0.342286 2.4694 77 77 101 
0.0256625 0.363021 2.46455 78 83 105 
0.109978 0.478625 1.67477 61 68 97 
0.0387379 0.414868 2.46193 32 34 47 
0.0532145 0.300313 2.51484 81 86 116 
0.0752696 0.256644 2.50806 51 48 67 
0.108267 0.486143 2.0779 158 167 196 
0.074378 0.225434 2.52509 50 47 64 
0.0738899 0.139053 2.54197 43 40 51 
0.126787 0.505371 2.02471 97 103 135 
0.118565 -0.438063 2.12725 119 105 120 
0.117128 0.2853 2.37953 20 28 47 
0.121869 0.430425 2.32499 96 107 137 
0.163685 0.474505 1.63227 71 76 108 
0.127205 -0.524727 2.16162 57 48 69 
0.129727 -0.440102 2.13582 93 90 107 
0.129996 0.433241 2.37294 28 35 63 
0.168405 0.472031 1.61225 133 138 170 
0.131015 0.288404 2.39248 13 22 39 
0.136094 0.194621 2.54041 84 90 114 
0.147222 -0.423277 2.17656 56 40 66 
0.196631 0.468418 1.5619 75 74 118 
0.18596 -0.481632 2.2235 39 26 43 
0.210067 0.477522 1.63583 75 75 109 
0.194983 -0.502426 2.21937 108 96 120 
0.240553 0.545265 2.14891 136 136 164 
0.241109 0.548738 2.17626 84 98 107 
0.238317 -0.391547 2.26659 70 54 80 
0.26601 0.496146 2.22421 106 121 154 
0.259667 -0.532257 2.29544 126 121 144 
0.291777 0.538863 2.11772 128 135 164 
0.29741 0.532375 2.0873 127 126 157 
0.307468 0.52282 2.25157 48 54 76 
0.312549 0.212288 2.42755 99 106 132 
0.287969 0.485748 1.70757 77 80 113 
0.316334 0.52453 2.21403 148 164 197 
0.329842 0.378347 2.30664 14 22 45 
0.300966 0.488117 1.71754 82 88 114 
0.335809 0.528762 2.27152 43 49 73 
0.337052 0.125907 2.37138 81 83 104 
0.331891 0.548307 2.17988 70 69 103 
0.317963 0.514811 1.91499 77 81 118 
0.345046 -0.0989261 2.36831 78 79 99 
0.341984 -0.11139 2.31969 59 58 72 
0.340559 -0.108786 2.27696 57 54 71 
0.343487 -0.614049 2.4201 144 149 191 
0.343285 -0.371643 2.36304 169 176 205 
0.358075 0.178349 2.39167 52 45 63 
0.354952 0.552447 2.26091 115 128 160 
0.352362 -0.193414 2.36341 124 114 139 
0.356182 -0.161892 2.36129 133 129 152 
0.364195 0.119896 2.34655 51 47 62 
0.369011 0.539672 2.25834 57 57 69 
0.368716 -0.38046 2.41369 131 140 173 
0.369828 -0.155559 2.38004 62 51 81 
0.372838 0.200357 2.33266 56 52 67 
0.374626 0.218666 2.33484 57 54 73 
0.378329 -0.162367 2.39544 113 106 137 
0.32499 0.475781 1.62523 79 83 118 
0.381484 -0.124694 2.38234 121 117 140 
0.372805 0.542202 2.16676 87 88 118 
0.389865 0.121879 2.36771 143 143 169 
0.387058 0.556796 2.25874 62 80 100 
0.392209 0.535404 2.27955 69 67 91 
0.395931 0.0292276 2.38604 27 30 35 
0.396553 0.518664 2.30527 144 146 167 
0.396612 -0.29162 2.42667 145 151 187 
0.39919 -0.149218 2.41558 47 47 59 
0.396902 0.55812 2.26898 128 133 162 
0.398755 -0.0735308 2.3797 25 24 32 
0.395665 0.555813 2.24208 66 78 92 
0.404441 0.507655 2.29623 68 70 93 
0.342787 0.482818 1.65775 60 62 100 
0.411909 0.324751 2.35827 130 133 164 
0.413446 -0.209863 2.4307 180 193 228 
0.419099 -0.167887 2.42048 174 180 212 
0.418869 0.559057 2.26829 72 67 107 
0.430007 0.449636 2.32955 100 102 127 
0.439216 0.518936 2.33125 89 101 127 
0.445457 0.0767432 2.42496 175 185 220 
0.451894 0.210042 2.42199 178 192 229 
0.45465 0.0581442 2.43262 179 191 231 
0.377427 0.48821 1.71373 59 65 99 
0.458451 -0.0730993 2.45031 170 179 218 
0.458502 0.56311 2.36349 52 58 80 
0.468542 -0.402208 2.52596 148 152 189 
0.459643 0.565901 2.30962 71 75 112 
0.470446 0.330912 2.4177 69 82 127 
0.484903 0.558679 2.38324 97 99 122 
0.475311 0.565164 2.30904 76 76 112 
0.494457 0.30851 2.45539 173 186 218 
0.494791 0.387232 2.44212 65 77 103 
0.49409 0.464677 2.40651 43 48 70 
0.501439 0.563882 2.41384 112 114 137 
0.523314 0.401776 2.46366 112 117 137 
0.542186 0.391498 2.51516 173 186 220 
0.522596 0.573775 2.36833 134 139 171 
0.533404 0.558533 2.4237 103 107 134 
0.535884 0.568848 2.4366 62 57 87 
0.434934 0.498333 1.77895 75 79 114 
0.452024 0.507723 1.88251 67 66 100 
0.537086 0.569407 2.33389 77 81 108 
0.570576 0.0585338 2.57432 126 133 175 
0.567748 0.5227 2.47803 38 44 70 
0.576804 0.412536 2.51249 69 77 79 
0.579557 0.570675 2.47943 32 39 55 
0.60584 0.293012 2.63833 166 177 209 
0.585271 0.508901 2.49775 40 48 69 
0.582914 0.559734 2.46448 85 100 123 
0.608052 0.310383 2.60397 152 162 198 
0.600393 0.56011 2.53832 94 106 132 
0.610248 0.25756 2.61076 151 161 196 
0.610423 -0.0886166 2.6367 83 97 123 
0.594659 0.41355 2.47951 18 28 55 
0.620593 0.152895 2.61736 83 91 128 
0.613133 0.545087 2.5068 30 37 56 
0.627002 0.372638 2.58933 172 181 222 
0.612909 0.4894 2.49884 16 29 61 
0.61129 0.562156 2.48195 27 37 64 
0.642054 -0.196082 2.66711 121 123 146 
0.634086 0.307024 2.58238 121 120 151 
0.626101 0.5468 2.51388 35 40 69 
0.635213 0.500548 2.56059 46 57 89 
0.515065 0.513219 1.91379 138 138 172 
0.646451 0.550283 2.57554 31 38 57 
0.664941 -0.230559 2.70953 168 166 190 
0.65933 0.413383 2.62053 137 135 159 
0.667258 0.207794 2.66128 85 70 99 
0.681326 0.349694 2.68712 156 158 181 
0.663184 0.510845 2.5848 111 111 139 
0.683731 -0.0642499 2.72583 113 108 130 
0.691789 -0.291455 2.76727 132 122 147 
0.69259 -0.41594 2.76751 52 59 77 
0.760836 -0.112193 3.07485 62 60 81 
0.694834 0.415666 2.67314 138 127 143 
0.799529 -0.133479 3.20767 27 27 39 
0.708194 -0.318941 2.78394 63 53 78 
0.803226 -0.0346587 3.19984 37 32 54 
0.801179 -0.0431568 3.18973 52 44 68 
0.680458 0.508596 2.56803 44 56 80 
0.784555 -0.312387 3.08789 115 106 135 
0.815091 -0.125733 3.21398 109 106 135 
0.723206 -0.34888 2.80115 56 48 72 
0.685776 0.545229 2.53923 35 42 61 
0.733644 -0.393827 2.8256 97 82 115 
0.829988 -0.0699026 3.22178 56 60 95 
0.834276 -0.164029 3.24642 103 103 127 
0.714733 0.500388 2.62533 134 149 182 
0.716774 0.346895 2.6349 89 114 155 
0.844159 -0.0700989 3.22569 115 106 135 
0.864045 -0.0954798 3.31061 49 48 66 
0.800923 -0.346662 3.04625 115 112 133 
0.849765 -0.033627 3.23247 124 122 143 
0.544657 0.506528 1.84044 78 88 113 
0.762724 -0.402444 2.86053 49 42 58 
0.771077 -0.400266 2.8864 153 148 171 
0.86899 -0.0160076 3.27907 106 106 130 
0.690213 0.561022 2.4571 20 25 44 
0.725699 0.49101 2.60055 135 149 188 
0.818414 -0.353232 3.06082 108 103 123 
0.795406 -0.401046 2.96297 82 77 109 
0.776782 -0.410155 2.87123 149 147 169 
0.778186 -0.403201 2.85543 134 125 154 
0.829256 -0.358721 3.06883 112 109 130 
0.529604 0.492794 1.71257 91 95 130 
0.802198 -0.464183 2.91782 76 66 93 
0.82538 -0.421309 3.00703 47 45 66 
0.836626 -0.361712 3.0503 91 85 113 
0.849897 -0.36136 3.09485 114 110 133 
0.59049 0.520192 1.93813 72 78 114 
0.603505 0.523589 1.98256 87 87 125 
0.536288 0.492575 1.70302 71 73 112 
0.818023 -0.50987 2.92009 49 57 76 
0.868228 -0.360708 3.11338 94 89 111 
0.830955 -0.456136 2.94887 40 33 51 
0.877086 -0.356546 3.12622 87 83 100 
0.911207 -0.264473 3.25524 33 32 40 
0.841468 -0.506435 2.97791 155 162 190 
0.879956 -0.426096 3.11194 117 114 145 
0.850411 -0.459092 2.98123 96 92 115 
0.728465 0.559404 2.42651 43 52 85 
0.944267 -0.0361853 3.31752 48 44 67 
0.848784 -0.82153 2.98075 113 120 148 
0.858754 -0.73381 2.99485 89 100 132 
0.715354 0.585663 2.34616 124 128 165 
0.852308 -0.532652 2.9527 134 144 171 
0.596882 0.513179 1.87823 70 75 113 
0.54357 0.486575 1.67062 140 149 182 
0.731691 0.576207 2.39397 47 55 78 
0.859949 -0.528665 2.96481 41 53 79 
0.86436 -0.574876 2.98389 137 137 163 
0.953425 0.237715 3.27115 101 98 117 
0.867494 -0.54489 2.9766 163 177 203 
0.880533 -0.623373 3.02487 41 47 71 
0.87922 -0.498944 3.00822 82 68 101 
0.870755 -0.525922 2.97742 87 107 131 
0.880026 -0.59385 3.01473 142 157 180 
0.882974 -0.475129 3.01438 31 28 45 
0.960599 0.425793 3.24358 33 25 38 
0.899138 -0.717162 3.07455 113 118 156 
0.897606 -0.468256 3.03685 117 120 137 
0.892806 -0.525254 3.01254 31 31 43 
0.79689 0.534954 2.58116 82 92 127 
0.900233 -0.575486 3.03658 33 33 61 
0.984376 0.221082 3.28685 55 50 70 
0.900493 -0.556487 3.01685 138 154 180 
0.909358 -0.47887 3.04431 36 32 47 
0.579421 0.497775 1.7518 80 88 127 
0.985271 0.281796 3.26699 104 108 135 
0.985308 0.319562 3.26245 83 80 99 
0.984705 0.387231 3.2504 93 93 119 
0.929934 -0.82354 3.11554 130 135 157 
0.937982 -0.826229 3.12278 83 94 124 
0.941933 -0.462089 3.10784 34 33 41 
0.942601 -0.760668 3.12463 45 50 70 
0.942148 -0.813177 3.12324 80 81 111 
0.964276 -0.400607 3.1677 100 96 121 
1.00631 -0.137239 3.29261 99 93 121 
0.954049 -0.647886 3.09891 93 97 134 
0.843931 0.548209 2.63271 71 84 116 
1.00902 -0.277721 3.26114 77 69 90 
0.568986 0.487366 1.65165 71 79 118 
0.963115 -0.475371 3.10757 42 33 50 
1.00907 0.529484 3.19456 50 48 69 
0.995309 -0.790604 3.20972 59 59 87 
0.971814 -0.593648 3.10857 143 149 181 
1.03184 0.375669 3.25583 63 53 77 
1.03306 0.397296 3.2557 56 44 68 
0.985562 -0.499992 3.12879 148 148 182 
0.649922 0.516456 1.90266 80 79 119 
1.0319 0.0244264 3.24913 28 26 37 
0.738859 0.55431 2.19626 70 91 94 
1.04428 0.414888 3.25408 85 86 106 
1.04513 0.370686 3.25935 95 92 111 
0.998548 -0.601698 3.14933 57 59 97 
1.02669 -0.611677 3.19606 148 159 187 
1.02116 -0.475956 3.16304 80 65 96 
1.06948 0.442801 3.22529 48 36 50 
0.792454 0.283596 2.24168 26 28 43 
0.641502 0.496883 1.7233 60 64 99 
0.647053 0.496924 1.73657 131 144 179 
0.638398 0.492954 1.67569 68 71 106 
-0.485744 0.245991 1.75393 89 120 213 
-0.453513 0.220771 1.79419 165 187 228 
-0.448595 0.199226 1.81286 69 69 79 
-0.422089 0.182829 1.76185 162 182 235 
-0.421894 0.245797 1.81625 20 28 47 
-0.41645 0.220698 1.82407 33 50 78 
-0.318227 0.355584 1.95129 25 27 40 
-0.277644 0.0733172 2.08468 154 159 189 
-0.264428 0.00136541 2.10829 143 149 181 
-0.0160761 -0.184773 1.95179 63 62 94 
0.0227513 0.342738 2.47153 77 77 101 
0.0257578 0.362779 2.46349 78 83 105 
0.130309 -0.437427 2.12542 93 90 107 
0.303075 -0.331418 2.32986 123 117 143 
0.314689 0.440755 2.34205 42 43 61 
0.349329 -0.217326 2.36796 88 79 108 
0.355182 0.534133 2.29223 31 32 50 
0.353501 0.385477 2.27654 60 74 109 
0.375477 0.0821027 2.35649 44 40 55 
0.374932 0.00548722 2.36033 49 39 48 
0.389025 -0.60539 2.46887 146 147 191 
0.390888 0.472525 2.28966 124 128 155 
0.396791 0.481726 2.29566 120 125 145 
0.41726 0.454053 2.32186 105 107 130 
0.422443 0.136355 2.40527 117 111 137 
0.443308 0.21846 2.41147 171 184 219 
0.450602 0.389054 2.39364 124 133 132 
0.457329 0.52245 2.35903 37 43 65 
0.491947 0.352745 2.44618 148 153 191 
0.49173 0.3953 2.43849 118 126 128 
0.584906 0.49272 2.50267 29 36 55 
0.604401 -0.00296115 2.64507 158 170 208 
0.714046 -0.333776 2.7973 72 61 95 
0.828907 -0.0398324 3.22501 53 47 73 
0.851269 -0.0187784 3.2644 99 96 123 
0.818506 -0.745754 2.97463 146 159 201 
0.940622 -0.0871586 3.32288 45 41 58 
0.936092 0.425241 3.24462 41 37 51 
0.868278 -0.48752 2.92488 115 108 139 
0.930054 -0.781261 3.11159 79 83 110 
0.930544 -0.797671 3.11374 87 84 105 
1.09144 0.102433 3.56151 117 132 165 
1.01016 0.530248 3.19838 50 48 69 
1.03469 -0.234609 3.28523 71 67 90 
1.03744 -0.392974 3.20737 104 99 129 
1.04029 -0.414495 3.20703 42 39 48 
1.03604 -0.766082 3.20834 33 31 53 
1.06982 0.425048 3.24067 45 34 51 
1.05398 -0.618087 3.20786 90 88 110 
1.09563 0.172592 3.29532 62 53 74 
1.09433 0.262049 3.28144 65 53 75 
1.05135 -0.498707 3.183 97 114 134 
1.06623 -0.42095 3.21279 37 32 54 
1.06725 -0.490964 3.19229 23 29 45 
1.10806 -0.223696 3.29978 99 91 115 
1.15361 0.0877293 3.30817 47 38 59 
-0.0450474 -0.125547 1.88887 28 27 33 
-0.0140212 0.279498 1.89032 73 78 98 
-0.00466838 -0.201129 1.9638 31 28 39 
0.281758 -0.309876 2.33028 31 29 40 
0.289494 -0.317811 2.32573 41 39 50 
0.549347 0.396312 2.5034 63 74 102 
0.597838 -0.0431431 2.63251 138 152 187 
0.584231 0.419774 2.5526 66 67 69 
0.704495 -0.474426 2.80263 162 168 200 
0.879898 -0.0628375 3.26498 119 121 142 
1.00994 -0.109567 3.30328 85 81 108 
1.02072 -0.0618381 3.31091 74 70 93 
1.02426 0.0416587 3.28543 88 83 106 
0.9877 -0.445928 3.14939 42 40 53 
1.01754 0.425043 3.24696 44 37 53 
1.02226 0.433869 3.23158 91 78 96 
1.02502 0.468147 3.21914 93 75 97 
1.01652 -0.527947 3.14999 145 161 186 
1.07267 -0.294501 3.26585 101 102 132 
1.05939 0.524976 3.21427 42 40 53 
1.10263 0.0242641 3.2945 25 23 34 
1.07839 0.433452 3.22246 93 78 99 
1.08461 -0.478636 3.22264 34 34 46 
1.08415 -0.405392 3.21947 103 99 122 
1.10042 -0.524656 3.22702 160 169 202 
1.13707 0.0193853 3.29867 27 26 34 
0.865827 0.580622 2.49353 71 80 111 
1.15176 -0.28031 3.30131 40 36 51 
1.14989 0.00648552 3.28174 115 111 136 
1.11228 0.537991 3.17315 121 133 173 
1.1642 -0.244125 3.30714 43 41 54 
1.14388 0.441403 3.2382 91 77 103 
1.1771 -0.207841 3.32019 45 38 54 
1.16046 0.315618 3.27362 47 39 52 
1.18367 0.127759 3.303 99 90 111 
1.18279 0.221589 3.28947 100 98 119 
1.20682 -0.160297 3.33743 29 25 42 
1.18178 0.357983 3.26755 93 100 119 
1.18128 0.378348 3.26506 93 98 118 
1.19738 0.209631 3.29666 43 36 52 
1.18453 0.435731 3.24595 67 66 84 
1.18426 0.453596 3.24323 73 64 81 
1.2101 0.126173 3.31038 83 78 100 
1.1742 0.560906 3.17591 125 141 175 
1.01106 0.604795 2.71365 131 144 186 
-0.493016 0.0280127 1.84508 92 105 139 
-0.458545 0.401359 1.80502 40 41 61 
-0.451929 0.246664 1.79662 143 145 168 
-0.383678 0.37018 1.89295 43 44 65 
-0.377039 0.485387 1.8873 79 87 110 
-0.30366 0.337118 1.96062 141 154 196 
-0.315242 0.194084 1.99523 148 173 213 
-0.312537 0.266056 1.98934 103 118 157 
-0.312346 0.0902981 2.01782 94 110 146 
-0.283027 -0.0460433 2.09034 94 100 132 
-0.25633 0.181908 2.08568 106 96 121 
-0.0767845 0.268008 1.81962 99 98 114 
-0.043791 0.482326 1.76494 125 123 160 
-0.0678336 -0.0747385 1.87815 73 63 88 
-0.0647769 -0.251908 1.89017 121 103 127 
-0.0571784 -0.0876774 1.87394 127 117 142 
-0.0526325 -0.0644343 1.89751 64 56 79 
-0.0317222 0.397549 1.8217 135 141 163 
-0.0451417 0.238946 1.89807 159 174 203 
-0.0442979 -0.181145 1.89017 130 116 133 
-0.0332174 0.280125 1.86473 39 41 54 
-0.0390416 -0.0533132 1.92015 62 55 71 
-0.0378332 -0.243388 1.90811 129 116 133 
-0.0342982 -0.215291 1.90666 79 69 94 
-0.0290689 -0.0627202 1.92361 71 66 89 
-0.0290477 -0.288688 1.92422 129 110 129 
-0.0269286 -0.170513 1.93268 163 165 186 
-0.0161512 -0.216028 1.9544 143 129 152 
-0.0134947 -0.232085 1.95834 160 148 172 
-0.0111218 -0.247315 1.96384 155 139 165 
-0.0704043 0.160465 2.43043 14 22 59 
-0.00324693 -0.27879 1.97719 154 140 163 
0.0152355 0.511979 2.20074 136 147 179 
0.00617407 0.414893 2.46287 34 34 44 
0.0759703 0.489431 1.95528 159 170 202 
0.0403113 0.412591 2.4442 32 34 47 
0.109747 0.498945 2.068 159 166 195 
0.104139 -0.0134983 2.34566 69 71 84 
0.13071 0.497167 2.09164 163 170 196 
0.14549 0.517868 2.00347 86 104 106 
0.20325 0.529072 2.09549 143 157 186 
0.204317 0.518021 2.09734 89 96 124 
0.222735 0.303552 2.46518 45 51 77 
0.216013 -0.403858 2.23938 68 56 80 
0.247547 0.280868 2.4279 85 91 117 
0.262582 0.520238 2.16293 156 169 201 
0.256419 -0.359049 2.29575 43 40 49 
0.291348 0.523857 2.1951 151 165 194 
0.286304 -0.323899 2.31423 54 48 62 
0.312875 0.189048 2.40104 59 57 78 
0.310367 -0.154935 2.39603 34 32 43 
0.307311 -0.338506 2.33129 133 135 158 
0.313258 -0.3055 2.33702 87 72 101 
0.319862 -0.141695 2.38936 76 79 98 
0.333716 -0.263275 2.35376 83 68 99 
0.337675 -0.241674 2.35685 131 123 147 
0.345998 0.0996576 2.38233 80 79 95 
0.353538 -0.200779 2.36765 93 82 114 
0.360634 -0.0810019 2.3619 113 100 126 
0.360663 -0.110014 2.36368 136 127 148 
0.365031 0.120311 2.35648 51 47 62 
0.372962 -0.0815203 2.37146 54 41 67 
0.374977 0.460125 2.2818 43 43 55 
0.386482 0.495963 2.27752 64 59 82 
0.394494 0.549564 2.28379 103 108 130 
0.406407 -0.105635 2.39274 115 117 138 
0.413696 0.428423 2.31907 59 64 86 
0.421235 0.161648 2.3958 120 111 138 
0.429769 0.00998646 2.41006 94 89 112 
0.438697 0.551699 2.33286 49 55 77 
0.443754 0.516619 2.34155 44 54 79 
0.463894 -0.171381 2.48474 136 144 183 
0.49927 0.559711 2.39854 112 114 137 
0.58728 0.402779 2.54623 64 77 109 
0.596158 0.0808089 2.60626 166 170 207 
0.597059 0.287544 2.58837 166 177 209 
0.605039 0.0327735 2.61425 159 172 207 
0.619764 0.00843027 2.63881 82 95 130 
0.620717 0.169207 2.61777 123 132 173 
0.608564 0.406316 2.50126 83 108 149 
0.641843 -0.117198 2.65636 59 64 93 
0.645416 -0.177348 2.66634 68 72 107 
0.658498 -0.438996 2.74282 138 148 184 
0.659032 -0.386888 2.73692 165 176 221 
0.663701 0.335404 2.66572 38 36 47 
0.647572 0.529128 2.56724 37 42 62 
0.664078 0.511657 2.58911 111 111 139 
0.672702 0.43279 2.62633 61 57 80 
0.817619 -0.126369 3.22648 109 106 135 
0.731867 -0.490638 2.8334 70 81 113 
0.835626 -0.0401661 3.22973 104 101 128 
0.843458 -0.0305025 3.25564 33 31 44 
0.754298 -0.436322 2.84882 133 124 155 
0.763711 -0.412621 2.86235 122 112 137 
0.778471 -0.433886 2.87741 128 118 143 
0.902483 -0.148975 3.30773 44 36 49 
0.829593 -0.410273 2.99326 128 125 152 
0.840149 -0.470754 2.95972 82 68 103 
0.704267 0.573304 2.3405 40 59 74 
0.935766 0.202343 3.28521 97 92 114 
0.937631 0.4261 3.25065 41 37 51 
0.86501 -0.489562 2.98724 125 121 148 
0.96452 0.427494 3.2584 33 25 38 
0.897362 -0.511891 3.03676 115 108 139 
0.766293 0.545474 2.45526 79 92 127 
0.987744 0.241427 3.28045 84 81 102 
0.987311 0.282545 3.27461 104 108 135 
0.987745 0.421402 3.2508 78 70 85 
0.983418 0.513233 3.22899 34 31 42 
0.934714 -0.50211 3.06486 83 73 107 
0.964102 -0.498904 3.09915 84 83 115 
1.04715 0.0666512 3.31127 90 87 108 
0.985765 -0.519981 3.1243 30 30 42 
0.992537 -0.487588 3.12912 82 75 106 
0.803436 0.585172 2.41451 69 86 102 
1.05805 0.0829598 3.30626 27 27 39 
1.01163 -0.431106 3.16933 42 34 47 
0.853776 0.568483 2.56989 75 86 118 
1.05693 0.523077 3.20225 49 47 61 
1.03911 -0.438744 3.18248 35 31 48 
1.03926 -0.548504 3.18874 64 56 80 
1.07799 0.370427 3.26006 111 125 154 
1.07467 -0.296177 3.27517 102 107 137 
1.09402 0.156788 3.29306 61 47 72 
1.06302 -0.394844 3.22076 42 36 48 
1.09294 0.283275 3.2741 59 50 71 
1.07827 0.453829 3.2129 102 88 113 
1.08918 0.00658844 3.27135 109 102 133 
1.05931 -0.426825 3.1942 117 111 137 
1.11226 -0.00942643 3.31061 35 34 50 
1.08026 0.529211 3.17373 39 49 85 
1.08986 -0.372262 3.24135 39 37 51 
1.11608 0.405417 3.26384 25 24 40 
0.961043 0.563645 2.75956 87 102 131 
1.09921 -0.414603 3.24119 71 65 99 
1.12351 0.52821 3.22068 50 48 62 
0.962419 0.354983 2.72446 45 34 50 
1.14783 -0.163545 3.32025 57 53 70 
1.10884 0.535205 3.1583 129 141 181 
1.13828 0.0253791 3.26915 88 86 107 
1.13773 -0.371852 3.27986 124 116 140 
0.919869 0.605469 2.55023 136 143 171 
1.14928 0.417074 3.25638 51 45 71 
1.15127 0.384386 3.26408 62 57 87 
1.15077 0.337449 3.26265 60 58 80 
1.1576 -0.00554159 3.30142 55 47 68 
1.15909 0.220704 3.28777 85 88 103 
1.15271 0.427203 3.24825 32 24 37 
1.14516 0.495336 3.2213 109 103 131 
1.16174 -0.288857 3.29733 96 92 117 
1.18322 -0.240605 3.32281 32 29 46 
1.17448 0.427568 3.25426 24 24 32 
1.18817 -0.193217 3.32726 96 90 116 
1.18424 0.00533058 3.29204 120 117 138 
1.18196 0.415087 3.25782 80 81 111 
1.19789 -0.154218 3.33461 96 90 116 
1.19575 0.0925501 3.30825 54 43 59 
1.20275 0.000417395 3.32414 62 49 75 
1.20264 -0.25573 3.33404 130 132 157 
1.19211 0.428692 3.25046 21 19 32 
1.21278 0.0281137 3.31824 29 27 40 
1.20934 0.243051 3.29029 92 90 111 
1.21316 0.14806 3.30259 36 32 46 
1.21997 0.0420783 3.32322 30 26 41 
1.24769 -0.597642 3.43227 133 134 180 
0.730479 0.499762 1.7428 136 140 165 
-0.472847 0.190294 1.83727 163 182 238 
-0.383829 0.455623 1.84338 35 32 51 
-0.0873652 0.474977 1.76429 37 39 51 
-0.0731796 0.20328 1.91537 156 166 202 
-0.0340241 -0.26767 1.91621 142 127 146 
-0.00522989 -0.113879 1.84992 27 28 30 
-0.0388814 0.24743 1.90242 120 121 142 
-0.00261436 0.480122 1.84016 96 77 97 
-0.0860366 0.211702 2.40866 129 131 130 
0.243868 -0.358298 2.2899 44 37 44 
0.265939 0.502973 2.25248 110 125 156 
0.350325 -0.125156 2.36444 62 57 77 
0.374857 0.219178 2.34001 63 59 74 
0.397919 -0.147942 2.39314 52 50 61 
0.389985 0.0720782 2.3654 144 146 171 
0.427375 -0.0721751 2.41964 27 31 40 
0.445851 0.0766821 2.43032 177 187 222 
0.522166 -0.354072 2.58166 145 152 194 
0.522386 0.476436 2.4383 44 49 69 
0.532406 0.488839 1.68528 140 145 185 
0.564013 -0.0240255 2.58286 135 140 178 
0.580864 -0.184687 2.59561 179 189 224 
0.585017 -0.0998688 2.61273 86 90 128 
0.595412 -0.150371 2.63406 117 129 155 
0.605814 -0.227229 2.67328 149 159 195 
0.616658 -0.307287 2.6694 166 170 205 
0.615015 -0.158989 2.64323 47 53 69 
0.598472 0.511133 2.51471 96 100 125 
0.635347 0.307328 2.59048 113 118 148 
0.672297 -0.00561171 2.72869 137 129 152 
0.658842 0.321354 2.61977 132 143 173 
0.696101 -0.338452 2.75748 128 115 145 
0.699655 -0.334558 2.77648 147 143 168 
0.676889 0.522432 2.59824 34 40 52 
0.739273 -0.396849 2.82969 149 144 166 
0.758189 0.175369 3.11903 63 64 121 
0.782178 -0.0452281 3.17897 114 115 143 
0.79311 -0.273882 3.09658 57 47 58 
0.711965 0.51105 2.57574 45 55 80 
0.801719 -0.134259 3.2183 27 27 39 
0.801355 -0.0815365 3.20633 26 28 43 
0.79123 -0.380469 2.96323 130 124 152 
0.793488 -0.443318 2.91867 74 64 99 
0.71961 0.52364 2.57076 50 57 86 
0.811822 -0.0374318 3.21083 101 104 123 
0.814007 -0.0629956 3.21083 128 125 152 
0.693334 0.557222 2.24055 121 122 153 
0.730982 0.531355 2.49971 120 134 171 
0.844588 -0.0307768 3.26546 34 31 42 
0.837523 -0.356677 3.0809 105 102 119 
0.717925 0.559296 2.32827 46 53 72 
0.874682 -0.0315458 3.27376 52 47 70 
0.782283 0.490405 2.68581 132 141 184 
0.871997 -0.527567 2.98383 91 111 135 
0.747858 0.576519 2.35561 58 83 80 
0.890527 -0.358108 3.14002 88 89 109 
0.942091 -0.390921 3.38181 93 88 108 
0.897355 -0.480185 3.03208 113 103 128 
0.911802 -0.543096 3.02475 132 149 179 
0.942161 -0.287357 3.2463 29 25 39 
0.945046 -0.0362821 3.32092 49 44 67 
0.94641 -0.256536 3.25465 103 96 127 
0.931154 -0.528669 3.05717 29 32 39 
0.943862 0.225122 3.28581 46 39 57 
0.94375 0.247972 3.2835 55 45 70 
0.944016 0.271329 3.28215 55 47 71 
0.942856 0.294181 3.27575 53 45 69 
0.943038 0.342233 3.27012 56 44 66 
0.82176 0.55713 2.52479 73 84 116 
0.962845 0.188555 3.30506 105 100 123 
0.956092 -0.535154 3.07603 157 169 195 
0.953308 0.391348 3.26324 101 96 126 
0.965299 -0.543323 3.08252 159 176 206 
0.966 0.428902 3.26733 33 25 40 
1.00549 -0.276099 3.24611 72 64 88 
0.989321 0.422602 3.25982 78 69 86 
1.01436 -0.45385 3.15613 39 35 52 
1.0201 0.0241863 3.26651 76 74 95 
1.0254 0.0416912 3.29167 97 93 118 
1.03226 0.0828284 3.31045 39 34 56 
1.03905 -0.00624659 3.3044 51 41 65 
1.04623 0.0241426 3.30625 30 28 42 
1.0317 0.375235 3.25519 58 48 72 
1.02602 0.468407 3.22452 102 86 112 
1.04777 0.255088 3.28493 82 79 100 
1.04836 0.435456 3.24832 82 69 87 
1.03959 0.530979 3.21991 53 48 68 
-0.45642 0.186171 1.79705 146 162 221 
-0.463135 0.214711 1.80388 177 193 219 
-0.49742 0.204662 1.86376 63 63 63 
-0.452684 0.448773 1.81754 83 92 123 
-0.478339 -0.300305 1.93736 118 127 160 
-0.456475 0.0661711 1.87824 100 110 145 
-0.424499 0.202873 1.82864 212 223 255 
-0.421731 0.221399 1.8298 31 46 75 
-0.449208 0.11793 1.88439 114 101 131 
-0.428254 0.225418 1.88145 158 179 236 
-0.409158 0.460944 1.84755 45 42 59 
-0.405542 0.481822 1.84525 26 31 53 
-0.382333 0.299675 1.83912 134 152 190 
-0.392004 0.327337 1.86326 125 152 197 
-0.397604 0.460874 1.8602 35 32 51 
-0.393615 0.377323 1.86546 59 69 104 
-0.422344 0.339088 1.95526 51 57 55 
-0.354238 0.453561 1.90527 36 37 58 
-0.326372 0.473243 1.94904 21 20 34 
-0.319768 0.375044 1.95435 31 30 48 
-0.295348 0.428575 1.9394 43 50 92 
-0.316892 0.0367133 2.02158 205 224 254 
-0.299784 0.45892 1.95287 54 70 96 
-0.314919 -0.0195733 2.03792 32 29 56 
-0.317505 -0.305719 2.07825 44 46 69 
-0.281799 0.0836951 2.08382 152 159 188 
-0.275445 0.0729719 2.08145 152 159 187 
-0.277587 -0.0406743 2.10279 141 151 178 
-0.0999594 0.483111 1.78548 37 39 51 
-0.117112 -0.115735 1.89942 74 72 86 
-0.0531401 0.484909 1.73591 144 149 179 
-0.0744666 0.325912 1.79873 127 128 84 
-0.0834016 -0.159322 1.88094 52 51 57 
-0.117046 -0.0381114 1.92624 31 28 35 
-0.0480758 -0.139121 1.89277 107 103 120 
-0.0127071 0.432627 1.84731 46 49 104 
0.00055488 0.456987 1.85888 167 162 184 
0.0105008 -0.284658 1.98701 169 151 173 
-0.0685265 0.384477 2.20101 122 132 159 
-0.103246 0.204495 2.39108 16 25 40 
-0.0961587 0.210287 2.40178 26 33 49 
-0.0909314 0.134037 2.41808 27 33 57 
-0.088109 0.202583 2.40225 20 26 38 
-0.0850681 0.15126 2.42395 156 174 248 
-0.0778278 0.213574 2.42501 30 40 50 
0.10175 0.517465 1.97287 83 103 91 
0.0312029 0.317534 2.49367 28 27 35 
0.0585813 0.39281 2.44607 21 24 39 
0.317479 0.0419884 2.41995 99 106 132 
0.358705 -0.245263 2.38206 108 103 133 
0.349293 0.298048 2.35185 62 51 67 
0.365975 -0.020948 2.36056 36 33 44 
0.371993 0.0204305 2.36339 41 40 46 
0.356756 0.533191 2.28674 32 35 52 
0.399408 -0.347746 2.44309 131 134 169 
0.436749 0.0392003 2.43114 124 111 129 
0.456986 -0.368222 2.51157 146 154 193 
0.443902 0.0633696 2.43561 169 182 217 
0.431183 0.473597 2.33942 120 128 147 
0.462433 0.349995 2.41921 125 117 156 
0.474251 0.304786 2.43681 138 131 162 
0.475862 0.459325 2.38948 96 101 121 
0.511081 -0.111917 2.53686 144 152 188 
0.516579 0.533495 2.42513 57 57 83 
0.522402 0.476945 2.43958 44 49 69 
0.531997 0.411516 2.47219 45 53 64 
0.535635 0.55786 2.44053 51 52 82 
0.596414 -0.134485 2.63697 100 110 137 
0.605222 -0.224942 2.65964 149 159 195 
0.605687 -0.00220558 2.63655 150 162 202 
0.625447 -0.142336 2.64822 38 46 57 
0.611281 0.220739 2.60181 111 115 153 
0.605261 0.369886 2.57237 166 176 212 
0.640196 -0.309265 2.7111 81 93 117 
0.607151 0.449674 2.5168 99 102 121 
0.639508 0.00733314 2.66559 129 106 134 
0.638599 0.187323 2.63913 128 115 143 
0.6169 0.548807 2.49136 65 88 120 
0.653582 0.132303 2.64645 138 144 170 
0.675301 -0.244838 2.74075 103 92 126 
0.644986 0.458252 2.58168 113 120 146 
0.657911 0.350164 2.63814 149 146 167 
0.720062 -0.386768 2.82043 133 123 150 
0.738974 -0.0499603 3.13251 83 85 106 
0.756033 -0.0523868 3.14752 41 42 70 
0.746085 0.135381 3.11483 212 223 255 
0.751401 0.152175 3.11981 55 59 123 
0.756736 -0.51258 2.86942 77 97 124 
0.782128 -0.262917 3.19848 28 25 32 
0.784129 -0.250472 3.202 98 99 120 
0.767239 0.15233 3.13064 26 33 52 
0.789553 -0.0784544 3.18376 122 124 145 
0.809334 -0.0746946 3.20913 119 125 149 
0.809492 -0.0447778 3.20364 104 104 128 
0.816183 -0.0643767 3.2305 128 125 152 
0.822647 -0.0423103 3.21843 108 109 130 
0.81423 -0.455457 2.92054 74 64 99 
0.848439 -0.146936 3.26486 36 36 48 
0.870082 -0.14979 3.29924 30 29 37 
0.869512 -0.318025 3.18954 112 109 136 
0.777244 0.481247 2.64404 132 141 184 
0.888996 -0.143811 3.30635 106 103 132 
0.882248 -0.450456 3.05742 128 116 140 
0.901284 -0.0283299 3.30647 53 44 71 
0.908399 0.0237263 3.31597 84 87 106 
0.915362 -0.058255 3.325 124 120 143 
0.914503 -0.0254916 3.32013 49 41 65 
0.90899 -0.352 3.15872 93 88 108 
0.942976 -0.538272 3.05935 84 105 134 
0.99866 -0.521299 3.12717 47 68 89 
1.00116 -0.53349 3.12567 93 103 138 
0.983099 0.512349 3.22706 35 32 41 
1.02265 -0.513343 3.14729 68 84 110 
1.07432 -0.496851 3.19799 94 111 129 
1.0956 0.197897 3.29389 65 57 80 
1.1281 -0.166286 3.3163 92 96 125 
1.14639 -0.360278 3.28428 117 115 136 
-2.25082 2.68895 22.3417 82 78 95 
-0.0712091 -0.0374956 1.88688 41 38 55 
-0.152988 0.992384 8.40279 16 27 45 
0.62086 0.230332 2.60349 36 43 61 
0.874162 -0.069815 3.28403 32 30 51 
0.9397 -0.648394 3.08668 156 163 192 
1.15988 0.240792 3.28417 60 57 74 
1.20994 0.0831467 3.31586 82 81 97 
1.22149 -0.0375937 3.33857 40 34 48 
1.21114 0.163951 3.30598 84 81 100 
1.17752 0.539256 3.21139 63 57 71 
1.18299 0.506753 3.22278 94 90 107 
1.21026 0.325015 3.28212 79 79 103 
1.21098 0.363878 3.27754 80 85 105 
1.21227 0.347636 3.27533 32 34 47 
1.19733 0.482301 3.23501 38 36 50 
1.19776 0.502857 3.23318 42 38 55 
1.22821 0.258293 3.29571 105 97 121 
1.21894 0.380217 3.26762 80 84 109 
1.23041 0.365989 3.28268 88 94 116 
1.46636 -0.536487 3.68377 168 180 218 
1.32903 0.512749 3.31495 163 170 196 
1.34137 0.528987 3.32794 92 99 117 
1.46137 0.355001 3.54863 172 178 212 
-0.422657 0.270395 1.82512 95 89 89 
-0.397784 0.256987 1.84829 121 150 206 
-0.384509 0.125605 1.95637 117 110 144 
-0.328505 0.0858296 2.00063 52 62 87 
0.00606254 -0.436323 2.00821 131 133 172 
0.0254202 -0.441734 2.03129 98 106 142 
0.0484817 -0.409218 2.04893 159 163 188 
0.0465751 -0.505782 2.06471 135 137 178 
0.155287 -0.442002 2.15481 95 86 105 
0.17129 -0.419185 2.19369 73 57 84 
0.381531 -0.605636 2.45773 153 155 194 
0.677975 0.524086 2.60647 30 38 51 
0.805267 -0.356642 3.03927 94 85 116 
0.882996 -0.101214 3.29411 104 104 128 
0.964812 0.0259068 3.31145 33 31 44 
0.916557 -0.749847 3.09372 161 168 197 
0.920089 -0.695502 3.07786 121 130 171 
0.948954 -0.754707 3.13711 147 145 169 
1.01807 -0.703363 3.19238 80 95 134 
1.12094 0.426106 3.25649 32 26 38 
1.11201 -0.371836 3.2591 35 32 51 
1.15579 0.428454 3.25751 32 24 37 
1.18417 0.040004 3.3147 113 111 135 
1.19171 0.0106435 3.29885 105 96 125 
1.19578 0.430035 3.26105 21 19 32 
1.21716 -0.00579682 3.33081 30 26 40 
1.20913 0.287324 3.2844 99 94 117 
1.1995 0.445586 3.2448 35 33 46 
1.19345 0.550459 3.20801 38 44 60 
1.20665 0.428913 3.25212 20 22 34 
1.22023 0.241269 3.29787 34 30 47 
1.22006 0.339219 3.27417 90 94 119 
1.22586 0.353675 3.27866 79 84 106 
1.23099 0.327579 3.2897 101 105 134 
1.26712 0.357395 3.30981 244 247 252 
1.27472 0.286805 3.32156 178 187 226 
1.44961 -0.694995 3.67484 138 132 170 
1.47412 -0.870714 3.73061 189 199 234 
1.45391 -0.16859 3.60589 142 144 185 
1.45867 0.455488 3.52248 129 114 145 
1.55694 -0.546397 3.76659 83 88 107 
1.61014 -0.9682 3.86676 112 118 140 
-0.452696 0.234966 1.79802 173 199 232 
-0.477274 0.169518 1.8459 144 155 187 
-0.470706 0.114128 1.86433 119 101 127 
-0.433228 0.21243 1.81497 62 142 213 
-0.41784 0.194257 1.83853 106 128 185 
-0.415864 0.237769 1.83318 216 227 255 
-0.44074 -0.195697 1.94901 88 91 124 
-0.387861 0.185544 1.85821 45 60 91 
-0.388114 0.371524 1.89865 39 40 58 
-0.184441 0.473481 1.67439 121 125 160 
-0.334306 0.164799 1.99428 81 86 116 
-0.333669 0.228096 1.98683 92 96 125 
-0.325769 0.0576946 2.00221 68 81 113 
-0.316941 0.293092 1.98268 164 192 231 
-0.317018 0.246939 1.9893 149 177 216 
-0.31634 0.157896 2.00215 162 187 227 
-0.314133 0.0564143 2.02352 100 114 149 
-0.0772333 0.391912 1.77599 119 116 133 
-0.0651836 -0.316347 1.92212 139 124 147 
-0.0631598 -0.0695906 1.89115 69 61 85 
-0.0550271 -0.19951 1.89507 58 55 74 
-0.0461358 -0.169792 1.89197 134 116 132 
-0.0545511 0.258547 1.86368 126 132 156 
-0.0381232 -0.159224 1.89947 73 65 89 
-0.0368811 -0.197685 1.90611 77 70 88 
-0.0429026 -0.089545 1.90723 88 77 107 
-0.0498041 0.236618 1.87646 164 175 205 
-0.0261876 0.281786 1.87426 51 54 71 
-0.0229689 -0.230227 1.95225 157 158 186 
-0.00582364 -0.266245 1.97706 58 47 81 
-0.00303354 -0.286355 1.983 168 148 173 
-6.77166e-05 -0.29507 1.98861 167 147 172 
0.00715938 -0.309605 1.99698 154 141 161 
0.00959842 -0.324122 2.00607 152 129 155 
-0.117994 -0.148332 2.40712 63 68 87 
0.0436126 -0.368456 2.04777 61 48 74 
0.0450347 0.494022 1.92352 147 158 186 
-0.129378 0.137503 2.52169 27 33 57 
-0.0781661 0.135184 2.43042 24 35 57 
-0.0454755 0.26677 2.44975 48 79 100 
0.076648 0.462629 2.11945 96 107 137 
0.0262938 0.424818 2.29999 89 98 131 
0.117063 0.517128 2.00194 152 158 190 
0.0682945 0.0509368 2.53942 22 20 31 
0.244305 -0.404795 2.2679 26 24 25 
0.285945 -0.038582 2.422 33 31 42 
0.344692 -0.384485 2.38562 134 140 174 
0.362288 -0.144064 2.37443 100 84 113 
0.37771 -0.0184534 2.35784 120 105 124 
0.405397 -0.122255 2.39684 128 133 155 
0.406178 -0.0834244 2.3916 93 91 112 
0.386609 0.547389 2.27542 57 53 78 
0.398766 0.446074 2.30367 67 73 87 
0.401647 0.549476 2.29435 44 46 59 
0.441091 -0.338681 2.48811 185 190 220 
0.417661 0.463145 2.3237 106 102 125 
0.418781 0.445 2.32577 46 52 78 
0.431968 0.118382 2.41306 160 169 200 
0.422543 0.431019 2.33263 64 68 95 
0.419604 0.544515 2.31422 62 66 95 
0.43014 0.423898 2.34436 116 124 143 
0.440828 0.484803 2.34615 48 51 70 
0.462455 0.0877061 2.45206 117 126 159 
0.481947 -0.118387 2.50607 133 141 178 
0.471347 0.332802 2.42804 63 75 115 
0.49122 0.320347 2.45333 136 138 186 
0.497406 0.451317 2.4126 46 48 69 
0.507009 0.531978 2.41561 57 63 89 
0.522449 0.53463 2.43181 57 61 88 
0.525111 0.557076 2.43128 61 59 81 
0.566836 -0.126322 2.60243 178 188 223 
0.588478 0.188237 2.58569 139 147 184 
0.587458 0.544081 2.5006 38 45 71 
0.637405 -0.299837 2.70569 81 93 115 
0.642615 -0.384464 2.72327 152 157 197 
0.605734 0.371886 2.5862 166 176 212 
0.630389 -0.0902082 2.64962 76 85 100 
0.659534 -0.388689 2.74636 167 175 221 
0.637442 0.349011 2.61455 118 99 127 
0.633981 0.481848 2.56349 40 46 70 
0.633476 0.515691 2.55744 100 105 134 
0.639578 0.510153 2.5701 112 117 146 
0.659242 0.192928 2.66302 80 61 89 
0.700087 -0.301158 2.77983 69 62 95 
0.733884 0.175957 3.09881 37 57 94 
0.739929 0.151388 3.10666 53 69 120 
0.741221 -0.393904 2.8373 77 60 96 
0.745693 0.168175 3.11135 210 223 255 
0.767656 -0.333649 2.99502 92 88 115 
0.783663 -0.354279 3.01712 89 80 109 
0.792632 -0.341917 3.03343 78 68 93 
0.794403 -0.355689 3.0271 100 91 122 
0.784744 -0.486646 2.87942 54 55 83 
0.792734 -0.493239 2.88917 64 59 81 
0.811383 -0.36026 3.04669 132 124 145 
0.817569 -0.0332513 3.22268 35 32 49 
0.814112 -0.463401 2.92826 121 117 140 
0.825035 -0.515241 2.93025 41 47 61 
0.841257 -0.364321 3.08336 110 106 129 
0.858111 -0.358483 3.10764 90 89 105 
0.875833 -0.169462 3.29457 97 95 119 
0.871276 -0.0162765 3.29179 106 100 126 
0.850414 -0.526435 2.96046 35 38 53 
0.778347 0.483913 2.65383 132 141 184 
0.883339 -0.0642778 3.29104 121 126 146 
0.903863 -0.149668 3.31739 45 37 48 
0.896568 -0.352147 3.1486 77 79 92 
0.919363 -0.544782 3.03721 137 155 179 
1.01217 -0.111049 3.31521 90 85 115 
1.02203 0.0238711 3.27676 76 74 95 
0.884537 0.563083 2.59679 82 95 130 
1.04069 -0.55102 3.19588 56 53 74 
1.03836 -0.464886 3.17739 114 100 126 
1.11249 0.0170849 3.64833 30 28 42 
1.04056 -0.440597 3.18961 33 31 45 
1.04887 -0.4596 3.19314 66 56 83 
1.05912 0.0827397 3.31173 26 26 36 
1.06437 -0.395622 3.2274 42 34 47 
1.04549 0.416391 3.25956 81 83 104 
1.10374 0.0241424 3.2996 30 28 41 
0.934063 0.590562 2.57229 68 79 107 
1.12129 0.426628 3.26592 40 32 45 
1.15077 0.0780975 3.30869 87 84 105 
1.11406 0.53921 3.18091 129 141 181 
1.15462 0.234334 3.29069 59 52 70 
1.17705 -0.255092 3.31268 97 91 117 
1.18389 -0.28657 3.32343 65 58 89 
1.16103 0.221209 3.2959 84 85 103 
1.15288 0.38615 3.27093 55 52 79 
1.13954 0.504202 3.21302 121 119 133 
1.05327 0.577062 2.86608 88 101 135 
1.19705 -0.126118 3.32423 60 53 71 
1.19688 0.0928235 3.31281 55 43 55 
1.23291 0.00562031 3.33606 100 101 121 
-0.464303 -0.132403 1.90221 83 77 105 
-0.438673 -0.664627 2.0055 78 80 118 
-0.412273 -0.616519 2.0296 72 78 114 
-0.350266 0.294916 1.91863 123 135 161 
0.193496 -0.570124 2.22943 34 31 40 
0.279909 -0.599119 2.34187 179 182 217 
0.866077 -0.0304192 3.23065 55 45 70 
0.944293 -0.599246 3.08103 102 115 149 
-0.461437 0.24317 1.7907 165 187 226 
-0.0526738 0.450668 1.47103 76 79 114 
-0.41438 0.203992 1.83741 204 218 255 
-0.394163 0.228977 1.83961 153 170 226 
-0.393727 0.478002 1.83196 32 34 59 
-0.452889 -0.233263 1.93512 119 131 169 
-0.00846633 0.449138 1.45507 68 73 111 
-0.40028 0.202749 1.85733 136 154 204 
-0.448824 -0.566185 1.95603 72 84 124 
-0.356777 0.181829 1.82195 51 64 98 
-0.396619 0.342529 1.85344 52 50 63 
-0.20008 0.469117 1.6597 135 146 176 
-0.383241 0.30478 1.85648 111 133 174 
-0.386038 0.343839 1.86309 49 54 74 
-0.392971 0.308738 1.87534 33 47 60 
-0.115192 0.462165 1.59175 65 71 103 
-0.425226 -0.225079 1.96858 116 129 164 
0.106326 0.443649 1.38693 63 73 109 
-0.244814 0.278431 1.80673 123 135 161 
-0.315489 0.469827 1.93457 20 23 38 
-0.314145 0.394775 1.94541 42 39 68 
-0.31005 0.365308 1.94345 82 102 137 
-0.297074 0.365073 1.94267 117 135 181 
-0.293422 0.440127 1.94516 12 16 27 
-0.319277 0.277662 1.99728 79 90 120 
-0.318166 0.032283 2.02665 90 106 142 
-0.310977 -0.69883 2.12652 24 31 49 
-0.164944 0.292594 1.8773 105 112 140 
-0.309781 -0.729316 2.13001 29 35 61 
-0.156666 0.303745 1.87736 92 104 128 
-0.13989 0.296789 1.86606 37 43 57 
-0.157655 -0.123529 1.92512 31 34 43 
-0.0532285 0.485714 1.76282 121 122 150 
0.254797 0.448184 1.38716 77 84 126 
-0.196834 0.152857 1.97399 151 158 187 
-0.0772872 -0.121478 1.87244 125 116 133 
-0.103068 -0.320904 1.92643 71 61 85 
-0.0324661 0.48648 1.77269 131 131 167 
-0.0444417 0.482373 1.78859 75 65 89 
-0.0793958 0.482257 1.84303 91 73 89 
-0.0986064 -0.497619 1.94925 74 64 88 
-0.0302105 0.484687 1.8075 132 125 143 
-0.0459435 -0.226022 1.89709 47 48 66 
0.236163 0.458828 1.47921 92 108 134 
-0.0242611 0.459319 1.83893 237 241 253 
-0.046188 0.240029 1.90442 145 159 188 
-0.225635 -0.159721 2.18917 121 121 133 
-0.0128616 -0.111376 1.90386 117 114 135 
0.149243 0.47272 1.63101 67 72 110 
0.231603 0.464014 1.52317 97 103 119 
-0.00794846 -0.180387 1.91344 167 170 189 
-0.498397 -0.211459 2.61628 127 124 133 
-0.0194897 -0.147914 1.94156 155 142 160 
-0.0133158 -0.201566 1.95257 64 67 100 
-0.223953 0.269697 2.21153 90 93 112 
-0.0115009 -0.169632 1.9561 183 180 201 
0.299821 0.459606 1.46138 138 152 179 
-0.0259833 -0.551397 2.01597 142 132 166 
-0.226134 0.0481332 2.25299 12 17 36 
-0.226458 0.00635914 2.26012 17 23 39 
