ply                 
format ascii 1.0    
element vertex 192
property float x    
property float y    
property float z    
property uchar red  
property uchar green
property uchar blue 
end_header          
-0.88087 -0.36703 1.73216 87 99 121 
-0.633454 0.349049 1.48583 120 123 142 
-0.629899 0.319152 1.49219 37 35 49 
-0.630543 0.337013 1.49466 98 94 111 
-0.625316 0.388509 1.49206 105 98 114 
-0.667653 -0.314966 1.59931 144 147 164 
-0.684225 -0.450689 1.64741 58 64 88 
-0.617142 0.426201 1.49259 57 52 72 
-0.608472 0.396455 1.50879 42 40 53 
-0.613246 0.285099 1.52928 119 121 58 
-0.639779 -0.248568 1.5968 141 146 165 
-0.621786 0.121397 1.55954 200 215 255 
-0.637947 -0.244801 1.60051 121 128 144 
-0.599613 0.404954 1.51181 120 116 139 
-0.601586 0.398261 1.51683 35 35 45 
-0.647395 -0.37509 1.63343 91 99 145 
-0.635782 -0.275583 1.61078 147 154 170 
-0.64545 -0.379937 1.63575 66 78 120 
-0.64545 -0.379937 1.63575 66 78 120 
-0.606198 0.273713 1.54304 40 37 48 
-0.606198 0.273713 1.54304 40 37 48 
-0.63693 -0.33428 1.62064 155 167 191 
-0.636247 -0.329929 1.62082 54 57 76 
-0.624797 -0.188943 1.59512 156 171 194 
-0.604026 0.267259 1.54873 123 120 139 
-0.667497 -0.607902 1.71955 100 104 139 
-0.591792 0.380749 1.52815 48 50 62 
-0.635134 -0.374981 1.63805 141 156 195 
-0.631047 -0.330815 1.6312 158 170 194 
-0.589707 0.406307 1.52638 111 107 130 
-0.634017 -0.547142 1.64106 81 88 94 
-0.628956 -0.378489 1.64032 53 55 76 
-0.596388 0.268581 1.55719 129 97 120 
-0.629981 -0.417219 1.64892 86 87 133 
-0.626168 -0.371402 1.63921 146 159 194 
-0.624827 -0.367113 1.63933 90 99 140 
-0.624827 -0.367113 1.63933 90 99 140 
-0.659402 -0.614858 1.72859 78 70 93 
-0.624208 -0.32662 1.63985 131 140 169 
-0.658822 -0.611841 1.72935 57 50 81 
-0.621594 -0.372273 1.64333 126 140 167 
-0.621341 -0.3295 1.64412 75 84 117 
-0.609681 -0.197906 1.61806 127 134 153 
-0.609681 -0.197906 1.61806 127 134 153 
-0.621883 -0.448755 1.65455 129 136 162 
-0.606491 -0.209275 1.61999 86 93 119 
-0.617855 -0.474731 1.66259 139 155 181 
-0.617336 -0.441535 1.71502 49 55 71 
-0.623134 -0.488551 1.75539 72 81 114 
-0.573919 0.372702 1.65957 102 107 126 
-0.597567 -0.196492 1.74393 117 122 152 
-0.565403 0.424567 1.66078 79 83 94 
-0.608366 -0.594588 1.78706 65 73 109 
-0.59866 -0.341092 1.76088 64 73 106 
-0.605866 -0.559862 1.78355 62 71 102 
-0.600959 -0.423252 1.77094 73 64 83 
-0.594488 -0.458888 1.78278 111 125 160 
-0.595255 -0.485856 1.78624 66 74 110 
-0.593204 -0.476101 1.78647 82 96 131 
-0.593204 -0.476101 1.78647 82 96 131 
-0.587593 -0.5445 1.80226 76 87 119 
-0.577651 -0.500895 1.80891 113 132 162 
-0.574211 -0.526733 1.81579 63 69 101 
-0.566804 -0.587431 1.83081 75 88 123 
-0.564994 -0.527886 1.82613 66 75 114 
-0.564994 -0.527886 1.82613 66 75 114 
-0.505107 0.218712 1.71625 109 88 155 
-0.501771 0.259846 1.71455 44 49 87 
-0.537898 -0.499601 1.85271 93 90 111 
-0.539183 -0.530146 1.85827 66 71 103 
-0.497904 0.195145 1.7277 95 119 179 
-0.487494 0.230943 1.7355 59 75 124 
-0.484607 0.22679 1.73963 135 158 208 
-0.524859 -0.635063 1.88704 60 65 97 
-0.481711 0.18123 1.73703 53 50 77 
-0.520224 -0.521577 1.8772 115 128 163 
-0.518629 -0.52636 1.87932 81 87 123 
-0.477018 0.184907 1.73939 187 205 245 
-0.514844 -0.632169 1.89441 69 75 109 
-0.460911 0.230319 1.75946 154 174 207 
-0.485758 -0.226316 1.87328 96 93 114 
-0.493694 -0.672617 1.92899 70 76 112 
-0.489404 -0.571002 1.91898 124 126 164 
-0.446666 0.256858 1.78278 96 157 211 
-0.443545 0.186618 1.77741 187 208 251 
-0.468867 -0.144463 1.88112 112 117 147 
-0.464516 -0.216846 1.89872 69 64 86 
-0.464226 -0.28323 1.90758 77 65 89 
-0.465001 -0.348549 1.91601 77 65 89 
-0.450568 0.119522 1.86761 108 97 129 
-0.429604 0.189968 1.79899 161 181 232 
-0.427711 0.259328 1.80543 82 153 217 
-0.426604 0.194624 1.80253 186 211 252 
-0.461107 -0.57285 1.95247 74 84 120 
-0.421289 0.196184 1.8051 39 42 97 
-0.444134 -0.230935 1.90723 117 130 164 
-0.418724 0.203652 1.80431 201 216 255 
-0.37927 0.432874 1.87451 42 38 61 
-0.384723 -0.690342 2.05862 71 76 114 
-0.307043 0.484873 1.91878 73 95 142 
-0.30762 0.409601 1.92908 93 112 152 
-0.281265 0.111129 2.0649 134 143 174 
-0.281131 -0.03488 2.08576 129 140 168 
-0.0797017 -0.0369282 1.88041 37 32 54 
-0.0756721 -0.0334227 1.87996 87 100 134 
-0.0633349 0.445472 1.75788 131 127 142 
-0.0643758 -0.127539 1.84527 107 100 116 
-0.0574359 -0.126591 1.85506 23 22 28 
-0.0417913 -0.0758645 1.88614 91 81 108 
-0.0347844 0.457368 1.79656 89 75 101 
-0.0232357 -0.623006 1.98359 177 185 222 
-0.0220355 -0.504139 1.96637 163 168 198 
-0.0166637 -0.546792 1.98389 135 128 161 
-0.0129759 -0.50239 1.97757 119 123 160 
-0.00686732 0.468893 1.81889 58 48 98 
-0.00372347 0.45212 1.82451 105 95 132 
0.034146 0.054544 2.52563 16 15 21 
0.0613846 -0.377447 2.04342 139 127 151 
0.0756131 0.141707 2.5132 36 34 47 
0.0756155 -0.4937 2.1106 160 164 199 
0.093195 -0.0185105 2.52767 62 62 72 
0.0923687 -0.604326 2.11517 128 137 176 
0.104257 -0.487054 2.1001 47 39 54 
0.109322 0.487553 2.05347 142 149 175 
0.120551 -0.435552 2.09624 110 99 115 
0.139549 -0.42821 2.17415 74 53 72 
0.175643 -0.506956 2.18319 54 52 66 
0.213616 -0.462171 2.23954 108 97 114 
0.250847 -0.391589 2.26234 138 140 161 
0.298711 -0.324601 2.30762 119 119 143 
0.338804 0.552548 2.26843 111 120 149 
0.371317 -0.11682 2.36417 121 113 134 
0.371669 -0.101369 2.36152 117 114 135 
0.376007 -0.105137 2.36605 68 55 75 
0.376997 0.271718 2.3214 44 41 60 
0.384377 0.265823 2.32079 113 109 132 
0.391152 0.0227077 2.34993 106 107 125 
0.390989 0.518267 2.26367 139 140 160 
0.403413 0.515652 2.28079 137 144 162 
0.417616 0.388101 2.33197 110 117 125 
0.45146 -0.0823914 2.42955 65 71 87 
0.480585 0.322498 2.426 226 232 255 
0.480492 0.355235 2.42066 217 229 255 
0.480492 0.355235 2.42066 217 229 255 
0.493199 0.315275 2.44151 87 95 144 
0.486013 0.421556 2.39595 118 125 131 
0.482803 0.545731 2.3686 34 39 59 
0.537329 -0.586069 2.61909 139 139 167 
0.544654 0.395938 2.4979 165 174 203 
0.577208 -0.404933 2.63966 135 147 187 
0.567451 0.0190454 2.56942 129 132 173 
0.651596 -0.45067 2.73167 130 138 175 
0.653618 -0.35637 2.72731 147 159 199 
0.635862 0.345653 2.60103 145 158 190 
0.69329 -0.439855 2.77653 75 81 115 
0.85982 -0.0292497 3.27944 34 30 45 
0.880877 -0.0254324 3.30214 38 35 52 
0.938144 -0.291545 3.25773 110 113 144 
0.965069 0.0843045 3.33689 40 37 58 
0.966524 0.445981 3.27159 93 85 106 
0.941259 -0.781162 3.13548 129 135 157 
1.00456 -0.20642 3.31863 105 109 138 
1.0091 0.198576 3.31865 95 91 106 
1.02195 0.0841927 3.33408 29 29 41 
0.817863 0.547899 2.66231 79 92 126 
0.959839 -0.707713 3.11723 152 163 191 
1.00676 0.446614 3.26611 75 67 78 
1.0181 0.390421 3.29055 30 32 47 
1.03848 0.416593 3.28187 102 118 143 
1.03848 0.416593 3.28187 102 118 143 
1.02737 -0.731443 3.2132 42 48 62 
1.04921 -0.312526 3.28018 29 28 36 
1.06376 0.0269658 3.31091 25 23 36 
1.057 0.441577 3.28061 28 24 39 
1.04141 -0.784269 3.22073 21 23 35 
1.02573 -0.469273 3.16059 119 115 140 
1.05555 -0.797814 3.22342 28 33 53 
1.10322 0.103741 3.3332 108 117 146 
1.10322 0.103741 3.3332 108 117 146 
1.10599 0.0411256 3.31712 91 91 115 
1.08078 -0.421133 3.23825 96 101 123 
1.09703 0.417892 3.26837 96 106 131 
1.10593 -0.398585 3.26377 79 76 95 
1.11316 0.402345 3.27667 20 26 40 
1.1128 -0.406057 3.26246 35 32 51 
1.12799 -0.322855 3.30232 95 91 114 
1.12931 -0.372174 3.28894 74 71 92 
1.1273 -0.461028 3.26448 72 70 83 
1.16441 0.104048 3.3376 104 123 153 
1.16441 0.104048 3.3376 104 123 153 
1.16051 0.0481736 3.32583 37 34 53 
1.15854 0.0222602 3.31798 27 26 34 
