# .PCD v0.7 - Point Cloud Data file format
VERSION 0.7
FIELDS x y z rgb
SIZE 4 4 4 4
TYPE F F F U
COUNT 1 1 1 1
WIDTH 1287
HEIGHT 1
VIEWPOINT 0 0 0 1 0 0 0
POINTS 1287
DATA ascii
0.62751198 3.21751 5.54425 4929860
0.72191399 3.2236199 5.5541801 14920486
0.73413801 3.21503 5.54214 12604478
0.75961602 3.1975901 5.51862 14186350
0.77465302 3.1958001 5.5104799 12929098
0.83679402 3.2054601 5.5304799 12298618
0.83632201 3.20398 5.5278001 12364150
0.83927703 3.2172999 5.55195 13022081
0.86084902 3.19649 5.51336 5921318
0.88176101 3.2069399 5.5289202 6318391
0.89636099 3.2106099 5.5362 5990206
0.91849601 3.1891899 5.5088701 4543036
0.983347 3.1776099 5.4936399 11445131
1.03031 3.19116 5.5064502 14598929
1.08575 3.20311 5.5353599 12292672
1.09935 3.1958499 5.5232 10053714
1.18233 3.1823201 5.4942698 12296470
1.26693 3.27649 5.6553898 2891029
1.28914 3.2825899 5.6652002 2891031
1.3578 3.3233199 5.7256298 7753288
1.38188 3.32651 5.7318201 9326416
1.39726 3.3223801 5.7231002 10244951
1.41997 3.33464 5.7441401 10112593
1.43892 3.3413601 5.7547598 9718605
1.47649 3.3109901 5.7165799 10176337
1.48993 3.3156199 5.7196398 10766933
1.49762 3.3051701 5.7057099 11226971
1.5142601 3.3008299 5.6939101 11882850
1.51416 3.3006301 5.6935301 11882850
1.52292 3.30425 5.7006798 11817310
1.63469 3.2442501 5.6052399 12557154
1.69102 3.20734 5.5514698 2893862
1.69969 3.2014401 5.5382299 2894123
1.79756 3.16699 5.4909301 4143160
-1.34338 2.9109199 4.9947801 13812913
-1.3367 2.9140301 5.0018501 13220520
-1.32989 2.91659 5.0103898 9273461
-1.31363 2.90868 4.9959798 6379347
-1.31217 2.9599299 5.0819702 9338995
-1.29926 2.95925 5.0803499 14798772
-1.28438 2.95983 5.0798302 14731947
-1.26929 2.9756501 5.10531 12560269
-1.25658 3.0016 5.1499801 11837064
-1.18129 2.98699 5.1241698 2105384
-1.0185699 2.8435199 4.89851 9269339
-1.01785 2.845 4.8977199 9926751
-1.01429 2.8594601 4.9209399 11637113
-1.01423 2.85938 4.9203901 11702649
-0.94269401 2.8789401 4.9619899 14268055
-0.931104 2.8850601 4.9629798 10846054
-0.952582 2.9902401 5.13692 9466453
-0.94646502 3.0035601 5.1515799 11440760
-0.94214302 3.0118401 5.1692801 11507068
-0.937186 3.01057 5.1728201 8480849
-0.85786098 3.0081601 5.1658001 12295551
-0.836254 3.04233 5.2238698 7890519
-0.75089598 3.04088 5.2145901 2896937
-0.67865998 2.98998 5.13797 5460032
-0.68461299 3.3345301 5.6897302 3355190
-0.605591 3.23525 5.5387001 3223604
-0.58856201 3.2716601 5.5881701 3550001
-0.58865201 3.27193 5.5885901 3550001
-0.47346801 3.2832 5.6163101 12345459
-0.45242101 3.28547 5.6136799 11951977
-0.0767961 3.1027701 5.33042 11575189
-0.080393799 3.1043601 5.3306098 11773083
-0.069796301 3.1127999 5.3477502 11575704
-0.058463201 3.09181 5.3129401 11114119
-0.0360603 3.10355 5.3378 11377810
-0.0360603 3.10355 5.3378 11245964
0.52945697 3.1475999 5.4207301 13548459
0.53902203 3.1480501 5.4154 13154216
0.64397001 3.2215099 5.5369401 5724774
0.70616603 3.21366 5.5316901 14598666
0.72051102 3.22121 5.5352101 15053346
0.81157601 3.20469 5.5193901 8616511
0.83775401 3.2100799 5.5200801 11640383
0.86365801 3.2035601 5.5093799 11708744
1.10534 3.18929 5.5033798 8146737
1.26433 3.26721 5.6302199 2628375
1.37221 3.3278999 5.7233701 10180700
1.44716 3.3261099 5.7238798 10112596
1.4534 3.3248401 5.71627 9849425
1.46692 3.31868 5.7162499 10046293
1.50172 3.30337 5.6831298 11160665
1.51095 3.3076301 5.6982002 11488859
1.53223 3.3127501 5.7012501 12539747
1.63956 3.23896 5.5908298 12754790
1.6606899 3.2358501 5.5843301 12755561
-1.35164 2.9116499 4.9913402 10787219
-1.3144799 2.9138701 4.9907298 6378834
-1.3312401 2.96122 5.0706501 6181195
-1.33003 2.95944 5.0678 6181195
-1.3181 2.95771 5.0685 6905173
-1.31355 2.9649501 5.07411 9076081
-1.31486 2.9653101 5.0764298 8747117
-1.28644 2.9700401 5.0837002 14797997
-1.27391 2.9612401 5.0738201 13876895
-1.2513601 2.99366 5.1241798 13021077
-1.15677 2.9602399 5.0720201 2433317
-1.16256 2.9677501 5.0819101 2762024
-1.00357 2.8687601 4.9247098 11241066
-1.00261 2.8699999 4.9284101 11174501
-0.95648903 2.88111 4.9507599 14136210
-0.936176 2.8771999 4.9478402 12490871
-0.94794899 2.9734001 5.0982599 10848621
-0.91400599 3.0632801 5.2411499 9600104
-0.836335 3.0436101 5.2091298 9929324
-0.82345003 3.04089 5.2128401 5786179
-0.74149501 3.0415399 5.2098098 7630404
-0.63903099 2.9874301 5.1248102 9272689
-0.59614497 3.2682199 5.5757999 3091505
-0.479662 3.29651 5.6219602 10770783
-0.0915775 3.0956199 5.3095398 11706776
-0.075802803 3.0859001 5.2922702 11245708
-0.045960002 3.0987301 5.3200598 11443600
0.48250699 3.1537299 5.4211102 12892329
0.63671499 3.2074699 5.5077 5594986
0.65938002 3.2103 5.5044599 7966357
0.73399901 3.2150099 5.5240502 12610370
0.74835497 3.20981 5.5150299 13136479
0.76099801 3.1953001 5.4874201 15049359
0.76026499 3.2002299 5.4944501 14391682
0.83178002 3.2149 5.5240202 13481287
0.840563 3.21543 5.5169802 14863162
0.852112 3.20609 5.51089 12759877
0.851147 3.20011 5.4941502 13614656
0.86552697 3.1807101 5.47124 12695631
0.961218 3.1808 5.4695802 13022605
1.08767 3.1842 5.4819798 10639660
1.09191 3.1977501 5.5001998 10839084
1.10184 3.2000899 5.4987302 13541943
1.11886 3.2008801 5.50316 10585638
1.13806 3.2008901 5.5051498 12362535
1.22475 3.1886799 5.4875598 4205603
1.26264 3.27916 5.6319199 4139294
1.30976 3.3025899 5.6670599 6375993
1.32294 3.3071201 5.6774502 6178358
1.35842 3.3332601 5.7192998 6896697
1.48985 3.3210199 5.70998 10504018
1.49376 3.3117599 5.6912198 10635605
1.55762 3.3127401 5.6914301 11553594
1.58043 3.2978899 5.66607 10698792
1.5953799 3.2498701 5.5939102 10372136
1.6880701 3.21364 5.5414701 6115130
1.87398 3.0842099 5.3354201 8485748
-1.34234 2.9131999 4.98172 13681843
-1.33104 2.9177799 4.9877601 12760482
-1.32881 2.96173 5.0546799 6115659
-1.32233 2.9660101 5.06635 6576466
-1.32239 2.9654601 5.0665998 6576210
-1.30843 2.96632 5.0676098 10786184
-1.29151 2.9616499 5.0629201 15259061
-1.2907799 2.95999 5.0611801 15259062
-1.24703 3.00542 5.1359601 9009516
-1.02496 2.85255 4.89505 11110510
-0.94312102 3.0194399 5.1596098 13546388
-0.93722099 3.02581 5.1749601 13349270
-0.85381597 3.01861 5.1581998 12756098
-0.82363403 3.0434101 5.2000599 9140322
-0.803496 3.04143 5.1947498 4931885
-0.804515 3.0731201 5.2497201 4405541
-0.75153798 3.04901 5.20997 3028269
-0.558052 3.2832401 5.5924401 12674428
-0.49953499 3.2871799 5.5940199 10378074
-0.399434 3.3050799 5.6261802 9722448
-0.37888601 3.29737 5.6157999 9787213
-0.123 3.1265099 5.34548 12101792
-0.111118 3.10391 5.3089199 11772052
-0.064153701 3.09043 5.28929 11574414
0.50599802 3.1497099 5.39955 15062208
0.59537601 3.19732 5.4810801 4738902
0.61088997 3.2027099 5.4802299 3953250
0.61918199 3.1998401 5.4762802 4544357
0.72033799 3.2212 5.5171599 14793507
0.82598102 3.20116 5.4857302 14599224
0.82596499 3.20913 5.4977999 14796346
0.83929402 3.20783 5.4927602 14467894
0.94479299 3.18068 5.45575 13679765
1.06846 3.20017 5.4944201 11831322
1.0917799 3.20046 5.4868202 15055661
1.11098 3.2004499 5.4936299 13742381
1.12749 3.2011199 5.4986 13414439
1.15114 3.1904099 5.4818201 11638548
1.22922 3.20365 5.5016999 3942176
1.36923 3.32182 5.6957202 9851991
1.38006 3.3129499 5.6767702 10769495
1.41787 3.33266 5.7066302 12344681
1.47703 3.3173001 5.68996 9782089
1.48835 3.2974701 5.6526098 10767193
1.57433 3.31039 5.6711702 11619632
1.61619 3.27455 5.61621 10568489
1.6518 3.2449501 5.5728502 12294499
1.71257 3.20679 5.5115499 2959399
1.77291 3.1203301 5.3776398 3814966
-1.32833 2.9623799 5.05474 6050123
-1.32339 2.9709201 5.0584202 6313552
-1.30904 2.97121 5.0591402 10128511
-1.29818 2.96786 5.0606899 14141100
-1.27767 2.96999 5.0604601 13679262
-1.2503 3.0071001 5.1208401 12167060
-1.24429 3.0163801 5.1399899 4274491
-1.15815 2.9651101 5.0626402 6248276
-1.1506701 2.95875 5.0517602 5326918
-1.01603 2.8768101 4.9197898 12820867
-1.01592 2.8773401 4.9194102 12755075
-1.00642 2.87447 4.9198699 11109736
-1.00605 2.87501 4.9190502 11044201
-0.96664298 2.88627 4.9402199 11767149
-0.95617801 2.8845501 4.9349699 12162162
-0.93318498 2.9086699 4.9782701 8610643
-0.95358098 2.97773 5.0775299 8217414
-0.95584399 2.98049 5.0813999 8020292
-0.95286399 3.0019801 5.1250401 14598299
-0.948053 3.0122299 5.1395798 14072217
-0.91234201 3.0610299 5.2112598 7692622
-0.799164 3.04791 5.1960802 5720624
-0.74193799 3.0486901 5.2034101 6446654
-0.597067 3.2762699 5.5647402 3156271
-0.47967699 3.29935 5.6062598 9065288
-0.46683201 3.29792 5.6015401 8539454
-0.41170299 3.3004401 5.59974 9000260
-0.411246 3.30424 5.6171198 9460042
-0.387862 3.3034799 5.6118102 9328455
-0.31785399 3.1068299 5.2964001 9589839
-0.122673 3.1083801 5.30375 11837847
-0.077157401 3.0876999 5.2772498 11443086
-0.055513401 3.10183 5.2962298 11969684
0.517317 3.15626 5.4029799 7691853
0.65993899 3.2121799 5.4916 6716293
0.760638 3.20941 5.49295 14992036
0.86113399 3.18782 5.4498601 14863493
0.92260599 3.1776199 5.4383602 14206113
0.93368697 3.1824 5.4526401 14074784
1.0669301 3.2040999 5.4815402 12291862
1.14745 3.18714 5.4644098 12296213
1.29449 3.3028901 5.6518302 6047028
1.3669 3.32198 5.6806202 8604998
1.43967 3.31426 5.6634998 12082532
1.46954 3.3299699 5.6915398 9980241
1.57183 3.3102801 5.66541 11685169
1.58966 3.3062899 5.6571002 10962218
1.6855299 3.2223401 5.5335202 11836009
1.7831399 3.16886 5.44803 3683126
1.78298 3.1684301 5.4469299 3683126
-1.3430001 2.91851 4.9744802 12958900
-1.3261499 2.9228499 4.9763999 12431521
-1.3153501 2.9387 4.9988999 6971487
-1.31766 2.9654901 5.0468202 6313296
-1.28897 2.97594 5.0653801 15061171
-1.27551 2.9797699 5.0703402 12823699
-1.2647099 3.00173 5.0980501 10981239
-1.26504 3.0014 5.0999899 10718067
-1.25893 3.0074201 5.1160202 13876387
-1.06458 2.86555 4.8903098 10519401
-1.02764 2.8696201 4.8951602 11833718
-1.023 2.8768001 4.9138999 12689280
-1.00045 2.88135 4.9159698 9333073
-0.941495 2.8884699 4.93401 12623229
-0.93589598 3.0105901 5.1234198 13808271
-0.84965402 3.0288601 5.1502199 12426615
-0.850375 3.0335901 5.1598201 12295288
-0.82290399 3.0422001 5.1803098 10981234
-0.804663 3.0491199 5.1835899 9863781
-0.788688 3.04175 5.1730499 5787441
-0.751679 3.05669 5.2002602 3158823
-0.41068101 3.29877 5.5908298 9197636
-0.410662 3.29932 5.5914998 9197635
-0.15365601 3.0887201 5.26542 12101015
-0.111214 3.10695 5.29634 11179917
-0.098824002 3.1023901 5.2864199 11311755
-0.067887098 3.1098599 5.2951999 12036513
-0.054914799 3.1036999 5.2911501 12035477
-0.050571602 3.1003399 5.2905598 11969941
0.448901 3.17208 5.4130602 14535350
0.56587303 3.2207899 5.4923601 9928003
0.58382601 3.2188599 5.4896002 7103839
0.642744 3.2033701 5.4644399 7770265
0.658167 3.20451 5.4619298 6584446
0.75764102 3.2065499 5.4689598 14664866
0.89869899 3.1724501 5.4208598 14403746
0.905554 3.1751399 5.4241099 14535332
0.914496 3.1767299 5.4316401 14403747
0.91532201 3.1818099 5.4338598 14798502
1.00745 3.19169 5.4500499 12756228
1.02911 3.19276 5.4588399 14993419
1.03104 3.1968801 5.46387 14862091
1.07398 3.19945 5.46663 14859040
1.14606 3.2045 5.4802999 14269720
1.1472501 3.1921501 5.4547901 13940761
1.5285701 3.3055401 5.64605 12868683
1.63099 3.26565 5.5882802 11171918
1.77675 3.18712 5.45819 3420211
-1.32795 2.9276099 4.9686899 13484462
-1.31269 2.9234099 4.9643898 7694691
-1.3062 2.97737 5.05023 10522757
-1.04983 2.86902 4.8859501 12096634
-1.01607 2.8864 4.9133301 9597534
-1.00819 2.88466 4.9149399 9202002
-0.95229399 2.8929501 4.9308701 10977890
-0.94433099 2.89188 4.9254699 12623229
-0.94623101 2.8901 4.9226398 11636075
-0.935615 2.8906901 4.9240999 14598050
-0.95072103 2.9965899 5.0943599 13874318
-0.95218801 2.9986601 5.0968199 13676940
-0.946132 3.0069301 5.1020999 14137232
-0.94237697 3.01666 5.12006 14005907
-0.84328097 3.04058 5.1603198 11242085
-0.797122 3.0476201 5.17342 9403224
-0.69843102 3.33179 5.6268201 3486261
-0.15594099 3.0842299 5.2444 11969172
-0.125476 3.1103899 5.2848301 11575188
-0.110955 3.10885 5.2813501 11640465
-0.087600604 3.10604 5.2773499 12035479
-0.076790102 3.1103899 5.29072 11707546
-0.051484399 3.1131999 5.2987599 12035736
-0.047744598 3.1117001 5.2911401 11969943
0.38862199 3.1266699 5.3216701 13088935
0.451083 3.14536 5.3572102 10653307
0.54057902 3.1603601 5.3782902 7556397
0.55291301 3.2237201 5.47646 8742434
0.56586999 3.22245 5.4761701 13413963
0.59377801 3.2008801 5.44596 7108208
0.88840097 3.17274 5.4128199 14732451
0.923527 3.18363 5.4294701 14468223
1.01884 3.1814599 5.4222698 14203657
1.15535 3.1937201 5.4506798 14795287
1.19233 3.2062299 5.4658999 15058200
1.3771501 3.3268001 5.66366 8080960
1.5496401 3.31652 5.6494498 12212537
1.57447 3.3034501 5.6339102 11817523
1.5808001 3.29987 5.6250501 11488816
1.64205 3.26229 5.56567 11569752
1.67066 3.2509201 5.54913 12293984
1.6805 3.25034 5.54423 12228188
1.67953 3.2449901 5.54285 12359516
1.72594 3.21983 5.5057902 4404526
1.78172 3.18045 5.4468899 3486260
1.84544 3.19508 5.4622302 4012347
1.87551 3.1048601 5.3287101 6907233
1.88384 3.10378 5.3219199 7236971
-1.31392 2.9373 4.98102 6444884
-1.3111399 2.9737201 5.0364299 6905178
-1.2904201 2.9678299 5.0315499 13417125
-1.25793 3.0055599 5.0834999 14534828
-1.2551 3.02226 5.11025 11576205
-1.24523 3.0218101 5.1145802 4340539
-1.18242 2.96258 5.01896 5261382
-1.06671 2.8694501 4.8731499 9335388
-1.0576 2.8635099 4.8689499 11966075
-1.04064 2.8761201 4.8853798 8214857
-1.0292799 2.8819799 4.8955102 9860708
-1.02263 2.8849499 4.9056101 10058597
-0.94920701 2.90095 4.9257202 10846304
-0.95165998 2.9003601 4.9271102 10583388
-0.93901098 2.90697 4.9369998 14335394
-0.93071902 2.9157901 4.95575 11046008
-0.919227 3.0285201 5.1285901 13742991
-0.915672 3.0374999 5.1451001 13743247
-0.91627002 3.0387299 5.1470599 13677454
-0.91066402 3.05808 5.1793699 13415833
-0.88968402 3.0474999 5.1606002 10390651
-0.82338798 3.05126 5.1725898 11769717
-0.81216502 3.0501299 5.1691799 10717284
-0.80161899 3.0539701 5.1703801 11374955
-0.78930801 3.05003 5.1691999 7824966
-0.78324801 3.05498 5.17208 5656373
-0.75308901 3.06374 5.1879702 2698275
-0.629812 3.01439 5.1178498 7232595
-0.57785398 3.2974601 5.5639901 11559797
-0.41921601 3.2283101 5.45293 8540223
-0.161079 3.0927999 5.2449398 11772309
-0.15678 3.0822201 5.2374201 11969174
-0.136182 3.1062 5.2699599 11706518
-0.088852897 3.1048601 5.2744198 12101270
-0.058824901 3.1082699 5.2765698 11969941
0.31165999 3.17293 5.38554 12168088
0.41116101 3.12767 5.31637 13022113
0.527623 3.23102 5.4766202 6239006
0.58164197 3.20137 5.4341502 7298621
0.60321301 3.20508 5.4393101 9608326
0.72389698 3.2283599 5.4770999 14797085
0.73990202 3.2047 5.4492698 14862223
0.81589699 3.21067 5.4535298 15193782
0.82937998 3.20418 5.4447498 14995887
0.888592 3.1754601 5.3990698 15061412
0.88916701 3.1772399 5.4022298 15060896
0.985443 3.20383 5.4521999 15256843
1.00834 3.1905601 5.4244399 13479687
1.02871 3.17805 5.4112201 14993676
1.147 3.21538 5.47647 15058454
1.20648 3.2168 5.4734101 14926616
1.43997 3.3238499 5.6471701 10374470
1.55295 3.32336 5.6448302 11623737
1.6349601 3.2723601 5.5671301 10581834
1.71984 3.22452 5.4923 11503462
1.73764 3.20556 5.4699101 2630436
1.77965 3.1851101 5.4335699 3288882
1.79166 3.11362 5.3202701 3880504
1.8782901 3.1121199 5.3238702 6841698
1.8864599 3.1131599 5.32267 6776420
1.88747 3.11445 5.32618 6841698
-1.31776 2.9313099 4.9582801 11773596
-1.31178 2.93647 4.9629698 7431264
-1.3086801 2.97768 5.02811 6576471
-1.29834 2.9755399 5.0297999 10127999
-1.29184 2.9825001 5.03441 12956060
-1.2856899 2.9858201 5.0444598 13284765
-1.27522 2.98981 5.0496602 10652275
-1.2452101 3.0252399 5.1038098 5327691
-1.202 2.96486 5.0152001 3354165
-1.17796 2.96543 5.01087 8153698
-1.1378 2.9506099 4.9941001 8153698
-1.05873 2.8720801 4.8672099 12491645
-1.05126 2.8748901 4.8803101 11504500
-1.05145 2.8710401 4.8713999 11833203
-0.96891302 2.9119699 4.9400401 11175528
-0.96177202 2.91155 4.93049 11109218
-0.94292498 2.9032099 4.9261699 13478796
-0.924739 2.9144101 4.9412398 9664612
-0.95854598 3.0069599 5.08354 9269845
-0.95157802 3.0136399 5.09409 12427130
-0.85444999 3.04986 5.1582298 13348487
-0.84054899 3.05229 5.1642098 12032119
-0.81727999 3.0510001 5.15939 12491893
-0.79333103 3.05492 5.1635499 11967607
-0.71407902 3.0392201 5.13936 6973517
-0.63853103 3.06809 5.19309 4077368
-0.35866201 3.1227901 5.28056 8606016
-0.35037899 3.12361 5.2814398 8277566
-0.20299301 3.0934701 5.2361898 12232861
-0.193389 3.0891399 5.2326198 12232861
-0.181769 3.08915 5.2288799 11903638
-0.11105 3.1150899 5.2745299 11838100
-0.087505303 3.1112101 5.2676401 12035992
-0.089570597 3.1142299 5.2726698 12167063
0.33376399 3.1706901 5.3673 13484722
0.35207701 3.16066 5.35605 13419442
0.44775999 3.1646399 5.35953 5122333
0.53562301 3.23104 5.4682798 6897956
0.56946099 3.2075601 5.43613 14336334
0.60348302 3.2021999 5.4319 10397318
0.79507399 3.2215099 5.4583101 15061423
0.96825898 3.1928899 5.42309 15191306
1.01886 3.18503 5.4107099 14663693
1.1839401 3.2086699 5.4464002 15386635
1.19345 3.20875 5.4519501 15452430
1.36727 3.3120899 5.6207199 7097145
1.4544801 3.32284 5.6363401 12682341
1.46369 3.3197601 5.6251998 12686696
1.47708 3.3117099 5.6177201 13080940
1.54839 3.3146601 5.6292901 11689786
1.54962 3.31706 5.6335201 11689785
1.57443 3.3036399 5.6093898 11885624
1.6043 3.2883301 5.5794101 10900530
1.63001 3.2817099 5.5700998 9790268
1.64539 3.2552099 5.5328398 11175254
1.66345 3.23803 5.5081301 11832920
1.67635 3.2285099 5.4942698 12754019
1.69446 3.2458701 5.5209999 13147750
1.72797 3.2135601 5.4711499 6506042
1.7749701 3.1575501 5.3855901 3420467
1.7839 3.1012499 5.2929401 3749174
1.84243 3.2124701 5.46948 3881275
1.8464299 3.1300499 5.34554 4209725
1.86069 3.1205599 5.3302798 4275002
1.86409 3.12238 5.3312101 4341053
1.87325 3.1201899 5.3238301 5920340
1.8824199 3.12151 5.3234901 6841956
-1.34393 2.9359901 4.9587302 9999255
-1.3287899 2.9281399 4.9419098 13353917
-1.3196 2.93554 4.95048 13681591
-1.31442 2.9293101 4.9404502 12826280
-1.30461 2.94277 4.9643402 6313561
-1.30725 2.97927 5.0267301 6576215
-1.25731 3.00456 5.0661898 14534315
-1.1928 2.97298 5.01824 3024684
-1.0510499 2.8752899 4.8653498 10452328
-1.0406899 2.8812001 4.8800502 8873305
-0.99545699 2.92786 4.9461298 9924948
-0.97925103 2.92012 4.9406199 12228216
-0.94707102 2.9110799 4.9228501 12096630
-0.954557 2.9124701 4.9286399 10057047
-0.93959802 2.91238 4.9272699 13940122
-0.93192202 2.9122801 4.9319201 13414294
-0.952025 3.0213699 5.0950398 11638131
-0.94463199 3.02514 5.1023598 11045223
-0.89535201 3.0371101 5.1189699 13876124
-0.902834 3.0525899 5.1524301 13678746
-0.84479499 3.06248 5.1641402 13018751
-0.83590698 3.05966 5.1619 12557689
-0.81097001 3.0561099 5.15906 11965550
-0.801144 3.05773 5.1594601 10912607
-0.78678799 3.0587499 5.16465 9601119
-0.77906197 3.05987 5.1617899 4934199
-0.75320601 3.0692 5.1770101 2961447
-0.65702599 3.37953 5.6683502 3420983
-0.431858 3.2244101 5.42871 8014394
-0.27628601 3.11148 5.2537699 12364706
-0.189363 3.0992999 5.2359099 11771794
-0.16304199 3.09462 5.2302198 11640209
-0.134562 3.10462 5.2509198 12035222
-0.113009 3.11064 5.2564001 12167064
-0.099963598 3.1062701 5.2521 12101528
0.30012301 3.1721399 5.3576002 11774622
0.31144801 3.1730101 5.3634501 12695982
0.52963001 3.2430899 5.4776201 6107676
0.57073498 3.2142301 5.4303298 13941043
0.58189899 3.2037001 5.4205999 12232270
0.59167397 3.19959 5.4113798 14272091
0.71922201 3.2180099 5.44558 14862103
0.75469202 3.19998 5.4163499 15059866
0.77582598 3.1997001 5.4203901 14995888
0.804865 3.2164299 5.44765 15193525
0.97227901 3.2049799 5.4265699 15717394
1.1718 3.2076199 5.43821 15322124
1.34983 3.2990799 5.5794501 6572343
1.42369 3.3324201 5.6381302 11621183
1.44067 3.3274701 5.6343598 10047035
1.56901 3.3192799 5.6181698 11627847
1.58313 3.3032801 5.5928402 12022090
1.57438 3.2692699 5.5374999 10968891
1.61479 3.28988 5.5791602 10575675
1.6212 3.2879 5.5675101 10841669
1.6320601 3.2646699 5.5335398 10712394
1.6320601 3.2646699 5.5335398 10712394
1.6320601 3.2646699 5.5335398 10712394
1.6566401 3.24791 5.5086398 11370321
1.66515 3.2469499 5.5046401 11303247
1.73475 3.2256701 5.4756298 8538686
1.7756 3.1963699 5.4373598 3157553
1.7773401 3.17678 5.3990598 3223347
1.77711 3.1754701 5.3962102 3223346
1.8393 3.2105899 5.4590201 3815227
1.8453701 3.1557701 5.3755498 4209468
1.8525701 3.1366 5.3383799 4341053
1.85993 3.1333799 5.3329501 4406588
1.86823 3.12815 5.32337 4801603
1.8832901 3.1178401 5.3158398 6908006
1.8832999 3.1177001 5.3154702 6908006
-1.3190399 2.9354 4.9475899 13747385
-1.30536 2.9354401 4.9411998 8221034
-1.2938499 2.9825201 5.0173998 9535863
-1.28139 2.98352 5.01895 12627093
-1.27106 3.00319 5.0486898 9731434
-1.19248 2.9733701 5.0029101 4273721
-1.14666 2.9312501 4.9374599 8546912
-1.1325001 2.9244201 4.9347901 8152923
-1.13693 2.9651999 4.9991202 3023144
-1.07849 2.88025 4.8618898 6507589
-1.05935 2.87889 4.8617902 12096631
-1.00327 2.92536 4.9346399 10583397
-0.98279601 2.9272201 4.9365001 13674887
-0.97198701 2.9193299 4.93046 12754041
-0.94027603 2.9118199 4.92068 13808020
-0.92580801 2.9232199 4.93433 8678492
-0.962237 3.02564 5.0959001 8546900
-0.95327002 3.0273399 5.0995202 11177840
-0.92970997 3.0250101 5.0942998 12163966
-0.839481 3.06691 5.1565499 13019007
-0.79358101 3.0620999 5.1587501 11967094
-0.78459501 3.0675099 5.1594 10784623
-0.77368498 3.0687001 5.1696901 2634283
-0.77386099 3.0690999 5.17032 2634282
-0.77386099 3.0690999 5.17032 2634282
-0.771617 3.0759201 5.1725702 2175282
-0.50582898 3.2681899 5.47925 8015166
-0.488002 3.26651 5.4842 7883321
-0.178509 3.10481 5.2298999 11903378
-0.17226499 3.1005399 5.23105 11574672
-0.168909 3.1008401 5.2281899 11706260
-0.158888 3.1043899 5.2312698 12035223
-0.153341 3.10145 5.2309399 12035222
-0.145473 3.1012001 5.2346902 12100759
-0.134646 3.11081 5.2407799 12167321
-0.13474999 3.1106999 5.24054 12167321
0.341979 3.16308 5.3359599 8680299
0.53609002 3.24071 5.4605398 6436896
0.56227201 3.23189 5.4506502 13281827
0.59222698 3.20348 5.4019899 15126051
0.59318 3.18699 5.3786602 15060522
0.68203199 3.19291 5.3966498 15257876
0.84516299 3.1714499 5.3619199 15126416
1.04088 3.19766 5.40276 15782155
1.29468 3.2695601 5.5276999 6441272
1.29468 3.2695601 5.5276999 6441272
1.36288 3.3044701 5.57512 7623482
1.40205 3.3104701 5.5928998 12080702
1.43077 3.3279099 5.62322 11227450
1.46529 3.32149 5.6153998 12030306
1.47683 3.3148701 5.60462 12293477
1.55391 3.3179801 5.60536 9593664
1.5698 3.3174901 5.6101699 11958350
1.5758801 3.3120401 5.5984302 12814171
1.60304 3.28794 5.56388 11761998
1.61015 3.2883401 5.5562201 11765336
1.65994 3.23878 5.48804 11302733
1.77069 3.2107999 5.4454398 2829102
1.77905 3.2096 5.4400401 3026481
1.77826 3.1616499 5.3666801 3289138
1.7970901 3.11783 5.3014102 3749175
1.78803 3.1109099 5.2909098 3552055
1.8401099 3.2238801 5.46663 3684154
1.8513401 3.1700201 5.3849001 3947069
1.85154 3.15749 5.3582101 4012604
1.85149 3.1602299 5.3640599 4012604
1.87736 3.12801 5.3203902 5854805
-1.30011 2.94206 4.9448199 6116175
-1.30075 2.94398 4.94731 6642776
-1.29883 2.97242 4.9955301 5655369
-1.13958 2.9344101 4.9383302 6508101
-1.07039 2.88133 4.8564401 9531744
-1.05145 2.8756199 4.8475099 9991780
-1.03991 2.9433701 4.9498601 2499371
-1.01943 2.9263501 4.9288802 4009772
-0.99556398 2.92957 4.9327202 10648928
-0.98602903 2.92362 4.91957 13609093
-0.96506202 2.9195499 4.9220099 12490358
-0.950562 2.92349 4.9193001 14070935
-0.94283402 2.92331 4.9222598 13743257
-0.919707 2.9310901 4.93506 6574151
-0.93845898 3.0301199 5.0848899 9795941
-0.81426197 3.06476 5.15169 13150337
-0.80570102 3.0671899 5.1498299 12491893
-0.79151899 3.0791099 5.1652498 12559233
-0.66810697 3.3870299 5.65588 3618360
-0.66206902 3.3889799 5.6607299 3421496
-0.65264302 3.3956599 5.6621799 2697520
-0.54033703 3.29509 5.5127401 5645619
-0.51633602 3.27421 5.4773202 6437944
-0.50771803 3.2681999 5.4758601 7884096
-0.19790301 3.1124001 5.2337499 11969428
-0.188052 3.1107399 5.2341099 11903634
-0.154313 3.10602 5.2279301 12166809
-0.13697 3.1166999 5.2444501 12167322
0.26026201 3.18327 5.3608499 11313815
0.72808701 3.20226 5.3971601 14007362
0.76512903 3.20818 5.4059901 14466664
0.76502597 3.2077701 5.4056602 14466921
0.76119798 3.20557 5.3987598 14335077
0.82568997 3.16962 5.3519101 14928001
0.83624798 3.1691101 5.34549 14994029
0.87923503 3.1881001 5.38099 15586131
1.05143 3.1995001 5.3990898 15781898
1.33564 3.30107 5.55831 6703673
1.3442 3.2889199 5.5407901 6769462
1.3638099 3.3076799 5.5756698 7623225
1.4540499 3.323 5.60361 11700829
1.47753 3.3220601 5.59624 10056774
1.58367 3.3087101 5.58533 12817253
1.5941499 3.3013401 5.5707102 12752997
1.59992 3.2962799 5.55688 12556645
1.62877 3.2778399 5.5376401 11042899
1.62832 3.2929299 5.5588102 11241049
1.64852 3.26916 5.5248899 9921341
1.7822 3.1898201 5.4035401 3157552
1.78271 3.1763101 5.3741999 3223345
1.78241 3.17556 5.3727598 3223345
1.78918 3.17927 5.38239 3354675
1.7892801 3.1775501 5.3787198 3354675
1.78918 3.17927 5.38239 3354675
1.84728 3.2293 5.4650698 3749946
1.85867 3.14328 5.3316002 4209467
1.86567 3.13712 5.32201 4406846
1.88248 3.1294799 5.3072801 6513508
1.88346 3.1151299 5.2839599 6776680
-1.30358 2.9345 4.9229102 11971486
-1.29172 2.9819601 4.99507 6707539
-1.29277 2.9852901 5.00453 7562075
-1.28501 2.99738 5.0228701 11639684
-1.26633 3.0149801 5.0448198 13548714
-1.18955 2.9672999 4.9766798 5983306
-1.06557 2.8885801 4.8610802 11701367
-1.05479 2.88728 4.8503399 8085072
-1.0411299 2.87712 4.8436899 7231574
-1.02317 2.9337101 4.9286299 4076593
-1.02116 2.9394 4.9345798 2958889
-1.01301 2.93646 4.9302802 7232594
-1.00464 2.9340501 4.93327 11044974
-0.99417698 2.93028 4.91784 12096369
-0.97752601 2.9340401 4.93331 14267794
-0.92446601 2.9260001 4.9213901 6442817
-0.95005298 3.0349801 5.0907602 9205092
-0.94794399 3.0345399 5.0871902 8942178
-0.88083202 3.0469699 5.10253 13808790
-0.856134 3.0538299 5.1149902 12032379
-0.850595 3.0617001 5.12992 14728845
-0.84336197 3.0664699 5.1391201 12886386
-0.82337302 3.0704899 5.1483102 13084547
-0.814511 3.0715001 5.1439099 12426359
-0.748564 3.07686 5.15909 6250052
-0.65758699 3.0074899 5.0493698 14536376
-0.64929903 3.0045199 5.0479102 13943471
-0.63101602 3.07037 5.1469002 4537403
-0.66048801 3.39381 5.65312 3092275
-0.64929903 3.3937299 5.6562901 2828589
-0.524629 3.2869799 5.4917402 4661543
-0.50881302 3.2760401 5.4700098 6635320
-0.37487999 3.15869 5.2866602 9727585
-0.165884 3.1162701 5.2255201 12167322
-0.157994 3.1167901 5.2329001 12232858
-0.144317 3.1173601 5.2365398 12232601
0.223077 3.1726201 5.32408 11247765
0.244638 3.13235 5.2680802 11576729
0.55196398 3.22313 5.4116502 12162102
0.57575399 3.2086799 5.38622 13809191
0.70230597 3.21244 5.4001398 12627773
0.702003 3.22346 5.4209399 12694336
0.71599799 3.21404 5.40031 10984250
1.00341 3.21296 5.4110498 15123721
1.0145 3.21158 5.4065399 14991113
1.05527 3.2084799 5.3970699 15716107
1.06759 3.2024801 5.3968301 15715082
1.20068 3.2370999 5.4498401 15451148
1.21341 3.2421 5.4537501 12819740
1.22579 3.24494 5.4601998 6571046
1.2977099 3.26893 5.5038099 6572856
1.3468699 3.2915201 5.5341201 7623482
1.3663599 3.3130801 5.5705199 7425330
1.38156 3.32058 5.58252 8539702
1.44075 3.32881 5.6016598 11102020
1.45599 3.3266699 5.5905299 12425579
1.46822 3.3252101 5.5909801 10781010
1.48733 3.32816 5.5984302 11175513
1.57112 3.325 5.5977998 10385488
1.57978 3.31991 5.5831099 10122831
1.61094 3.2944 5.5483398 11965282
1.60709 3.28913 5.5370102 11899747
1.63905 3.27899 5.5204401 10581065
1.6485 3.27704 5.5192399 9786929
1.77741 3.2185199 5.4293599 2500139
1.78343 3.2167399 5.4316602 2960689
1.77982 3.19871 5.39744 2894637
1.8566999 3.17489 5.3716698 3947069
1.85671 3.1744201 5.3706698 3947069
1.85671 3.1744201 5.3706698 3946811
1.86489 3.1495099 5.3238702 4209725
-1.30518 2.93748 4.9127598 13945532
-1.29774 2.94262 4.9278302 8616563
-1.28157 2.9289999 4.9019699 5656137
-1.17601 2.94138 4.9298201 7561050
-1.07284 2.8947401 4.8575301 9596766
-1.05074 2.9651101 4.9703102 2434865
-1.0320801 2.95193 4.9441099 2433836
-0.96959901 2.9312699 4.9197898 13478018
-0.93627101 2.9367199 4.9218302 7890264
-0.865089 3.0532899 5.11165 4797228
-0.80125302 3.06826 5.1354599 12755071
-0.79178101 3.0839701 5.1553001 12295803
-0.75781697 3.08023 5.1509399 1911081
-0.66460699 3.0046599 5.0374398 13418666
-0.63531297 3.0060501 5.0345402 10061436
-0.64567202 3.07091 5.1378598 8283481
-0.63670897 3.11112 5.2037501 4012345
-0.62767899 3.0778699 5.15168 4405814
-0.67003 3.38906 5.6328402 3618360
-0.66424501 3.39955 5.6514802 2960690
-0.52474999 3.2883601 5.4760399 4792364
-0.51966298 3.2841499 5.4716001 4267301
-0.50115502 3.27707 5.46136 6964287
-0.48300901 3.26472 5.4477201 7554618
-0.339789 3.1105199 5.2113099 12099990
-0.18548401 3.1217599 5.2246399 12298650
-0.186116 3.1263299 5.2336202 12298650
0.186992 3.1679499 5.30516 11380125
0.228736 3.1608 5.3021002 11313559
0.74489403 3.22403 5.4123201 10061600
0.76183599 3.2154701 5.3941398 14795035
0.81295502 3.1979499 5.3677301 14729244
1.0221699 3.21347 5.4026899 14662152
1.06504 3.2135401 5.39469 15781644
1.07856 3.2014401 5.3849101 15649546
1.30277 3.2734599 5.4964199 6901047
1.34364 3.2857599 5.5142598 8214331
1.3572 3.2902801 5.5248699 7885108
1.388 3.3255401 5.5759602 7879970
1.40259 3.3093901 5.5581598 11885632
1.44025 3.32356 5.57266 11696724
1.46874 3.3218701 5.5701399 12557931
1.4954799 3.3362899 5.6037798 11241559
1.49736 3.3227201 5.5742798 11109717
1.5866801 3.3173599 5.5766702 11176029
1.59113 3.3145199 5.5699801 11965798
1.59786 3.3102601 5.56111 12426602
1.62214 3.29269 5.53476 12031851
1.6251301 3.3 5.5466499 11504989
1.65279 3.27898 5.5114002 9784107
1.77586 3.2209101 5.4217901 2302760
1.7866499 3.1872201 5.3759899 3092016
1.7962 3.1891899 5.3749299 3223603
1.7960401 3.19312 5.3832798 3158067
1.8491 3.2061801 5.4078999 3881274
1.85616 3.18748 5.37147 3880761
1.87201 3.14221 5.3095002 4407361
1.88197 3.14134 5.3059201 6249823
1.8943501 3.1409199 5.3036599 6842474
-1.29612 2.9407101 4.9119401 12103332
-1.27864 2.9294 4.8944101 5853517
-1.27465 2.97032 4.95328 9930101
-1.02178 2.94572 4.9272099 2564904
-1.00633 2.9428501 4.9224801 10585713
-0.96062601 2.94082 4.9187498 13413780
-0.96062601 2.94082 4.9187498 13282193
-0.96062601 2.94082 4.9187498 13282193
-0.951886 2.938 4.9165101 12954004
-0.951886 2.938 4.9165101 12954004
-0.951886 2.938 4.9165101 12954004
-0.94038802 3.0392301 5.0685501 3944493
-0.89837599 3.0425799 5.07868 11836291
-0.880629 3.0608201 5.1068401 12427652
-0.85419297 3.0720201 5.1234999 12690567
-0.84372801 3.0769501 5.1357098 12031859
-0.81371897 3.06967 5.12148 11900274
-0.76156002 3.0869701 5.1487398 2437427
-0.750934 3.0825701 5.1461902 5000769
-0.676144 3.0097799 5.0307102 6708814
-0.65303898 3.07339 5.1299901 10454132
-0.680206 3.3915401 5.6287298 4012603
-0.65013897 3.40488 5.64746 2368555
-0.509736 3.2804501 5.46104 4991275
-0.51157999 3.2825401 5.4585099 4464678
-0.49500999 3.27297 5.4461498 7292736
-0.48291501 3.26314 5.4278102 7620411
-0.41410801 3.17642 5.2948298 7488568
-0.38963899 3.1751201 5.29216 12228234
-0.375981 3.16853 5.28543 11769483
-0.37432301 3.16501 5.2814398 11506053
-0.374773 3.1716599 5.2932301 11505538
-0.33958501 3.11552 5.2012401 11901837
-0.197451 3.1277699 5.2312198 12298650
0.179309 3.1658399 5.2924099 11182232
0.202499 3.16482 5.2959599 11379096
0.21483199 3.1648901 5.2929301 11246998
0.57676202 3.2139699 5.3797898 14730813
0.61185801 3.20068 5.3532801 7432478
0.63818997 3.20753 5.3657699 6575896
0.70220602 3.21491 5.38661 6838551
0.712277 3.2130301 5.3796 7494181
0.81971699 3.1958399 5.3505101 14662924
1.19092 3.2559099 5.4531102 15318026
1.19953 3.2549701 5.4513898 15319307
1.20971 3.2577701 5.45755 14398742
1.22153 3.2560899 5.4568 6504982
1.23115 3.25543 5.4552999 4993828
1.2721 3.2762001 5.4907899 6901560
1.2824 3.2867701 5.5022502 7625025
1.29379 3.27637 5.4911599 7229752
1.30966 3.2825601 5.4969001 8346941
1.31353 3.2801199 5.4912 9004355
1.37165 3.30375 5.5327902 6172180
1.40602 3.31972 5.5550199 10179898
1.40907 3.3152499 5.5532198 10573115
1.45944 3.31692 5.5598898 12755054
1.4731801 3.3234 5.5672302 12886636
1.48088 3.3218501 5.5694098 12557414
1.50946 3.3282399 5.5776401 10649683
1.50968 3.32955 5.58007 10517837
1.5206 3.3208699 5.55832 8741949
1.54807 3.3187599 5.5657501 9005644
1.56469 3.3275599 5.58039 8084287
1.57442 3.3303299 5.5820699 7492154
1.58172 3.3270099 5.5732598 7426616
1.5873899 3.32412 5.56534 8413507
1.5883501 3.32412 5.5661802 8479043
1.61815 3.30566 5.5405898 11308124
1.62717 3.3052199 5.5369601 11176281
1.64781 3.28918 5.5190902 10644805
1.6575 3.2777801 5.5016298 9978664
1.66043 3.2790899 5.5048299 10306601
1.66439 3.2746999 5.4921799 10174504
1.7725 3.2206199 5.41045 2105638
1.77852 3.22034 5.4148998 2434089
1.78532 3.2174599 5.4082499 2697516
1.79457 3.21171 5.39639 3026223
1.8643301 3.15955 5.3196301 4012604
1.87211 3.15521 5.3119898 4078398
1.88614 3.14644 5.3003602 5987422
-1.31587 2.9391201 4.9009199 11120053
-1.30138 2.9326899 4.88659 13618377
-1.28697 2.9911699 4.9838099 9074793
-1.04686 2.89501 4.83707 3680813
-1.03025 2.9561 4.9332399 2302764
-0.951729 3.0436599 5.07336 1972253
-0.90200102 3.0485799 5.0773001 9533541
-0.902439 3.0503399 5.08043 9599334
-0.90200102 3.0485799 5.0773001 9533541
-0.87235701 3.06529 5.1037002 7955283
-0.85757202 3.06341 5.0999599 5981505
-0.641756 3.0197799 5.0377898 10916229
-0.64442801 3.0741899 5.1231198 9466465
-0.50954199 3.2832501 5.4475698 4529960
-0.48666999 3.2686601 5.4295902 7489088
-0.398644 3.18314 5.2915902 11371636
-0.345846 3.12644 5.2079802 11374980
-0.24734101 3.0756299 5.1389899 11772308
0.169732 3.1747701 5.2950201 11971747
0.188301 3.16731 5.2893901 11511456
0.2025 3.1666801 5.2816701 8943990
0.359391 3.2197001 5.3669801 5057582
0.43794 3.1802599 5.30761 4728606
0.54794002 3.2188301 5.3766499 8872252
0.55417401 3.2065301 5.3559999 10386492
0.57135499 3.2163799 5.3684702 12362280
0.58449298 3.2137599 5.3709202 13087284
0.64890301 3.2055399 5.3502302 10977615
0.65895897 3.20593 5.3510299 11173454
0.674775 3.2265699 5.3884201 10254146
0.68700302 3.2190101 5.3720498 10975304
0.70150799 3.2176099 5.3731599 11238219
0.71144903 3.2133701 5.36866 11500625
0.72321397 3.20276 5.3484001 11498829
0.75835001 3.20964 5.36303 14729741
0.79891002 3.2091 5.3589301 14729226
0.986099 3.22856 5.3980799 15123209
1.0297 3.2336299 5.40588 14859275
1.0423501 3.2307501 5.40061 14464007
1.0565799 3.2272699 5.3982501 14727174
1.0874799 3.2405 5.4137998 15780620
1.0960701 3.2281899 5.3969498 15781386
1.09795 3.2307799 5.4019399 15781130
1.21518 3.2660999 5.4560299 11109916
1.2156399 3.2665701 5.4561901 10715163
1.2264 3.2648699 5.4557199 3743504
1.23629 3.2678001 5.4651198 3876636
1.2774301 3.28491 5.4901299 7559491
1.30545 3.28949 5.49471 9727817
1.3524899 3.29759 5.5117898 7684382
1.42142 3.3175199 5.5482998 10179902
1.4367599 3.3152499 5.5412002 10646867
1.44549 3.30178 5.5264802 12359016
1.45997 3.32197 5.5504498 12557676
1.47859 3.31778 5.5448198 12688484
1.4924999 3.3136799 5.5408502 12819816
1.50933 3.3273799 5.5586801 12294760
1.59437 3.32161 5.5592599 8939333
1.60083 3.31688 5.54883 9860433
1.60472 3.3169501 5.5444598 9597518
1.63313 3.2955201 5.5207801 10716503
1.65363 3.28808 5.50811 10116413
1.66057 3.2878301 5.5000701 10111277
1.76656 3.22019 5.40413 1644830
1.7972701 3.2181699 5.4029498 3026224
1.80141 3.2000799 5.3746901 3288882
1.8091201 3.1995399 5.3744998 3354932
1.83244 3.19451 5.3608599 3684153
1.85675 3.1639199 5.3168602 3946555
1.89739 3.15502 5.3021898 6250855
-1.29443 2.9407699 4.8951602 13879740
-1.13657 2.9600201 4.91991 3616560
-1.07557 2.9148901 4.8524699 4929337
-1.05041 2.90749 4.8427901 7230538
-1.01256 2.95068 4.9147 2564391
-1.0013 2.9486899 4.9143901 11112569
-0.96923399 2.9442599 4.9052701 13281932
-0.96251899 2.94751 4.9145002 12296330
-0.94244802 2.95012 4.9138398 3024168
-0.924353 3.07371 5.10709 5785412
-0.92429101 3.0735099 5.10674 5785412
-0.92429101 3.0735099 5.10674 5785412
-0.890598 3.0474899 5.06042 7823444
-0.887299 3.0567 5.07794 9598821
-0.88083798 3.0663199 5.0995798 12427396
-0.83875299 3.0768001 5.1101599 12492671
-0.81438702 3.07354 5.1107202 12426619
-0.78010499 3.0998199 5.1444998 11903620
-0.678406 3.01282 5.0184202 6511437
-0.637227 3.0325401 5.0510502 10060923
-0.64489502 3.08547 5.1264901 8281420
-0.635952 3.0878301 5.1286602 5326143
-0.62975001 3.0838699 5.1243601 4603451
-0.62833601 3.0875599 5.1322899 5784379
-0.65098 3.1623299 5.2456698 4143417
-0.491092 3.27719 5.4275899 4859177
-0.48002499 3.27105 5.4187899 7094588
-0.40719301 3.1868 5.2959299 8278336
-0.39108199 3.1828499 5.2829099 11503995
-0.36687499 3.16572 5.2555699 10584437
-0.37619099 3.1795599 5.2859998 11111039
-0.36687499 3.16572 5.2555699 10584437
-0.36687499 3.16572 5.2555699 10584437
-0.354644 3.14516 5.2325602 11243137
-0.247168 3.0780699 5.1259098 12035481
0.135015 3.1891899 5.3114901 11116699
0.15691499 3.1726899 5.2775202 11313821
0.16192 3.1638 5.2655101 11445405
0.181482 3.1749499 5.29111 10786704
0.180463 3.17449 5.2894802 10786703
0.189098 3.1735499 5.2820501 7299424
0.192324 3.1709199 5.2790298 6838872
0.214496 3.164 5.2737598 4864057
0.25460401 3.1601701 5.2672 2628123
0.25458401 3.1601501 5.2671599 2628123
0.30621001 3.1882999 5.30478 2826019
0.341607 3.2149 5.3484101 4270119
0.36645299 3.2165401 5.3543901 4729382
0.38002399 3.2124701 5.3429999 4138273
0.40381801 3.19188 5.3145299 4794658
0.44763201 3.1795001 5.3000398 5451553
0.45455101 3.1835201 5.3047199 6107952
0.47115099 3.2074201 5.3394899 6698547
0.480959 3.1918299 5.31565 6502192
0.49763799 3.2037899 5.3414898 6305577
0.546646 3.21137 5.3469601 7294759
0.55475098 3.1977301 5.3287001 9071917
0.58504897 3.21769 5.3597999 12757817
0.59707201 3.2065799 5.3476601 9730879
0.63751101 3.20541 5.3445702 11240018
0.64629799 3.2098 5.3489699 11041353
0.66513699 3.2149799 5.3575802 11169093
0.69816297 3.2077301 5.3491201 10969920
0.71053898 3.1949899 5.3243799 10705211
0.72783601 3.20069 5.3333902 10639417
0.74681002 3.20522 5.3480201 13476128
0.86755699 3.23945 5.3968902 14795018
0.991826 3.2369599 5.3968 15122698
1.00204 3.23735 5.4011598 15123210
1.03531 3.2439001 5.40804 14858763
1.06161 3.2395999 5.4046898 14463241
1.06332 3.2444401 5.4099998 14528778
1.07192 3.2374899 5.4031 14924296
1.08302 3.2422299 5.41501 15649036
1.20552 3.2660999 5.4542198 14990607
1.24648 3.28246 5.47299 3219476
1.25642 3.28896 5.4902902 4402975
1.26588 3.29001 5.4921999 5455406
1.33521 3.2980399 5.4995399 8538148
1.36761 3.31529 5.5246301 12018237
1.37743 3.3152599 5.5289898 10901819
1.44683 3.32057 5.5337801 9269076
1.44935 3.3120899 5.5247402 11505512
1.4607 3.3069601 5.51335 12755823
1.46734 3.3236101 5.5440102 12886639
1.4873199 3.3185501 5.5391798 12753253
1.52432 3.3283601 5.55408 9925970
1.58102 3.32722 5.5563002 7031864
1.5775501 3.3286099 5.5580802 6834486
1.57934 3.3289399 5.5563202 6834487
1.58882 3.32918 5.5539098 7031351
1.58497 3.3309 5.5547099 6900024
1.61107 3.31215 5.53021 9992529
1.6097701 3.3129001 5.5336299 9926736
1.6178 3.3120601 5.5262399 10322005
1.6224 3.30159 5.50879 10519638
1.64596 3.29614 5.5113001 11107923
1.6540999 3.2963901 5.5044799 11104072
1.65318 3.29529 5.5006599 10841415
1.73947 3.2294099 5.40554 11230793
1.78222 3.2267101 5.4066501 2368295
1.79313 3.22946 5.4075999 2697517
1.79995 3.2186 5.38761 3092016
1.8102601 3.2206199 5.3881798 3289138
1.81997 3.2025499 5.3601599 3486519
1.86353 3.1712101 5.3196802 4012605
1.87072 3.1667199 5.3137202 4210241
1.87807 3.16219 5.30724 4868428
1.88548 3.15834 5.3020401 5987166
-1.10885 2.91816 4.85286 2893612
-1.12646 2.9572999 4.9114599 3024940
-1.0936199 2.9247701 4.8593798 2894641
-1.07443 2.91555 4.8515201 5324092
-1.0396399 2.9194601 4.8520999 3023913
-1.04804 2.9583199 4.91505 3946553
-1.00697 2.9543099 4.9060702 5193268
-1.00274 2.9558301 4.91116 9402211
-0.99170798 2.9546101 4.91223 13216135
-0.971991 2.95175 4.90237 12822414
-0.964876 2.9535699 4.90905 11112572
-0.95624602 2.9499199 4.9060402 8745834
-0.95690501 2.9556401 4.9077101 5720387
-0.94781202 2.9556999 4.9117298 2761509
-0.92474699 3.0522599 5.0631099 2629666
-0.88112098 3.0681701 5.0847101 11374456
-0.87240702 3.0701201 5.0952702 11243640
-0.85267299 3.0604 5.0743999 3153182
-0.83784002 3.05935 5.0719399 10651505
-0.83030999 3.08565 5.1195102 13216389
-0.82106 3.0838599 5.1113 13808785
-0.81707799 3.0851901 5.1123199 14138006
-0.81707799 3.0851901 5.1123199 14006420
-0.794833 3.07867 5.10708 12821885
-0.76663601 3.0994301 5.1378899 3160120
-0.67694002 3.0088799 4.9952102 10458242
-0.64185297 3.0177901 5.0146999 10850949
-0.65099901 3.08604 5.1145601 10189930
-0.64304298 3.0862601 5.1202102 7362380
-0.68017399 3.3833201 5.5743299 4341053
-0.66673303 3.39501 5.5901899 3223090
-0.655936 3.4045601 5.60568 2565679
-0.523121 3.28547 5.4335899 9787746
-0.49475199 3.2797699 5.4177799 4332585
-0.37628001 3.1873901 5.2774701 8477002
-0.37628001 3.1873901 5.2774701 8477002
-0.37628001 3.1873901 5.2774701 8477002
-0.35423401 3.1558199 5.2357402 10057837
-0.35423401 3.1558199 5.2357402 10057837
-0.35423401 3.1558199 5.2357402 10057837
-0.34797001 3.1606901 5.24156 10123887
0.090578198 3.19788 5.3032598 10589836
0.10294 3.1934199 5.29848 10984852
0.106578 3.1977999 5.3077402 10984852
0.13638601 3.1854601 5.2872 10852239
0.145476 3.1800399 5.2863798 10853269
0.15151399 3.1824999 5.2906699 10590358
0.16947199 3.1774499 5.28162 10589068
0.180768 3.17871 5.2789998 4667448
0.178139 3.17606 5.27385 4996413
0.199063 3.1526201 5.2365899 2759197
0.20669401 3.1459999 5.2307601 3877675
0.241927 3.1557 5.2513599 2759710
0.26320601 3.1705599 5.2712898 2431519
0.31683999 3.1852 5.2974601 2365974
0.33141601 3.2027199 5.3225498 4336423
0.355196 3.2157099 5.3442001 4467749
0.367919 3.2119 5.3319602 5652280
0.36781099 3.2137799 5.3349099 5980468
0.41673899 3.1872599 5.30446 4531748
0.43234599 3.19347 5.3099599 4795940
0.44705501 3.1852901 5.29176 7493955
0.46629801 3.1855299 5.2975101 6963001
0.49450901 3.1870601 5.3002901 7359547
0.571329 3.2153599 5.3496499 11443500
0.58532101 3.2173901 5.3444099 11575351
0.60353899 3.21524 5.34653 9993527
0.61339301 3.2063301 5.3357701 10188089
0.622738 3.19979 5.3242798 10252860
0.633955 3.1963799 5.31674 11238222
0.68239599 3.2027199 5.3261399 12549988
0.69829398 3.1965599 5.32337 10968897
0.73913503 3.2037201 5.3305998 12025937
0.74049503 3.2032499 5.33079 11762759
0.793652 3.2274799 5.3691702 14597385
0.83653498 3.2282901 5.3666201 14663434
0.85584599 3.2362299 5.3832698 14795019
0.867208 3.2350199 5.3792801 14729227
0.88475198 3.24296 5.3927102 14794762
0.90394199 3.24578 5.3962598 14728713
0.91700202 3.2325201 5.3852501 14663178
0.95729202 3.24404 5.3973498 14859787
0.965626 3.2407401 5.3941698 14925579
1.02713 3.2477 5.4050999 14727946
1.03412 3.2425001 5.3952098 14661387
1.04825 3.2400999 5.3993101 14200586
1.06582 3.25019 5.4092302 14594316
1.08534 3.2460799 5.40626 15055369
1.0948499 3.24354 5.4022298 15648524
1.20065 3.2742901 5.4512801 15450124
1.21077 3.2748301 5.4539599 13675033
1.23255 3.2772999 5.4546499 2759188
1.26122 3.29634 5.4869199 3680028
1.2704901 3.29458 5.4843602 4534562
1.27355 3.2898099 5.4738202 4929060
1.34024 3.30281 5.5032501 8931359
1.35701 3.3069601 5.50699 12215101
1.43752 3.3183601 5.5272899 7097142
1.46351 3.31727 5.5190101 12228976
1.4719501 3.3052399 5.5061002 13214321
1.49244 3.3132901 5.5227199 13345133
1.5083801 3.3183899 5.5245299 12818796
1.52438 3.32919 5.5379701 10976352
1.57028 3.33267 5.54849 6965307
1.59578 3.32781 5.5469499 7031349
1.6022201 3.3236201 5.5334601 7623227
1.64578 3.30109 5.5015998 11174487
1.66409 3.29989 5.5054998 10375989
1.6704299 3.2944901 5.4899302 10372396
1.74958 3.2276299 5.3916202 3285536
1.80924 3.2193401 5.3852901 3289138
1.80924 3.2193401 5.3852901 3289138
1.8154401 3.21766 5.3826199 3420469
1.8154401 3.21766 5.3826199 3420469
1.8272001 3.1946001 5.3463502 3618104
1.83505 3.1916499 5.3404698 3749432
1.85639 3.1791699 5.3238802 3749690
1.86959 3.1779201 5.3137598 4078654
-1.14414 2.9763899 4.9336801 2104354
-1.1516 2.9823699 4.9378099 2433832
-1.1357599 2.9737301 4.92417 1645348
-1.10298 2.92536 4.84869 1514280
-1.07269 2.92434 4.8471298 4075313
-1.08039 2.9246399 4.8526502 2827051
-1.00999 2.9558599 4.9028802 5259317
-0.99417502 2.9563899 4.9038 12953994
-0.97590399 2.9521999 4.8941998 13282962
-0.93540901 2.9498899 4.89746 2039079
-0.94383001 2.96363 4.9124198 1776162
-0.93445098 3.0452399 5.0399299 1578783
-0.87219399 3.0729101 5.0834098 11506296
-0.83056998 3.08764 5.1056399 12822408
-0.781142 3.1058099 5.13765 11773319
-0.75682098 3.0873599 5.1072898 2503475
-0.70611697 3.01033 4.9882698 2897974
-0.69722599 3.00543 4.9881001 3685423
-0.68248498 3.00279 4.9782 5722177
-0.66510999 3.0127001 4.9999399 14799550
-0.64710599 3.0195401 5.00629 10982792
-0.64047098 3.0177701 5.0088401 11048071
-0.63874602 3.0181501 5.0081902 11047816
-0.63827902 3.0182199 5.0091801 10850694
-0.65047097 3.1633 5.2254901 5194303
-0.67837602 3.3917601 5.5828199 4209725
-0.67309201 3.3935101 5.58008 3946553
-0.66670001 3.40013 5.5960898 3157038
-0.66179901 3.3996601 5.5898499 2762797
-0.66323501 3.39975 5.5918899 2828589
-0.52289301 3.28545 5.4140301 10905713
-0.45201299 3.2677 5.3888602 8146751
-0.36641699 3.1695299 5.2396698 7687488
-0.35894299 3.1691999 5.24088 7358784
-0.325207 3.13183 5.1914501 11968403
-0.32551599 3.1303301 5.18857 11968402
-0.32551599 3.1303301 5.18857 11968402
0.075627901 3.1933999 5.2860098 10392720
0.0800834 3.1991701 5.2980599 10326410
0.092597201 3.19489 5.2915702 10457738
0.099735796 3.18556 5.2825999 10721166
0.100269 3.1993301 5.2962298 10655890
0.125358 3.1855199 5.2792201 10325641
0.15966401 3.1722701 5.2616701 7892077
0.18785501 3.17591 5.2672701 2824992
0.220722 3.1578 5.2393098 2103327
0.224897 3.1544299 5.2375498 2431263
0.25024301 3.16255 5.2495699 2563106
0.27259001 3.1910999 5.29216 2433061
0.31686899 3.1895101 5.2872 7101264
0.326197 3.1864901 5.2892299 5325368
0.33190799 3.1978199 5.2982202 10259580
0.34230101 3.2076499 5.3203902 6312260
0.34369701 3.2095499 5.3254099 5325111
0.355344 3.2155001 5.3270702 11114117
0.38182601 3.20979 5.3239198 8678238
0.37990001 3.2161801 5.3311701 10322543
0.396052 3.2005799 5.3039298 12623505
0.405756 3.2028999 5.3168502 7755598
0.41860899 3.1975601 5.3056002 8873562
0.433801 3.1807899 5.2744098 10784374
0.45448399 3.1919301 5.3014102 7426361
0.468678 3.1900401 5.2933602 10518893
0.48091099 3.19224 5.29914 10256489
0.55455101 3.19734 5.3106799 10128960
0.56961 3.2061701 5.31703 11578697
0.58919001 3.21334 5.3362999 10653747
0.611494 3.2025001 5.31359 11179846
0.622747 3.2026501 5.3115101 12034651
0.64225501 3.1900401 5.2986002 13739644
0.64202899 3.19437 5.30441 13805951
0.65494198 3.18959 5.2965398 12555120
0.67190099 3.1904299 5.2983098 13280134
0.69470102 3.1914999 5.3049202 14064769
0.72579998 3.1975701 5.3096499 15187364
0.724549 3.2061601 5.3278799 14659475
0.75031 3.2044301 5.32512 12030746
0.76302999 3.23017 5.3594198 14202639
0.777421 3.2267799 5.36132 14400266
0.79611498 3.23826 5.3720598 14466315
0.809174 3.23839 5.3768401 14466314
0.83801597 3.2432301 5.3862 14729481
0.843768 3.2365601 5.3710799 14729227
0.84374499 3.23647 5.3709202 14729227
0.85899699 3.2488799 5.3916702 14663178
0.86871099 3.24984 5.39539 14597642
0.87745303 3.2485199 5.3949199 14597386
0.88500798 3.24351 5.3879099 14663179
0.894687 3.2457199 5.39396 14728715
0.90360802 3.24066 5.3847198 14794761
0.91305703 3.2416301 5.3851299 14663178
0.92207599 3.24125 5.3847799 14597129
0.931885 3.2409699 5.3852601 14728458
0.94190103 3.2457299 5.3940902 14662665
0.950809 3.2501199 5.39188 13938695
0.96164399 3.2486601 5.3898201 14136073
0.98721701 3.2418499 5.3868198 14728204
0.99753499 3.2464001 5.3973298 14662154
1.00507 3.24859 5.3951201 14398983
1.0355099 3.2495301 5.3994598 14069514
1.12684 3.2311699 5.3762598 15780363
1.1226701 3.23633 5.3845401 15780875
1.12991 3.2467899 5.3946199 15780107
1.20599 3.28389 5.4529099 15384849
1.22268 3.27461 5.4456201 3810574
1.25485 3.2946999 5.4713001 3351064
1.31081 3.30281 5.4896798 10383419
1.3293 3.3106401 5.4994402 11562560
1.38842 3.32319 5.5212302 11623228
1.4021 3.3169999 5.51126 9259064
1.43878 3.3059599 5.4900398 4202524
1.4496599 3.3146999 5.5088 6177330
1.45912 3.30533 5.4980502 11373928
