ply                 
format ascii 1.0    
element vertex 1280
property float x    
property float y    
property float z    
property uchar red  
property uchar green
property uchar blue 
end_header          
0.271785 0.445719 1.22736 100 91 82 
0.290317 0.46051 1.23535 45 41 32 
0.120674 0.444305 1.16646 40 33 25 
0.219073 0.461271 1.17939 98 94 83 
0.251473 0.466602 1.19455 43 39 30 
0.0110586 0.46687 1.16503 96 91 85 
0.121717 -0.781195 1.92406 27 29 28 
0.322706 -0.624072 2.04038 75 73 61 
0.104801 -0.463473 1.62567 101 97 88 
0.321364 -0.403934 1.7526 106 99 91 
0.240752 -0.332812 1.61404 94 90 79 
0.176279 -0.3236 1.59442 103 97 85 
0.311425 -0.322288 1.67611 11 7 4 
-0.0906081 -0.33352 1.62469 2 2 2 
0.338045 -0.312969 1.72916 6 0 0 
0.31162 -0.292227 1.70808 90 90 78 
0.292396 -0.287312 1.6749 5 2 0 
-0.023926 -0.271553 1.54467 114 108 94 
0.193673 -0.253978 1.56971 100 93 83 
-0.176284 -0.280385 1.70568 82 78 75 
0.175262 -0.228789 1.53875 12 7 3 
-0.0900248 -0.218008 1.58429 82 81 77 
-0.134273 -0.219905 1.62958 86 83 78 
-0.279878 -0.249553 1.86047 189 193 194 
0.283465 -0.0997214 1.58078 112 100 88 
0.197268 -0.00614096 1.44084 43 33 23 
0.12774 0.0184789 1.38094 47 38 31 
0.317599 0.132408 1.48871 144 132 116 
0.207546 0.167283 1.35706 114 108 96 
0.284725 0.355978 1.29508 120 114 102 
0.081431 -1.43518 2.63716 212 216 219 
0.244102 -0.835162 2.10889 61 58 51 
0.307327 -0.81208 2.21182 101 102 88 
0.362262 -0.528313 1.97836 210 212 211 
0.256514 -0.329476 1.6272 3 3 5 
-0.117128 -0.321369 1.62502 1 3 2 
0.359677 -0.3 1.74955 9 8 6 
0.416475 0.441781 1.50331 21 13 2 
0.429674 0.545845 1.49095 179 183 182 
0.10311 -0.76988 1.92256 116 110 94 
0.282835 -0.326407 1.66617 5 5 3 
-0.190573 -0.301845 1.71338 1 3 2 
-0.246643 0.320772 1.59242 43 38 34 
0.439281 0.584939 1.48459 48 42 30 
0.44308 0.540933 1.18146 82 84 73 
-0.164491 -0.842793 2.16625 90 83 73 
0.432686 0.546331 1.50022 179 184 180 
-0.245232 0.245055 1.61401 183 187 188 
0.0244515 -1.11327 2.23516 121 118 113 
0.00612094 -1.0286 2.15833 140 136 124 
0.0222555 -1.00791 2.14259 120 120 112 
0.0572148 -0.816149 1.91665 44 39 35 
0.0669105 -0.775147 1.89533 111 103 92 
0.0772196 -0.774281 1.89633 96 87 88 
0.145182 -0.773071 1.92543 155 156 150 
0.0356499 -0.639601 1.80572 114 110 101 
0.103229 -0.474394 1.6339 28 23 19 
0.206132 -0.405304 1.64062 4 1 0 
0.15414 -0.378306 1.60259 4 0 0 
0.284268 -0.386654 1.68567 116 113 104 
0.087732 -0.356587 1.57502 28 18 16 
0.268931 -0.363587 1.6622 42 37 33 
0.0823438 -0.257956 1.52894 38 33 27 
0.259572 -0.163124 1.57409 98 88 78 
0.211415 -0.145007 1.5316 131 118 109 
0.316095 -0.00451785 1.57289 163 147 132 
0.317786 0.0264418 1.55724 13 0 0 
0.320416 0.117078 1.50947 20 3 0 
0.287944 0.172782 1.42177 32 22 10 
0.215244 0.199088 1.35081 23 11 0 
0.288284 0.227015 1.39176 19 6 0 
0.270908 0.237842 1.36761 33 23 13 
-0.0972814 0.268504 1.35767 93 90 83 
0.174954 0.275856 1.26896 71 62 45 
0.273648 0.299692 1.33566 110 101 92 
0.299444 0.32762 1.33643 44 36 23 
0.255471 0.320062 1.29464 7 0 0 
0.289332 0.329365 1.31728 60 51 42 
0.282571 0.334767 1.30688 21 13 2 
0.296992 0.33932 1.31844 158 148 138 
0.0468528 0.325395 1.23301 150 148 136 
0.276158 0.346592 1.28705 137 127 117 
0.260041 0.348038 1.27234 43 36 28 
0.247837 0.379284 1.25307 106 98 87 
0.289054 0.387784 1.28023 6 0 0 
0.279815 0.406261 1.2639 30 22 9 
0.30692 0.43305 1.27489 27 18 3 
0.241325 0.42042 1.22902 25 17 6 
0.217518 0.41981 1.21699 28 21 5 
0.268378 0.42948 1.24185 121 113 100 
0.227597 0.435552 1.20622 148 140 129 
0.234316 0.441437 1.20026 132 123 114 
0.29758 0.455832 1.24012 50 44 32 
-0.0369592 -1.53542 2.60333 129 129 121 
-0.0251191 -0.942437 2.08156 137 131 119 
0.0396574 -0.776757 1.89506 120 110 100 
0.017244 -0.742257 1.87843 52 43 36 
0.0374533 -0.713578 1.86568 99 90 81 
0.22035 -0.613051 1.85218 45 42 37 
0.031424 -0.575186 1.75485 38 35 28 
-0.134212 -0.403306 1.68221 84 79 75 
0.0904493 -0.366739 1.58089 31 26 22 
0.0659161 -0.328593 1.56345 99 94 88 
0.170937 -0.300512 1.56546 44 39 33 
0.340516 -0.31253 1.72391 3 0 0 
-0.0953129 -0.309183 1.6117 16 15 11 
0.249028 -0.237295 1.60697 48 38 29 
0.329469 -0.115434 1.63444 40 32 19 
0.261693 -0.0753905 1.53037 46 36 24 
0.13908 0.0748316 1.35727 121 114 104 
0.290256 0.137178 1.44254 13 5 0 
0.257521 0.190464 1.38254 97 83 74 
0.182882 0.195987 1.31459 26 16 7 
0.291509 0.240857 1.38393 134 126 113 
0.267838 0.246475 1.35929 51 41 29 
0.258317 0.270564 1.33772 119 113 101 
0.234162 0.28735 1.31284 139 127 113 
0.271603 0.311634 1.3263 124 116 103 
0.271293 0.330816 1.29773 16 7 0 
0.21316 0.324765 1.25936 47 38 29 
0.312036 0.356843 1.31591 150 140 128 
0.299341 0.369493 1.2958 58 49 34 
0.264446 0.40811 1.25139 55 52 37 
0.232577 0.402977 1.23195 22 13 4 
0.227301 0.41697 1.22002 42 34 23 
0.323397 0.440738 1.29056 40 31 16 
0.250803 0.429378 1.22906 115 111 99 
0.240414 0.433437 1.21532 38 29 22 
-0.0460721 -1.34217 2.50065 88 85 76 
-0.0176025 -0.771147 1.89465 31 27 24 
0.0895363 -0.742504 1.88307 18 12 14 
-0.0041432 -0.632571 1.80314 101 94 86 
0.232519 -0.414308 1.6554 4 0 0 
0.344451 -0.374481 1.75924 69 54 47 
0.246463 -0.325498 1.62806 91 87 78 
0.29601 -0.325241 1.66883 120 111 104 
-0.0634654 -0.323056 1.61562 75 74 70 
0.25561 -0.0072066 1.49228 43 34 19 
0.326176 0.047479 1.542 69 54 33 
0.231952 0.26711 1.32422 89 79 69 
0.289538 0.376575 1.28541 24 18 4 
0.245924 0.394299 1.24548 55 48 40 
0.307761 0.412466 1.28623 66 57 42 
0.27801 0.415282 1.25476 130 120 108 
0.308236 0.452604 1.26007 124 120 108 
0.346424 0.471436 1.29237 25 13 1 
0.185898 -0.346427 1.59837 2 4 3 
0.32577 0.494371 1.23124 27 24 19 
-0.0493696 -1.48529 2.61704 217 218 222 
-0.0725364 -1.27645 2.45447 213 217 218 
0.176473 -0.391453 1.61411 24 22 10 
0.0921962 -0.0709168 1.43306 106 102 93 
0.163 -0.0583422 1.43993 17 8 0 
0.14546 0.0939021 1.35707 12 5 0 
0.040124 0.368324 1.21154 100 95 89 
0.163896 0.38047 1.21158 105 98 82 
0.0418687 -0.571838 1.74651 43 39 36 
-0.092826 -0.111879 1.53273 95 91 88 
-0.0502901 -0.0616449 1.48042 2 0 1 
0.274429 0.26121 1.35773 132 122 112 
0.242547 0.337439 1.26644 32 26 14 
0.2045 0.404998 1.21469 113 109 98 
0.100686 0.428647 1.16823 59 55 44 
0.225162 0.441393 1.18773 53 44 35 
0.197088 0.444332 1.16808 49 45 36 
0.305762 0.466066 1.22855 145 139 127 
0.220758 0.453143 1.17186 41 39 27 
0.0993249 0.457754 1.14017 27 23 14 
0.228706 -0.296959 1.62048 27 23 22 
-0.0435977 -0.26834 1.57614 81 80 78 
0.280845 0.316392 1.32165 129 123 109 
0.145051 0.432894 1.16442 59 51 38 
-0.0834085 -0.331792 1.62158 2 2 2 
0.0239259 -0.679467 1.84142 128 126 114 
0.150837 -0.296444 1.55911 113 113 105 
0.0782975 0.0778263 1.35612 102 99 94 
0.206689 0.495216 1.14463 22 18 7 
0.170285 0.505381 1.11536 131 125 111 
0.0925069 0.0130036 1.38801 90 83 73 
0.122419 0.287015 1.25181 34 31 22 
0.189655 0.33014 1.2465 20 14 0 
0.142314 0.427851 1.17569 102 97 91 
0.135058 0.481016 1.13343 98 95 90 
-0.02191 -1.56925 2.66197 53 49 40 
0.00521384 -1.49806 2.61558 21 19 20 
-0.0103233 -1.49367 2.62063 133 126 116 
-0.0215514 -1.62335 2.68882 52 51 47 
0.00643721 -1.57058 2.64827 36 35 40 
0.14844 -0.674412 1.82056 102 95 85 
0.186498 -0.681362 1.85567 30 26 17 
0.170213 -0.585226 1.74581 113 110 105 
0.192309 -0.581692 1.7574 17 14 0 
0.163973 -0.572877 1.73003 166 163 154 
0.208028 -0.57733 1.77268 34 25 16 
0.171504 -0.564596 1.7287 133 126 116 
0.00437219 -0.588082 1.75094 139 131 128 
0.181085 -0.55973 1.7228 56 46 37 
0.138866 -0.557936 1.72237 110 107 98 
0.0997454 -0.562013 1.7266 127 123 112 
0.0721677 -0.561837 1.72641 123 115 112 
-0.076405 -0.585591 1.77922 138 135 128 
0.04858 -0.551556 1.72149 122 119 114 
-0.0533012 -0.564833 1.73593 46 37 28 
0.257524 -0.552937 1.82492 131 124 118 
0.0304339 -0.528275 1.69658 147 140 134 
0.0886935 -0.515559 1.67731 152 147 143 
0.0301721 -0.51521 1.67779 168 159 152 
0.00645735 -0.514182 1.67577 150 140 131 
0.010201 -0.509248 1.66876 35 28 20 
0.119087 -0.490497 1.64666 27 24 17 
-0.02767 -0.510867 1.67459 121 116 110 
0.105199 -0.470251 1.61799 33 25 22 
0.0810494 -0.423626 1.60177 10 6 3 
0.0490548 -0.423197 1.60434 5 0 0 
0.10948 -0.412495 1.59551 105 101 100 
0.130369 -0.411795 1.60218 107 102 99 
0.119967 -0.407863 1.59277 4 0 0 
0.120386 -0.397519 1.59 137 132 129 
-0.0433941 -0.414202 1.61854 4 0 0 
0.0825213 -0.393027 1.58155 6 0 0 
0.110271 -0.389403 1.58175 122 113 108 
0.0502823 -0.390079 1.58205 68 64 55 
0.0939698 -0.38443 1.58077 104 100 97 
0.127539 -0.382002 1.58458 12 2 0 
0.0136313 -0.377349 1.58338 14 11 6 
0.260918 -0.350026 1.63883 51 46 40 
0.00045217 -0.360833 1.57922 125 118 110 
-0.124573 -0.388274 1.66278 93 88 82 
0.176997 -0.335577 1.57701 26 24 12 
0.332262 -0.340356 1.71407 131 127 116 
0.345599 -0.339118 1.73452 36 27 12 
0.115564 -0.32063 1.55491 125 120 116 
0.373212 -0.337806 1.78166 16 8 0 
-0.03378 -0.313534 1.57623 25 21 18 
0.142278 -0.294236 1.55244 13 10 5 
0.0584261 -0.292206 1.53868 137 132 126 
0.377225 -0.303843 1.77426 22 13 8 
0.0829988 -0.25735 1.52443 37 32 26 
0.120705 -0.233767 1.51642 128 125 118 
-0.0966164 -0.255753 1.60514 3 2 0 
0.338102 -0.231554 1.70302 49 41 30 
-0.105929 -0.249716 1.61095 6 5 1 
0.113077 -0.219964 1.51027 26 23 14 
0.188607 -0.218446 1.54854 33 22 18 
0.163256 -0.215853 1.52272 16 7 0 
0.18671 -0.213152 1.53448 15 11 2 
0.342651 -0.21931 1.69969 19 10 1 
0.315296 -0.203718 1.65027 26 16 7 
0.214875 -0.200521 1.56247 152 142 130 
0.357442 -0.1977 1.7186 24 14 2 
0.0975747 -0.183212 1.49033 118 110 107 
0.302913 -0.180413 1.6261 121 109 95 
0.27365 -0.169944 1.59158 16 7 0 
0.338894 -0.17141 1.67492 35 23 11 
0.125784 -0.170342 1.49113 121 113 102 
0.28936 -0.158179 1.6016 30 21 6 
-0.0648383 -0.17047 1.54766 101 97 94 
0.273424 -0.146671 1.57661 122 112 100 
0.308923 -0.147077 1.62162 27 15 3 
-0.106664 -0.17041 1.57449 6 1 0 
0.0721995 -0.148963 1.4744 26 18 7 
0.327653 -0.13493 1.64207 147 131 116 
0.0946456 -0.136802 1.46824 125 120 116 
0.364373 -0.133818 1.70832 53 41 29 
0.334995 -0.122461 1.64746 144 132 118 
0.345466 -0.122106 1.66274 36 22 9 
0.357127 -0.118687 1.67962 147 133 120 
0.0807104 -0.117286 1.45842 100 89 83 
0.272168 -0.106815 1.55611 29 17 3 
0.265305 -0.0960479 1.54636 17 1 0 
0.351871 -0.0891302 1.65305 142 130 116 
0.254014 -0.0865383 1.53168 11 0 0 
0.0527653 -0.0948751 1.44502 103 94 87 
0.343921 -0.0814976 1.63531 30 21 6 
0.188348 -0.0822975 1.48671 19 10 1 
0.0714551 -0.0811259 1.44225 18 9 0 
0.254492 -0.0602662 1.52622 34 21 4 
0.123249 -0.0604441 1.43383 123 112 106 
0.0799115 -0.052108 1.42867 104 100 89 
0.37164 -0.0351205 1.67408 29 15 2 
0.272175 -0.037885 1.52012 137 123 110 
0.363604 -0.0277523 1.64864 119 105 92 
0.252037 -0.0275113 1.50169 149 141 122 
0.345304 -0.019128 1.60113 148 135 116 
0.35205 -0.0164139 1.62008 148 137 119 
0.136125 -0.0241851 1.41838 102 98 89 
0.241365 -0.0168699 1.48597 166 159 143 
0.265759 -0.0110554 1.4982 143 131 115 
0.313183 -0.00492771 1.5736 45 5 0 
0.345475 -0.00187996 1.5968 64 51 32 
0.0127226 -0.00793662 1.41434 29 25 16 
0.275764 0.0090878 1.50109 44 29 8 
0.264483 0.0112524 1.48467 8 1 0 
0.0826046 0.00150767 1.4005 15 8 0 
0.274943 0.018501 1.4917 14 4 0 
0.0186627 0.00325474 1.40457 79 70 65 
0.317781 0.0265734 1.55754 24 4 0 
0.341529 0.0311598 1.5677 151 138 122 
0.36346 0.0345278 1.6153 74 58 42 
0.347249 0.0347779 1.57614 141 134 115 
0.266293 0.0318466 1.47566 14 0 0 
0.238983 0.033892 1.46004 27 14 0 
0.191602 0.0301043 1.42041 16 8 0 
0.363296 0.0478195 1.6058 151 139 117 
0.375554 0.0570989 1.62943 17 3 0 
0.34811 0.0548862 1.57279 78 63 42 
0.0888297 0.0329797 1.38548 90 86 75 
0.144229 0.0389514 1.3809 94 82 70 
0.0290213 0.0347455 1.38811 4 0 0 
0.141309 0.041951 1.39138 24 12 0 
0.334403 0.0648574 1.54371 17 3 0 
0.0402451 0.0470483 1.38057 101 94 86 
0.345225 0.0742068 1.55209 74 62 38 
-0.0386588 0.048263 1.42394 106 101 97 
0.361562 0.078937 1.58294 43 30 13 
0.0767617 0.0543502 1.36991 38 31 21 
0.340868 0.0795385 1.54106 41 30 8 
0.23514 0.0679783 1.43686 44 28 15 
-0.00495475 0.0572473 1.38295 9 0 0 
0.36367 0.0932971 1.5759 58 48 23 
0.367095 0.096563 1.58909 34 23 3 
-0.0554128 0.0637381 1.4253 90 85 81 
0.383239 0.101491 1.62756 127 111 96 
0.336198 0.0920845 1.52681 62 48 22 
0.0351307 0.0671538 1.37307 132 124 113 
0.257872 0.0859539 1.44533 50 36 23 
0.349804 0.0994327 1.54923 47 30 4 
0.374783 0.106359 1.59995 139 127 105 
0.22794 0.0864533 1.42653 57 48 33 
0.360153 0.105871 1.57009 40 27 8 
0.349043 0.104321 1.54141 51 34 16 
0.272645 0.0938664 1.45665 20 6 0 
0.206984 0.0875081 1.39562 9 1 0 
0.266228 0.0951229 1.44537 10 0 0 
0.115791 0.0831493 1.36133 26 16 7 
0.0219538 0.0849383 1.36487 119 115 104 
0.365641 0.122616 1.57262 55 42 25 
-0.0801261 0.0885132 1.43031 116 112 103 
0.372775 0.12546 1.58543 140 125 104 
0.100884 0.0920892 1.35077 13 0 0 
0.320429 0.117374 1.51143 31 14 0 
0.365479 0.129586 1.561 143 131 117 
0.133681 0.100885 1.3535 11 2 0 
0.373123 0.134316 1.57569 71 55 42 
0.261926 0.115454 1.42825 166 154 142 
-0.000373472 0.103068 1.35937 24 15 6 
0.238895 0.123027 1.4155 56 42 31 
0.0839634 0.108771 1.34582 97 88 79 
0.329475 0.138603 1.49024 80 68 52 
0.282227 0.133126 1.43425 51 37 26 
0.345971 0.14683 1.51478 165 149 124 
0.0396111 0.115077 1.34618 119 115 106 
0.318187 0.142414 1.47679 22 13 0 
0.265916 0.135836 1.42472 9 2 0 
0.201534 0.128543 1.38287 141 132 123 
0.32483 0.145674 1.4839 43 34 19 
0.304023 0.143457 1.4607 10 0 0 
0.331951 0.150505 1.48963 134 125 110 
0.315978 0.147688 1.46733 60 49 31 
0.0903324 0.122693 1.33285 122 113 106 
0.133098 0.129682 1.33693 21 12 7 
0.112451 0.129918 1.33384 12 4 0 
0.302344 0.151959 1.44706 149 134 113 
0.335652 0.159514 1.49159 136 124 108 
0.343385 0.161359 1.50428 37 23 12 
0.29332 0.152667 1.44371 64 51 32 
0.355864 0.164856 1.52475 172 160 136 
0.241755 0.147178 1.40585 59 50 33 
0.314652 0.158633 1.45824 158 143 124 
0.263434 0.151523 1.41418 49 37 21 
0.348641 0.167851 1.50886 166 154 132 
0.327762 0.167409 1.47607 22 14 0 
0.377095 0.181288 1.55579 131 118 101 
0.298938 0.163937 1.44507 31 20 0 
0.332485 0.170308 1.48335 17 4 0 
0.0920792 0.141423 1.32873 127 119 108 
0.281906 0.162998 1.42366 37 28 13 
0.319521 0.169731 1.46225 152 140 126 
0.291599 0.166997 1.43079 10 0 0 
0.309353 0.17093 1.4524 130 117 100 
0.364119 0.183478 1.53041 140 127 111 
0.279326 0.170902 1.41649 40 31 16 
0.287936 0.17282 1.42188 56 44 28 
0.303091 0.177697 1.43737 141 132 117 
0.22896 0.167972 1.38288 10 0 0 
0.353893 0.190037 1.50247 8 3 0 
0.359134 0.193865 1.51341 18 10 0 
0.338481 0.188941 1.48253 33 24 9 
0.330247 0.186858 1.46785 144 136 117 
-0.126185 0.163991 1.43149 10 10 2 
0.126698 0.158822 1.32167 74 65 48 
0.279374 0.178754 1.40871 45 34 16 
0.312208 0.185009 1.44221 121 111 99 
0.0262291 0.157604 1.32571 126 117 108 
0.371789 0.202963 1.53074 50 37 21 
0.251789 0.178452 1.38871 160 149 131 
0.0962747 0.162331 1.31775 123 115 104 
0.378343 0.207747 1.54983 43 30 13 
0.264096 0.183949 1.39451 27 15 1 
0.322035 0.195585 1.45208 59 48 28 
0.302226 0.192956 1.42782 38 30 17 
0.127823 0.170149 1.31654 32 23 6 
-0.0048596 0.169048 1.33217 128 121 111 
0.344427 0.205374 1.4802 165 153 137 
0.29609 0.19626 1.41696 56 49 31 
0.328996 0.202883 1.45274 50 38 22 
0.286613 0.196674 1.40859 15 6 0 
-0.123032 0.185908 1.42192 94 89 85 
0.106832 0.177431 1.31081 44 37 29 
0.213317 0.190993 1.36073 31 19 7 
0.313735 0.209162 1.43457 121 111 99 
0.0726105 0.181427 1.30926 154 148 136 
0.37685 0.23053 1.53485 16 5 0 
0.30878 0.210512 1.42678 24 14 2 
0.33375 0.216218 1.4559 28 16 2 
0.301658 0.209344 1.4146 133 123 113 
0.341417 0.220375 1.46285 166 153 134 
0.0182561 0.183922 1.31312 11 1 0 
0.326961 0.218194 1.4501 50 40 28 
0.124165 0.188732 1.30629 153 145 122 
0.354588 0.229874 1.47537 48 36 14 
0.2776 0.212946 1.38406 22 11 0 
0.337204 0.227898 1.44624 18 5 0 
0.0550587 0.195101 1.30497 145 138 120 
0.304921 0.22413 1.41319 47 38 21 
0.12695 0.1991 1.30098 24 11 0 
0.316447 0.228411 1.42121 163 156 140 
0.265897 0.220775 1.37619 15 3 0 
0.288287 0.226738 1.39092 24 15 0 
0.344079 0.240782 1.45307 21 11 0 
0.0593461 0.203015 1.29745 155 147 124 
0.0219381 0.205898 1.30304 133 124 115 
0.240811 0.224476 1.35448 28 17 0 
0.0431877 0.207325 1.29606 30 21 14 
0.365147 0.254401 1.48754 56 44 28 
0.328368 0.243093 1.42998 60 50 38 
0.372038 0.259678 1.50042 59 46 29 
0.0204106 0.211658 1.29505 20 11 2 
0.27018 0.234451 1.37165 167 160 150 
0.353956 0.2576 1.46294 55 39 24 
0.202054 0.227445 1.33127 108 101 93 
-0.0842815 0.22725 1.3646 12 2 0 
0.366908 0.266867 1.48309 69 56 39 
0.334338 0.256762 1.43538 25 16 1 
0.359044 0.265864 1.47524 150 137 120 
0.38564 0.276708 1.52882 52 41 23 
0.0454512 0.221495 1.29276 140 134 122 
0.135835 0.225417 1.28677 63 51 27 
0.252646 0.243963 1.35882 13 3 0 
0.32324 0.257625 1.4158 55 48 29 
0.356771 0.270449 1.46568 48 37 19 
0.0601361 0.225664 1.28442 163 151 125 
0.292064 0.254353 1.37618 140 128 112 
0.353256 0.278206 1.44695 62 52 40 
-0.0725059 0.244628 1.34763 24 20 11 
0.0459555 0.23902 1.28005 141 131 121 
0.316472 0.273641 1.40238 19 12 0 
0.277039 0.26354 1.35658 59 46 37 
0.075247 0.245468 1.28067 157 150 132 
0.300567 0.272682 1.37489 17 9 0 
0.34833 0.288305 1.43408 42 30 16 
0.259929 0.268352 1.34519 80 71 54 
-0.0625432 0.259655 1.33964 110 103 93 
0.0551519 0.248495 1.27452 149 134 113 
0.379743 0.305133 1.48946 60 51 34 
0.32912 0.288397 1.40478 8 0 0 
0.346287 0.297118 1.42496 26 17 2 
0.315083 0.287974 1.3852 137 129 116 
0.382229 0.315326 1.49075 143 136 118 
0.325197 0.293088 1.3951 31 19 3 
0.0382417 0.260265 1.27156 116 107 98 
0.285578 0.287775 1.35107 145 137 118 
0.260882 0.287998 1.3363 22 13 0 
0.287536 0.297092 1.35685 55 46 29 
0.327839 0.305756 1.38514 146 137 122 
0.0309143 0.270566 1.26709 40 31 24 
0.104287 0.272224 1.25975 8 3 0 
0.339574 0.313449 1.40461 29 20 5 
0.379725 0.332326 1.47598 50 36 23 
0.121662 0.273972 1.26098 160 153 127 
0.357207 0.326924 1.42671 43 31 17 
0.0191214 0.281006 1.26205 132 129 120 
0.28997 0.310283 1.34607 158 147 127 
0.323121 0.321702 1.37735 20 11 0 
0.052682 0.286881 1.25431 111 107 95 
-0.10299 0.307917 1.34791 96 91 85 
-0.0302 0.29703 1.29862 101 96 93 
0.00356622 0.290828 1.26239 9 4 0 
0.28438 0.315975 1.32734 23 11 0 
0.0684552 0.291802 1.24906 87 80 70 
0.314554 0.325978 1.35798 159 150 135 
0.339613 0.334347 1.38629 47 37 27 
0.349405 0.341114 1.4038 47 39 20 
-0.0561417 0.309843 1.30253 12 7 1 
0.34797 0.343423 1.38832 39 30 15 
0.0338569 0.300351 1.25165 19 15 6 
0.145455 0.30303 1.24902 113 105 92 
0.326376 0.336643 1.35799 39 32 14 
0.0574985 0.302298 1.24943 35 28 18 
0.25562 0.318526 1.29056 11 3 0 
0.0873688 0.302696 1.24436 154 147 139 
-0.0748801 0.320953 1.30793 4 0 0 
-0.0173744 0.312296 1.27113 9 5 0 
0.316128 0.338685 1.33111 163 154 137 
-0.0359009 0.317976 1.28013 102 102 92 
0.122482 0.310497 1.24224 128 124 112 
0.32918 0.345607 1.35086 156 146 134 
0.139395 0.312827 1.24292 133 126 116 
0.282611 0.3338 1.30437 18 9 0 
0.297004 0.338173 1.31548 178 171 155 
0.0909822 0.313752 1.23542 125 121 112 
0.169972 0.318062 1.24555 162 153 138 
0.00623332 0.316219 1.24979 5 2 0 
0.343894 0.357814 1.36059 25 13 1 
-0.0924855 0.336027 1.30811 100 97 88 
0.0145691 0.320816 1.24319 31 24 14 
0.11906 0.322468 1.23952 39 33 19 
0.360483 0.368925 1.37785 140 129 111 
0.324155 0.354782 1.32747 27 20 1 
0.0743995 0.322534 1.23053 127 123 111 
0.0468734 0.325318 1.23293 143 134 127 
-0.0449337 0.334895 1.26436 17 12 9 
0.394648 0.399055 1.44079 75 69 57 
0.308005 0.359462 1.30522 116 103 87 
0.00206618 0.335576 1.23944 126 121 117 
0.387598 0.394124 1.41297 7 0 0 
0.3004 0.364102 1.29457 36 24 12 
0.107216 0.341603 1.22352 9 2 0 
-0.00591937 0.345835 1.23934 129 127 115 
0.155446 0.346983 1.23046 103 99 88 
0.345688 0.391499 1.33026 59 48 30 
0.049493 0.354638 1.21502 87 84 77 
0.24186 0.370317 1.24987 54 48 32 
0.351783 0.402938 1.33918 33 22 2 
0.0715309 0.359228 1.21267 28 20 7 
0.310402 0.394621 1.29444 41 33 14 
0.321082 0.396443 1.29768 71 59 43 
0.287489 0.38902 1.27348 151 139 125 
0.238947 0.381429 1.24166 31 25 9 
0.396911 0.460321 1.41294 174 165 150 
0.35051 0.436777 1.32439 32 25 9 
0.347247 0.436678 1.31631 50 43 27 
0.329124 0.434366 1.29853 54 47 29 
0.0184485 0.399291 1.20578 97 93 84 
0.381888 0.466262 1.37679 60 51 34 
0.306889 0.430796 1.26865 32 24 5 
0.337111 0.456236 1.29464 33 24 9 
0.302477 0.444256 1.25566 70 61 44 
0.0543402 0.421787 1.18593 31 24 16 
0.152438 0.422179 1.17181 62 55 39 
0.11622 0.447876 1.14501 31 24 14 
0.181065 0.456505 1.14362 125 117 114 
0.153285 0.464202 1.13881 20 13 3 
0.0892426 0.465032 1.13623 127 120 114 
0.286539 0.488419 1.1921 144 141 126 
0.220363 0.474896 1.15794 148 144 133 
0.15383 0.476107 1.12916 101 97 88 
0.0950983 0.486884 1.12012 124 120 111 
-0.0559491 0.514431 1.15349 122 115 107 
-0.0325968 0.515974 1.13449 73 64 49 
0.00663792 0.511439 1.12216 148 142 128 
-0.0462418 0.519365 1.10003 133 130 121 
0.131725 0.506729 1.0724 31 28 13 
0.0991636 0.505711 1.06686 91 88 73 
0.113398 0.522389 1.05588 19 17 4 
0.125084 0.523886 1.05935 152 143 128 
-0.035417 0.55116 1.07039 114 111 102 
0.00810716 0.545728 1.04781 35 32 17 
0.313307 -0.790409 2.16423 73 73 63 
0.16813 -0.683185 1.83271 57 48 39 
0.224806 -0.712829 1.93624 120 117 108 
0.0752049 -0.633789 1.78879 108 101 93 
0.123235 -0.613457 1.76674 125 120 114 
0.19335 -0.602948 1.77869 25 18 2 
0.200194 -0.598308 1.78406 82 76 62 
0.12214 -0.578719 1.74338 118 114 111 
0.0211104 -0.556416 1.72704 33 29 26 
0.0895445 -0.544687 1.71847 125 120 116 
0.25655 -0.549837 1.8067 113 110 101 
0.0125414 -0.54675 1.71774 34 30 21 
0.13009 -0.506078 1.6622 140 137 128 
-0.0248565 -0.52238 1.68667 151 147 136 
0.0540107 -0.500333 1.65933 153 149 140 
0.354637 -0.536291 1.9465 224 226 225 
0.36026 -0.517454 1.94091 226 228 225 
0.365903 -0.496818 1.91874 230 232 231 
0.157315 -0.430313 1.62216 98 95 90 
0.0145999 -0.412745 1.60369 120 115 109 
0.185252 -0.373906 1.59339 80 77 72 
0.0804445 -0.379068 1.57764 4 0 0 
0.193958 -0.365884 1.60338 93 86 78 
-0.116096 -0.405469 1.66316 88 83 80 
-0.0123665 -0.371237 1.5781 7 4 0 
0.101483 -0.359774 1.57735 103 102 98 
0.371981 -0.372852 1.79333 121 116 112 
0.104267 -0.34689 1.56646 14 11 2 
0.11634 -0.339157 1.53437 121 118 109 
0.350843 -0.345019 1.74907 111 102 87 
0.362654 -0.347142 1.77182 43 35 24 
0.330936 -0.320157 1.69963 100 93 85 
0.340393 -0.31203 1.71856 6 0 0 
0.349642 -0.306835 1.73119 106 97 88 
0.361068 -0.308294 1.7452 102 90 78 
0.0972623 -0.290781 1.53617 105 105 97 
0.133702 -0.282769 1.54134 107 104 99 
0.301721 -0.287319 1.67888 97 88 81 
-0.0159216 -0.292459 1.54516 116 112 103 
-0.0940058 -0.303499 1.60956 94 91 86 
-0.0629059 -0.29787 1.59637 8 4 1 
0.0349611 -0.278759 1.53581 116 112 103 
0.38371 -0.284038 1.78707 111 103 92 
-0.012559 -0.276926 1.54107 106 101 97 
0.185698 -0.264945 1.57745 32 29 22 
0.129249 -0.258165 1.53091 90 85 79 
0.0948366 -0.250581 1.51946 113 109 100 
-0.0780699 -0.270456 1.60184 11 7 4 
0.331967 -0.248958 1.69937 134 124 115 
-0.162173 -0.278407 1.67192 82 81 76 
0.386876 -0.256649 1.85888 101 93 82 
0.317722 -0.234013 1.67613 65 57 46 
-0.163733 -0.26128 1.67087 83 80 73 
0.263586 -0.219289 1.60683 124 118 106 
0.353713 -0.223997 1.72773 131 123 112 
0.0782991 -0.214458 1.49991 107 98 89 
0.326799 -0.215987 1.67987 51 43 32 
0.226072 -0.210343 1.56868 35 26 17 
-0.197944 -0.256303 1.71469 7 3 2 
0.241585 -0.204582 1.5878 132 124 111 
0.29931 -0.204951 1.63603 22 16 2 
0.183784 -0.200509 1.53786 142 138 127 
0.308479 -0.199523 1.64202 32 22 12 
0.337875 -0.180933 1.6804 45 33 17 
0.296074 -0.176444 1.61515 134 122 108 
0.117555 -0.154373 1.47869 108 99 90 
0.317399 -0.138239 1.61771 148 136 124 
0.200848 -0.136679 1.50035 114 110 99 
0.0133163 -0.142267 1.47219 117 108 99 
0.036776 -0.139696 1.47046 22 18 7 
0.310676 -0.12975 1.61664 53 44 29 
0.323289 -0.128039 1.62551 139 127 111 
0.268965 -0.124286 1.56455 129 117 105 
0.329489 -0.115436 1.63577 50 38 24 
0.21442 -0.112324 1.51315 7 0 0 
0.176037 -0.106714 1.46863 139 135 124 
0.352427 -0.104174 1.66666 15 0 0 
0.320262 -0.0963432 1.61293 13 5 0 
0.193164 -0.0948224 1.49588 112 103 88 
0.336089 -0.0850376 1.6226 36 28 15 
-0.141002 -0.110542 1.58151 0 0 0 
0.104813 -0.0886473 1.44047 117 108 99 
-0.107271 -0.10601 1.54769 41 34 28 
0.00303909 -0.0941305 1.45117 16 12 9 
0.250311 -0.0766993 1.52384 9 2 0 
0.261555 -0.0754326 1.53584 43 34 19 
0.0295718 -0.0859978 1.44099 98 89 84 
0.0167465 -0.0848814 1.44573 120 113 105 
0.144154 -0.0696778 1.44404 116 107 92 
-0.0906517 -0.0832757 1.52203 3 0 0 
-0.0838003 -0.0786678 1.51304 95 94 90 
0.0737341 -0.0619039 1.43404 128 118 108 
2.26045e-05 -0.0648143 1.43989 102 99 92 
-0.164085 -0.0740323 1.59214 102 99 90 
-0.0513475 -0.0617048 1.48486 4 2 3 
0.257421 -0.0417648 1.50874 129 117 103 
0.00735118 -0.0481763 1.43627 14 11 4 
0.379995 -0.0239062 1.68886 132 120 106 
0.356826 -0.0240053 1.62688 143 134 119 
0.0852926 -0.0391587 1.42218 95 86 79 
0.399635 -0.0169673 1.78651 79 73 61 
-0.0929814 -0.0440752 1.50586 87 84 79 
0.196049 -0.0262401 1.46974 40 31 22 
0.328628 -0.0135829 1.57388 140 125 96 
0.0813705 -0.0271477 1.41472 23 14 7 
0.0602515 -0.0263003 1.40586 7 0 0 
0.371045 0.000579747 1.65178 53 40 23 
0.338684 3.12191e-05 1.58555 25 13 1 
0.0502618 -0.0168425 1.40891 29 23 11 
0.224608 -0.00439254 1.44695 55 43 29 
0.117354 -0.0107302 1.40994 108 98 89 
0.0601395 -0.011048 1.40249 11 0 0 
-0.0635961 -0.0145423 1.46785 85 80 77 
0.339029 0.0108646 1.58017 68 53 32 
0.36457 0.0169931 1.62345 49 33 18 
0.373922 0.017799 1.65122 35 23 9 
0.238024 0.00873937 1.47601 70 58 42 
0.0592253 0.0103556 1.39496 4 0 0 
0.111408 0.0131559 1.39464 99 89 79 
-0.218181 0.00671313 1.65699 22 22 14 
0.241632 0.0262765 1.46732 25 13 1 
-0.0928061 0.0104327 1.48218 104 100 97 
0.30403 0.0347198 1.54366 121 67 55 
0.195441 0.0263346 1.4374 38 29 20 
0.260314 0.038504 1.47171 46 31 10 
0.326425 0.0470231 1.53785 37 19 0 
0.0599625 0.0266786 1.3857 86 77 70 
0.00421073 0.0262837 1.39549 45 36 29 
0.363579 0.0571993 1.60035 76 62 49 
0.256234 0.0517062 1.47455 129 116 100 
-0.0145702 0.0353456 1.39848 104 97 89 
0.327126 0.0619883 1.53654 45 30 9 
-0.000448988 0.0369296 1.3932 19 12 4 
0.19957 0.0493902 1.42597 113 104 89 
0.152416 0.0480652 1.38777 135 123 109 
0.348989 0.068937 1.56434 82 65 49 
0.0232546 0.0417032 1.38121 91 82 73 
0.0567122 0.0452325 1.37442 91 82 75 
0.0857473 0.0490036 1.37795 106 98 85 
0.0851798 0.052849 1.36855 26 19 9 
0.354854 0.0802039 1.56389 57 44 27 
0.102043 0.0559565 1.37418 106 96 84 
0.26926 0.0726024 1.45497 147 134 118 
0.278963 0.0753002 1.46703 111 96 75 
0.113865 0.0642009 1.37183 112 102 92 
0.0615383 0.0627156 1.36677 46 36 26 
-0.0381624 0.065181 1.41989 46 42 39 
0.328101 0.0939203 1.51354 47 31 5 
-0.0864884 0.0731453 1.4442 21 18 13 
0.0856508 0.0750982 1.36414 135 129 117 
0.0637105 0.0757746 1.36294 119 112 102 
0.341206 0.104959 1.52651 116 104 88 
0.055493 0.087455 1.35908 12 3 0 
-0.0378547 0.0882681 1.40416 81 78 73 
0.299406 0.119678 1.48997 80 40 28 
0.262713 0.114731 1.44475 38 25 16 
0.361673 0.131167 1.55211 40 29 11 
0.124671 0.10486 1.35167 104 96 85 
0.195999 0.112809 1.38788 31 22 13 
0.299138 0.134414 1.45445 17 5 0 
0.290231 0.13738 1.44399 16 2 0 
0.341656 0.156302 1.49716 143 132 112 
0.0524339 0.125543 1.33572 108 99 90 
0.32377 0.158236 1.4791 26 19 3 
0.0789386 0.131238 1.33291 3 0 0 
0.292255 0.156076 1.43237 146 134 112 
0.382842 0.181547 1.57682 33 16 0 
0.223711 0.151664 1.38834 74 62 48 
0.343386 0.170273 1.492 148 136 120 
0.0733983 0.138909 1.32879 6 0 0 
0.249733 0.156597 1.39879 75 65 53 
0.343407 0.176012 1.50237 34 22 6 
0.356136 0.179867 1.51946 131 118 101 
0.350288 0.179147 1.50812 41 35 13 
0.327997 0.175099 1.46833 42 26 11 
0.0100551 0.14477 1.3344 12 5 0 
0.127064 0.149891 1.32827 135 126 111 
0.0680843 0.152321 1.32425 49 44 38 
0.241391 0.169949 1.39648 56 44 30 
0.228995 0.164095 1.35794 10 0 0 
0.237636 0.17195 1.3877 134 122 108 
0.34463 0.19158 1.48878 22 12 0 
0.338182 0.194592 1.47141 38 29 14 
0.337082 0.204379 1.46756 64 55 38 
0.0834762 0.175339 1.31116 112 105 95 
0.24771 0.195479 1.38101 137 125 111 
0.121957 0.180281 1.31327 35 25 16 
0.159632 0.182012 1.31556 78 70 59 
0.321863 0.210309 1.44796 19 11 0 
0.2679 0.199588 1.39067 140 127 111 
0.281255 0.202718 1.39682 144 128 115 
0.359462 0.224406 1.49245 74 61 42 
0.0604038 0.183613 1.30837 114 106 95 
0.032513 0.183391 1.30835 47 38 29 
0.323681 0.218038 1.43817 113 100 84 
0.370423 0.233261 1.51263 47 35 19 
-0.100495 0.205228 1.39049 4 0 0 
0.0219383 0.196204 1.30744 17 13 4 
0.112684 0.198368 1.29935 17 4 0 
0.32918 0.231499 1.43339 65 55 43 
-0.123412 0.212237 1.40924 37 34 29 
0.0778225 0.198619 1.29535 15 11 0 
0.299612 0.228245 1.40086 8 0 0 
-0.0689166 0.211161 1.36257 131 127 118 
0.274584 0.227168 1.3828 162 155 139 
0.335877 0.240806 1.44446 135 121 108 
0.349698 0.246975 1.4604 166 155 137 
0.358787 0.252178 1.46907 142 130 114 
-0.0619708 0.21902 1.35474 21 16 13 
0.058552 0.212484 1.29264 133 121 105 
0.0381995 0.213963 1.2916 165 155 146 
0.344664 0.255694 1.44845 132 116 100 
-0.000299416 0.215759 1.29992 127 119 108 
0.351507 0.259053 1.45376 136 120 105 
0.0275259 0.219335 1.29109 38 30 19 
0.372163 0.271794 1.49621 39 23 7 
0.0126604 0.222577 1.295 12 8 0 
0.32927 0.259066 1.42215 57 50 31 
0.343178 0.26461 1.42622 46 37 20 
0.305758 0.257136 1.39104 52 43 26 
0.0420048 0.229453 1.28627 11 1 0 
0.282096 0.253924 1.36978 139 126 110 
0.315423 0.26268 1.40412 36 23 6 
0.3527 0.2751 1.45904 42 33 18 
0.198816 0.24579 1.30827 12 2 0 
0.0257146 0.23579 1.28426 120 112 101 
0.0596814 0.236249 1.28018 151 139 113 
0.262906 0.257394 1.35129 162 150 136 
0.330664 0.272877 1.41368 141 129 113 
-0.0021599 0.239213 1.29452 105 101 90 
0.358306 0.287019 1.45584 45 36 21 
-0.0780166 0.254357 1.34894 102 98 89 
0.0344968 0.245745 1.28028 45 35 26 
0.287157 0.272161 1.36334 132 121 103 
-0.251202 0.30997 1.59977 204 204 204 
-0.0372143 0.258771 1.31762 90 86 77 
0.0256506 0.25071 1.27598 125 115 106 
0.015016 0.254326 1.28252 115 106 99 
0.287082 0.283085 1.36067 37 28 13 
0.277554 0.280595 1.34927 83 76 58 
-0.241222 0.320475 1.55286 193 195 194 
0.054645 0.262125 1.26934 111 101 89 
0.337597 0.302911 1.40735 73 65 46 
0.141984 0.26661 1.26285 144 136 123 
-0.0385888 0.275744 1.30973 99 90 81 
0.368999 0.321433 1.45688 128 119 102 
0.310566 0.307463 1.39153 27 15 0 
0.0870097 0.274157 1.26245 165 155 143 
0.315486 0.306978 1.37273 173 164 149 
-0.0606699 0.286059 1.32497 33 26 20 
0.345491 0.31976 1.41684 48 45 26 
0.00240703 0.276902 1.2708 84 79 73 
0.272599 0.301948 1.33305 65 53 39 
0.313605 0.313127 1.36361 24 14 4 
0.303879 0.311374 1.35711 49 38 20 
0.0794573 0.281504 1.25586 38 31 21 
0.3762 0.34033 1.46 12 8 0 
0.280718 0.307932 1.33596 147 133 120 
0.0376476 0.281849 1.25388 9 3 0 
0.298767 0.312731 1.34987 147 139 120 
0.20502 0.29532 1.28849 130 118 104 
0.331587 0.327442 1.38518 166 159 141 
0.154113 0.289386 1.25176 125 118 102 
-0.119432 0.313926 1.36038 25 20 17 
0.264481 0.310793 1.31419 27 17 8 
0.301903 0.319143 1.34126 158 150 131 
0.0791932 0.293198 1.24819 7 0 0 
-0.0052575 0.29849 1.2639 24 19 13 
0.300083 0.331761 1.33823 135 123 111 
0.0704241 0.303199 1.24728 68 60 49 
-0.0641142 0.316607 1.30565 36 31 28 
0.28286 0.328549 1.3196 45 37 24 
0.0170079 0.306157 1.24942 19 15 6 
0.356813 0.351122 1.38631 25 17 0 
0.288649 0.330999 1.31091 140 130 120 
0.337087 0.347439 1.36317 21 14 0 
0.257838 0.328319 1.29027 71 63 50 
0.0328461 0.312365 1.24543 120 112 99 
0.133773 0.317864 1.23652 33 29 20 
-0.0180242 0.32226 1.25928 102 93 88 
-0.0499799 0.329579 1.27574 93 88 84 
0.301531 0.346246 1.30827 35 21 10 
0.285404 0.345374 1.29894 163 154 139 
0.376369 0.377013 1.4036 29 23 9 
0.0983488 0.327108 1.23336 44 40 29 
0.372962 0.376955 1.3873 139 127 115 
0.338138 0.36389 1.3418 141 128 111 
0.312028 0.35621 1.31465 159 152 136 
-0.104368 0.347448 1.3074 101 96 93 
0.359584 0.374257 1.3686 77 68 51 
0.377182 0.384008 1.39389 36 27 12 
0.284496 0.352888 1.29097 146 137 120 
0.328291 0.364245 1.32501 64 52 36 
0.0156787 0.332314 1.23573 36 31 25 
0.343907 0.371774 1.34033 34 27 9 
0.390425 0.399048 1.42845 11 4 0 
0.361574 0.382503 1.36093 61 52 37 
0.350313 0.378561 1.34653 130 122 103 
-0.0347959 0.344162 1.25239 82 77 74 
0.0385961 0.339137 1.22933 101 92 83 
0.311974 0.368441 1.30676 16 3 0 
0.403758 0.41603 1.44864 64 52 38 
0.32833 0.376863 1.31789 157 148 131 
0.288905 0.367433 1.28538 29 19 7 
0.319411 0.374997 1.3079 22 15 0 
0.0894103 0.344317 1.21739 112 104 91 
0.364518 0.395601 1.36436 24 15 0 
0.17521 0.352382 1.22822 128 120 107 
0.181016 0.367555 1.23076 60 53 37 
0.287514 0.399134 1.26752 68 56 40 
0.0129722 0.385286 1.20941 32 27 23 
0.182451 0.391515 1.21343 130 123 113 
0.139847 0.389073 1.1951 26 20 8 
0.273801 0.410062 1.25051 83 74 57 
0.337784 0.438805 1.30141 52 39 22 
0.323257 0.437994 1.28269 27 18 1 
0.357372 0.465176 1.31728 46 39 23 
0.313243 0.445392 1.2618 149 140 125 
0.078578 0.419747 1.1858 48 39 32 
0.280577 0.439263 1.2348 146 139 123 
0.345212 0.462196 1.29228 61 52 37 
0.294984 0.448279 1.24558 168 161 145 
0.320302 0.464445 1.27386 69 61 48 
0.346894 0.46887 1.28396 24 10 0 
0.325428 0.462786 1.26141 155 148 130 
0.314016 0.460533 1.25053 77 70 52 
0.100894 0.428188 1.16699 72 64 53 
0.300226 0.458316 1.23891 150 143 125 
0.145335 0.431871 1.16267 62 56 44 
0.340972 0.476533 1.26496 29 22 12 
0.274399 0.454281 1.2079 106 97 88 
0.124232 0.439179 1.14324 137 129 118 
-0.138691 0.499497 1.24632 126 122 113 
0.0994915 0.457469 1.13919 19 14 8 
0.114641 0.458057 1.13482 108 104 95 
0.144849 0.461073 1.1341 23 20 11 
0.253245 0.48862 1.1695 153 151 138 
0.135925 0.478232 1.12756 105 101 92 
0.106941 0.484171 1.12201 46 42 31 
0.130446 0.486193 1.12111 106 101 95 
0.067358 0.48971 1.12419 137 129 118 
-0.0208843 0.50215 1.13669 22 15 5 
0.0255073 0.495836 1.12239 22 18 7 
0.0108574 0.499759 1.12899 17 8 0 
0.138705 0.49856 1.1176 15 6 0 
0.155097 0.499068 1.11404 141 132 115 
0.181074 0.503436 1.12095 135 133 120 
0.128905 0.498963 1.11027 124 117 101 
0.0608004 0.503754 1.11388 120 112 91 
0.0383088 0.503892 1.11175 129 121 108 
0.0164611 0.509418 1.1185 139 131 110 
-0.0119224 0.513833 1.12335 139 126 107 
0.184914 0.496442 1.08977 154 143 125 
0.0668584 0.507529 1.10045 148 140 119 
0.0488374 0.499689 1.07967 160 148 134 
0.0890651 0.499162 1.07836 41 33 14 
-0.0207158 0.510788 1.08975 23 17 5 
0.11393 0.509016 1.07468 114 106 93 
0.0887152 0.512644 1.06599 96 91 72 
0.0739459 0.514926 1.06668 140 137 122 
0.143232 0.51434 1.06323 26 21 2 
-0.00901747 0.528581 1.07568 87 83 72 
0.0475129 0.525944 1.06259 89 81 68 
0.0309354 0.53257 1.05937 89 83 71 
-0.00483736 0.538375 1.06717 105 101 90 
0.00799992 0.538292 1.06758 97 88 79 
-0.0183347 0.547302 1.05993 9 6 1 
-0.00815974 0.550212 1.0564 133 130 111 
-0.00282388 0.549004 1.04665 148 145 126 
0.0381816 0.547072 1.01675 148 147 119 
0.24932 -0.835691 2.1084 38 34 23 
0.257485 -0.828399 2.10229 219 224 220 
0.122618 -0.762903 1.89351 16 12 9 
0.257465 -0.807639 2.09043 56 52 41 
0.267821 -0.799356 2.09335 228 230 229 
0.0246366 -0.614737 1.78286 123 119 110 
0.202872 -0.551407 1.72865 146 139 129 
0.251554 -0.546853 1.79915 42 37 31 
0.34374 -0.572265 1.97714 228 230 229 
-0.00412411 -0.490423 1.64662 141 133 122 
0.030851 -0.475426 1.62764 76 69 61 
0.346818 -0.486445 1.86971 29 26 19 
-0.0633343 -0.439406 1.61997 137 128 119 
0.112541 -0.345104 1.55783 134 131 124 
0.119005 -0.333028 1.55345 102 99 94 
-4.29981e-05 -0.34645 1.56915 28 24 21 
0.303098 -0.312549 1.66052 105 103 91 
-0.00692554 -0.321644 1.562 84 79 75 
0.424588 -0.343676 1.96024 38 37 35 
0.426856 -0.335802 1.98558 45 45 43 
0.0781999 -0.282639 1.53283 124 121 112 
-0.00649362 -0.286548 1.51413 117 113 104 
-0.0443794 -0.302499 1.59627 27 21 21 
0.340437 -0.280399 1.70706 98 92 80 
0.341828 -0.27349 1.7256 22 15 7 
0.186601 -0.261729 1.56504 40 37 32 
0.327121 -0.264341 1.70286 108 101 95 
0.0486484 -0.261763 1.53078 142 135 129 
0.234837 -0.242419 1.56149 111 99 87 
0.376968 -0.259185 1.77087 104 100 91 
0.248483 -0.244765 1.61815 111 97 84 
-0.151991 -0.276617 1.66353 3 2 0 
0.291911 -0.232836 1.63458 128 118 108 
0.230628 -0.223685 1.57912 117 111 99 
0.273668 -0.214094 1.60951 140 130 120 
0.332425 -0.218108 1.68798 126 118 107 
-0.00610425 -0.21947 1.49031 32 27 21 
-0.00484895 -0.222401 1.52184 11 6 3 
-0.090246 -0.232285 1.5872 87 86 82 
0.396132 -0.224094 1.85252 6 1 0 
-0.009931 -0.20034 1.5069 138 134 123 
0.0450308 -0.193598 1.5278 105 100 97 
0.406126 -0.199112 1.91823 11 7 0 
-0.257312 -0.213384 1.82722 15 15 13 
0.29865 -0.107973 1.60101 13 5 3 
-0.144065 -0.11085 1.59237 0 0 0 
0.282265 -0.0578772 1.54059 125 110 81 
0.190813 -0.0418758 1.48244 19 14 10 
0.103664 -0.0309083 1.41559 104 95 86 
0.182976 0.0111779 1.41881 108 100 87 
0.176388 0.0258224 1.43643 9 0 0 
0.163448 0.0246411 1.40488 28 18 8 
-0.159116 0.0725833 1.51351 103 94 79 
-0.0373393 0.0704679 1.40956 87 86 81 
0.206677 0.0979925 1.40127 144 126 116 
0.22323 0.104739 1.41974 83 71 57 
0.299418 0.118728 1.48074 84 44 32 
0.226537 0.111309 1.42556 129 117 103 
0.31735 0.132248 1.50827 154 142 128 
0.117277 0.117349 1.34318 120 112 101 
0.231685 0.134817 1.40152 73 60 43 
0.282006 0.144409 1.43058 117 108 91 
-0.0015145 0.128242 1.34875 10 6 3 
0.318722 0.181393 1.44952 137 125 113 
-0.139183 0.174231 1.44363 89 84 80 
-0.0607486 0.168305 1.37504 43 33 24 
0.360047 0.214735 1.51333 137 126 108 
0.141398 0.177808 1.3158 4 0 0 
0.237313 0.200813 1.37207 163 151 135 
0.285069 0.211794 1.39777 120 112 93 
0.0391053 0.193043 1.30552 29 21 8 
0.323592 0.234191 1.42187 120 111 94 
0.29584 0.232418 1.3932 119 110 93 
0.262643 0.240746 1.36187 139 130 115 
0.196681 0.230646 1.31648 151 141 129 
0.290684 0.264258 1.3703 138 127 105 
0.202592 0.257544 1.3315 79 71 60 
0.352911 0.287684 1.44898 119 110 95 
0.133265 0.249627 1.27665 118 108 96 
0.319705 0.282152 1.39215 88 77 57 
0.353686 0.299696 1.45679 128 119 104 
0.234442 0.286739 1.31413 136 125 107 
0.315606 0.313363 1.38195 139 129 119 
-0.0436689 0.292645 1.30768 110 101 92 
0.108416 0.30633 1.24504 84 76 65 
-0.0642783 0.327421 1.28918 94 86 83 
0.0366694 0.32233 1.24068 41 38 29 
-0.00178256 0.323564 1.24622 15 11 8 
0.330585 0.362593 1.33471 144 132 116 
0.0963182 0.339513 1.22302 77 73 64 
0.307755 0.411729 1.28479 86 79 61 
0.389207 0.469931 1.38514 61 51 39 
0.0803196 0.39961 1.19466 139 135 124 
0.260616 0.421573 1.22801 134 124 112 
0.33421 0.455742 1.28552 146 138 117 
0.110818 0.414186 1.16055 121 113 102 
0.337326 0.465474 1.28534 154 142 126 
0.117526 0.426633 1.16345 72 66 54 
0.316831 0.467004 1.24267 38 30 19 
0.130159 0.438103 1.15147 60 53 43 
0.0413275 0.448885 1.1526 82 75 69 
-0.0570817 0.47355 1.17273 115 108 100 
0.176032 0.476111 1.13405 93 90 81 
-0.00391936 0.485117 1.14158 57 53 44 
0.201466 0.506075 1.13893 19 15 3 
-0.00290677 0.505995 1.10884 168 156 134 
0.0884191 0.491992 1.06672 159 152 126 
-0.028112 0.527417 1.08634 95 93 80 
0.0535301 0.5366 1.05893 35 28 10 
0.01093 0.544387 1.05825 48 45 30 
0.288592 -0.819353 2.19043 223 227 226 
-0.235994 -0.81548 2.22095 216 217 219 
0.349448 -0.553259 1.9517 222 226 227 
-0.220004 -0.59734 1.99142 93 89 86 
0.107111 -0.458609 1.60686 113 104 99 
-0.211802 -0.457409 1.81817 90 83 73 
0.173686 -0.252963 1.54137 55 51 42 
0.00319441 -0.257534 1.53062 112 109 104 
0.359247 -0.253584 1.75636 77 70 60 
0.196409 -0.188568 1.54352 113 104 95 
-0.131641 -0.218538 1.61969 90 86 83 
0.200908 -0.0655595 1.4772 124 114 102 
-0.0463907 -0.0525963 1.48332 96 87 82 
0.316323 0.123164 1.50252 82 56 43 
0.0509026 0.117612 1.34379 98 94 83 
0.0825575 0.119836 1.32952 23 18 15 
0.28598 0.235408 1.38067 63 56 40 
0.2721 0.287798 1.3424 62 53 36 
0.15277 0.443792 1.15543 130 126 114 
0.1267 0.49346 1.07758 131 126 107 
-0.205102 -0.648426 2.01827 60 57 52 
0.424772 -0.355103 1.94904 222 224 223 
0.317338 0.134137 1.49575 156 144 128 
0.109044 -0.748303 1.86569 123 114 97 
-0.227317 -0.399935 1.78927 46 45 40 
0.282887 -0.325956 1.66297 2 4 3 
-0.0799052 -0.328981 1.60697 0 0 0 
-0.261459 -0.372523 1.8273 63 60 53 
-0.238597 -0.280558 1.79029 4 6 5 
-0.261867 -0.232867 1.83341 29 29 29 
0.298894 -0.794941 2.18625 80 74 62 
-0.21383 -0.591067 1.97496 55 51 48 
-0.23262 -0.334438 1.74544 1 1 0 
0.293803 -0.779411 2.16461 87 83 71 
-0.246501 -0.511234 1.91703 212 213 215 
0.00673293 -1.68212 2.70486 63 67 68 
0.0713159 -1.04517 2.1749 134 125 118 
0.122359 -0.994165 2.14113 51 41 31 
0.0762909 -0.957325 2.0929 139 130 123 
0.0926855 -0.906262 2.04165 37 30 20 
0.0721667 -0.810723 1.91298 125 125 115 
0.0557373 -0.8136 1.9157 49 47 35 
0.0236485 -0.808357 1.91034 128 124 115 
0.0760861 -0.771627 1.8933 108 97 95 
0.0378408 -0.772207 1.8934 131 118 110 
0.144433 -0.763215 1.91453 27 23 14 
0.0271585 -0.762088 1.88897 131 116 109 
0.0315373 -0.747441 1.8818 55 30 25 
0.016225 -0.725045 1.87011 24 6 0 
0.145204 -0.682308 1.84279 102 95 85 
-0.0194407 -0.664585 1.82742 169 165 156 
-0.0192583 -0.619442 1.78881 166 162 150 
0.0410054 -0.603919 1.77375 149 146 141 
-0.0427009 -0.605997 1.77828 120 116 107 
-0.195758 -0.695148 2.05045 102 102 102 
0.131492 -0.344168 1.57325 26 23 18 
-0.12243 -0.269034 1.63355 89 85 82 
0.313283 -0.00493057 1.57184 45 5 0 
-0.0620795 0.0843348 1.42121 130 125 121 
0.253287 0.148089 1.40231 21 8 0 
0.344677 0.168392 1.50408 44 32 18 
0.292159 0.161333 1.43424 15 3 0 
0.316185 0.17026 1.46033 36 22 9 
0.184458 0.294258 1.26264 46 32 19 
0.326097 0.337619 1.3628 39 32 14 
-0.217019 0.38889 1.48428 123 120 115 
0.330646 0.37943 1.32744 161 154 136 
0.27978 0.37456 1.2776 78 70 59 
0.151987 0.466795 1.1445 20 13 3 
0.207069 0.48221 1.15211 103 99 88 
0.233915 0.543367 1.08529 131 124 108 
0.259527 0.5548 1.09343 107 105 92 
0.240765 0.554931 1.03761 130 129 101 
-0.0149867 -1.6257 2.65266 230 231 233 
-0.0480649 -1.52918 2.60867 61 60 58 
-0.00348518 -1.43494 2.52007 143 131 119 
0.0605458 -1.09511 2.22084 134 126 115 
0.0487879 -1.08024 2.21308 135 125 115 
0.0862275 -1.02841 2.15949 52 49 42 
0.184899 -1.03224 2.27393 24 23 19 
0.107175 -0.940363 2.0722 141 132 117 
-0.217066 -0.715746 2.09393 23 22 18 
0.165526 -0.420472 1.62055 8 0 0 
-0.239819 -0.532782 1.94813 217 217 217 
-0.000309846 -0.370955 1.58695 99 95 92 
0.0781996 -0.10486 1.44908 42 33 24 
0.192014 -0.0626249 1.48 7 0 0 
-0.0853842 -0.0563495 1.50444 94 89 85 
0.231652 -0.0249711 1.46872 144 132 118 
0.0155231 -0.0197337 1.40146 134 127 119 
0.339112 0.0109379 1.57801 68 53 32 
0.204094 0.00997606 1.43922 125 115 105 
0.14365 0.0229547 1.40698 16 3 0 
0.326285 0.0471871 1.54047 37 19 0 
-0.089849 0.0238283 1.47193 10 8 0 
0.327903 0.0942058 1.51734 47 31 5 
-0.066893 0.0957296 1.42047 107 100 92 
-0.0649373 0.108006 1.41318 30 25 21 
0.17471 0.114087 1.35352 38 31 23 
0.355565 0.249272 1.47696 36 23 6 
0.352725 0.302263 1.43858 59 47 33 
0.345425 0.319947 1.41844 48 45 26 
0.231323 0.292942 1.29745 158 146 132 
0.221014 0.296641 1.27884 54 46 33 
0.130963 0.322331 1.23776 119 111 100 
-0.0359682 0.345024 1.25564 82 77 74 
0.319049 0.376569 1.31335 22 15 0 
0.314036 0.385303 1.30676 34 26 7 
0.306421 0.383729 1.29938 66 54 38 
0.383534 0.418895 1.40499 29 19 7 
0.356603 0.405799 1.3447 53 42 24 
0.319435 0.418018 1.29873 73 64 47 
0.336569 0.450946 1.30327 131 122 105 
0.116014 0.444389 1.16231 19 12 2 
0.306055 0.480827 1.22753 10 8 0 
0.273536 0.478647 1.19545 21 15 3 
0.283533 0.493627 1.19058 126 123 108 
0.307561 0.504177 1.20597 65 57 44 
0.12824 0.490553 1.12983 106 101 95 
0.150438 0.495404 1.12793 87 82 76 
0.0487237 0.507755 1.1286 33 27 13 
0.221413 0.510209 1.13055 135 132 117 
0.0336543 0.510856 1.12539 129 121 108 
0.125416 0.497022 1.08335 133 128 109 
0.328102 0.536823 1.15144 3 0 0 
0.225387 0.522234 1.0943 142 140 127 
0.0854231 0.518748 1.07672 96 91 72 
0.204546 0.528164 1.0854 136 133 116 
0.105238 0.525238 1.07085 148 145 128 
0.0941493 0.535862 1.06012 82 76 54 
0.276048 0.558023 1.10205 73 72 67 
0.0592337 0.547878 1.0635 108 102 86 
0.21467 0.550526 1.06198 145 139 113 
0.119208 0.546549 1.04769 188 189 158 
0.254495 0.555199 1.05808 168 169 138 
0.221908 0.552407 1.04898 45 45 17 
0.140807 0.546275 1.03363 55 55 27 
0.114908 0.547701 1.02723 77 73 46 
0.067012 0.553729 1.03061 49 48 27 
0.258452 0.557056 1.04519 157 152 122 
0.16332 0.540677 0.998113 130 124 76 
0.0526201 -1.47385 2.52732 28 28 30 
0.0934396 -0.915762 2.04585 136 127 118 
-0.00540569 -0.632689 1.80459 115 111 102 
0.0940165 -0.611429 1.77892 63 58 55 
0.0646253 -0.348805 1.56843 85 80 74 
-0.018806 -0.294691 1.55836 117 113 104 
0.317234 -0.103216 1.61074 17 8 0 
-0.0682344 -0.0561624 1.49145 3 0 0 
-0.0835965 0.0997204 1.43287 85 76 67 
0.316574 0.125506 1.50581 67 41 26 
0.212511 0.127278 1.3856 132 119 110 
0.199005 0.145777 1.36706 51 47 36 
-0.0614658 0.168584 1.37709 43 33 24 
0.336294 0.198881 1.46631 150 140 128 
-0.0754049 0.172411 1.38753 20 11 4 
-0.104118 0.18319 1.40547 10 5 1 
-0.00958822 0.197792 1.33321 93 84 77 
0.328081 0.36575 1.32731 83 70 53 
0.0955744 0.340361 1.22588 77 73 64 
0.339316 0.487929 1.25487 109 105 93 
0.0123047 0.463187 1.15662 109 100 93 
0.153075 0.503611 1.12235 145 137 118 
-1.49351 1.86414 3.74884 61 60 55 
0.293698 0.544916 1.12859 77 71 57 
0.332023 0.556955 1.14915 11 9 0 
0.142598 0.530265 1.06961 65 58 39 
0.36396 0.578217 1.10971 130 126 114 
0.222553 0.559266 1.06281 72 72 46 
0.348317 0.577149 1.07883 43 40 31 
0.0543076 -1.48936 2.54838 40 38 39 
-0.0381763 -1.41595 2.5395 223 224 226 
0.196272 -1.02518 2.27903 220 221 223 
0.12268 -0.76989 1.89534 33 30 25 
0.12603 -0.748581 1.89265 18 14 13 
-0.133419 -0.404724 1.68459 101 96 93 
0.346783 -0.304954 1.72584 109 101 90 
0.305617 0.528375 1.13818 2 1 0 
0.265356 0.557123 1.10099 121 119 106 
0.244143 -0.83587 2.11092 53 44 39 
0.108577 -0.767024 1.89977 129 120 103 
0.312718 -0.700207 2.11839 45 44 39 
-0.248467 -0.530689 1.96147 211 211 213 
0.227887 -0.357544 1.63017 109 106 99 
-0.0245173 -0.257865 1.55592 106 98 87 
-0.0448362 -0.0514238 1.48965 93 84 79 
0.0543219 -1.56512 2.70686 135 130 127 
0.237197 -0.906544 2.19127 216 220 223 
-0.0579655 -0.351706 1.60363 28 25 20 
-0.0835407 -0.341973 1.61296 103 100 91 
0.00394217 -0.30396 1.55574 16 3 0 
-0.000993824 -0.232759 1.52509 111 102 95 
0.058674 -0.195265 1.49646 91 86 82 
-0.147545 0.0221069 1.54875 138 121 129 
0.0896933 0.0434386 1.3769 106 98 85 
0.190924 0.441219 1.1712 130 124 112 
-0.11498 0.581156 1.11428 25 15 3 
0.282248 -0.236505 1.63875 140 130 118 
0.0797072 -0.22014 1.50854 38 31 21 
-0.1058 -0.0905952 1.53827 6 3 0 
0.171005 0.406074 1.20268 42 34 23 
0.224567 0.428742 1.2062 135 125 113 
0.072526 -0.71399 1.86257 113 100 94 
0.0619053 -0.599339 1.76808 120 115 112 
-0.0123359 -0.348035 1.57949 43 39 28 
0.00582704 -0.0127103 1.41466 3 0 0 
0.00522242 0.0199728 1.39677 33 24 15 
0.0384796 0.384616 1.2057 131 127 118 
0.159139 0.398805 1.2008 68 60 49 
0.0165497 0.513273 1.12088 67 58 41 
0.0977543 0.508243 1.07165 91 88 73 
0.00889878 -1.49823 2.53264 62 57 53 
0.0177134 -0.7373 1.87002 60 48 36 
0.00235364 -0.288332 1.54782 92 87 83 
-0.0389215 0.276066 1.3107 99 90 81 
0.129593 0.402129 1.19379 22 18 15 
0.0582351 0.433192 1.16291 127 123 114 
0.126505 0.456768 1.14172 42 37 31 
0.0457179 0.529108 1.06776 89 81 68 
0.00276762 0.499857 1.13726 114 106 93 
0.0403917 0.501383 1.08218 146 139 121 
0.0521117 0.539392 1.06305 35 28 10 
0.175205 0.451963 1.15817 131 125 113 
0.0935466 0.489667 1.12551 124 120 111 
0.13106 0.497489 1.12558 99 95 84 
0.13657 0.463991 1.14153 15 11 8 
0.101811 0.484545 1.12874 184 180 171 
0.0883639 0.500495 1.08066 41 33 14 
-0.0704967 0.524562 1.11287 38 34 22 
0.122421 0.50861 1.07709 33 29 17 
0.071872 0.518789 1.07312 140 137 122 
-0.0318181 0.535995 1.08749 68 61 55 
