ply                 
format ascii 1.0    
element vertex 1284
property float x    
property float y    
property float z    
property uchar red  
property uchar green
property uchar blue 
end_header          
0.0530357 -0.345596 1.56859 81 76 72 
0.0873509 -0.346141 1.57204 88 83 79 
0.156446 -0.339017 1.58352 6 0 0 
0.109665 -0.328358 1.56632 104 100 91 
0.0448258 -0.318324 1.56013 33 28 22 
0.236995 -0.315856 1.6175 15 11 8 
-0.199208 -0.327952 1.71508 87 84 79 
-0.016609 -0.298637 1.55877 22 18 9 
0.0708595 -0.287059 1.54318 39 35 32 
0.0597041 -0.268773 1.53578 87 84 75 
0.275991 -0.276224 1.64585 40 38 26 
0.194671 -0.268438 1.58883 120 113 105 
0.109084 -0.251628 1.52863 95 91 82 
-0.152569 -0.257664 1.65361 32 28 25 
0.158178 -0.23716 1.53209 97 93 84 
0.249543 -0.236433 1.6041 54 44 32 
0.262623 -0.236364 1.61411 14 7 0 
0.263646 -0.20574 1.59733 102 93 84 
0.200752 -0.166643 1.53736 110 100 88 
0.209012 -0.157992 1.53788 35 25 13 
0.198367 -0.146648 1.52522 116 108 97 
0.236558 -0.114336 1.53234 24 14 4 
0.22836 -0.0953839 1.51595 18 8 0 
0.245764 -0.0439579 1.50199 119 110 101 
0.248659 -0.0402521 1.51224 52 48 37 
-0.0616938 -0.0145912 1.46423 85 81 78 
0.19845 -0.0119402 1.45347 105 94 88 
0.236938 0.00237645 1.47229 141 131 121 
0.261305 0.0381631 1.46982 35 20 0 
0.10728 0.0638366 1.36948 95 89 77 
0.327945 0.0937528 1.51435 52 40 18 
0.217752 0.0866604 1.41433 131 119 107 
0.268024 0.0913361 1.44684 120 106 93 
0.212058 0.143474 1.38017 142 132 122 
0.29281 0.155315 1.43228 135 123 109 
0.225011 0.15066 1.38458 70 61 46 
0.286386 0.1608 1.42384 138 128 119 
0.203433 0.160857 1.36146 13 4 0 
0.228647 0.166987 1.38178 8 0 0 
0.207045 0.186323 1.35556 95 91 79 
0.239847 0.19917 1.36923 147 134 125 
0.206708 0.199401 1.34631 101 93 82 
0.329356 0.23236 1.43938 58 48 36 
0.30639 0.230374 1.40537 52 38 25 
0.27509 0.226464 1.38129 156 148 135 
0.236455 0.229201 1.34719 43 31 19 
0.311981 0.243042 1.40506 42 32 20 
0.204362 0.234451 1.3282 15 10 4 
0.261601 0.244715 1.35619 20 14 0 
0.263663 0.25718 1.35183 148 138 128 
0.331358 0.29196 1.40722 131 122 107 
0.314224 0.28927 1.37883 59 50 35 
0.152938 0.274025 1.26882 23 15 2 
0.289724 0.295623 1.35319 49 37 25 
0.310605 0.302554 1.3734 27 15 0 
0.26928 0.297298 1.33391 140 131 116 
0.0707196 0.289054 1.25249 113 108 102 
0.271349 0.310458 1.32492 132 124 113 
0.209482 0.303087 1.28232 30 22 11 
0.287033 0.321599 1.32683 36 27 12 
0.282493 0.339879 1.29848 38 28 18 
0.301067 0.346642 1.31156 36 26 16 
0.32885 0.356857 1.33554 39 32 16 
0.236205 0.350853 1.26128 121 113 100 
0.1171 0.342927 1.2308 77 73 62 
0.299119 0.368375 1.29503 60 47 38 
0.285665 0.369233 1.28587 113 109 97 
0.25422 0.364254 1.26465 152 145 129 
0.26955 0.371813 1.27092 51 43 32 
0.313828 0.383457 1.30222 43 31 19 
0.150036 0.361018 1.22546 111 104 96 
0.219593 0.382562 1.23757 92 88 76 
0.270005 0.393075 1.26201 54 42 28 
0.245707 0.393696 1.246 48 38 29 
0.1357 0.383019 1.20972 93 89 80 
0.264206 0.407068 1.2512 51 47 35 
0.145173 0.392829 1.20546 43 39 28 
0.24796 0.40761 1.24163 112 102 90 
0.274035 0.421466 1.25122 26 14 0 
0.14268 0.404655 1.20096 35 31 22 
0.322958 0.439179 1.28898 35 23 7 
0.227165 0.416288 1.22086 43 35 22 
0.248824 0.423451 1.23442 133 123 111 
0.156517 0.41307 1.19844 47 39 28 
0.197773 0.418955 1.20507 100 96 87 
0.134501 0.415017 1.19038 135 131 119 
0.16545 0.417354 1.19744 135 132 117 
0.31281 0.448449 1.27276 147 138 121 
0.178245 0.421347 1.19647 167 163 152 
0.189004 0.428364 1.19166 21 14 6 
0.148208 0.427361 1.18026 129 127 114 
0.125635 0.426458 1.17539 132 126 112 
0.159178 0.4317 1.17583 131 124 116 
0.136007 0.441839 1.16098 49 50 36 
-0.0607984 0.466172 1.18887 18 14 11 
0.309436 -0.763529 2.12601 72 72 62 
0.100679 -0.611888 1.77093 107 106 102 
-0.0806587 -0.595461 1.7964 32 25 17 
0.0987555 -0.380155 1.58698 4 2 3 
0.00172774 -0.370684 1.59023 91 88 83 
-0.222652 -0.36696 1.76006 82 77 74 
0.247174 -0.324613 1.62639 91 87 78 
0.296611 -0.324012 1.6656 110 103 97 
0.0202253 -0.307166 1.5552 92 90 78 
0.249317 -0.286871 1.62599 103 96 86 
-0.148778 -0.286305 1.64955 62 61 57 
0.297528 -0.27525 1.6676 91 87 78 
0.233575 -0.247355 1.59887 115 105 93 
-0.00360874 -0.222155 1.52183 15 12 5 
0.117503 -0.197339 1.50163 75 71 62 
0.179329 -0.198596 1.52551 11 8 0 
0.19163 -0.13379 1.5058 31 28 19 
0.201993 -0.117471 1.51605 109 105 94 
-0.0610586 -0.0706859 1.49399 57 53 54 
0.256004 -0.00718 1.491 48 40 27 
0.326346 0.0472157 1.53913 65 50 29 
0.255755 0.0494848 1.45716 149 140 125 
0.311304 0.220371 1.42598 110 101 86 
0.232248 0.266794 1.32541 104 92 80 
0.294103 0.309686 1.35192 66 53 37 
-0.00596903 0.327048 1.24561 76 75 71 
0.307277 0.410993 1.28455 71 61 49 
0.232953 0.402027 1.23413 71 58 49 
0.121707 0.440377 1.15976 42 37 34 
-0.0380192 -1.43225 2.60399 74 70 67 
0.303782 -0.783295 2.1319 63 61 49 
-0.224097 -0.579289 1.96883 207 211 210 
0.0641649 -0.470061 1.63014 141 132 115 
0.255247 -0.330815 1.62825 5 3 4 
0.288455 -0.327538 1.6585 9 5 6 
0.237498 -0.299505 1.62151 8 6 7 
0.276988 0.301883 1.33879 78 68 58 
0.105575 0.396406 1.19887 107 98 89 
0.188963 -0.344253 1.6022 3 3 3 
0.106511 -0.747977 1.87048 113 105 92 
0.424878 0.526602 1.45156 181 185 184 
-0.185209 -0.806527 2.11962 211 215 216 
-0.0484352 -1.4177 2.54577 217 221 224 
0.0246618 -0.67624 1.8367 140 136 125 
-0.0160024 -0.656561 1.81856 31 28 19 
0.0335911 -0.583175 1.75784 108 103 99 
0.0619112 -0.575721 1.75279 115 113 101 
0.0492982 -0.573176 1.75093 54 50 39 
0.0864389 -0.554281 1.73306 119 114 110 
0.0298306 -0.440955 1.60789 86 85 81 
0.2334 -0.367572 1.63862 18 14 5 
0.118297 -0.34133 1.5758 5 0 0 
0.0757509 -0.339365 1.56967 106 103 98 
0.0438067 -0.262254 1.53401 24 19 13 
0.15382 -0.262054 1.54656 30 25 21 
-0.0515639 -0.259253 1.58019 14 8 8 
0.0697118 -0.227819 1.51556 115 111 102 
0.219851 -0.224438 1.58173 8 0 0 
0.22008 -0.171851 1.55548 137 129 118 
0.22932 -0.142582 1.54757 143 131 115 
0.222418 -0.035086 1.48829 143 131 117 
0.265457 0.011421 1.49062 10 0 0 
0.0805806 0.00970333 1.39742 11 2 0 
0.258595 0.0857593 1.44589 51 39 23 
0.251706 0.188933 1.38298 137 124 115 
0.174769 0.245347 1.28748 106 93 84 
0.170857 0.289198 1.26314 135 131 119 
0.187065 0.313483 1.25428 54 44 34 
0.236556 0.32277 1.27822 27 20 10 
0.305007 0.356076 1.30733 15 1 0 
0.216451 0.388055 1.23027 27 19 8 
0.23603 0.422347 1.22326 43 40 21 
0.250174 0.435732 1.21534 29 23 11 
0.248015 0.441686 1.20657 21 11 2 
0.163129 0.435404 1.16541 169 166 161 
0.19095 0.439791 1.1696 115 111 100 
0.250729 0.451717 1.19181 22 18 7 
0.180711 0.442526 1.16442 16 12 1 
0.171653 0.443651 1.16049 119 115 106 
0.115161 0.447855 1.14795 33 26 18 
0.164584 0.449834 1.15315 138 134 123 
0.0938265 0.486921 1.12231 127 124 119 
0.131418 0.49501 1.1234 91 87 76 
0.0447591 0.501303 1.08072 33 21 9 
0.0672699 0.543723 1.05335 112 104 91 
0.104539 -0.602968 1.77548 80 76 67 
0.0884798 -0.581797 1.75842 118 115 106 
0.0938512 -0.568906 1.74596 54 49 45 
-0.0339163 -0.56011 1.73185 106 101 95 
0.103868 -0.47398 1.63429 19 14 10 
0.00457852 -0.451407 1.61097 120 117 108 
0.0870494 -0.337697 1.57046 86 82 79 
0.165704 -0.338072 1.58806 6 1 0 
0.165809 -0.324682 1.57962 138 135 130 
0.0894544 -0.290269 1.54886 26 23 14 
0.0997537 -0.2681 1.53816 100 97 92 
0.148924 -0.246522 1.5378 94 91 82 
0.211174 -0.234794 1.5812 40 28 16 
0.236583 -0.172559 1.56779 54 46 35 
0.157347 -0.0970737 1.46558 11 2 0 
0.253159 -0.0176593 1.49739 62 53 38 
0.270179 0.0728042 1.45998 136 123 107 
-0.0788672 0.130071 1.411 65 61 58 
0.173663 0.177705 1.31113 106 98 85 
0.252271 0.219525 1.36394 135 126 111 
0.274581 0.261105 1.36049 126 118 105 
0.139093 0.263917 1.26997 91 82 67 
0.18866 0.302242 1.261 61 51 39 
-0.0178122 0.322026 1.26066 87 84 79 
0.22641 0.32958 1.26331 144 134 124 
0.250276 0.42724 1.22631 120 116 104 
0.308232 0.451033 1.25766 132 124 111 
0.217307 0.437442 1.1909 139 129 117 
0.237771 0.443027 1.19494 46 38 27 
0.236695 0.450859 1.17939 124 120 109 
0.219488 0.455729 1.17019 107 98 89 
0.134929 0.450222 1.14589 105 101 89 
0.113523 0.458912 1.13972 102 97 93 
0.14357 0.462859 1.14098 22 17 11 
0.102104 0.482011 1.12615 170 165 161 
0.0592041 0.504303 1.11686 125 117 104 
0.0855309 0.496163 1.07822 144 133 113 
0.0727256 0.517879 1.07422 140 137 122 
0.0514197 0.537148 1.06082 27 25 10 
0.0884292 0.536747 1.05767 99 92 74 
0.0231559 -0.570734 1.7472 117 110 102 
0.00484434 -0.5609 1.73313 114 108 96 
0.217875 -0.291499 1.61535 117 110 100 
-0.105885 -0.271332 1.62733 84 80 77 
0.274881 -0.213893 1.61663 125 117 104 
0.0526882 -0.191355 1.51132 94 87 79 
0.116856 -0.0552484 1.43441 101 91 81 
-0.0886948 0.082453 1.44562 96 92 83 
0.281278 0.31643 1.32525 137 129 116 
0.127613 0.459005 1.14039 80 79 74 
0.0393326 -1.52582 2.57303 122 112 102 
0.117396 -0.127076 1.47058 98 93 89 
0.0657513 0.507427 1.10474 127 121 107 
0.0285479 -0.728896 1.88291 126 103 95 
0.018263 -0.33958 1.57325 2 1 0 
0.0878783 -0.235904 1.52092 123 114 107 
0.149741 -0.0136941 1.4186 103 93 84 
0.154961 0.37504 1.21777 127 118 109 
0.187643 0.403831 1.21376 41 37 26 
0.179734 0.460725 1.15575 111 109 97 
0.164791 0.460131 1.15184 139 135 124 
0.23173 0.469171 1.17442 126 117 108 
0.191895 0.469184 1.15542 27 23 12 
0.115784 0.48796 1.12867 158 158 150 
0.143889 0.495684 1.08603 167 162 142 
0.130592 0.508715 1.0778 15 5 0 
0.240567 0.525186 1.10373 133 131 116 
0.138587 0.517597 1.07718 119 115 104 
0.187858 0.529304 1.07827 110 104 92 
0.126921 0.527384 1.06713 143 135 124 
0.110726 0.527875 1.06722 33 30 15 
0.137222 0.533602 1.06351 147 140 121 
0.187542 0.537795 1.07275 22 14 1 
0.174796 0.542319 1.0649 39 31 12 
0.126166 0.541359 1.05806 126 125 105 
0.161661 0.543644 1.06087 33 32 12 
0.027823 -0.771004 1.90058 117 103 94 
0.0119494 -0.729039 1.87914 111 103 90 
0.115426 -0.427898 1.62007 23 15 12 
0.113331 -0.268484 1.54248 55 54 49 
-0.0550376 0.19735 1.35388 96 92 83 
0.237258 0.276402 1.32916 50 38 22 
0.12859 0.444564 1.15516 120 116 105 
0.206817 0.464702 1.16337 116 113 98 
0.294885 0.487225 1.21073 39 31 20 
0.15536 0.475933 1.14117 15 10 4 
0.174777 0.479019 1.14288 94 89 83 
0.065892 0.49157 1.13044 118 110 97 
0.113056 0.50996 1.07786 110 106 94 
0.151203 0.533195 1.06695 146 139 120 
0.21804 0.542252 1.08073 112 109 100 
0.147908 0.542159 1.06019 8 0 0 
0.0452419 -0.311757 1.55841 90 89 85 
0.190919 0.455897 1.16429 119 117 105 
0.138098 0.502716 1.11679 141 129 115 
0.235601 0.505228 1.11094 27 23 11 
0.075522 0.526822 1.07083 82 76 60 
0.117508 0.535656 1.06164 114 108 92 
-0.028936 -0.342048 1.59933 75 71 68 
0.136872 0.364308 1.22088 60 52 41 
-0.0229259 -1.63426 2.70837 106 111 107 
-0.0134389 -1.5999 2.68928 132 127 123 
0.0153436 -1.58487 2.66525 60 56 44 
-0.0207746 -1.57487 2.68273 55 47 44 
-0.00375073 -1.49898 2.63405 137 127 117 
-0.0164249 -1.48688 2.63652 34 34 34 
-0.0141049 -1.5909 2.68565 137 130 120 
-0.0253995 -1.55334 2.67244 48 48 46 
0.0103574 -1.50972 2.63238 28 28 28 
0.146601 -0.713634 1.88441 33 25 14 
0.135303 -0.71043 1.88278 131 125 113 
0.178143 -0.721015 1.92631 126 119 109 
0.145474 -0.690439 1.87001 88 89 75 
-0.0516217 -0.70441 1.88298 109 105 94 
0.120944 -0.642966 1.82324 144 141 134 
0.116981 -0.630186 1.81558 142 139 134 
-0.010148 -0.640145 1.82144 54 47 39 
0.134768 -0.591745 1.77778 96 92 89 
0.161922 -0.583656 1.76906 148 143 137 
0.146318 -0.583323 1.77178 85 83 71 
-0.198406 -0.70186 2.0748 106 105 101 
0.170012 -0.573645 1.76244 122 118 107 
0.147022 -0.573754 1.76458 119 115 104 
0.17945 -0.569998 1.76073 59 50 41 
0.0970282 -0.571248 1.76047 114 109 105 
-0.0685366 -0.587682 1.78926 24 22 10 
0.208302 -0.56891 1.79597 50 46 35 
-0.0113548 -0.572364 1.76219 134 130 121 
0.168673 -0.548122 1.73522 49 42 26 
0.221075 -0.559856 1.79973 113 109 100 
0.241275 -0.561911 1.83164 27 22 18 
0.261236 -0.565942 1.87341 32 29 22 
0.0279559 -0.534421 1.72093 130 125 121 
0.0868382 -0.521314 1.70153 130 127 122 
0.00711842 -0.515682 1.69468 17 17 9 
0.118055 -0.494762 1.66613 27 22 18 
0.0812195 -0.424821 1.61116 4 0 0 
0.175423 -0.421974 1.6385 10 5 2 
0.227472 -0.417794 1.66163 114 111 102 
0.202857 -0.414464 1.64725 82 77 71 
0.0740284 -0.413226 1.60779 3 0 0 
0.144646 -0.40705 1.61519 124 121 116 
-0.0439971 -0.415317 1.62649 4 0 0 
0.00705738 -0.409147 1.61186 6 3 0 
0.216911 -0.402383 1.64584 31 31 19 
0.0329187 -0.398963 1.60163 98 94 93 
0.265133 -0.396912 1.68005 4 0 0 
0.278541 -0.391064 1.69474 110 107 100 
-0.241623 -0.459127 1.87322 54 49 43 
0.00934881 -0.38362 1.59899 85 82 73 
0.18144 -0.373533 1.61353 12 4 1 
0.197605 -0.370329 1.61707 11 1 0 
0.215657 -0.370328 1.63079 5 0 0 
0.233514 -0.36775 1.64094 9 6 1 
0.152474 -0.357571 1.59348 93 85 74 
0.269591 -0.363907 1.66696 42 37 33 
-0.122851 -0.388757 1.67694 21 17 16 
0.154394 -0.349441 1.58601 99 92 84 
0.323608 -0.363784 1.72684 7 4 0 
0.295514 -0.357739 1.69222 10 7 2 
0.253045 -0.349153 1.64219 104 101 96 
0.244764 -0.346204 1.6345 6 1 0 
0.00393047 -0.347421 1.58346 109 104 100 
0.284533 -0.339262 1.66853 8 5 0 
0.302744 -0.340428 1.68627 105 100 94 
0.336917 -0.342994 1.73382 47 44 39 
-0.084675 -0.343785 1.62602 89 86 81 
0.248087 -0.311091 1.63645 29 26 21 
-0.00726195 -0.313751 1.57299 105 94 88 
-0.171745 -0.338669 1.70458 78 77 73 
-0.041519 -0.314792 1.60503 93 90 85 
0.0320117 -0.289296 1.54861 103 100 93 
0.378867 -0.306811 1.79892 3 0 0 
0.248672 -0.284087 1.62885 107 100 90 
0.238477 -0.282213 1.62297 28 24 12 
0.254927 -0.280529 1.63453 9 2 0 
0.223617 -0.272875 1.60655 126 118 107 
0.268906 -0.276399 1.64489 26 17 8 
0.0294003 -0.265382 1.53573 104 99 95 
0.293763 -0.270103 1.66873 26 22 11 
0.256092 -0.265719 1.63025 31 24 16 
0.0107907 -0.260478 1.53846 10 3 0 
0.215757 -0.255815 1.59014 22 12 2 
0.287454 -0.261515 1.65806 137 133 121 
-0.0410876 -0.26316 1.5779 5 4 2 
0.243538 -0.24773 1.60598 109 100 91 
0.281109 -0.251653 1.64483 130 126 114 
0.198803 -0.239022 1.57085 129 121 110 
-0.0180054 -0.243497 1.53709 152 144 133 
0.301383 -0.242248 1.66811 44 35 26 
0.253384 -0.234889 1.60846 125 119 107 
0.211878 -0.230591 1.57567 133 123 113 
-0.02179 -0.229978 1.52823 117 110 100 
0.291659 -0.227261 1.64243 9 0 0 
0.339043 -0.232487 1.71697 54 50 39 
-0.0728196 -0.231058 1.58818 4 3 1 
0.231632 -0.190316 1.5642 28 20 9 
0.254542 -0.189679 1.58466 24 18 6 
-0.0177668 -0.193599 1.51149 112 107 101 
0.303586 -0.179991 1.62761 108 95 87 
0.192043 -0.174691 1.53564 82 73 66 
0.181465 -0.166525 1.50387 119 110 101 
-0.111587 -0.186349 1.597 2 1 0 
0.315963 -0.172706 1.64496 25 15 5 
0.30826 -0.166416 1.62809 15 3 0 
0.260336 -0.162668 1.57328 98 88 78 
0.264799 -0.153845 1.56917 129 119 107 
0.274109 -0.146457 1.57872 111 105 93 
0.309599 -0.146859 1.62264 32 18 5 
0.32473 -0.13295 1.63543 43 30 21 
0.266933 -0.120205 1.5562 6 0 0 
0.231026 -0.115599 1.52711 69 63 47 
0.358078 -0.11892 1.69042 132 120 108 
0.350983 -0.114284 1.67567 15 1 0 
0.272869 -0.106661 1.55727 36 26 16 
0.258141 -0.0972129 1.53535 36 24 8 
0.266087 -0.0957115 1.54415 13 0 0 
0.0240733 -0.0979881 1.45526 103 99 90 
0.233247 -0.091684 1.5143 34 28 14 
0.352482 -0.088807 1.6539 141 131 119 
0.254923 -0.0861209 1.52634 15 3 0 
0.00360282 -0.0893361 1.45317 100 97 92 
-0.0486032 -0.0881631 1.49553 94 95 90 
-0.0815466 -0.0879993 1.51889 93 89 88 
0.248525 -0.0738383 1.51864 118 108 96 
0.242487 -0.0718189 1.50956 10 0 0 
0.211309 -0.0656535 1.49089 147 138 123 
0.0292694 -0.067793 1.43752 121 116 112 
0.0077923 -0.0656086 1.441 102 97 93 
0.227165 -0.0583032 1.49546 36 20 4 
0.192254 -0.0525403 1.46865 7 0 0 
0.270559 -0.0474181 1.52207 136 123 107 
0.0119425 -0.0519934 1.43542 102 97 91 
0.272848 -0.0378466 1.52169 126 112 99 
0.222263 -0.0350687 1.48101 146 139 123 
0.234423 -0.0352067 1.50281 43 34 19 
0.140353 -0.0350208 1.42264 32 22 13 
0.251021 -0.0307382 1.49739 65 53 41 
0.233772 -0.0246965 1.48218 135 129 115 
0.191518 -0.0254247 1.45278 6 1 0 
0.214493 -0.0239869 1.46829 7 1 0 
0.188973 -0.0241968 1.44018 106 103 94 
0.260436 -0.0215909 1.50441 15 7 0 
0.242332 -0.0168247 1.4806 136 130 118 
0.210656 -0.0146085 1.46353 38 24 15 
0.313829 -0.00507215 1.57403 50 22 11 
0.346266 -0.00198006 1.60413 49 42 26 
0.188319 -0.00180711 1.42209 20 13 3 
0.217604 0.000749444 1.45717 18 8 0 
0.274689 0.00552437 1.49733 126 114 100 
0.020334 0.0032452 1.40367 79 70 65 
0.265175 0.0112275 1.48496 7 0 0 
0.318436 0.0264727 1.56059 13 0 0 
0.256294 0.0237142 1.47349 14 4 0 
0.0305681 0.0345568 1.38666 4 0 0 
0.0435654 0.0431467 1.37404 5 0 0 
-0.038289 0.0482645 1.42859 93 89 86 
0.334969 0.0645841 1.54342 22 10 0 
0.219551 0.0599654 1.42445 45 37 24 
0.362202 0.0788096 1.58566 35 28 10 
-0.0555366 0.063974 1.43191 95 91 88 
0.0344961 0.0646081 1.37105 21 17 8 
0.339899 0.0868415 1.53967 43 30 11 
0.208033 0.0759161 1.41379 14 6 0 
0.347328 0.0896938 1.55242 32 17 0 
-0.168577 0.0822348 1.53782 15 5 0 
-0.0367016 0.0758621 1.41419 14 13 9 
0.258569 0.0856393 1.44543 34 22 10 
0.229107 0.0855115 1.41856 54 45 30 
0.206297 0.0854802 1.41015 118 108 96 
0.25346 0.0912946 1.43291 19 6 0 
0.273445 0.0929009 1.44997 15 1 0 
0.31843 0.11588 1.51479 156 138 124 
0.246608 0.106833 1.41981 59 51 40 
0.201458 0.104182 1.38928 107 99 88 
0.366357 0.130116 1.56979 131 122 107 
0.230546 0.113623 1.40543 11 1 0 
0.287711 0.121928 1.44713 19 9 0 
0.226765 0.121348 1.40083 126 116 104 
0.330264 0.139418 1.50235 52 42 30 
0.346649 0.147045 1.51981 152 138 112 
0.32535 0.145002 1.48152 35 27 14 
0.234078 0.134488 1.3972 30 17 1 
0.304607 0.142497 1.45596 29 19 9 
0.134141 0.12926 1.33622 6 2 0 
0.302942 0.152081 1.45179 135 123 111 
0.293929 0.152221 1.44413 42 30 16 
0.344149 0.161751 1.51231 23 11 0 
0.000162784 0.138925 1.34171 109 105 96 
0.264152 0.15087 1.41221 21 9 0 
0.315285 0.158896 1.4644 151 138 122 
0.309167 0.159002 1.45726 15 1 0 
0.243922 0.152946 1.39452 145 133 117 
0.336025 0.168199 1.48907 132 123 106 
0.328356 0.167148 1.47841 3 2 0 
0.356412 0.175446 1.52856 58 44 33 
0.282561 0.162327 1.42161 7 0 0 
0.320092 0.16927 1.46288 143 135 122 
-0.0755926 0.160122 1.39958 5 2 0 
0.309894 0.169536 1.44648 127 115 99 
0.364842 0.183585 1.53578 137 125 113 
0.290977 0.168655 1.42561 129 119 109 
0.346307 0.185529 1.50439 36 24 8 
0.236858 0.167851 1.37934 62 53 38 
-0.0469115 0.166602 1.37756 15 8 2 
0.288748 0.176661 1.42061 30 20 8 
0.325793 0.184175 1.46776 156 147 132 
0.270268 0.17545 1.39895 10 0 0 
0.275239 0.176992 1.4096 37 27 15 
0.339148 0.189041 1.48788 27 19 6 
0.355759 0.194037 1.51138 137 129 116 
0.312778 0.184614 1.44277 103 93 81 
0.337396 0.19049 1.47841 165 158 142 
0.331913 0.193862 1.47102 29 20 5 
0.264721 0.183595 1.3955 11 0 0 
0.345699 0.199377 1.48737 55 48 30 
0.212384 0.180402 1.36234 115 111 100 
0.322633 0.19534 1.45517 45 33 19 
0.309448 0.193465 1.43804 126 116 104 
0.199005 0.18163 1.34547 18 14 5 
0.245571 0.187566 1.3807 144 134 122 
0.315539 0.198694 1.44296 117 107 95 
0.296675 0.196009 1.41884 44 37 21 
0.329714 0.203751 1.46208 44 38 22 
0.287226 0.195967 1.4079 16 4 0 
0.35437 0.21439 1.49699 30 21 6 
0.312095 0.20493 1.43295 14 5 0 
0.326385 0.208851 1.45171 132 120 106 
0.292557 0.203564 1.41117 26 14 2 
0.30008 0.206331 1.41705 18 7 1 
0.320357 0.210814 1.4412 125 117 106 
0.334381 0.216325 1.46051 11 4 0 
0.307046 0.210547 1.42246 145 135 125 
0.21581 0.199164 1.3537 23 11 0 
0.263593 0.206529 1.37903 138 128 118 
0.271781 0.208702 1.38777 149 139 127 
0.311771 0.216445 1.43039 39 30 15 
0.20096 0.202971 1.33799 85 81 69 
0.355553 0.231473 1.48844 9 0 0 
-0.0760246 0.211904 1.37782 31 27 18 
0.368773 0.237044 1.50701 23 11 0 
0.318751 0.224894 1.4321 146 138 125 
0.338138 0.2302 1.46302 19 7 0 
0.305493 0.223885 1.4154 56 46 34 
0.266454 0.220757 1.3794 23 16 0 
0.288821 0.227307 1.39767 19 6 0 
0.198527 0.215443 1.32234 111 103 90 
0.342945 0.243842 1.45827 137 127 115 
0.366303 0.256564 1.5033 30 18 6 
0.27079 0.233935 1.37232 161 153 142 
0.355083 0.254695 1.47794 47 39 20 
0.302446 0.242517 1.39817 155 146 131 
0.260959 0.23724 1.35938 136 126 116 
0.289206 0.244615 1.38785 19 11 0 
0.329036 0.254404 1.43132 23 15 4 
0.223552 0.236899 1.33627 72 62 52 
0.359943 0.267401 1.48607 142 129 113 
-0.123744 0.253303 1.40527 9 6 1 
0.345818 0.262876 1.45154 33 21 7 
0.273023 0.246731 1.36807 73 65 54 
0.287067 0.251818 1.3805 20 11 0 
0.371545 0.279676 1.49996 32 21 3 
-0.06706 0.2508 1.35241 4 0 0 
0.310858 0.261485 1.40026 11 2 0 
0.223798 0.253055 1.32943 146 136 124 
-0.0780085 0.260444 1.35495 103 100 93 
-0.0627686 0.260381 1.34606 88 84 75 
0.352505 0.284098 1.4609 34 25 10 
0.277532 0.264275 1.36239 41 31 22 
0.316961 0.272293 1.39889 19 12 0 
0.301118 0.274426 1.38596 38 29 14 
0.329839 0.290031 1.41548 16 7 0 
0.308206 0.287257 1.38406 54 46 33 
0.347204 0.299405 1.43874 38 28 16 
0.325914 0.294985 1.40705 27 18 3 
0.0454155 0.266906 1.26992 38 34 25 
-0.136061 0.297752 1.40112 7 2 0 
0.204736 0.27561 1.30643 11 7 0 
0.15902 0.268861 1.27279 125 117 104 
0.280091 0.289575 1.35003 136 129 113 
0.202306 0.281689 1.29927 46 40 28 
0.268136 0.291267 1.33888 26 16 4 
0.347881 0.313371 1.42625 129 121 108 
0.313081 0.30735 1.39275 22 13 0 
0.0269519 0.284564 1.26645 42 38 26 
0.239005 0.294983 1.31635 14 6 0 
0.0685786 0.283084 1.26029 144 137 127 
0.286016 0.30945 1.34593 137 127 115 
0.323767 0.323089 1.38626 25 16 1 
0.197667 0.299288 1.27258 161 151 139 
0.216882 0.303233 1.28844 139 133 119 
0.296697 0.320086 1.35076 143 133 121 
0.284864 0.316924 1.33393 25 13 1 
0.274281 0.316501 1.32642 141 133 122 
0.244677 0.311339 1.30195 17 9 0 
0.315207 0.328355 1.37151 149 141 128 
0.340474 0.336996 1.40019 61 51 41 
0.26104 0.315955 1.3136 49 41 28 
0.314146 0.328498 1.35288 153 145 134 
0.349072 0.347533 1.40739 38 31 15 
0.280389 0.325571 1.32087 137 134 119 
0.320669 0.336056 1.36056 54 44 32 
0.289833 0.329794 1.32291 60 51 42 
0.187062 0.314293 1.2572 55 47 34 
0.23666 0.323525 1.28108 25 19 7 
-0.0956001 0.339464 1.32383 155 151 148 
0.316757 0.34113 1.34306 164 156 145 
-0.0442297 0.330988 1.28505 82 78 75 
0.329793 0.346706 1.35754 142 138 126 
0.283042 0.335514 1.31335 21 13 2 
0.2975 0.340693 1.32747 158 148 138 
0.205767 0.324772 1.26235 10 3 0 
-0.115078 0.349742 1.33474 87 83 74 
0.339669 0.357499 1.36416 33 23 13 
-0.122722 0.357977 1.33643 111 108 103 
0.280674 0.342891 1.29878 138 129 114 
0.336564 0.358969 1.35502 59 49 40 
0.000724167 0.337995 1.25035 105 104 99 
-0.103816 0.357901 1.3137 92 88 77 
0.323897 0.3587 1.3344 168 159 142 
0.263297 0.349222 1.28689 107 103 94 
0.219435 0.345022 1.25779 62 53 44 
0.341954 0.371561 1.35365 125 116 101 
0.308577 0.362485 1.31869 144 131 115 
0.302336 0.369429 1.30718 110 100 88 
0.368671 0.407742 1.37773 117 105 89 
-0.116348 0.399225 1.3049 101 98 91 
0.259956 0.382138 1.27081 24 20 8 
0.248188 0.380206 1.25943 106 98 87 
0.198965 0.376519 1.2362 113 104 95 
0.210504 0.379954 1.23902 14 4 0 
-0.0882988 0.399879 1.27865 109 110 104 
0.36909 0.427191 1.37386 27 17 5 
0.193699 0.38518 1.22987 121 117 108 
-0.157365 0.429338 1.3408 27 22 18 
0.276871 0.40069 1.27252 32 23 8 
0.216544 0.389553 1.23426 25 18 10 
-0.041737 0.400382 1.2437 120 117 110 
0.200998 0.399512 1.22579 42 33 26 
0.231427 0.407121 1.23909 124 120 108 
0.251628 0.411326 1.2482 23 15 2 
0.351342 0.439432 1.33564 29 21 8 
0.187645 0.404794 1.21639 33 30 21 
0.303196 0.427068 1.2854 160 150 140 
0.213735 0.41059 1.22456 138 130 119 
-0.124872 0.445057 1.29752 150 142 140 
-0.1602 0.462074 1.33237 6 3 0 
0.241566 0.422202 1.2369 25 17 6 
0.217597 0.421932 1.22572 28 21 5 
0.268746 0.431064 1.24919 121 113 100 
0.337852 0.459142 1.3059 49 42 24 
0.302978 0.446894 1.26573 47 37 25 
-0.136742 0.472014 1.29707 21 16 12 
0.151214 0.42638 1.19265 121 115 103 
0.263638 0.441011 1.23211 134 130 119 
0.333034 0.463237 1.29269 155 148 130 
0.227805 0.437354 1.21336 148 140 129 
0.282165 0.449118 1.23937 110 106 94 
0.173908 0.432555 1.18802 112 103 88 
0.368668 0.484722 1.3273 121 119 107 
0.201766 0.438352 1.19418 123 119 108 
0.248427 0.445176 1.215 13 5 0 
0.298039 0.458222 1.24834 50 44 32 
0.169638 0.437174 1.17914 109 101 90 
0.308688 0.463512 1.25583 153 143 133 
0.190974 0.445269 1.18314 121 116 110 
0.327939 0.476213 1.26598 6 0 0 
0.251416 0.457277 1.20527 19 15 4 
0.176216 0.447346 1.17119 86 79 69 
-0.144456 0.498157 1.27439 36 31 25 
0.114199 0.454375 1.1633 20 11 2 
0.164377 0.454017 1.16296 152 152 144 
-0.11215 0.494037 1.24015 110 105 99 
0.231908 0.471155 1.17969 120 116 104 
0.146295 0.469869 1.15461 120 115 109 
0.191901 0.471458 1.16103 22 20 8 
0.220259 0.478438 1.16874 159 157 145 
0.15232 0.482894 1.14704 114 111 106 
0.092269 0.495266 1.14089 134 131 126 
0.0410814 0.511178 1.14267 145 141 130 
0.122053 -0.729709 1.89788 27 22 19 
0.162584 -0.692336 1.8747 146 140 126 
0.185863 -0.70541 1.91868 110 106 95 
0.314794 -0.797735 2.22549 67 67 55 
0.0985718 -0.675803 1.85404 79 75 72 
0.0801416 -0.663007 1.84545 104 101 92 
0.15607 -0.645387 1.82639 108 102 90 
-0.127116 -0.718423 1.99474 100 97 90 
0.304374 -0.724762 2.11608 24 25 20 
0.0713999 -0.64623 1.82954 98 95 90 
0.305307 -0.730106 2.13491 21 21 19 
0.155154 -0.62512 1.80323 123 114 105 
0.121041 -0.62297 1.80021 115 112 107 
0.160987 -0.607524 1.78877 127 120 112 
0.191607 -0.616269 1.82434 26 20 8 
0.103702 -0.608483 1.79247 91 88 79 
-0.223433 -0.73852 2.129 86 87 81 
0.198297 -0.613275 1.83557 76 66 56 
0.220384 -0.618518 1.87344 45 42 37 
0.120116 -0.587195 1.7745 97 94 89 
0.200881 -0.563109 1.77032 132 128 117 
0.0737099 -0.558423 1.74774 122 122 112 
0.018818 -0.562272 1.75005 36 31 28 
0.170254 -0.540407 1.72767 134 127 111 
0.335576 -0.609493 2.03103 226 228 227 
0.157355 -0.529442 1.71218 139 135 123 
0.333005 -0.599398 2.01732 78 76 61 
0.323723 -0.588451 1.98427 124 118 106 
0.128516 -0.512415 1.68828 122 120 108 
0.34104 -0.593493 2.03364 66 62 59 
0.322893 -0.555884 1.94152 42 37 31 
0.0540864 -0.49713 1.66995 37 34 27 
0.0214389 -0.480774 1.6504 130 127 122 
0.361846 -0.523119 1.96888 217 219 218 
0.0124063 -0.453783 1.61514 130 126 117 
0.359862 -0.50982 1.95165 47 44 39 
-0.234177 -0.539555 1.9569 26 27 22 
-0.243467 -0.53835 1.97376 210 212 211 
-0.0677592 -0.445985 1.64827 136 127 118 
0.203219 -0.423538 1.65315 76 72 71 
0.264982 -0.410208 1.68649 10 5 2 
0.278814 -0.410049 1.70838 20 16 13 
-0.023444 -0.408494 1.62337 9 5 2 
0.305585 -0.408272 1.73314 100 97 88 
0.308213 -0.400568 1.72641 39 36 31 
-0.118513 -0.408232 1.67981 78 74 71 
0.172337 -0.377947 1.62482 4 0 0 
0.303568 -0.388966 1.71678 22 15 9 
-0.136278 -0.405884 1.69742 84 79 75 
0.281888 -0.37883 1.68743 57 54 47 
-0.00466758 -0.374989 1.59551 14 10 9 
0.314527 -0.376976 1.71572 107 104 95 
0.104381 -0.347344 1.57384 34 26 23 
-0.0188752 -0.350277 1.58873 44 40 37 
-0.0460831 -0.350289 1.59895 84 84 76 
-0.00404731 -0.34255 1.57497 110 109 105 
0.247922 -0.336443 1.63768 86 81 75 
0.165807 -0.324947 1.58182 131 126 122 
0.153127 -0.321439 1.57338 37 34 29 
-0.00648899 -0.329915 1.5784 96 93 88 
0.313125 -0.333642 1.69691 99 90 81 
0.1852 -0.32187 1.60722 10 5 1 
0.0123758 -0.322122 1.56446 19 16 9 
0.303019 -0.325759 1.6738 126 120 106 
-0.231679 -0.374952 1.79872 77 73 72 
0.237162 -0.316929 1.62325 14 11 6 
0.178207 -0.312386 1.58494 5 1 0 
0.137465 -0.308477 1.56055 83 80 75 
-0.105912 -0.329044 1.63318 88 87 83 
-0.0201068 -0.313321 1.56941 98 97 92 
-0.187255 -0.340254 1.715 95 91 90 
0.178125 -0.292093 1.57363 47 43 34 
0.293692 -0.299027 1.6641 88 85 76 
0.346804 -0.30682 1.72655 93 86 76 
-0.0960729 -0.310388 1.62166 16 15 11 
-0.197443 -0.332708 1.73347 20 16 13 
-0.0654972 -0.300399 1.61481 7 8 3 
-0.291904 -0.354614 1.91006 43 45 40 
0.302395 -0.287846 1.69007 85 78 72 
0.195821 -0.275909 1.58782 120 116 105 
-0.0209701 -0.281805 1.55748 18 18 10 
0.341408 -0.282211 1.72298 91 87 76 
-0.059374 -0.28094 1.59874 68 67 65 
0.311366 -0.275638 1.69935 124 117 109 
0.278719 -0.266896 1.65189 126 122 111 
-0.152116 -0.28941 1.66461 63 60 55 
0.241564 -0.261316 1.61385 62 58 49 
0.142625 -0.251935 1.53166 34 29 23 
0.339843 -0.269566 1.74061 3 0 0 
0.257648 -0.252822 1.62299 65 58 48 
-0.0883973 -0.258901 1.60892 7 6 2 
0.251139 -0.243251 1.61852 109 99 87 
0.260433 -0.241658 1.61202 108 102 88 
0.231697 -0.240009 1.592 46 38 25 
0.183562 -0.231923 1.55037 107 101 89 
0.12888 -0.22186 1.48508 106 101 97 
-0.134955 -0.253058 1.65071 87 83 80 
0.267816 -0.230041 1.6178 128 124 115 
0.187535 -0.225092 1.5563 35 32 23 
0.318462 -0.234231 1.68388 66 59 49 
0.128428 -0.218611 1.50317 26 23 16 
-0.201721 -0.258682 1.73474 3 2 0 
-0.0994387 -0.236977 1.60669 1 0 0 
0.217309 -0.21601 1.57134 125 119 107 
0.0123521 -0.218015 1.5127 113 113 105 
0.204658 -0.214815 1.56436 107 99 88 
0.174967 -0.206977 1.52636 11 2 0 
0.17427 -0.198317 1.48453 102 95 89 
0.198349 -0.205403 1.55291 12 2 0 
0.263752 -0.205955 1.59926 94 90 81 
0.299994 -0.20489 1.64065 30 24 12 
-0.14657 -0.222911 1.64908 13 9 8 
0.309183 -0.199697 1.65006 43 35 24 
-0.0755132 -0.208506 1.57779 76 77 72 
0.256657 -0.193651 1.59418 99 92 84 
0.280205 -0.192919 1.61332 25 21 10 
-0.175686 -0.199688 1.67168 25 21 18 
0.236333 -0.171741 1.55877 51 44 34 
0.249568 -0.169631 1.56932 42 32 20 
-0.00378769 -0.165504 1.4912 76 71 65 
0.208994 -0.157555 1.53527 36 26 17 
0.193707 -0.154363 1.52127 101 93 82 
0.231538 -0.133264 1.53705 127 119 108 
0.24044 -0.130151 1.53988 115 105 93 
0.206758 -0.120635 1.51618 24 20 11 
0.199833 -0.116839 1.50968 109 105 96 
0.346274 -0.116968 1.66263 112 102 90 
0.0191961 -0.113607 1.46016 86 83 78 
0.245937 -0.108626 1.54529 108 104 92 
0.353233 -0.104244 1.67334 20 8 0 
0.237364 -0.0982519 1.52679 118 110 99 
-0.0798402 -0.107959 1.52734 85 82 77 
0.188004 -0.0963327 1.47988 109 99 90 
0.320946 -0.0964517 1.61516 10 7 0 
-0.107252 -0.106017 1.5541 24 21 16 
-0.025478 -0.0951792 1.47556 7 1 1 
0.0188148 -0.0845297 1.44188 93 85 82 
0.340224 -0.080278 1.63699 99 92 84 
0.262453 -0.0750549 1.52925 46 36 24 
-0.0294955 -0.0783725 1.48302 62 62 60 
0.0215804 -0.0593481 1.43126 93 90 81 
-0.050127 -0.061604 1.48614 2 0 1 
-0.0933678 -0.0534368 1.51229 92 87 83 
0.258221 -0.0417015 1.50637 112 102 90 
0.248412 -0.0400449 1.50505 94 86 75 
0.1843 -0.029317 1.43139 111 103 92 
0.252837 -0.0177671 1.48957 67 59 46 
0.198468 -0.0118583 1.45392 114 104 92 
-0.00964126 -0.0152126 1.41487 108 103 99 
-0.0627639 -0.0144292 1.47076 81 77 76 
0.21904 -0.00292841 1.46992 122 109 100 
-0.0927161 -0.00797249 1.4873 96 93 88 
0.236895 0.00245644 1.47012 139 127 115 
0.000159946 -0.00195918 1.41164 66 65 63 
0.339605 0.0108052 1.57994 54 41 22 
0.257465 0.0121904 1.47747 94 85 70 
0.273116 0.0180312 1.4878 11 1 0 
0.239008 0.0173025 1.46149 47 39 28 
0.242802 0.0257745 1.45681 15 5 0 
0.143899 0.0232443 1.42151 22 12 3 
0.340522 0.03379 1.54727 56 45 27 
0.223979 0.0311 1.44965 15 5 0 
0.261162 0.0380415 1.46669 55 38 18 
0.254697 0.0480146 1.45331 126 116 104 
0.186412 0.048674 1.39288 139 129 119 
0.0236159 0.0547739 1.37214 21 19 7 
0.269925 0.072362 1.45551 130 117 108 
-0.0363944 0.0648835 1.41864 21 17 14 
0.0377753 0.0723856 1.36305 24 17 9 
0.19762 0.0837619 1.39957 24 17 9 
0.217725 0.0866984 1.41187 124 114 102 
0.194089 0.0885503 1.38432 137 125 113 
-0.0374674 0.0883926 1.40862 75 71 70 
0.341925 0.105123 1.5328 96 83 74 
0.0452357 0.093494 1.35115 5 1 0 
0.00758462 0.097046 1.36027 14 10 1 
0.343238 0.126022 1.52021 135 122 105 
0.195427 0.113431 1.37097 97 89 78 
0.0388488 0.124087 1.33512 7 0 0 
0.28711 0.138933 1.44245 128 118 108 
0.198482 0.132621 1.37037 36 33 24 
0.312768 0.149773 1.47031 135 127 108 
0.342211 0.156053 1.49818 128 116 102 
0.329466 0.157048 1.48609 91 88 73 
0.292868 0.155576 1.43284 133 120 104 
0.101179 0.140539 1.324 106 98 87 
0.343837 0.174933 1.49894 35 23 9 
0.206421 0.157914 1.36387 81 77 65 
-0.128749 0.172812 1.44701 6 2 0 
0.311655 0.179279 1.45575 133 123 113 
0.199111 0.166474 1.34023 25 18 8 
0.337662 0.204121 1.4698 51 43 30 
-0.113225 0.197319 1.41401 88 85 80 
0.268607 0.198631 1.38776 123 111 97 
0.206544 0.192183 1.34299 118 108 98 
0.256801 0.199657 1.38516 13 3 0 
0.246078 0.200979 1.37168 128 120 107 
-0.102123 0.206562 1.40186 7 2 0 
-0.141236 0.213988 1.44369 3 3 1 
-0.125653 0.213876 1.42245 32 29 24 
0.32995 0.233124 1.44579 57 47 35 
0.300183 0.228492 1.40594 23 13 1 
0.275199 0.226645 1.38318 161 149 135 
0.407734 0.277337 1.66326 196 196 194 
-0.254116 0.274954 1.64404 49 49 47 
0.296197 0.233685 1.39848 155 146 129 
-0.000741466 0.21666 1.3075 108 104 92 
0.238484 0.225722 1.35 139 130 115 
0.327307 0.241967 1.43646 46 36 24 
0.312067 0.240093 1.42005 113 103 91 
0.247275 0.235908 1.35738 122 112 103 
0.320697 0.261884 1.41759 117 108 93 
0.0530565 0.235978 1.28032 133 124 109 
0.33495 0.272318 1.43032 36 27 12 
0.263564 0.256698 1.35009 149 139 129 
0.35939 0.283037 1.47078 122 113 98 
0.204488 0.253561 1.31619 80 73 63 
0.233182 0.266075 1.3278 129 121 110 
0.197714 0.267953 1.29909 119 111 98 
0.33293 0.29521 1.42318 125 116 101 
0.278023 0.281546 1.35647 76 64 50 
0.287637 0.282831 1.3626 48 41 25 
0.00414849 0.27305 1.27845 17 13 10 
0.338499 0.30568 1.42315 44 32 18 
0.17954 0.277382 1.27613 103 91 77 
0.290107 0.296703 1.35854 52 45 29 
0.369147 0.327383 1.46912 42 35 17 
0.336322 0.31658 1.41084 37 28 13 
0.273032 0.303119 1.34078 56 43 34 
-0.12348 0.317878 1.37902 12 7 3 
0.294173 0.310089 1.3533 64 55 38 
0.304433 0.312836 1.36569 42 33 16 
0.314308 0.317213 1.38314 16 6 0 
0.349683 0.328952 1.42578 136 126 114 
0.152271 0.294515 1.2749 116 108 95 
0.246704 0.303634 1.31171 157 149 138 
0.329838 0.324841 1.39459 51 42 27 
0.271998 0.312982 1.33563 124 116 103 
-0.112953 0.323567 1.36124 24 20 17 
-0.0531424 0.311528 1.31446 88 84 75 
0.348372 0.335838 1.4174 16 8 0 
0.00179867 0.304384 1.26559 86 82 73 
0.18866 0.302883 1.26348 58 48 38 
0.218304 0.322559 1.26839 119 111 100 
-0.220031 0.392874 1.50203 103 100 95 
0.243492 0.331556 1.2793 16 12 0 
0.344179 0.357072 1.37679 125 112 103 
0.226545 0.330834 1.268 151 142 133 
-0.0255734 0.334486 1.26753 67 63 60 
-0.107815 0.351296 1.32384 76 75 70 
0.326612 0.354713 1.34536 128 120 109 
0.302055 0.34968 1.32336 37 27 15 
0.365283 0.37341 1.40054 49 40 23 
0.295995 0.350719 1.31218 156 146 134 
0.318537 0.355625 1.32483 131 121 109 
0.272927 0.347538 1.29025 22 12 2 
-0.136897 0.371314 1.34534 17 14 9 
-0.0359205 0.346074 1.26184 76 73 68 
0.371814 0.383706 1.4018 27 21 7 
-0.0587928 0.352634 1.27403 65 64 59 
0.378482 0.387733 1.4105 33 27 15 
0.236411 0.352412 1.26679 124 116 105 
0.362753 0.386367 1.37823 56 49 33 
0.270551 0.361524 1.28696 103 96 88 
0.29537 0.365561 1.29804 118 109 94 
0.328842 0.376801 1.32067 144 132 120 
0.175074 0.354291 1.2373 106 102 93 
0.286304 0.371672 1.29451 112 106 92 
0.254523 0.365879 1.27061 149 139 127 
0.365498 0.398389 1.3768 12 4 0 
0.270035 0.374061 1.27866 45 39 27 
0.277892 0.391347 1.28199 34 25 8 
0.219783 0.38507 1.2455 104 96 85 
0.307987 0.414523 1.29577 63 54 39 
0.144897 0.395465 1.21324 49 42 32 
0.264759 0.410129 1.26044 55 52 37 
-0.158178 0.450101 1.33379 4 0 0 
-0.0891535 0.429914 1.26954 100 93 83 
0.272284 0.421525 1.26241 114 110 98 
0.14244 0.407169 1.2075 40 33 27 
0.384037 0.471439 1.38741 170 160 148 
0.227419 0.419017 1.22893 42 34 23 
0.323997 0.442734 1.29907 40 31 16 
0.15634 0.415511 1.20521 38 29 20 
-0.130059 0.458415 1.29829 37 32 29 
0.13405 0.418771 1.20049 135 129 115 
0.19789 0.420087 1.20863 110 108 95 
0.165392 0.418591 1.20062 135 129 117 
0.250956 0.432338 1.23998 115 111 99 
0.178203 0.42347 1.20201 148 144 133 
0.239733 0.431567 1.22705 51 43 30 
0.358398 0.469261 1.33205 33 27 15 
-0.0766984 0.449236 1.24867 89 86 81 
-0.0896022 0.453398 1.25676 125 117 114 
-0.0709385 0.449779 1.23733 20 16 13 
0.346214 0.467353 1.30956 57 47 35 
0.29544 0.450628 1.25478 164 160 149 
0.125063 0.430642 1.18619 142 134 123 
0.185693 0.432399 1.1943 112 110 98 
0.338368 0.46905 1.29885 133 128 109 
0.32065 0.460758 1.26749 49 41 30 
0.257881 0.446428 1.22468 44 40 29 
0.217421 0.439517 1.1956 145 139 127 
-0.111747 0.475207 1.26053 99 96 87 
0.235381 0.444634 1.20534 102 96 84 
0.225047 0.445208 1.19963 53 44 35 
0.367362 0.489908 1.31868 63 53 44 
0.135695 0.444818 1.16807 34 27 17 
0.306273 0.469872 1.24039 145 139 127 
-0.0836102 0.477148 1.22814 93 88 84 
0.237209 0.456244 1.19235 116 112 101 
0.332265 0.481346 1.25643 24 20 9 
0.360807 0.497165 1.29095 46 39 29 
0.134421 0.454858 1.15683 97 95 83 
0.195735 0.463695 1.1691 29 25 14 
0.321225 0.4898 1.24046 116 110 98 
0.206907 0.467277 1.16981 120 116 105 
0.259536 0.475229 1.19071 33 26 20 
0.344402 0.499425 1.25251 77 70 60 
0.295003 0.486919 1.21039 39 33 19 
0.100843 0.489506 1.14267 165 162 155 
0.128045 0.499901 1.13882 16 12 3 
0.0568801 0.513576 1.13712 125 113 99 
0.0322801 0.517218 1.14219 130 118 102 
0.0365011 0.51263 1.10876 139 131 120 
0.0871419 -0.753076 1.91655 18 12 14 
0.313939 -0.790174 2.20476 73 71 58 
-0.0847032 -0.604049 1.82326 20 15 9 
0.0509352 -0.508033 1.68879 113 113 103 
0.340553 -0.571469 2.00029 56 53 44 
0.348648 -0.490213 1.89363 29 24 18 
0.342075 -0.436576 1.787 23 18 14 
0.0153275 -0.41541 1.61363 89 86 81 
0.278448 -0.413433 1.69543 93 88 84 
0.301639 -0.40863 1.72136 80 77 72 
0.354178 -0.387909 1.78569 94 89 83 
-0.0359753 -0.343173 1.59035 2 1 0 
0.292421 -0.330466 1.66976 7 6 2 
0.303776 -0.313293 1.67188 94 89 83 
0.21773 -0.289677 1.60495 111 107 96 
0.281157 -0.285601 1.67163 97 95 83 
-0.00891001 -0.281335 1.55246 18 14 11 
0.234079 -0.278153 1.61588 118 116 104 
0.342577 -0.273403 1.73127 17 16 11 
0.181886 -0.255611 1.55816 105 99 87 
0.346311 -0.269025 1.74912 90 86 75 
-0.0335577 -0.257397 1.55462 38 37 35 
0.0118979 -0.251017 1.53339 57 54 47 
0.378482 -0.260141 1.79003 91 88 83 
-0.0895788 -0.232117 1.59123 79 78 76 
0.26322 -0.217706 1.60728 98 91 83 
0.27442 -0.213223 1.60799 123 115 102 
0.0373176 -0.207109 1.5054 92 87 81 
0.179386 -0.198033 1.52374 16 9 1 
-0.0100852 -0.200536 1.51438 122 115 109 
0.184802 -0.186482 1.52069 80 72 61 
0.0568437 -0.186085 1.46449 118 113 109 
0.199932 -0.137398 1.5185 113 111 99 
0.191648 -0.134312 1.51315 43 36 28 
0.185002 -0.122053 1.49471 96 90 78 
0.298972 -0.116439 1.59044 21 14 6 
0.284937 -0.096078 1.57028 111 102 85 
-0.00746136 -0.0938596 1.45702 13 9 6 
0.105917 -0.0881831 1.44394 112 105 95 
0.201367 -0.0664722 1.48638 128 118 106 
-0.0617086 -0.070789 1.498 58 57 55 
-0.0344908 -0.0617411 1.47085 6 5 3 
-0.0681029 -0.0562547 1.49826 7 6 4 
0.329673 -0.0142941 1.57426 136 121 98 
0.256232 -0.00702393 1.49556 43 34 19 
-0.07983 -0.00185883 1.47925 79 76 71 
0.0525732 0.0314679 1.37353 30 23 17 
0.326794 0.0473934 1.54426 69 54 33 
-0.00577023 0.0527036 1.38479 96 89 83 
0.253759 0.0780283 1.44182 28 16 4 
-0.089051 0.0825641 1.44755 90 86 77 
0.317883 0.131127 1.50215 137 128 113 
0.29968 0.134072 1.45739 10 0 0 
0.309772 0.136777 1.46882 54 45 30 
0.269246 0.131524 1.42218 113 103 93 
-0.000518788 0.128066 1.35026 5 2 0 
0.273016 0.142578 1.43457 115 106 89 
0.21398 0.150899 1.37211 132 128 119 
0.227788 0.166694 1.37919 10 0 0 
0.29984 0.179611 1.44699 57 51 39 
-0.0612191 0.168746 1.38266 31 28 19 
-0.125937 0.184822 1.44318 95 91 88 
0.229013 0.196486 1.35657 138 126 114 
0.212868 0.21346 1.34114 118 109 100 
0.349723 0.248294 1.46885 141 134 118 
0.178561 0.257397 1.28323 38 30 17 
0.236011 0.276114 1.32641 49 37 25 
0.280991 0.298533 1.3553 159 147 131 
0.325304 0.308997 1.39598 9 0 0 
-0.045935 0.295346 1.3218 108 101 91 
0.376978 0.343201 1.47606 23 16 6 
0.225398 0.308908 1.2833 100 92 81 
0.0406905 0.308018 1.24881 94 88 76 
0.273305 0.327707 1.30662 85 82 67 
-0.0091749 0.322815 1.26317 70 69 67 
0.258535 0.328626 1.29262 49 40 31 
0.307803 0.338665 1.33198 125 117 106 
0.270609 0.337812 1.29792 51 38 32 
0.223126 0.354339 1.25429 123 113 101 
-0.0491491 0.38544 1.25758 13 9 6 
0.24621 0.395852 1.25306 55 48 40 
0.104548 0.42997 1.20477 107 98 89 
0.30876 0.454923 1.26901 124 120 108 
0.272259 0.445753 1.23035 100 91 82 
0.290794 0.460564 1.2384 45 41 32 
0.121174 0.444234 1.16915 40 33 25 
0.219534 0.461253 1.18218 98 94 83 
0.251933 0.466611 1.19743 43 39 30 
0.0116127 0.466769 1.16778 96 91 85 
0.122542 -0.781379 1.92878 27 29 28 
0.323629 -0.624278 2.04533 75 73 61 
0.105503 -0.46342 1.62941 101 97 88 
0.322124 -0.403954 1.75661 106 99 91 
0.241437 -0.332757 1.61763 94 90 79 
0.176962 -0.323533 1.598 103 97 85 
0.312142 -0.322277 1.67993 11 7 4 
-0.0899611 -0.333537 1.62898 2 2 2 
0.338794 -0.31299 1.73319 6 0 0 
0.312355 -0.292233 1.71204 90 90 78 
0.293112 -0.287299 1.67874 5 2 0 
-0.0232696 -0.271503 1.54849 114 108 94 
0.194342 -0.253913 1.57323 100 93 83 
-0.175672 -0.280454 1.71053 82 78 75 
0.175918 -0.228716 1.5422 12 7 3 
-0.0893769 -0.217987 1.58843 82 81 77 
-0.133639 -0.219913 1.63401 86 83 78 
-0.279349 -0.249708 1.86629 189 193 194 
0.284129 -0.0996884 1.58445 112 100 88 
0.19787 -0.00608124 1.44411 43 33 23 
0.128332 0.0185457 1.38407 47 38 31 
0.318217 0.132462 1.49235 144 132 116 
0.208102 0.167324 1.36019 114 108 96 
0.285235 0.356031 1.29823 120 114 102 
0.0825053 -1.43661 2.64516 212 216 219 
0.245044 -0.835442 2.11403 61 58 51 
0.308342 -0.812426 2.21729 101 102 88 
0.363159 -0.528471 1.98311 210 212 211 
0.257205 -0.329431 1.63085 3 3 5 
-0.116495 -0.321392 1.62939 1 3 2 
0.360442 -0.300034 1.75366 9 8 6 
0.417161 0.442 1.50754 21 13 2 
0.430369 0.54614 1.49527 179 183 182 
0.103929 -0.770068 1.92731 116 110 94 
0.283546 -0.326382 1.66994 5 5 3 
-0.189984 -0.301936 1.71834 1 3 2 
-0.246 0.320816 1.59691 43 38 34 
0.439986 0.585282 1.48896 48 42 30 
0.443601 0.541245 1.18483 82 84 73 
-0.163821 -0.843499 2.17299 90 83 73 
0.433388 0.546628 1.50457 179 184 180 
-0.2446 0.245102 1.61859 183 187 188 
0.0278747 -1.10366 2.22155 121 118 113 
0.00942634 -1.02049 2.14683 140 136 124 
0.0253835 -1.00012 2.13145 120 120 112 
0.0593664 -0.811785 1.91107 44 39 35 
0.0689538 -0.771156 1.89013 111 103 92 
0.079215 -0.770286 1.89107 96 87 88 
0.146907 -0.768803 1.91918 155 156 150 
0.0375663 -0.636869 1.80239 114 110 101 
0.104418 -0.473255 1.63358 28 23 19 
0.207096 -0.404231 1.63947 4 1 0 
0.155162 -0.377497 1.60243 4 0 0 
0.285034 -0.385358 1.68304 116 113 104 
0.08881 -0.355953 1.57564 28 18 16 
0.269734 -0.362477 1.66011 42 37 33 
0.0833159 -0.257633 1.53022 38 33 27 
0.260337 -0.162808 1.57332 98 88 78 
0.212234 -0.144819 1.53191 131 118 109 
0.316701 -0.00460162 1.57132 163 147 132 
0.31838 0.0262718 1.55587 13 0 0 
0.320986 0.116705 1.50871 20 3 0 
0.288544 0.172463 1.4226 32 22 10 
0.215838 0.198967 1.35324 23 11 0 
0.288864 0.226688 1.39291 19 6 0 
0.271493 0.23759 1.36924 33 23 13 
-0.0968017 0.268571 1.36159 93 90 83 
0.175404 0.276013 1.27261 71 62 45 
0.274205 0.299477 1.33757 110 101 92 
0.299977 0.32733 1.33801 44 36 23 
0.256 0.320012 1.2972 7 0 0 
0.289863 0.329162 1.31921 60 51 42 
0.283101 0.334614 1.309 21 13 2 
0.297517 0.339089 1.32025 158 148 138 
0.0470049 0.325887 1.23788 150 148 136 
0.276677 0.346522 1.28945 137 127 117 
0.26055 0.348058 1.27507 43 36 28 
0.248327 0.379412 1.25608 106 98 87 
0.289561 0.387695 1.28249 6 0 0 
0.280315 0.406261 1.26642 30 22 9 
0.307411 0.43291 1.27694 27 18 3 
0.241787 0.420683 1.23228 25 17 6 
0.217946 0.420191 1.2206 28 21 5 
0.268862 0.429609 1.24468 121 113 100 
0.228021 0.435969 1.20982 148 140 129 
0.23474 0.44187 1.20385 132 123 114 
0.298057 0.455879 1.24261 50 44 32 
-0.0315388 -1.51654 2.57822 129 129 121 
-0.0218674 -0.935695 2.07208 137 131 119 
0.0418348 -0.772759 1.88995 120 110 100 
0.0194825 -0.738535 1.87368 52 43 36 
0.0395558 -0.710094 1.86114 99 90 81 
0.221568 -0.610021 1.84688 45 42 37 
0.0331912 -0.57303 1.75251 38 35 28 
-0.132143 -0.401989 1.6813 84 79 75 
0.0915374 -0.366065 1.58142 31 26 22 
0.067 -0.328053 1.56432 99 94 88 
0.171861 -0.299985 1.56572 44 39 33 
0.341063 -0.311287 1.71985 3 0 0 
-0.0937042 -0.308438 1.61203 16 15 11 
0.249849 -0.236728 1.60583 48 38 29 
0.330046 -0.11513 1.63185 40 32 19 
0.262418 -0.0753256 1.53018 46 36 24 
0.13965 0.0747631 1.36037 121 114 104 
0.290864 0.136876 1.4431 13 5 0 
0.25813 0.190235 1.38418 97 83 74 
0.183409 0.195978 1.31776 26 16 7 
0.29208 0.240529 1.38513 134 126 113 
0.268419 0.246241 1.36105 51 41 29 
0.258886 0.270388 1.3398 119 113 101 
0.234713 0.287284 1.31544 139 127 113 
0.272156 0.311448 1.32833 124 116 103 
0.271821 0.33072 1.30008 16 7 0 
0.213635 0.324924 1.26272 47 38 29 
0.312543 0.356572 1.31756 150 140 128 
0.29985 0.369322 1.29781 58 49 34 
0.264937 0.408207 1.2542 55 52 37 
0.233036 0.403242 1.23529 22 13 4 
0.227741 0.417308 1.22351 42 34 23 
0.323876 0.440467 1.29222 40 31 16 
0.25127 0.429618 1.23221 115 111 99 
0.240861 0.433773 1.21871 38 29 22 
-0.0409238 -1.32683 2.4787 88 85 76 
-0.0151342 -0.767137 1.88964 31 27 24 
0.0914384 -0.738761 1.87802 18 12 14 
-0.00206963 -0.629867 1.79994 101 94 86 
0.233427 -0.413123 1.65381 4 0 0 
0.344984 -0.372845 1.75452 69 54 47 
0.247305 -0.324643 1.62671 91 87 78 
0.296727 -0.324202 1.66634 120 111 104 
-0.0619229 -0.322288 1.61588 75 74 70 
0.256315 -0.00728741 1.49265 43 34 19 
0.326738 0.0472528 1.54078 69 54 33 
0.232515 0.267016 1.32673 89 79 69 
0.290049 0.376466 1.28763 24 18 4 
0.246406 0.394468 1.24856 55 48 40 
0.308257 0.412284 1.28817 66 57 42 
0.278503 0.415326 1.25738 130 120 108 
0.308717 0.452518 1.26223 124 120 108 
0.346864 0.471045 1.29368 25 13 1 
0.186727 -0.346517 1.60213 2 4 3 
0.326221 0.494344 1.23343 27 24 19 
-0.0437103 -1.46665 2.59117 217 218 222 
-0.0672723 -1.26232 2.43391 213 217 218 
0.177048 -0.391769 1.61916 24 22 10 
0.0926416 -0.0709374 1.43754 106 102 93 
0.163497 -0.0583575 1.44433 17 8 0 
0.145914 0.0939941 1.3612 12 5 0 
0.040471 0.368592 1.21534 100 95 89 
0.164304 0.380701 1.21519 105 98 82 
0.0423786 -0.572378 1.75225 43 39 36 
-0.0924937 -0.111937 1.5379 95 91 88 
-0.0499337 -0.0616548 1.48531 2 0 1 
0.274959 0.261378 1.36169 132 122 112 
0.243015 0.337641 1.27013 32 26 14 
0.204928 0.405229 1.21825 113 109 98 
0.101049 0.428915 1.17179 59 55 44 
0.225585 0.44163 1.19119 53 44 35 
0.19749 0.444575 1.17151 49 45 36 
0.306239 0.466303 1.23206 145 139 127 
0.221172 0.453383 1.17527 41 39 27 
0.0996756 0.458032 1.14365 27 23 14 
0.229331 -0.297189 1.62548 27 23 22 
-0.0432163 -0.268549 1.58137 81 80 78 
0.281359 0.316582 1.32548 129 123 109 
0.145431 0.433147 1.1679 59 51 38 
-0.0830551 -0.332077 1.62706 2 2 2 
0.0239734 -0.681244 1.85087 128 126 114 
0.151216 -0.29687 1.56572 113 113 105 
0.0786347 0.0779722 1.36082 102 99 94 
0.207087 0.495348 1.148 22 18 7 
0.17068 0.505439 1.11848 131 125 111 
0.0928427 0.013096 1.39298 90 83 73 
0.122801 0.287221 1.25575 34 31 22 
0.19006 0.330375 1.25051 20 14 0 
0.142709 0.427997 1.17913 102 97 91 
0.135458 0.481091 1.1366 98 95 90 
-0.0221493 -1.57602 2.67896 53 49 40 
0.00604441 -1.49896 2.62349 21 19 20 
-0.0104844 -1.49996 2.63712 133 126 116 
-0.0217969 -1.63048 2.70617 52 51 47 
0.00636861 -1.57729 2.66518 36 35 40 
0.150035 -0.671013 1.81515 102 95 85 
0.18795 -0.677687 1.84944 30 26 17 
0.171522 -0.582825 1.74236 113 110 105 
0.19354 -0.579248 1.75373 17 14 0 
0.165276 -0.570626 1.72694 166 163 154 
0.209214 -0.574804 1.76864 34 25 16 
0.17277 -0.562396 1.72567 133 126 116 
0.00660397 -0.585321 1.74645 139 131 128 
0.182296 -0.5576 1.71994 56 46 37 
0.140264 -0.55576 1.71936 110 107 98 
0.101344 -0.559734 1.72331 127 123 112 
0.0739086 -0.559508 1.72296 123 115 112 
-0.073457 -0.582424 1.77335 138 135 128 
0.0504313 -0.549256 1.71802 122 119 114 
-0.0507489 -0.562134 1.73136 46 37 28 
0.258539 -0.550172 1.81951 131 124 118 
0.0322872 -0.526195 1.6936 147 140 134 
0.0901894 -0.513751 1.67511 152 147 143 
0.0319532 -0.513294 1.67525 168 159 152 
0.00835882 -0.51223 1.6731 150 140 131 
0.0120514 -0.507365 1.66628 35 28 20 
0.120363 -0.488999 1.64531 27 24 17 
-0.0255789 -0.508857 1.6717 121 116 110 
0.106442 -0.468953 1.6172 33 25 22 
0.0819357 -0.423052 1.60333 10 6 3 
0.049998 -0.422603 1.60582 5 0 0 
0.110643 -0.411465 1.5952 105 101 100 
0.131484 -0.410756 1.60181 107 102 99 
