ply                 
format ascii 1.0    
element vertex 1277
property float x    
property float y    
property float z    
property uchar red  
property uchar green
property uchar blue 
end_header          
-0.0552401 0.231003 1.34202 11 6 2 
0.246888 0.236112 1.35079 116 106 96 
-0.172102 0.255499 1.4472 11 7 6 
0.192804 0.233043 1.30249 16 7 0 
-0.152534 0.256786 1.41752 7 4 0 
-0.121432 0.252915 1.39021 10 5 2 
0.267733 0.247156 1.35669 51 38 29 
0.0264431 0.237154 1.28365 103 96 86 
0.240812 0.249704 1.33792 43 35 24 
0.165888 0.24513 1.28445 21 9 0 
0.035119 0.245742 1.2747 43 36 28 
0.19328 0.250252 1.29219 24 17 7 
-0.0731614 0.261708 1.34339 17 10 4 
0.247269 0.260106 1.3366 69 59 47 
0.0259403 0.251021 1.2735 100 93 87 
0.0161742 0.254269 1.2758 87 82 78 
-0.00103542 0.261687 1.2812 6 3 0 
0.249357 0.274305 1.3333 22 10 0 
0.0553874 0.262413 1.26522 96 86 76 
0.225113 0.276492 1.31086 99 89 79 
0.315564 0.292313 1.38291 53 44 29 
-0.133045 0.296321 1.38135 14 4 2 
0.00451062 0.272919 1.27 25 21 10 
-0.00347879 0.27491 1.27769 74 69 65 
0.192335 0.276955 1.27418 16 8 0 
0.0533901 0.275313 1.25938 31 24 18 
0.066766 0.275636 1.25831 15 5 0 
0.290758 0.298247 1.356 48 38 26 
-0.00367815 0.285495 1.2893 93 88 82 
0.310462 0.304233 1.37156 37 25 11 
-0.111874 0.304091 1.3551 8 3 0 
0.268793 0.298488 1.3299 128 114 103 
0.183276 0.285486 1.26508 33 25 14 
0.153152 0.285541 1.25876 126 115 109 
0.0331247 0.287405 1.2579 95 91 80 
0.293986 0.311048 1.34781 56 48 35 
0.268462 0.308395 1.32506 18 8 0 
-0.0462422 0.304284 1.30029 87 83 80 
0.130922 0.293188 1.251 47 39 28 
0.0376571 0.293412 1.24983 44 35 30 
0.0792067 0.293932 1.246 7 0 0 
0.177393 0.296509 1.25453 108 98 88 
0.209616 0.304495 1.28012 27 18 9 
0.23237 0.30746 1.28978 125 117 104 
-0.111314 0.322586 1.34525 20 16 13 
-0.0718227 0.315314 1.31413 34 29 23 
0.311397 0.32507 1.35435 146 137 128 
0.266583 0.314922 1.3091 116 109 101 
0.0542849 0.30061 1.24489 91 86 82 
0.188165 0.303197 1.2568 53 45 32 
-0.0634798 0.317903 1.30426 32 29 24 
0.0166882 0.30732 1.24832 17 12 8 
-0.0758314 0.322456 1.30492 4 0 0 
-0.0851214 0.324952 1.30872 5 0 0 
-0.10566 0.332169 1.33222 29 24 18 
0.0330613 0.312227 1.23992 93 84 75 
-0.0037248 0.317228 1.25589 11 10 8 
-0.129749 0.344531 1.33854 90 85 81 
-0.0373283 0.327545 1.2702 129 125 122 
-0.148123 0.352976 1.36172 14 10 1 
0.0952384 0.318943 1.23557 100 93 85 
-0.0499679 0.331013 1.27442 88 85 80 
-0.135884 0.352646 1.3483 19 14 11 
0.113263 0.321859 1.23676 15 6 1 
-0.106607 0.344277 1.31333 17 13 10 
0.270357 0.338397 1.29009 34 29 23 
0.226322 0.330951 1.26044 126 120 108 
0.282987 0.341866 1.29805 15 7 0 
-0.00468791 0.330031 1.24981 67 66 61 
0.302851 0.350154 1.31629 40 31 22 
-0.143945 0.36074 1.35 80 75 71 
0.296248 0.350337 1.30253 128 122 110 
-0.0650221 0.34382 1.27529 80 76 73 
0.256528 0.342072 1.2716 29 27 15 
0.0218037 0.33359 1.23445 118 114 103 
0.167673 0.337943 1.23377 44 34 24 
0.0488734 0.33539 1.22413 81 74 68 
-0.133622 0.368304 1.32398 25 20 14 
-0.0569349 0.351393 1.26178 64 63 59 
0.131522 0.340548 1.22417 97 93 84 
0.235955 0.351591 1.25684 116 106 96 
-0.150819 0.376416 1.34061 28 25 20 
0.0894836 0.346734 1.22136 104 97 89 
0.273854 0.363588 1.27722 34 24 14 
0.329766 0.379783 1.32218 126 114 102 
0.318874 0.377056 1.30941 29 19 9 
-0.0810063 0.36555 1.26882 80 76 73 
-0.0960256 0.368674 1.27916 3 0 0 
-0.137821 0.380875 1.31723 33 26 20 
0.254238 0.365384 1.26162 135 126 111 
0.193447 0.358135 1.23302 44 37 27 
0.269087 0.372427 1.26605 48 42 30 
-0.0712428 0.37204 1.26187 72 71 66 
0.149748 0.361065 1.21849 103 93 91 
-0.0867522 0.377812 1.26622 71 66 63 
0.234104 0.372102 1.24528 116 110 98 
0.102023 0.364476 1.20994 52 44 33 
-0.111923 0.395231 1.28241 96 92 83 
0.270096 0.39432 1.25932 50 40 28 
-0.00932631 0.383652 1.21753 97 90 80 
-0.192292 0.435354 1.3701 28 23 19 
0.245166 0.393868 1.24005 49 36 27 
0.135632 0.383077 1.20341 87 83 74 
0.305864 0.410749 1.27767 80 72 59 
-0.151421 0.424489 1.31524 24 15 10 
0.263753 0.407491 1.24599 37 35 22 
0.145144 0.392869 1.19952 45 41 32 
0.177917 0.394923 1.20431 30 21 14 
-0.0937936 0.414695 1.25651 11 8 3 
0.248127 0.408713 1.23882 113 103 93 
-0.170523 0.443276 1.33474 101 98 93 
0.106887 0.394989 1.19016 140 133 123 
-0.13005 0.43247 1.28667 92 87 81 
0.272874 0.420907 1.24329 11 5 0 
0.142129 0.403337 1.19112 41 32 25 
-0.15225 0.444655 1.30689 8 4 0 
0.321817 0.439012 1.28245 35 27 14 
0.123416 0.405927 1.18751 76 73 68 
-0.193813 0.470306 1.36262 97 93 84 
0.156102 0.412168 1.19002 40 34 22 
0.249696 0.427848 1.22171 113 104 97 
0.134435 0.414593 1.18333 122 116 102 
0.19965 0.421308 1.19697 26 19 13 
0.309555 0.445302 1.25821 140 132 121 
0.0131207 0.421408 1.19136 88 81 71 
0.177345 0.419567 1.18596 145 136 127 
0.333198 0.456003 1.28264 121 115 101 
0.111779 0.417694 1.17872 43 34 25 
-0.124115 0.452145 1.27159 36 32 29 
0.236013 0.430097 1.20788 121 112 103 
0.0620139 0.419393 1.17477 37 30 22 
-0.217581 0.507167 1.40726 38 34 35 
0.0300669 0.423938 1.17783 90 86 77 
0.188413 0.427171 1.1832 17 12 6 
-0.0318319 0.435348 1.20057 28 23 20 
0.0866051 0.424575 1.16956 45 35 26 
-0.11333 0.456909 1.25444 31 22 17 
-0.13068 0.466737 1.27341 20 16 5 
0.323547 0.461514 1.25619 127 124 107 
0.156507 0.430193 1.17221 31 24 14 
0.0106292 0.433072 1.17887 21 16 13 
-0.0973885 0.455352 1.23633 32 22 21 
0.200575 0.433718 1.17621 115 111 102 
0.216272 0.437078 1.18479 107 105 93 
-0.216495 0.519565 1.39919 28 19 12 
0.253779 0.446026 1.1978 32 29 22 
0.0335502 0.43493 1.16924 7 2 0 
0.236682 0.442712 1.1888 47 39 28 
0.165991 0.434678 1.1646 27 18 11 
0.065838 0.432099 1.15776 129 121 110 
0.295464 0.458037 1.21978 20 18 6 
-0.0929275 0.461127 1.22858 26 18 15 
-0.00332828 0.439016 1.17237 21 12 3 
-0.0844599 0.457249 1.21543 18 14 11 
0.272766 0.453861 1.20484 94 90 81 
0.317024 0.467202 1.23873 11 7 0 
0.124704 0.435683 1.1522 105 98 90 
0.0246741 0.44213 1.16294 24 19 15 
-0.0338107 0.4504 1.18354 32 27 24 
0.135365 0.439137 1.149 25 19 5 
0.235264 0.449962 1.17226 101 97 88 
-0.0248185 0.45326 1.17596 111 108 103 
0.0590467 0.443372 1.14956 28 23 19 
0.0396033 0.446694 1.14729 97 92 86 
-0.0781842 0.469589 1.20239 100 93 87 
0.30478 0.476372 1.21701 22 22 12 
0.0116609 0.454973 1.1613 98 95 90 
-0.13816 0.491707 1.24937 31 28 19 
0.142305 0.448582 1.1425 124 120 109 
-0.0102089 0.456713 1.16116 90 82 79 
0.204934 0.460561 1.15008 110 102 91 
0.113191 0.459046 1.13545 97 94 87 
-0.158121 0.511549 1.26019 92 87 81 
-0.152154 0.510232 1.24918 93 84 77 
-0.0248476 0.474868 1.15832 89 84 80 
-0.0695435 0.488555 1.17693 107 100 92 
-0.101516 0.502256 1.20475 7 0 0 
-0.0862703 -0.769178 1.94644 103 97 83 
-0.126526 -0.753279 1.98605 5 1 0 
-0.117289 -0.721494 1.93148 83 80 73 
0.0979571 -0.617141 1.77515 93 92 88 
0.315752 -0.73645 2.13629 33 35 30 
0.110183 -0.403026 1.59542 84 81 76 
0.191056 -0.405498 1.62665 17 8 3 
0.278784 -0.415732 1.69456 85 82 77 
0.11527 -0.373356 1.57572 95 91 79 
-0.020879 -0.351237 1.58201 40 37 32 
0.0516553 -0.347753 1.56324 82 78 75 
0.0845731 -0.347028 1.56592 83 78 75 
-0.064886 -0.323126 1.60948 65 61 58 
-0.189727 -0.34006 1.70309 76 75 71 
0.0179735 -0.307432 1.54934 86 83 76 
-0.0479374 -0.314372 1.59767 28 24 21 
-0.203935 -0.331564 1.71724 72 71 67 
0.300924 -0.327379 1.67831 88 82 68 
-0.0360711 -0.302446 1.58377 21 18 13 
0.16567 -0.285609 1.55666 18 15 10 
0.120716 -0.26828 1.5333 91 86 83 
-0.168613 -0.288705 1.67709 76 75 70 
0.296743 -0.290216 1.69115 7 3 0 
0.297574 -0.277442 1.67408 84 81 72 
0.068139 -0.249337 1.52015 107 104 95 
0.233513 -0.249501 1.60564 100 90 80 
0.218182 -0.244972 1.58541 33 20 11 
0.177964 -0.236312 1.54408 104 99 93 
-0.200766 -0.256471 1.71088 3 2 0 
-0.0267643 -0.225455 1.53015 89 84 80 
-0.0222014 -0.216873 1.52242 106 101 97 
-0.090205 -0.219761 1.57904 77 73 70 
-0.0271652 -0.213135 1.53386 70 70 62 
0.115894 -0.197209 1.49706 70 67 58 
0.0440573 -0.178104 1.48857 82 79 72 
0.249688 -0.172294 1.57419 40 32 21 
0.140112 -0.151937 1.48403 92 86 74 
0.024318 -0.122786 1.46496 88 81 71 
0.0182544 -0.10406 1.4571 114 109 105 
0.305672 -0.11742 1.61193 10 3 0 
-0.154015 -0.109287 1.59074 81 78 73 
0.16188 -0.0865909 1.45923 92 88 79 
-0.0452277 -0.0747805 1.48889 60 56 55 
-0.0330362 -0.0674864 1.47972 58 57 55 
-0.0155778 -0.0652759 1.44993 16 12 13 
-0.0212532 -0.0645863 1.46053 57 53 44 
0.0286925 -0.0601189 1.43784 81 78 71 
-0.0762639 -0.0592413 1.49664 71 67 64 
0.0144208 0.000504434 1.42382 22 18 15 
-0.112236 0.00857109 1.49482 97 83 72 
0.238984 0.0179921 1.46682 45 37 26 
0.0742091 0.0249181 1.38853 13 8 2 
0.167305 0.0346348 1.40098 31 21 9 
0.0753981 0.0371994 1.3852 90 86 77 
0.120934 0.0612882 1.37523 31 20 14 
-0.0717214 0.0675455 1.4329 89 84 81 
-0.0672508 0.0842466 1.42481 36 32 29 
-0.189799 0.0952423 1.55256 5 2 0 
0.110713 0.113331 1.34727 59 52 42 
-0.0109288 0.117537 1.36479 100 91 84 
0.329777 0.136999 1.5007 62 54 41 
0.176045 0.146851 1.34987 103 99 90 
0.168944 0.153227 1.33335 122 112 102 
0.244799 0.168889 1.38608 44 34 24 
-0.112616 0.197084 1.40285 87 82 78 
-0.151505 0.203479 1.44328 7 3 0 
-0.10074 0.205972 1.38583 4 0 0 
0.311729 0.22235 1.42742 107 97 88 
0.188357 0.205908 1.31046 37 29 18 
0.212521 0.214973 1.34058 114 104 92 
-0.0091741 0.231883 1.31305 15 7 5 
-0.18608 0.26442 1.47583 20 12 10 
-0.0509017 0.24071 1.3306 67 64 57 
-0.104326 0.27159 1.3634 10 5 1 
0.191053 0.263167 1.27283 108 99 90 
-0.0448878 0.294592 1.30898 97 87 77 
-0.0648723 0.328549 1.28876 83 79 70 
-0.118938 0.341421 1.33398 74 69 63 
-0.18376 0.369914 1.42047 86 80 80 
-0.0237552 0.334492 1.25652 97 93 82 
-0.223498 0.392972 1.4651 116 109 101 
0.285755 0.355754 1.28959 113 111 99 
0.288896 0.37632 1.28049 30 22 9 
-0.0483423 0.387238 1.23586 87 83 74 
-0.0514118 0.441334 1.20502 88 83 77 
-0.124202 0.465642 1.25646 57 52 48 
-0.227885 0.532313 1.42872 47 60 76 
0.0119444 0.433221 1.16293 40 35 29 
0.20938 0.43955 1.16946 80 71 64 
-0.105824 0.46856 1.23606 92 89 82 
0.109727 0.436024 1.15149 78 78 70 
0.161411 0.440887 1.15544 9 4 1 
0.217517 0.454569 1.16185 98 94 85 
0.189897 0.452456 1.15243 119 110 101 
-0.130548 0.496553 1.22985 88 84 73 
0.126741 0.458096 1.13396 72 70 58 
0.0214516 0.496399 1.12911 102 97 91 
-0.186558 -0.800715 2.11642 210 209 214 
0.0261835 -0.641113 1.80812 61 54 46 
0.0613492 -0.470206 1.62148 144 137 111 
-0.0311185 -0.340862 1.58782 63 60 55 
-0.0897141 -0.326229 1.58837 1 0 5 
0.236635 -0.301434 1.62412 5 3 4 
-0.0988968 -0.293755 1.62473 2 0 1 
0.292153 -0.287547 1.66968 4 3 0 
-0.152913 -0.277478 1.65595 4 6 3 
-0.0261144 -0.241041 1.55043 79 77 65 
-0.211015 -0.254992 1.72034 70 70 62 
-0.0298307 -0.0536421 1.46831 93 89 86 
0.317371 0.123947 1.50641 65 43 29 
0.0799464 0.119665 1.32203 19 11 9 
-0.240377 0.277593 1.61814 34 30 29 
0.0980722 0.306449 1.24287 107 100 92 
0.181574 0.38061 1.21808 120 116 105 
-0.16102 -0.844092 2.11613 73 70 63 
0.3655 -0.536192 1.97956 199 203 204 
-0.232318 -0.467809 1.80961 48 45 40 
-0.0219625 -0.204614 1.54307 101 99 87 
-0.13175 -0.10184 1.55443 4 6 5 
0.36588 0.240968 1.49834 95 86 69 
-0.250994 0.282575 1.63998 48 47 42 
0.0841229 -1.56115 2.67401 226 227 229 
0.224206 -0.338713 1.62149 0 2 1 
0.259509 -0.328252 1.62997 4 2 3 
-0.121855 -0.99308 2.21543 87 84 77 
0.318799 -0.763428 2.18226 78 79 65 
-0.211418 -0.798082 2.19713 71 69 57 
0.36854 -0.515829 1.9313 200 204 205 
-0.278601 -0.217616 1.91122 9 7 10 
-0.254219 -0.508686 1.92387 203 207 208 
-0.240398 0.558598 1.43628 178 180 179 
-0.08526 -0.408406 1.64994 102 99 90 
-0.0800071 -0.0249784 1.47348 111 108 103 
-0.0501749 0.112624 1.39156 30 23 15 
-0.0856693 0.286608 1.32206 113 107 93 
-0.0465472 0.397852 1.22315 14 6 3 
-0.0928664 0.432155 1.23059 16 12 1 
-0.118182 -0.408932 1.66782 71 68 61 
-0.0556365 -0.359432 1.61158 80 77 72 
-0.154024 -0.107252 1.57386 86 83 78 
-0.0968264 -0.0676704 1.5084 15 10 6 
-0.0915439 0.0779255 1.42974 19 15 6 
-0.0664778 0.115904 1.39595 18 8 7 
-0.0653112 0.129807 1.38901 8 3 0 
-0.0835765 0.151085 1.38526 111 107 98 
-0.123887 0.18431 1.40018 101 96 90 
0.0393204 0.340217 1.22883 109 102 94 
-0.0872219 0.373561 1.25314 72 68 65 
-0.0271456 0.367505 1.2285 96 91 85 
-0.0753762 0.398088 1.23728 103 98 94 
-0.0561795 0.411407 1.22095 9 6 1 
0.0604553 0.424411 1.17941 148 140 127 
-0.0741559 0.50607 1.15876 174 167 159 
-0.160727 -0.0879469 1.57343 2 1 0 
-0.0908347 0.0193074 1.45805 69 62 56 
-0.094803 0.409966 1.24353 12 3 0 
-0.0675759 0.226645 1.33967 70 63 55 
-0.0100284 -1.65692 2.81636 28 32 31 
0.0506224 -0.657351 1.83588 92 89 84 
-0.0444717 -0.628406 1.80041 89 84 78 
0.000736247 -0.601547 1.78156 107 107 99 
0.0317901 -0.593545 1.77729 103 98 94 
0.0440087 -0.585555 1.77181 110 107 102 
-0.0115929 -0.576807 1.76156 128 119 110 
0.0806172 -0.57328 1.76219 141 136 130 
-0.0646299 -0.553249 1.74311 132 131 126 
0.0626921 -0.483693 1.65001 126 121 102 
0.0482892 -0.427405 1.6145 6 5 1 
0.166617 -0.427946 1.6443 9 4 1 
0.091692 -0.415429 1.6118 3 0 0 
0.143055 -0.418852 1.62989 103 100 93 
0.00585269 -0.411494 1.61052 2 1 0 
0.0321567 -0.401542 1.60166 91 90 86 
0.119297 -0.404134 1.612 108 105 100 
0.134582 -0.396079 1.61373 138 129 124 
0.126923 -0.3885 1.6072 7 0 0 
-0.0561126 -0.388109 1.61814 12 9 0 
0.0863585 -0.382822 1.59536 4 0 0 
0.108008 -0.355549 1.58575 117 114 107 
0.00720291 -0.351001 1.57994 111 108 103 
0.00247442 -0.33834 1.57684 89 81 79 
-0.085304 -0.343497 1.6136 84 79 75 
0.154449 -0.332201 1.5883 41 38 29 
0.0428855 -0.300628 1.55258 113 110 103 
0.163203 -0.261153 1.55388 33 30 23 
0.0531206 -0.228545 1.51575 120 113 103 
-0.221797 -0.2572 1.75 7 2 0 
-0.0182357 -0.211487 1.51433 10 3 0 
0.0970515 -0.192449 1.49815 92 90 78 
0.0618039 -0.188433 1.49536 78 73 67 
-0.192069 -0.202164 1.67983 10 6 3 
-0.200307 -0.201389 1.69319 23 19 16 
0.0838929 -0.119062 1.46013 12 3 0 
0.0623036 -0.0902664 1.44413 4 0 0 
0.0196734 -0.0900258 1.44731 88 85 78 
-0.0963874 -0.0867072 1.53913 30 32 21 
0.131778 -0.0701087 1.4443 87 80 72 
0.0679343 -0.0572399 1.42747 8 1 0 
0.216048 -0.0458762 1.49421 22 13 4 
0.0264099 -0.0401212 1.42073 19 10 5 
0.22796 -0.0241104 1.48701 21 15 3 
0.168164 -0.00857977 1.42055 24 14 5 
0.0998967 0.00281352 1.39881 35 26 19 
0.212398 0.00680075 1.46056 98 91 81 
0.132407 0.0178215 1.3956 10 0 0 
0.0415669 0.0438784 1.37491 6 1 0 
0.0118488 0.0473384 1.3796 3 0 0 
0.177222 0.0501888 1.39395 20 9 3 
0.262712 0.0600224 1.46956 122 110 96 
0.224905 0.103196 1.41437 32 23 14 
-0.000436731 0.10327 1.35141 10 3 0 
0.225367 0.114618 1.41066 12 3 0 
0.178419 0.135703 1.35115 25 16 11 
-0.0521714 0.154298 1.37282 7 0 0 
-0.0340091 0.176994 1.35179 85 80 74 
0.101642 0.181964 1.3052 44 34 24 
0.0606623 0.183302 1.3038 108 104 93 
0.127211 0.190989 1.30459 64 52 40 
-0.0202805 0.20077 1.33286 82 77 71 
0.0747497 0.203853 1.29519 9 0 0 
-0.00383143 0.208926 1.30376 11 3 0 
-0.155313 0.244635 1.42369 6 3 0 
-0.101438 0.282656 1.35082 19 12 6 
0.107718 0.275059 1.26041 128 120 109 
0.255576 0.294035 1.33436 22 9 0 
0.176819 0.318488 1.25168 49 39 29 
-0.0057578 0.338279 1.23895 92 85 75 
-0.10153 0.355625 1.29614 79 75 72 
0.183927 0.341683 1.24401 47 38 23 
0.0245012 0.352332 1.22254 4 0 0 
-0.155616 0.398039 1.32922 107 100 94 
-0.0704129 0.381726 1.25538 94 90 87 
0.262532 0.388162 1.26837 22 12 0 
-0.110996 0.406759 1.27585 112 109 104 
-0.159392 0.428374 1.32286 21 11 9 
-0.056971 0.40312 1.23885 28 23 19 
0.00164619 0.40374 1.21018 81 73 70 
-0.121694 0.438473 1.27314 20 17 10 
-0.0100143 0.417779 1.20775 105 102 97 
-0.082789 0.437721 1.23963 155 145 143 
-0.104578 0.446296 1.2552 89 82 74 
-0.0110634 0.430863 1.1964 25 21 12 
-0.00662451 0.448672 1.17618 22 19 12 
-0.0305601 0.465147 1.1731 113 108 102 
-0.106429 0.487419 1.21593 117 108 99 
-0.0607323 0.476463 1.18435 25 22 17 
-0.0561735 0.485622 1.17417 84 79 75 
0.0564661 -0.630151 1.80935 109 106 101 
-0.0263167 -0.617827 1.79335 27 22 18 
0.0954499 -0.62356 1.80751 47 46 42 
-0.0760562 -0.615659 1.81263 105 97 84 
0.0877006 -0.592526 1.77923 106 104 92 
0.0209352 -0.582501 1.76701 104 101 92 
0.0300282 -0.579707 1.761 34 31 26 
0.138148 -0.572753 1.76098 93 86 78 
-0.0995624 -0.587059 1.81337 124 122 110 
0.102992 -0.550027 1.73994 46 41 38 
-0.0677363 -0.44556 1.63512 126 122 111 
0.158301 -0.437444 1.64319 88 85 80 
0.173416 -0.407904 1.6349 104 101 96 
0.0449042 -0.397205 1.59892 3 0 0 
0.194464 -0.411214 1.64988 17 8 3 
0.0102899 -0.394977 1.59999 3 0 0 
-0.136293 -0.404668 1.67989 89 86 81 
0.00771106 -0.384872 1.59545 78 73 70 
0.0456749 -0.383574 1.59434 3 0 0 
-0.0172697 -0.377852 1.60032 4 0 0 
-0.0101935 -0.372666 1.5929 85 81 78 
-0.127746 -0.384762 1.66069 9 6 1 
0.0620848 -0.366802 1.58682 4 0 0 
0.101375 -0.363211 1.58823 85 81 78 
-0.0689244 -0.365127 1.616 85 82 75 
0.0394426 -0.352406 1.57726 84 83 81 
0.125405 -0.349852 1.58664 102 99 90 
-0.00614329 -0.345209 1.57844 96 93 86 
-0.154149 -0.361879 1.67423 6 2 1 
-0.116526 -0.346619 1.6385 92 91 86 
-0.00754217 -0.330747 1.57314 84 83 79 
0.179717 -0.338985 1.60652 100 95 91 
-0.0190428 -0.328483 1.57144 97 94 87 
-0.107909 -0.329365 1.62496 77 71 71 
-0.0119737 -0.313099 1.56859 12 7 1 
-0.195559 -0.33089 1.70826 9 4 1 
0.133329 -0.285971 1.55611 94 91 86 
-0.0364473 -0.274638 1.57148 15 12 7 
0.0286971 -0.191178 1.49722 91 81 71 
-0.211724 -0.199914 1.71239 80 75 72 
0.0125603 -0.134656 1.46993 72 67 64 
-0.0906598 -0.132647 1.53693 87 83 74 
0.0706066 -0.111354 1.45652 14 10 1 
0.25227 -0.111855 1.55331 74 66 55 
0.145672 -0.0911877 1.45541 25 16 7 
0.0825243 -0.0893487 1.44344 92 85 77 
0.0464009 -0.0862433 1.43975 81 78 71 
0.0289603 -0.0857091 1.44131 77 70 64 
0.0420995 -0.0765522 1.43665 123 119 110 
0.009097 -0.0677866 1.43815 7 0 0 
-0.035493 -0.0615697 1.47115 2 2 2 
0.0273201 -0.0541188 1.42802 8 1 0 
0.156915 -0.0496582 1.4389 29 19 9 
0.123717 -0.0471032 1.4265 90 86 75 
0.00117116 -0.0455233 1.42699 7 2 0 
0.0794823 -0.0415333 1.42122 24 17 9 
0.233176 -0.0385688 1.49865 138 135 120 
0.0581433 -0.033735 1.41524 10 0 0 
0.11425 -0.0317789 1.42059 87 76 70 
0.167792 -0.0260249 1.43196 26 17 8 
0.0504215 -0.016531 1.40568 33 29 20 
-0.00124006 -0.00128744 1.40782 63 63 53 
0.13372 0.00123712 1.40499 21 11 2 
0.0589952 0.00214396 1.39498 33 25 22 
0.144322 0.0229547 1.39585 24 13 7 
0.155034 0.0235968 1.40053 17 8 0 
0.167049 0.0341763 1.39948 23 11 0 
-0.0386739 0.0369806 1.42261 2 1 0 
-0.00187996 0.0408154 1.3849 86 81 75 
0.023112 0.0421372 1.37798 74 71 62 
0.109434 0.0483207 1.37502 108 105 90 
0.165688 0.0487728 1.39078 7 0 0 
0.0575361 0.0527714 1.37028 83 76 68 
0.028331 0.0550699 1.37044 9 4 1 
-0.0588357 0.0609084 1.42222 31 26 20 
0.0766249 0.0597608 1.3669 44 36 25 
0.00693072 0.0773824 1.36521 4 0 0 
0.0287531 0.0787649 1.35943 71 64 56 
0.177863 0.0797385 1.38051 102 92 82 
0.0661691 0.0827617 1.35414 92 85 77 
0.108897 0.0935 1.35208 27 18 9 
0.043842 0.0945349 1.35153 4 0 0 
0.0367184 0.125123 1.33357 5 0 0 
0.0525854 0.125847 1.33234 91 84 76 
0.0450333 0.132417 1.33096 15 8 0 
0.0890977 0.145262 1.3235 98 94 83 
-0.00343964 0.14783 1.33192 75 65 56 
0.0918135 0.155672 1.31869 95 88 78 
0.180486 0.164526 1.33751 56 43 34 
0.0718441 0.16656 1.3114 31 21 19 
0.0391461 0.192933 1.29919 11 8 1 
0.0637505 0.193689 1.29865 138 127 107 
0.0499361 0.193481 1.29468 14 5 0 
-0.00920225 0.216152 1.32261 7 6 1 
0.0178572 0.215926 1.29069 91 81 72 
-0.091209 0.23129 1.36531 12 7 1 
0.115839 0.224622 1.28528 105 92 75 
0.21631 0.235702 1.33798 129 121 110 
0.130721 0.255811 1.2719 71 59 43 
-0.134441 0.286151 1.38595 6 1 0 
0.233583 0.298226 1.31247 128 120 109 
0.145659 0.329125 1.23933 40 29 23 
-0.0961806 0.361887 1.28052 5 0 0 
0.0744778 0.353766 1.2175 28 19 10 
-0.19208 0.435149 1.36862 28 23 19 
0.126228 0.385382 1.20805 102 96 84 
-0.130161 0.433095 1.28807 92 87 81 
-0.100977 0.425967 1.2577 7 4 0 
0.0759826 0.405298 1.1925 22 17 11 
0.0749167 0.414957 1.18702 23 18 12 
-0.0724863 0.44365 1.22683 100 92 89 
-0.113348 0.457165 1.2548 31 22 17 
0.0472075 0.429799 1.1755 13 6 0 
-0.0809675 0.460256 1.21881 76 72 71 
0.0947656 0.446579 1.1555 115 112 107 
0.0400891 0.45017 1.15579 97 92 86 
-0.0784089 0.471854 1.20742 100 93 87 
-0.0101382 0.459139 1.16694 90 82 79 
-0.13519 0.492733 1.24744 94 85 76 
-0.0248553 0.476878 1.16304 89 84 80 
-0.0697345 0.490715 1.18172 107 100 92 
0.0111604 -0.459598 1.62216 102 99 92 
0.0775858 -0.434482 1.6177 84 83 79 
0.0141888 -0.417736 1.61225 81 78 73 
-0.0243214 -0.409483 1.61574 28 23 17 
-0.000683034 -0.396609 1.60393 6 0 0 
0.117272 -0.378675 1.59779 95 91 79 
-0.171292 -0.395631 1.70583 77 74 69 
0.0213119 -0.349095 1.57726 94 89 86 
-0.0472746 -0.352606 1.59774 85 84 80 
0.0594665 -0.339741 1.57306 75 72 65 
-0.209865 -0.350027 1.73672 92 89 82 
-0.152507 -0.287315 1.64563 58 55 46 
0.283239 -0.289357 1.68192 90 87 78 
0.298878 -0.291425 1.70162 7 3 0 
0.148249 -0.169001 1.50023 34 29 25 
-0.00304074 -0.116493 1.46528 7 2 0 
0.0923706 -0.0880145 1.43929 80 76 67 
0.0763137 -0.030729 1.41098 84 77 69 
0.0645428 -0.0223088 1.40927 73 64 55 
-0.0812627 -0.0010078 1.4695 75 71 68 
0.0736717 0.0247315 1.38114 13 8 2 
0.165226 0.0249356 1.40429 23 14 7 
0.095293 0.0256228 1.38552 86 78 75 
-0.0151033 0.0355939 1.39795 90 86 75 
0.074635 0.0370618 1.37768 90 86 77 
-0.00508473 0.0593792 1.37699 42 37 31 
0.158245 0.0726728 1.37631 36 27 18 
0.0981511 0.12001 1.33745 39 35 26 
0.136788 0.142616 1.32935 90 81 72 
-0.0846456 0.251692 1.34371 35 28 22 
0.140029 0.271999 1.26363 64 57 47 
0.153784 0.307386 1.25354 108 99 90 
-0.0484363 0.388476 1.23992 87 83 74 
-0.0144668 0.391603 1.21919 30 25 21 
-0.123323 0.451934 1.2715 40 36 33 
-0.0848532 0.448805 1.23578 96 87 80 
-0.105873 0.468943 1.23684 92 89 82 
0.318363 -0.745054 2.15961 34 35 30 
0.0713073 -0.480703 1.64265 49 46 39 
0.176462 -0.352377 1.61444 90 88 76 
0.245135 -0.34087 1.65153 88 81 73 
0.2316 -0.345638 1.64542 0 2 1 
-0.0891138 -0.332117 1.61804 1 0 5 
0.0851585 -1.58676 2.71297 226 227 229 
-0.0453421 -0.33853 1.59589 2 2 2 
-0.197385 -0.833372 2.17039 207 211 212 
0.0242452 -1.80221 2.85843 104 109 112 
0.0270898 -1.78725 2.85693 166 170 171 
0.0286617 -1.16153 2.33113 120 117 112 
0.0186462 -1.15356 2.32064 129 125 122 
-0.0041998 -1.1332 2.30605 118 114 111 
-0.0313325 -1.13576 2.32007 7 0 0 
0.0796561 -1.09634 2.26987 135 126 117 
0.0049247 -1.05955 2.23377 145 141 132 
0.024846 -1.05243 2.22413 125 121 112 
-0.042085 -1.00917 2.1967 47 37 25 
-0.0307735 -0.996522 2.17728 113 105 94 
0.0544712 -0.871181 1.99231 143 136 120 
-0.0696316 -0.922871 2.14003 128 120 109 
0.0614086 -0.842368 1.9741 46 43 38 
-0.0878446 -0.85938 2.09037 43 36 28 
0.0715071 -0.802054 1.95547 115 106 97 
-0.0514209 -0.773416 1.96252 115 108 98 
-0.0814478 -0.794819 2.02152 56 50 38 
-0.0609767 -0.772523 1.97337 47 39 28 
-0.0367503 -0.757754 1.93957 111 108 101 
0.0319046 -0.751661 1.92554 122 99 93 
0.15145 -0.776626 1.96687 105 101 92 
-0.0583013 -0.747983 1.9433 120 116 107 
0.136864 -0.761035 1.94728 138 138 126 
-0.118239 -0.774068 2.04184 94 91 86 
-0.173731 -0.801691 2.14099 29 22 12 
0.145877 -0.730259 1.91713 14 10 0 
-0.094099 -0.737821 1.98101 4 1 0 
0.10524 -0.713498 1.90571 103 99 96 
-0.0278299 -0.69526 1.88099 99 96 87 
0.0268401 -0.70137 1.88958 123 119 108 
-0.0820603 -0.705323 1.92725 38 34 25 
-0.0157088 -0.679145 1.86513 36 34 22 
0.0364141 -0.664648 1.85743 22 19 12 
-0.136444 -0.697437 1.98853 127 124 115 
0.0675249 -0.659448 1.85099 121 118 109 
-0.0836084 -0.658883 1.88208 31 28 19 
-0.0780001 -0.647949 1.86784 125 119 107 
0.14017 -0.641707 1.83736 107 104 95 
-0.142501 -0.667074 1.96778 14 11 2 
-0.145004 -0.64138 1.94298 131 128 121 
-0.15334 -0.632905 1.94538 106 103 94 
0.0647535 -0.593912 1.79417 127 120 110 
-0.196297 -0.643449 2.00351 151 146 140 
-0.0817002 -0.578889 1.80101 114 114 104 
0.150634 -0.592407 1.79789 28 23 17 
-0.192658 -0.62787 1.98573 29 25 14 
0.0842423 -0.57409 1.77839 119 115 104 
-0.127861 -0.583489 1.86475 105 102 97 
-0.0364965 -0.545774 1.73391 45 42 37 
-0.156997 -0.593349 1.9046 14 11 6 
0.175907 -0.564615 1.77288 51 47 38 
0.0555771 -0.515635 1.70146 157 154 149 
-0.156457 -0.556247 1.87468 113 110 105 
-0.041313 -0.472977 1.65907 105 100 94 
-0.14143 -0.500222 1.78034 143 137 125 
-0.222084 -0.534573 1.93222 22 19 10 
-0.13253 -0.483201 1.74264 138 130 117 
-0.185446 -0.502294 1.84543 39 33 21 
0.0305274 -0.449951 1.62943 85 86 81 
0.082972 -0.433464 1.63057 5 2 0 
-0.0451064 -0.422363 1.64046 3 0 0 
0.10929 -0.426573 1.63277 29 28 23 
0.15961 -0.418032 1.6513 131 127 118 
0.0358563 -0.381986 1.60271 86 83 74 
-0.0800522 -0.382411 1.63646 130 126 117 
-0.0955895 -0.365497 1.64241 5 2 0 
0.203672 -0.380701 1.64979 6 3 0 
0.0767268 -0.344744 1.58457 104 101 96 
-0.179943 -0.354797 1.70353 3 2 0 
-0.227507 -0.351952 1.76959 19 16 9 
0.260941 -0.359175 1.67709 95 92 87 
-0.177723 -0.327803 1.69346 84 80 77 
-0.0258782 -0.306087 1.57114 146 134 122 
0.0388457 -0.294434 1.55333 123 120 115 
-0.0142685 -0.284604 1.55644 21 16 13 
-0.226095 -0.305253 1.75014 96 91 87 
0.0426684 -0.281783 1.54693 96 91 87 
-0.0296244 -0.263517 1.55065 46 44 32 
0.00957221 -0.261673 1.53815 4 0 0 
0.273995 -0.303634 1.6886 123 123 113 
0.0624234 -0.256582 1.53306 15 12 7 
0.0182636 -0.25324 1.5338 30 25 21 
0.16581 -0.26304 1.56296 26 23 16 
-0.0315302 -0.249249 1.54981 39 35 32 
0.23112 -0.271902 1.63177 115 108 98 
0.252147 -0.269133 1.6453 108 104 93 
-0.137359 -0.243714 1.63129 129 125 122 
0.119532 -0.242568 1.53371 95 92 87 
0.140252 -0.242472 1.53652 143 138 134 
-0.0234783 -0.231201 1.52786 115 111 102 
0.202633 -0.250052 1.59834 137 133 121 
0.0281514 -0.225409 1.51685 7 0 0 
0.223616 -0.249981 1.61378 17 7 0 
0.0174295 -0.218839 1.51369 98 95 90 
0.157763 -0.218806 1.53577 4 0 0 
0.224996 -0.229002 1.60489 8 0 0 
-0.0196372 -0.196968 1.50721 4 0 0 
0.16868 -0.207045 1.53067 32 29 22 
0.100334 -0.19524 1.50032 4 0 0 
0.228996 -0.207131 1.59261 31 23 12 
0.128461 -0.189767 1.50921 11 7 0 
0.219851 -0.203683 1.58562 131 121 112 
0.0979362 -0.183983 1.49698 108 104 93 
-0.0218859 -0.17774 1.50215 16 11 5 
0.0490346 -0.178176 1.48993 6 0 0 
-0.12134 -0.17524 1.58882 1 0 0 
-0.00779441 -0.166647 1.48997 92 85 79 
0.103514 -0.163831 1.4877 108 99 92 
-0.0288665 -0.156096 1.51372 78 75 68 
0.163902 -0.16393 1.50732 123 119 108 
0.0660234 -0.148335 1.47543 110 106 95 
0.0571549 -0.143316 1.46921 114 111 102 
0.0947469 -0.137178 1.47258 110 105 99 
0.00998435 -0.130481 1.46668 15 10 7 
0.048442 -0.132203 1.46608 15 6 1 
0.0726747 -0.132 1.466 32 28 17 
-0.179608 -0.132253 1.62765 4 0 0 
0.21588 -0.146778 1.55117 126 117 110 
-0.139227 -0.125527 1.57159 87 82 78 
0.156093 -0.132052 1.4858 55 46 37 
0.0420306 -0.122763 1.46175 10 0 0 
-0.106087 -0.119634 1.53774 101 97 94 
0.00729705 -0.117992 1.463 5 1 0 
0.106791 -0.123778 1.46504 25 21 10 
0.211311 -0.134566 1.5392 6 2 0 
0.0331714 -0.117464 1.45759 4 0 0 
0.08997 -0.120165 1.45968 12 2 0 
0.115716 -0.11799 1.46537 99 95 86 
0.21914 -0.124289 1.53942 21 15 3 
0.235416 -0.126147 1.55367 17 4 0 
0.261493 -0.125321 1.5736 23 13 3 
-0.0239031 -0.100666 1.4671 9 7 0 
0.169523 -0.110665 1.48061 4 0 0 
0.100456 -0.103225 1.45278 99 97 85 
-0.183345 -0.0939299 1.61086 121 117 106 
0.0757762 -0.0943008 1.44651 98 94 83 
-0.0348437 -0.0898948 1.47942 86 82 79 
0.24381 -0.108059 1.54925 15 7 0 
0.0623036 -0.0902664 1.44413 4 0 0 
0.215104 -0.103431 1.52308 7 0 0 
0.234663 -0.104758 1.53983 29 20 5 
-0.181661 -0.0813144 1.60706 22 18 7 
0.00561447 -0.0785643 1.44065 83 78 72 
-0.00628801 -0.0767857 1.44 88 84 81 
0.245387 -0.091642 1.54213 19 11 0 
0.154608 -0.0795515 1.45774 122 113 104 
0.226357 -0.0858857 1.52138 111 103 92 
0.212237 -0.082942 1.5149 129 121 108 
0.119071 -0.0733336 1.44198 8 4 0 
0.0611009 -0.069073 1.43041 104 95 88 
0.0197301 -0.0665629 1.43206 121 119 107 
0.139034 -0.0727815 1.44709 118 109 100 
-0.103077 -0.0627418 1.51325 113 109 100 
0.236232 -0.0754049 1.52442 65 53 39 
-0.200463 -0.0540164 1.63119 7 4 0 
-0.0222873 -0.0557435 1.45268 84 81 76 
0.167037 -0.0639568 1.45364 25 15 6 
0.128844 -0.0607301 1.43744 94 85 76 
0.0525889 -0.0555285 1.42279 9 2 0 
0.150684 -0.0614083 1.44314 103 95 84 
0.174935 -0.0553945 1.44938 15 6 0 
0.0707881 -0.0476131 1.42049 27 23 12 
0.114612 -0.0482776 1.42744 128 119 110 
-0.0323659 -0.0382925 1.45345 3 0 0 
-0.0669704 -0.035519 1.46571 89 86 81 
0.0145579 -0.0386037 1.41752 10 1 0 
0.163017 -0.0471856 1.44161 121 113 100 
-0.00045007 -0.0373182 1.42033 23 14 7 
0.0376504 -0.0381917 1.41775 98 89 80 
0.0967665 -0.0416115 1.41932 7 0 0 
0.259595 -0.0533848 1.53437 115 105 93 
-0.0192679 -0.0348972 1.4301 123 118 112 
-0.184822 -0.0287654 1.5919 120 117 112 
0.216669 -0.0460024 1.49607 13 3 0 
-0.0588234 -0.0294993 1.4594 105 101 98 
0.0291622 -0.0307128 1.41262 108 99 90 
0.0537901 -0.0312877 1.41018 112 102 93 
-0.151041 -0.0217099 1.55752 112 101 95 
0.0158441 -0.0272486 1.41078 9 5 0 
-0.0898834 -0.0226035 1.47254 107 102 98 
-0.173216 -0.0185918 1.56121 10 2 0 
0.0432392 -0.0255464 1.40546 19 10 1 
0.152467 -0.0307202 1.42846 136 127 120 
-0.0508243 -0.0186275 1.45066 111 108 103 
0.0892906 -0.0259081 1.41175 23 18 12 
0.00557208 -0.0207441 1.41062 22 15 7 
-0.015536 -0.0186152 1.4163 20 10 1 
-0.204546 -0.00905366 1.61352 5 2 0 
0.132234 -0.0238721 1.41964 106 103 96 
0.145295 -0.0234178 1.42334 130 122 120 
-0.00801245 -0.0131007 1.41048 111 106 103 
0.0353774 -0.0151051 1.3986 8 1 0 
0.247108 -0.0264215 1.50815 41 31 19 
0.00865321 -0.0121238 1.40567 6 1 0 
0.0859173 -0.0157585 1.40532 10 0 0 
0.229972 -0.0241158 1.49267 16 6 0 
0.123729 -0.0161688 1.41212 106 100 88 
-0.207555 0.000520298 1.61515 6 3 0 
0.229222 -0.0127535 1.48649 53 43 34 
-0.0806348 0.0103192 1.45436 88 83 79 
0.161064 -0.00150695 1.41643 113 103 94 
0.210041 -0.000491858 1.46671 42 39 22 
0.152294 0.00319547 1.4106 9 3 0 
-0.00434917 0.0153018 1.3952 99 90 81 
0.100656 0.0105475 1.39395 9 0 0 
0.0337847 0.0156261 1.38519 106 102 93 
0.232175 0.00796343 1.47737 28 15 7 
-0.0180966 0.0207144 1.40514 93 86 80 
-0.0261257 0.0231004 1.41643 88 83 80 
0.119941 0.0150221 1.39482 18 14 3 
0.000738239 0.0227287 1.38778 115 106 97 
0.220323 0.0168313 1.46533 27 19 8 
0.0546483 0.0244132 1.38022 8 3 0 
-0.0728908 0.0331633 1.43822 97 92 88 
0.0398203 0.0258108 1.38048 7 4 0 
0.0893679 0.0251925 1.38255 102 100 88 
0.176212 0.0211647 1.4085 117 108 101 
0.123048 0.034607 1.38204 122 114 103 
0.163841 0.0403316 1.39765 121 111 99 
-0.0512999 0.0526897 1.41841 93 90 85 
0.22527 0.0403854 1.45545 19 9 0 
0.153963 0.0422804 1.39175 13 3 0 
0.100094 0.046943 1.37226 92 85 69 
0.0722192 0.051906 1.36586 101 97 86 
0.263161 0.0480006 1.48009 51 42 27 
0.177953 0.0503206 1.39607 26 17 8 
0.00943419 0.0629726 1.36233 20 11 6 
0.160372 0.0561608 1.38515 33 20 11 
-0.0145071 0.0660108 1.37498 117 108 99 
0.0240124 0.0657522 1.36294 6 0 0 
0.264559 0.0601997 1.47441 151 137 124 
0.250861 0.0607078 1.4603 124 115 100 
0.127366 0.0688488 1.3675 16 6 0 
0.182412 0.0677828 1.38591 118 106 92 
0.138284 0.0765144 1.36925 120 111 102 
0.191156 0.0812595 1.3868 136 126 116 
0.0494847 0.0877722 1.34824 8 0 0 
0.171409 0.0895313 1.37235 116 106 94 
0.100999 0.0928955 1.35123 7 0 0 
0.253773 0.0985984 1.4428 29 19 9 
0.189665 0.0975005 1.37831 11 2 0 
0.0221623 0.105618 1.34196 9 5 0 
0.119258 0.101789 1.35018 9 0 0 
0.134331 0.10148 1.35332 15 8 0 
0.226415 0.103474 1.41848 21 11 0 
0.088796 0.109877 1.34185 83 79 67 
-0.00681288 0.117431 1.343 84 76 65 
0.064446 0.113355 1.338 133 124 117 
0.27698 0.115007 1.46143 121 111 99 
0.329124 0.120344 1.53767 28 12 0 
0.218608 0.114451 1.41058 42 32 22 
0.119764 0.114426 1.3441 105 98 90 
0.107891 0.121474 1.33744 136 128 117 
0.257584 0.124057 1.43845 131 121 111 
-0.0545699 0.135654 1.37669 127 123 114 
0.213241 0.124827 1.40023 58 48 38 
0.241868 0.130281 1.41881 16 7 0 
0.200224 0.128727 1.3734 141 133 122 
0.112433 0.130453 1.33272 16 10 0 
0.145529 0.131319 1.34069 12 8 0 
0.0296715 0.13591 1.32791 108 99 90 
0.280088 0.140509 1.44844 14 4 0 
0.299122 0.144078 1.46368 109 101 88 
0.0482185 0.140964 1.32236 107 103 94 
0.108084 0.140486 1.32658 151 141 131 
0.18112 0.142952 1.35162 28 20 9 
0.192827 0.143168 1.35286 15 7 0 
0.239383 0.147791 1.40664 71 59 45 
-0.062163 0.158132 1.36766 126 113 105 
0.0394844 0.149201 1.32013 12 8 0 
0.258072 0.150869 1.42139 36 26 14 
0.0025928 0.152993 1.32571 9 0 0 
0.128006 0.149818 1.32765 123 115 104 
-0.0123258 0.160596 1.34648 17 10 0 
0.183282 0.151884 1.34654 15 5 0 
0.164016 0.15454 1.33565 13 3 0 
0.11207 0.158967 1.31848 12 8 0 
0.127158 0.15966 1.32184 51 41 31 
0.151372 0.161029 1.32954 27 19 8 
0.263369 0.167257 1.41455 44 37 21 
0.0973079 0.167316 1.31145 94 86 75 
0.128698 0.171045 1.31734 14 1 0 
0.0862078 0.172714 1.30878 131 122 113 
0.0490894 0.174799 1.30445 111 101 91 
0.234298 0.178128 1.38655 21 11 1 
0.00438438 0.178933 1.31053 120 116 107 
-0.00721532 0.181419 1.31347 105 98 88 
-0.0947687 0.196131 1.38253 85 81 72 
0.247086 0.181085 1.3947 44 34 24 
-0.162388 0.209706 1.44503 14 6 3 
-0.0710746 0.195998 1.35718 4 0 0 
0.0176003 0.183872 1.3053 30 22 11 
0.147529 0.180105 1.31638 115 107 96 
0.166909 0.182405 1.32227 9 5 0 
0.0302105 0.186388 1.30083 101 97 88 
0.275334 0.191128 1.41404 138 128 116 
0.225612 0.188444 1.3746 12 6 0 
0.260952 0.191091 1.40119 27 17 5 
0.239557 0.191245 1.38127 50 40 28 
0.278252 0.200894 1.41035 41 29 17 
0.192393 0.194852 1.32752 54 46 35 
0.0068943 0.199824 1.29995 123 115 104 
0.167676 0.19822 1.31623 143 133 121 
0.127382 0.199899 1.30023 47 36 16 
0.256093 0.208267 1.38514 172 162 150 
0.28424 0.21149 1.41174 165 155 143 
0.238631 0.209017 1.36984 136 126 116 
0.138025 0.20317 1.30259 140 125 102 
0.0362465 0.206206 1.2893 129 122 112 
0.0590008 0.20645 1.28985 137 126 108 
0.178361 0.206528 1.31816 100 90 78 
0.22373 0.211727 1.36069 131 121 111 
0.234052 0.218793 1.36901 155 146 131 
0.14117 0.21196 1.29676 23 13 4 
0.232175 0.22419 1.35677 30 16 3 
-0.00361007 0.224551 1.29101 17 8 0 
-0.0360279 0.233123 1.32062 102 95 89 
0.169579 0.221432 1.30458 21 11 2 
0.129828 0.224678 1.2883 132 120 106 
0.057655 0.228577 1.27873 10 0 0 
0.141986 0.226773 1.29032 34 22 8 
0.178754 0.231487 1.30228 133 125 112 
-0.184853 0.278454 1.45655 7 0 0 
0.233867 0.24142 1.35114 8 0 0 
0.25276 0.244521 1.36476 26 18 5 
0.130237 0.235814 1.28506 62 49 32 
-0.151038 0.276467 1.40462 96 93 88 
0.148585 0.240202 1.2859 106 96 86 
0.182851 0.243541 1.29737 116 108 97 
0.255124 0.256748 1.3588 134 125 110 
0.247164 0.264643 1.3491 141 129 113 
0.0751401 0.258884 1.26577 16 7 0 
-0.110794 0.286168 1.3518 106 103 96 
0.158596 0.259686 1.27991 129 117 103 
0.149407 0.264693 1.27389 26 16 4 
0.184351 0.266818 1.28696 16 6 0 
0.243739 0.276403 1.3403 161 151 141 
0.27137 0.282039 1.35939 35 25 15 
-0.10018 0.295271 1.34068 104 95 88 
0.0254155 0.275089 1.26166 99 95 86 
0.0915368 0.27329 1.26008 32 25 9 
0.119717 0.273602 1.26268 19 12 0 
0.101809 0.274539 1.2587 161 153 142 
0.187953 0.279193 1.28099 31 21 9 
0.219927 0.290984 1.31608 20 8 0 
0.258412 0.295388 1.34124 37 25 11 
0.263434 0.304866 1.34235 59 50 33 
0.216508 0.29895 1.30627 49 40 25 
-0.0128296 0.305555 1.27185 89 84 78 
0.229707 0.30375 1.3084 138 130 119 
0.148232 0.295856 1.26058 27 19 8 
0.255524 0.308444 1.32785 73 65 52 
-0.0148649 0.313312 1.26396 101 97 86 
0.0645336 0.310245 1.24045 27 15 1 
0.167141 0.311981 1.2553 35 25 15 
-0.177675 0.367163 1.40525 10 7 2 
0.306074 0.333346 1.3546 42 34 21 
0.0908537 0.317518 1.23535 20 17 8 
0.0714913 0.320414 1.23374 107 98 89 
0.260463 0.339761 1.29799 21 11 2 
0.0990347 0.331146 1.23287 102 98 89 
-0.0727075 0.352467 1.26184 89 84 80 
0.23163 0.343163 1.27116 125 118 108 
0.283057 0.35259 1.30564 131 121 111 
0.170733 0.346097 1.24184 130 120 111 
0.273345 0.360422 1.29387 46 39 29 
0.210146 0.355129 1.25377 120 114 102 
0.0938356 0.354639 1.22125 103 97 85 
0.23208 0.36832 1.26291 8 0 0 
-0.131114 0.415588 1.29035 97 94 85 
0.177081 0.387199 1.22422 126 118 107 
-0.0313788 0.399469 1.22461 106 101 98 
0.0984981 0.388982 1.20608 143 139 128 
0.162637 0.404703 1.2141 54 45 36 
-0.168627 0.458641 1.32458 17 13 4 
-0.0924425 0.437348 1.24495 16 12 1 
-0.136369 0.454317 1.28496 15 6 0 
-0.0231172 0.430102 1.20999 15 12 3 
0.134692 0.424858 1.18694 56 48 37 
-0.149692 0.476794 1.28875 130 121 114 
0.112194 0.436977 1.17036 96 92 81 
-0.0952828 0.47163 1.22704 128 120 117 
-0.190602 0.520299 1.32957 105 98 90 
-0.206498 0.557434 1.32353 120 116 107 
-0.126714 0.521374 1.21791 101 96 92 
-0.146363 0.532745 1.23919 124 114 112 
-0.179986 0.553537 1.27369 128 119 112 
-0.0371174 0.503209 1.16323 21 11 2 
-0.143383 0.541538 1.2271 125 122 113 
-0.00607445 0.508081 1.14634 136 126 116 
-0.174456 0.572525 1.26205 109 105 96 
-0.186424 0.580019 1.27246 89 85 74 
-0.12913 0.551166 1.20997 122 113 104 
0.045807 0.509476 1.13294 129 125 113 
-0.000119311 0.519291 1.13976 106 100 88 
-0.0750218 0.539053 1.16614 163 154 145 
-0.146903 0.571355 1.22559 113 107 95 
0.0178907 0.518626 1.1287 56 50 36 
-0.212004 0.615522 1.31078 120 115 109 
-0.178105 0.589551 1.25719 124 118 106 
-0.111355 0.553169 1.18327 171 162 145 
-0.0564473 0.524824 1.11392 40 34 20 
-0.0671215 0.532915 1.11681 65 62 57 
-0.111492 0.547459 1.14061 44 40 28 
0.0213685 0.518226 1.08966 111 108 99 
-0.189401 0.587662 1.20326 10 1 0 
-0.206109 0.603942 1.22495 17 8 1 
-0.178888 0.586555 1.18799 83 73 63 
-0.21523 0.608945 1.22822 91 84 78 
-0.124323 0.562318 1.14215 95 86 77 
-0.159027 0.579412 1.16537 120 110 98 
-0.0830636 0.550016 1.11261 76 72 63 
-0.229037 0.627586 1.25183 4 0 0 
-0.219048 0.619708 1.23583 136 135 131 
-0.0590975 0.555655 1.09948 92 85 75 
-0.172833 0.598116 1.17015 22 12 0 
-0.123863 0.580143 1.1335 106 96 86 
-0.0734849 0.566353 1.10291 115 106 91 
-0.00214867 0.55551 1.07334 119 109 97 
-0.111364 0.585326 1.1165 135 125 115 
-0.0660185 0.572325 1.09124 21 11 0 
0.00724941 0.556607 1.06272 21 19 4 
-0.0202788 0.563392 1.03869 152 145 129 
0.0173488 0.562256 1.02232 174 168 144 
-0.0433637 0.570294 1.02051 141 140 120 
0.0212355 -1.79296 2.87198 239 240 244 
0.010466 -1.7759 2.88964 47 55 66 
0.0430957 -1.61646 2.69539 133 124 117 
0.0348455 -1.6052 2.69382 54 51 42 
0.0108712 -1.52019 2.64946 135 126 119 
0.0330047 -1.54899 2.701 23 19 20 
0.0754047 -1.51914 2.68185 71 66 63 
0.0871503 -1.50771 2.69192 233 234 236 
0.00529271 -1.38801 2.54695 137 129 118 
0.0390773 -1.36972 2.52934 22 14 11 
0.0678906 -1.14608 2.31433 119 110 101 
0.0564331 -1.12803 2.2995 112 104 93 
0.0185121 -1.08021 2.25536 25 18 12 
0.0595667 -1.08121 2.25885 112 109 102 
-0.023002 -0.977422 2.15509 133 129 117 
-0.00689698 -0.978018 2.15462 129 125 114 
-0.00969784 -0.968598 2.14796 44 40 31 
-0.0240198 -0.958575 2.13484 137 133 121 
-0.0154165 -0.943221 2.12038 139 136 121 
0.0310553 -0.794718 1.94342 101 91 81 
-0.0917913 -0.829541 2.07083 129 125 114 
-0.0154838 -0.790634 1.96358 10 1 2 
-0.0234245 -0.793088 1.97299 87 85 73 
-0.0250545 -0.77366 1.95607 91 88 83 
0.128725 -0.767099 1.93455 17 13 12 
-0.117183 -0.801407 2.07535 88 79 70 
-0.0843989 -0.753319 1.97728 5 0 0 
0.0407628 -0.737753 1.91951 105 96 87 
0.129187 -0.7462 1.92795 40 38 26 
0.0777288 -0.740737 1.92661 79 79 69 
-0.103884 -0.748544 2.00611 76 73 68 
-0.0510169 -0.687723 1.87664 118 110 108 
-0.110829 -0.720512 1.97757 112 107 103 
-0.129727 -0.733359 2.01817 119 116 111 
-0.0604603 -0.684049 1.88205 128 124 115 
0.104665 -0.691012 1.88218 89 84 80 
-0.00320324 -0.651466 1.84505 107 100 92 
0.135087 -0.649758 1.84823 42 36 36 
0.12721 -0.638775 1.83265 130 127 120 
0.109569 -0.624487 1.82445 86 82 79 
-0.0803547 -0.613012 1.83018 21 14 6 
-0.0916538 -0.619221 1.85164 115 108 98 
-0.0666085 -0.596583 1.79891 35 32 23 
0.126295 -0.603151 1.8075 96 93 88 
-0.0776973 -0.588929 1.81286 116 112 103 
0.0487388 -0.57213 1.77529 108 104 95 
0.0731491 -0.563955 1.76639 90 87 82 
-0.0677914 -0.550826 1.75656 102 99 94 
-0.0963525 -0.561167 1.80181 51 48 41 
-0.179067 -0.601443 1.9453 33 30 25 
-0.16071 -0.583209 1.89421 34 31 26 
-0.187924 -0.594154 1.95187 121 118 111 
-0.0052594 -0.503925 1.68104 135 133 120 
0.106924 -0.485808 1.66295 25 22 17 
-0.0322757 -0.472662 1.6543 14 11 4 
0.00477817 -0.46074 1.63291 111 108 99 
0.118899 -0.436449 1.64017 14 11 6 
0.0425519 -0.414464 1.61032 10 6 7 
0.124611 -0.404597 1.62538 7 2 0 
0.0809454 -0.388228 1.60803 1 0 0 
0.101332 -0.388972 1.61157 11 10 8 
-0.125242 -0.376191 1.66712 3 0 0 
-0.281716 -0.397876 1.89979 115 111 99 
-0.203886 -0.360328 1.73532 25 21 18 
-0.0268482 -0.326107 1.58117 29 26 21 
0.111516 -0.334987 1.58751 106 101 97 
0.00959884 -0.325046 1.57252 12 5 0 
0.169564 -0.331263 1.60176 137 133 124 
-0.225849 -0.338283 1.76234 14 9 6 
-0.0953017 -0.3043 1.6068 86 83 76 
0.0450258 -0.299128 1.57605 130 127 122 
0.244333 -0.325318 1.65552 20 15 11 
0.0973256 -0.29596 1.55886 104 99 95 
0.305276 -0.333729 1.70388 105 101 90 
-0.0318374 -0.288101 1.57746 119 119 111 
0.0975425 -0.286398 1.54996 126 123 116 
-0.0496012 -0.280862 1.58571 89 85 82 
0.168933 -0.289641 1.57548 19 16 9 
0.121259 -0.282824 1.55737 114 109 105 
-0.00148572 -0.267558 1.54091 11 8 3 
-0.0142305 -0.262574 1.54108 120 116 105 
0.031183 -0.265022 1.53905 6 0 0 
-0.122832 -0.269316 1.6298 79 73 73 
0.0960243 -0.261951 1.53395 112 109 104 
0.130513 -0.261769 1.54802 73 70 65 
-0.116527 -0.257593 1.61737 76 75 71 
0.143935 -0.256593 1.55151 23 18 12 
-0.0248941 -0.242299 1.53613 91 85 73 
0.173287 -0.256605 1.55981 25 20 17 
-0.0346672 -0.236701 1.55787 8 4 5 
-0.072959 -0.230977 1.5798 6 5 1 
0.120647 -0.232732 1.52958 8 3 0 
-0.0294662 -0.226851 1.55244 101 100 98 
-0.124992 -0.228389 1.61308 38 34 31 
-0.22515 -0.244917 1.76512 87 84 77 
0.108525 -0.224051 1.52213 102 98 89 
0.034394 -0.217063 1.50762 86 86 74 
0.128376 -0.222691 1.52695 38 33 27 
0.0771945 -0.215523 1.50659 88 79 70 
0.141899 -0.220435 1.52829 17 13 4 
-0.00876878 -0.208136 1.50944 16 11 8 
0.0222986 -0.207882 1.50541 110 107 98 
-0.197832 -0.22104 1.69847 4 3 0 
0.227435 -0.218196 1.60011 122 113 104 
0.138444 -0.19893 1.51541 90 87 78 
-0.0918497 -0.185715 1.56595 89 86 81 
-0.0653543 -0.169425 1.53721 92 88 85 
0.0256119 -0.167036 1.48109 90 88 76 
0.141399 -0.175166 1.50502 18 14 5 
0.118379 -0.171317 1.49385 97 90 80 
-0.090596 -0.164532 1.5509 60 54 54 
-0.025831 -0.160231 1.49222 97 92 86 
0.147949 -0.168444 1.50012 46 42 33 
-0.10967 -0.159119 1.56381 72 67 63 
-0.0212713 -0.14969 1.48549 24 14 13 
0.045898 -0.152713 1.47797 19 10 3 
-0.0403372 -0.151135 1.5145 74 70 67 
0.117913 -0.155231 1.48562 99 92 84 
0.161201 -0.152254 1.50328 97 93 82 
-0.00775292 -0.135527 1.47626 18 15 10 
0.157885 -0.143813 1.49725 84 75 66 
0.130755 -0.137779 1.48261 107 97 87 
-0.0870302 -0.129349 1.52884 8 7 3 
-0.0173619 -0.124073 1.46877 85 81 72 
0.023722 -0.121825 1.46053 91 87 78 
0.13355 -0.128748 1.47334 98 94 85 
0.224191 -0.136441 1.54962 110 103 93 
-0.0123918 -0.115587 1.46164 19 16 11 
0.246911 -0.138514 1.57129 44 36 23 
0.0773203 -0.118968 1.45907 32 29 20 
0.162087 -0.122077 1.48278 9 2 0 
-0.0251143 -0.109462 1.47315 23 22 18 
0.0699521 -0.110916 1.45371 12 8 0 
-0.0814912 -0.10709 1.51325 78 74 71 
0.0286185 -0.107057 1.45218 110 106 95 
-0.108015 -0.104659 1.5374 49 45 42 
-0.0526547 -0.103077 1.49704 23 19 16 
0.0176311 -0.102726 1.4517 125 121 118 
0.0554345 -0.1047 1.45287 6 3 0 
0.141069 -0.1095 1.46495 130 123 113 
-0.00837391 -0.0990441 1.45143 140 133 127 
0.218932 -0.113612 1.53422 9 1 0 
0.00167449 -0.0937576 1.45043 7 3 2 
0.255247 -0.112486 1.56173 85 77 64 
0.108722 -0.0961678 1.44928 90 81 72 
0.225286 -0.10614 1.5301 46 38 27 
-0.025491 -0.0882718 1.47355 8 4 1 
-0.0913419 -0.0817833 1.50652 9 5 2 
0.144413 -0.0906649 1.45109 29 20 11 
0.173859 -0.0932535 1.47075 90 83 73 
0.162224 -0.0864919 1.46221 107 98 89 
0.0289407 -0.0739626 1.43544 86 83 76 
-0.0145604 -0.069245 1.43826 82 77 73 
0.0433296 -0.0718789 1.43238 30 26 15 
-0.000331155 -0.0688263 1.43779 19 16 11 
0.183239 -0.079823 1.46856 32 28 17 
-0.077442 -0.0662764 1.48957 75 70 66 
0.1971 -0.0746453 1.48787 117 109 98 
0.106543 -0.0654566 1.43502 24 20 9 
0.219485 -0.0739152 1.51609 83 71 59 
-0.0139363 -0.0480979 1.42964 56 53 48 
0.241012 -0.0646792 1.52367 16 4 0 
-0.0419445 -0.0422198 1.45992 22 18 15 
0.236504 -0.0538889 1.51263 128 122 110 
0.250295 -0.0529416 1.52696 116 110 98 
0.122012 -0.0426505 1.42218 43 39 28 
0.226757 -0.0479036 1.50239 106 100 86 
0.209838 -0.0390383 1.48797 78 69 54 
0.235247 -0.0386288 1.50447 132 126 114 
0.0265053 -0.020448 1.4049 87 78 69 
-0.0741196 -0.0114562 1.46189 79 76 71 
-0.0933715 -0.00687759 1.48128 113 110 105 
-0.046297 0.00527525 1.43927 3 0 0 
-0.0314667 0.00571552 1.43031 88 84 81 
-0.0142828 0.00474923 1.40359 14 7 1 
0.1351 -0.00209276 1.39998 107 98 89 
0.120363 -0.000212348 1.40235 96 88 77 
-0.0590313 0.0111882 1.44143 71 70 68 
0.246729 -0.00328087 1.49422 142 132 123 
0.0488738 0.0109795 1.38708 30 26 17 
0.0177549 0.023873 1.38281 101 92 85 
0.135621 0.0181599 1.39373 95 85 73 
0.251198 0.0159374 1.48469 124 111 95 
-0.0516186 0.0356171 1.42568 115 110 106 
-0.0634104 0.038174 1.42782 86 81 77 
0.208648 0.0246203 1.4519 116 106 96 
0.056929 0.0354304 1.3731 90 83 73 
0.232561 0.0286 1.46534 110 100 88 
0.153775 0.033342 1.3967 14 4 0 
0.136538 0.0349995 1.38943 100 94 82 
0.216555 0.0334623 1.44845 124 114 102 
0.177315 0.0352933 1.40285 37 29 18 
0.243836 0.044353 1.46876 76 64 50 
0.12418 0.0488787 1.37768 116 107 98 
0.0136183 0.0561923 1.37197 89 82 72 
0.0398729 0.05603 1.35697 4 0 0 
-0.0724754 0.0673871 1.41899 88 84 81 
-0.0470482 0.0710132 1.40355 94 89 86 
0.120179 0.0607675 1.37088 22 14 3 
0.0580672 0.0664603 1.36149 87 78 69 
-0.0772688 0.0782395 1.41793 94 91 82 
0.154663 0.0675473 1.3791 101 93 80 
0.215988 0.0685384 1.43137 126 116 104 
0.0923073 0.0745975 1.36001 93 91 79 
0.0178763 0.0836529 1.35439 8 4 0 
-0.0104871 0.087756 1.36371 6 0 0 
0.1782 0.0798132 1.38149 107 97 87 
0.240821 0.0891415 1.44197 13 3 0 
0.211241 0.100388 1.41678 119 109 97 
0.187867 0.105079 1.37144 19 10 1 
0.042005 0.112501 1.33856 26 22 11 
-0.0956505 0.128207 1.40535 94 89 83 
0.243589 0.113154 1.42599 119 109 97 
-0.0804845 0.130132 1.3946 76 72 69 
0.0925079 0.117289 1.33455 128 121 115 
0.176658 0.115564 1.36372 21 17 5 
0.176647 0.125271 1.35878 22 14 3 
0.0882029 0.128245 1.32911 92 83 74 
0.165264 0.127752 1.35016 126 116 107 
0.225435 0.131635 1.40457 144 134 122 
0.0770998 0.137441 1.32424 4 0 0 
-0.0959848 0.155422 1.39986 98 94 83 
0.00936472 0.144836 1.32646 17 8 0 
0.172319 0.145435 1.33717 114 105 98 
0.0207315 0.152818 1.31653 102 95 89 
0.0591539 0.156094 1.31058 78 74 65 
-0.0245222 0.164439 1.34216 94 91 84 
-0.0095919 0.165372 1.32217 75 69 57 
0.166291 0.160821 1.34855 112 104 93 
0.218801 0.167641 1.38048 58 50 39 
0.180486 0.164526 1.33751 56 43 34 
0.248178 0.170269 1.39868 23 15 2 
0.163196 0.167581 1.32833 113 105 94 
0.108322 0.171497 1.31376 32 23 14 
0.190968 0.174041 1.33653 52 42 32 
0.220603 0.179172 1.37277 120 114 100 
0.178443 0.181692 1.32931 126 118 105 
0.250895 0.19662 1.38184 143 131 119 
0.16004 0.190751 1.31647 55 48 40 
-0.173376 0.235763 1.45667 112 107 101 
-0.0872804 0.216234 1.35676 82 78 69 
0.0178343 0.203113 1.29401 34 30 19 
0.111674 0.198883 1.29564 9 0 0 
-0.0249133 0.21363 1.31154 86 81 75 
-0.146074 0.238189 1.41193 9 4 0 
0.190747 0.207225 1.32031 44 35 26 
-0.0856861 0.22707 1.35455 25 22 15 
-0.136178 0.239007 1.39819 36 32 23 
0.244746 0.218032 1.37277 44 35 20 
0.0558331 0.216197 1.28582 16 4 0 
0.0268852 0.219724 1.28559 34 26 15 
0.270451 0.227651 1.38587 113 103 91 
0.215353 0.225135 1.34616 98 94 83 
0.258795 0.230046 1.37881 29 19 9 
0.0409445 0.225719 1.28034 96 91 85 
0.0107256 0.228458 1.28443 106 97 88 
0.0295256 0.236296 1.27588 37 27 17 
0.0344303 0.245091 1.2715 41 33 22 
0.244958 0.252318 1.35236 43 31 17 
0.0663072 0.243553 1.26787 156 148 127 
