ply                 
format ascii 1.0    
element vertex 1282
property float x    
property float y    
property float z    
property uchar red  
property uchar green
property uchar blue 
end_header          
-0.0173 -0.123712 1.46675 85 81 72 
0.0236754 -0.121474 1.45854 91 87 78 
0.13317 -0.128331 1.47105 98 94 85 
0.223341 -0.135852 1.54628 110 103 93 
-0.0123418 -0.115258 1.45969 19 16 11 
0.245918 -0.137876 1.56764 44 36 23 
0.0771243 -0.118613 1.45701 32 29 20 
0.161599 -0.121656 1.48033 9 2 0 
-0.0250359 -0.109134 1.47108 23 22 18 
0.0697814 -0.110591 1.45172 12 8 0 
-0.0812558 -0.106722 1.51078 78 74 71 
0.028562 -0.106754 1.45027 110 106 95 
-0.107693 -0.104268 1.53467 49 45 42 
-0.0525054 -0.102737 1.49472 23 19 16 
0.0176037 -0.102437 1.44981 125 121 118 
0.0553034 -0.104396 1.45091 6 3 0 
0.140675 -0.109147 1.46273 130 123 113 
-0.00833262 -0.0987699 1.44957 140 133 127 
0.218133 -0.113126 1.53106 9 1 0 
0.00178683 -0.0935484 1.44916 7 3 2 
0.254237 -0.111955 1.55817 85 77 64 
0.108444 -0.0958785 1.44726 90 81 72 
0.224471 -0.105684 1.52698 46 38 27 
-0.0254159 -0.0879986 1.47145 8 4 1 
-0.0910817 -0.0814987 1.50413 9 5 2 
0.144029 -0.0903798 1.449 29 20 11 
0.173349 -0.0929295 1.4684 90 83 73 
0.161764 -0.0862 1.45997 107 98 89 
0.02889 -0.0737619 1.43367 86 83 76 
-0.0145025 -0.0690605 1.43652 82 77 73 
0.0432441 -0.0716839 1.43062 30 26 15 
-0.000309332 -0.0686406 1.43604 19 16 11 
0.1827 -0.0795374 1.46621 32 28 17 
-0.0772266 -0.066053 1.48734 75 70 66 
0.196472 -0.0743489 1.48527 117 109 98 
0.106285 -0.0652622 1.43314 24 20 9 
0.218715 -0.0735839 1.51312 83 71 59 
-0.0138801 -0.047972 1.42798 56 53 48 
0.240142 -0.0643658 1.52057 16 4 0 
-0.0418287 -0.0420846 1.45795 22 18 15 
0.235676 -0.0536233 1.50966 128 122 110 
0.249378 -0.0526626 1.5238 116 110 98 
0.121726 -0.0425218 1.42039 43 39 28 
0.225986 -0.0476687 1.49956 106 100 86 
0.209158 -0.0388467 1.48532 78 69 54 
0.234439 -0.0384201 1.50159 132 126 114 
0.0264741 -0.0203992 1.40341 87 78 69 
-0.0739234 -0.0114039 1.45992 79 76 71 
-0.0931215 -0.00682798 1.4791 113 110 105 
-0.0461738 0.0052756 1.43748 3 0 0 
-0.0313783 0.0057121 1.4286 88 84 81 
-0.0142238 0.00473666 1.40214 14 7 1 
0.134806 -0.00207317 1.39837 107 98 89 
0.120102 -0.000197603 1.40073 96 88 77 
-0.0588774 0.0111735 1.43964 71 70 68 
0.245896 -0.00319016 1.49142 142 132 123 
0.0488001 0.0109532 1.38571 30 26 17 
0.0177512 0.0238146 1.38152 101 92 85 
0.135331 0.0181308 1.39217 95 85 73 
0.250369 0.0159638 1.48198 124 111 95 
-0.0514851 0.0355381 1.42402 115 110 106 
-0.0632491 0.0380882 1.42615 86 81 77 
0.208036 0.0246041 1.44961 116 106 96 
0.0568462 0.0353496 1.37184 90 83 73 
0.231839 0.0285792 1.46287 110 100 88 
0.153429 0.0332812 1.39507 14 4 0 
0.136249 0.0349314 1.38789 100 94 82 
0.215924 0.0334211 1.44619 124 114 102 
0.176897 0.0352319 1.40112 37 29 18 
0.243065 0.0442873 1.46622 76 64 50 
0.123936 0.0487768 1.37627 116 107 98 
0.0136241 0.0560654 1.37076 89 82 72 
0.0398373 0.0559046 1.35587 4 0 0 
-0.0722969 0.06723 1.4174 88 84 81 
-0.0469277 0.0708502 1.40209 94 89 86 
0.119952 0.0606395 1.36953 22 14 3 
0.0579869 0.0663161 1.36031 87 78 69 
-0.077081 0.0780564 1.41634 94 91 82 
0.154339 0.0674074 1.37762 101 93 80 
0.215389 0.068399 1.42926 126 116 104 
0.0921544 0.0744396 1.3588 93 91 79 
0.0178804 0.0834734 1.35331 8 4 0 
-0.0104335 0.0875652 1.36258 6 0 0 
0.177811 0.0796472 1.37994 107 97 87 
0.240114 0.0889456 1.4397 13 3 0 
0.210679 0.100166 1.41481 119 109 97 
0.187468 0.10486 1.36996 19 10 1 
0.0419692 0.112274 1.33758 26 22 11 
-0.0954298 0.127909 1.40387 94 89 83 
0.242908 0.112896 1.42388 119 109 97 
-0.0802993 0.129837 1.39321 76 72 69 
0.0923784 0.117056 1.33353 128 121 115 
0.176298 0.115324 1.36232 21 17 5 
0.176295 0.125013 1.35743 22 14 3 
0.0880861 0.127994 1.32815 92 83 74 
0.164954 0.127493 1.3489 126 116 107 
0.224854 0.131339 1.40269 144 134 122 
0.0770079 0.137177 1.32333 4 0 0 
-0.0957687 0.155064 1.3984 98 94 83 
0.00939129 0.144556 1.32561 17 8 0 
0.172015 0.145149 1.33601 114 105 98 
0.0207438 0.152532 1.31574 102 95 89 
0.0591054 0.155807 1.3098 78 74 65 
-0.0244474 0.164111 1.34118 94 91 84 
-0.00953444 0.16506 1.32136 75 69 57 
0.165971 0.160495 1.34728 112 104 93 
0.218285 0.167273 1.37882 58 50 39 
0.180217 0.164219 1.33651 56 43 34 
0.247537 0.169878 1.3968 23 15 2 
0.162921 0.167259 1.32724 113 105 94 
0.108177 0.171181 1.31287 32 23 14 
0.190617 0.173699 1.33533 52 42 32 
0.220098 0.178784 1.37118 120 114 100 
0.178132 0.181342 1.32819 126 118 105 
0.250285 0.196181 1.38011 143 131 119 
0.159787 0.190397 1.31548 55 48 40 
-0.172949 0.235127 1.45457 112 107 101 
-0.0870989 0.215788 1.35567 82 78 69 
0.017857 0.202767 1.29338 34 30 19 
0.112358 0.198998 1.29801 9 0 0 
-0.024836 0.213246 1.31079 86 81 75 
-0.14575 0.237615 1.4103 9 4 0 
0.190422 0.206835 1.31923 44 35 26 
-0.0855099 0.226604 1.35346 25 22 15 
-0.135885 0.238452 1.3967 36 32 23 
0.244167 0.217551 1.37112 44 35 20 
0.055802 0.215839 1.2852 16 4 0 
0.0268973 0.219363 1.285 34 26 15 
0.269767 0.227128 1.38406 113 103 91 
0.21491 0.224675 1.3448 98 94 83 
0.258159 0.229528 1.37708 29 19 9 
0.0409389 0.225355 1.27978 96 91 85 
0.0107605 0.228086 1.28387 106 97 88 
0.0295382 0.235923 1.27536 37 27 17 
0.0344377 0.244711 1.27101 41 33 22 
0.244421 0.251787 1.35088 43 31 17 
0.0662741 0.243179 1.26737 156 148 127 
0.229639 0.251774 1.34288 89 79 67 
-0.00523112 0.252932 1.28929 12 5 0 
-0.18816 0.298559 1.45103 12 8 0 
0.193885 0.250383 1.29479 22 12 3 
-0.122336 0.282463 1.36316 18 14 11 
0.287718 0.271318 1.37647 125 117 104 
-0.0600516 0.281268 1.31515 96 87 82 
0.260037 0.282161 1.3507 136 129 113 
0.22913 0.279318 1.32547 99 87 71 
-0.0652301 0.293932 1.31955 14 7 0 
-0.139421 0.308934 1.37039 23 19 8 
0.184955 0.286605 1.27186 21 10 4 
-0.00362322 0.298149 1.26454 111 107 98 
0.160862 0.294708 1.26342 69 56 47 
-0.040512 0.309615 1.28313 15 5 3 
0.0638717 0.296023 1.24208 25 20 16 
-0.0247945 0.310508 1.27201 23 18 15 
-0.100389 0.329209 1.31714 12 7 1 
0.23653 0.310591 1.30439 138 131 121 
-0.147907 0.353675 1.36579 21 14 6 
0.207732 0.31552 1.27458 115 106 97 
0.261237 0.325186 1.313 22 12 2 
0.135061 0.320616 1.24407 33 26 20 
0.230238 0.326855 1.28008 99 89 79 
0.202744 0.324648 1.25679 40 31 22 
0.123508 0.326497 1.24001 124 114 102 
0.247533 0.342792 1.28258 47 37 27 
0.261665 0.346221 1.28821 36 30 18 
0.198733 0.343653 1.25318 60 53 43 
0.105667 0.341203 1.22848 108 101 91 
0.262373 0.35683 1.28781 33 25 14 
0.181848 0.350996 1.24562 60 48 34 
0.0441521 0.35083 1.21569 11 7 0 
0.279458 0.368349 1.29463 37 27 15 
0.196632 0.361254 1.24492 44 38 26 
0.11747 0.36116 1.21885 102 93 84 
0.262876 0.374454 1.27977 22 16 4 
0.168552 0.371951 1.23025 120 112 101 
0.100119 0.371964 1.21097 43 39 27 
0.00906159 0.378947 1.21953 20 15 12 
0.295829 0.402495 1.29398 72 62 50 
0.227274 0.395155 1.24632 63 53 43 
0.175502 0.404048 1.21429 67 59 48 
0.0504284 0.406455 1.19891 101 97 88 
-0.0670586 0.446661 1.2231 23 18 14 
0.0224375 0.437455 1.19015 5 0 0 
-0.0663624 0.461651 1.20624 86 81 77 
-0.159941 0.500206 1.28198 52 41 37 
0.154532 0.448171 1.16767 132 124 113 
-0.0401369 0.466846 1.18334 90 83 77 
0.00472116 0.462915 1.16368 26 22 13 
-0.15797 0.512874 1.26346 98 96 84 
0.102474 0.464354 1.15411 32 27 23 
-0.117257 0.502411 1.214 101 96 90 
-0.218613 0.570597 1.35787 29 25 16 
-0.116108 0.527908 1.20491 110 101 94 
-0.112283 0.534589 1.19811 102 93 84 
-0.10134 0.534777 1.19168 34 24 14 
0.0187579 0.506229 1.14001 9 0 0 
-0.0959083 0.533613 1.1823 27 16 10 
-0.0544895 0.531063 1.15558 93 90 75 
-0.0135508 0.5215 1.13567 152 143 128 
-0.0451217 0.518982 1.10857 127 125 113 
-0.0320353 0.516498 1.10311 137 131 119 
-0.0898577 0.532208 1.12806 165 159 145 
-0.0216171 0.517644 1.10146 7 5 0 
-0.0800467 0.532199 1.12592 41 35 23 
-0.0392247 0.529731 1.11183 107 100 90 
-0.1288 0.553309 1.14965 10 2 0 
-0.155455 0.565415 1.16781 86 79 73 
-0.13946 0.559416 1.15657 70 63 55 
-0.0970048 0.544939 1.12833 99 90 81 
-0.236214 0.629041 1.26803 74 70 61 
-0.16718 0.579841 1.1742 112 103 94 
-0.0301035 0.539998 1.0928 82 80 68 
-0.100744 0.557368 1.1213 94 85 76 
-0.104514 0.564777 1.13041 19 10 1 
-0.150501 0.586026 1.15213 76 71 65 
-0.0173129 0.548567 1.0859 23 16 8 
-0.00556044 0.548436 1.08219 98 94 83 
0.00815469 0.546338 1.07953 106 101 95 
-0.0876698 0.567568 1.10672 36 28 15 
-0.210852 0.630539 1.21068 89 80 65 
-0.0337454 0.55903 1.08792 36 33 26 
-0.1572 0.598178 1.15272 13 9 0 
-0.144671 0.594469 1.14653 120 114 100 
-0.116921 0.583569 1.12497 115 105 93 
-0.128105 0.591341 1.12609 28 19 4 
-0.0794466 0.575263 1.09724 1 1 0 
-0.0890281 0.578724 1.10282 8 0 0 
-0.0952952 0.586925 1.11568 15 5 0 
-0.00359502 0.558635 1.05945 150 145 126 
-0.0417813 0.565524 1.06592 143 138 119 
-0.0716414 0.573051 1.07157 86 77 60 
-0.0559375 0.567515 1.054 82 75 57 
-0.0442908 0.566152 1.04248 33 31 10 
0.0055399 0.559376 1.03334 172 170 147 
0.0385483 0.559889 1.03643 132 123 106 
-0.059955 0.571947 1.01752 53 41 15 
-0.0156464 -1.75708 2.85927 113 117 120 
0.00173757 -1.59808 2.67398 129 120 113 
0.0200996 -1.49777 2.61887 33 33 33 
0.0165157 -1.41783 2.56227 34 24 22 
0.0916484 -1.45488 2.64366 231 232 234 
-0.0230298 -0.979608 2.14887 63 55 52 
-0.0386394 -0.943243 2.12188 133 126 110 
-0.0573601 -0.865934 2.05439 139 136 121 
-0.146097 -0.943067 2.2673 91 82 73 
-0.0479711 -0.809576 1.99048 109 100 85 
-0.0159543 -0.788294 1.93458 25 19 19 
0.016312 -0.768688 1.92982 113 101 89 
-0.0837322 -0.796989 2.02126 129 125 113 
-0.147055 -0.691009 1.99634 88 86 73 
-0.208075 -0.718757 2.10641 9 7 12 
0.0270672 -0.633624 1.82823 106 102 91 
0.00515446 -0.572278 1.75893 113 109 97 
-0.164085 -0.594714 1.91864 93 90 85 
0.0314269 -0.486467 1.65732 59 58 54 
-0.148867 -0.447684 1.71673 45 41 32 
-0.249712 -0.494211 1.92456 218 220 219 
-0.205216 -0.408328 1.73317 113 110 103 
0.0655954 -0.352212 1.58102 83 80 75 
0.332062 -0.412834 1.7815 102 101 99 
0.112572 -0.352696 1.59039 104 100 97 
-0.20774 -0.347792 1.72949 84 83 78 
-0.176042 -0.338688 1.69199 3 2 0 
-0.0598995 -0.280912 1.59151 67 63 60 
-0.168518 -0.291526 1.69507 80 76 73 
-0.0311788 -0.272609 1.56068 108 105 96 
0.234217 -0.302568 1.64804 25 21 20 
0.122587 -0.269839 1.5439 96 93 86 
0.0324111 -0.23522 1.52016 86 85 80 
0.354464 -0.288029 1.76589 85 80 74 
0.168497 -0.238118 1.54467 104 100 89 
-0.0997148 -0.227644 1.58696 79 78 76 
0.337963 -0.27103 1.75155 111 108 101 
-0.0900572 -0.218265 1.5709 80 76 73 
0.0477425 -0.186907 1.47682 121 119 107 
-0.116755 -0.186784 1.57818 66 62 59 
-0.183475 -0.180495 1.65148 10 6 3 
0.0361356 -0.1595 1.47733 91 89 77 
0.0823655 -0.150786 1.47345 86 77 68 
0.140891 -0.151969 1.48783 93 85 72 
0.0660045 -0.124762 1.45666 69 65 54 
-0.0346413 -0.109669 1.48721 71 66 63 
0.00558219 -0.102505 1.45403 98 91 83 
0.30964 -0.117914 1.62742 13 8 2 
0.115058 -0.0857203 1.44012 85 78 68 
0.124316 -0.0867038 1.44936 86 84 72 
-0.0842814 -0.0770835 1.49434 95 94 90 
-0.0457656 -0.0737601 1.4751 71 68 63 
-0.0225315 -0.064164 1.44225 55 50 46 
-0.0769173 -0.0575094 1.46896 73 68 65 
-0.0399788 -0.0593557 1.48065 5 1 0 
0.208528 -0.0646348 1.49435 132 128 116 
-0.100503 -0.0443715 1.49579 8 3 0 
0.107755 -0.0346581 1.41695 27 20 10 
-0.0523015 -0.00206092 1.44171 67 63 60 
0.224164 -0.00527674 1.47463 73 61 47 
0.0721282 0.0247926 1.37425 18 11 5 
0.113307 0.027033 1.38526 94 88 76 
0.165028 0.0249711 1.40312 59 49 40 
0.0817358 0.0365562 1.37327 94 87 77 
0.206633 0.0421684 1.4385 94 84 72 
-0.198101 0.0727392 1.56856 90 87 82 
-0.0907266 0.0813535 1.40883 96 92 83 
-0.0555148 0.0832779 1.3996 88 84 75 
-0.083171 0.0998039 1.41438 76 66 56 
-0.015489 0.0976656 1.36883 75 68 60 
-0.00734949 0.0958507 1.35194 107 99 86 
0.101619 0.125774 1.32797 107 99 88 
0.150957 0.143609 1.3369 87 79 68 
-0.0740051 0.170868 1.36935 16 5 0 
0.122813 0.180759 1.31179 42 32 20 
0.0478403 0.206473 1.28853 99 95 86 
0.295147 0.240715 1.4067 57 50 34 
0.284609 0.262371 1.3815 66 53 37 
0.17715 0.302667 1.2633 72 61 55 
0.0976976 0.304454 1.24129 119 114 108 
0.246436 0.32364 1.29336 121 113 102 
0.0273785 0.324339 1.23498 80 76 67 
-0.15509 0.37455 1.34521 97 93 84 
0.0284541 0.333669 1.22849 93 89 78 
0.160945 0.382538 1.22428 124 112 96 
-0.050801 0.443741 1.21268 90 85 79 
0.14775 0.437661 1.17466 63 57 45 
0.0276607 0.478135 1.15097 15 6 0 
0.0427335 0.508165 1.09427 142 132 120 
-0.0496773 0.547072 1.0958 66 61 58 
-0.144468 0.591791 1.1014 53 47 35 
-0.158461 0.594292 1.10247 74 68 52 
0.00628546 0.56428 1.01712 68 63 44 
0.045568 -1.62992 2.69151 51 51 49 
0.0420557 -1.57816 2.67696 131 126 107 
0.0253164 -1.51315 2.63983 34 32 35 
0.0938339 -1.35422 2.54208 68 67 65 
-0.018022 -0.81415 1.96901 108 107 89 
0.0928826 -0.758438 1.92307 20 12 10 
0.0672983 -0.478318 1.65886 146 141 122 
-0.128735 -0.103577 1.57534 18 14 11 
0.212573 0.26144 1.31656 116 106 96 
0.0808937 0.30655 1.24095 96 96 84 
-0.148827 0.565135 1.15012 83 75 62 
-0.137812 0.591365 1.13749 21 14 0 
-0.00395657 -1.557 2.61736 133 127 113 
-0.0156893 -1.56846 2.67555 28 32 31 
0.0450978 -1.49882 2.62658 126 117 102 
0.191693 -0.349745 1.61932 3 5 4 
-0.11671 -0.322211 1.61941 2 2 0 
-0.0967345 -0.29216 1.6193 2 0 1 
-0.196884 -0.298127 1.70727 2 2 2 
-0.282656 -0.182278 1.96594 27 23 24 
0.112919 -1.35356 2.58174 71 70 66 
-0.222272 -0.857187 2.33095 96 92 80 
0.322314 -0.768025 2.19924 75 76 62 
-0.148032 -0.360964 1.65432 4 1 0 
-0.161887 -0.254595 1.64093 5 2 0 
-0.11248 -0.221003 1.5852 98 94 93 
-0.176524 -0.203449 1.63073 123 120 115 
-0.18009 -0.129567 1.60336 5 1 0 
-0.176158 -0.0272688 1.55074 110 107 100 
-0.179106 0.0110237 1.53802 6 1 0 
-0.0930635 0.0985288 1.41505 6 0 0 
-0.0794927 0.10652 1.40231 101 90 84 
-0.00600859 0.12749 1.34226 87 85 73 
-0.0468024 0.180477 1.34849 14 5 0 
-0.110717 0.22518 1.36311 113 109 100 
-0.114495 0.235031 1.36056 6 2 0 
-0.104641 0.249936 1.34703 148 140 137 
-0.112172 0.282906 1.3371 105 100 94 
-0.148328 0.310749 1.36027 17 7 5 
-0.103035 0.301124 1.32123 10 1 0 
-0.0889336 0.310357 1.30864 12 8 0 
-0.105617 0.316598 1.31641 148 137 131 
-0.0756013 0.321991 1.283 25 20 14 
-0.0654707 0.330697 1.26428 99 94 90 
-0.124242 0.425027 1.25213 19 10 3 
-0.149612 0.516727 1.20427 121 111 110 
-0.136834 -0.399976 1.66343 91 87 78 
-0.165919 -0.241375 1.63951 11 8 3 
-0.118366 -0.199259 1.58104 14 10 7 
-0.114222 -0.178286 1.56743 89 86 81 
-0.110016 -0.143959 1.5474 12 9 4 
-0.0562975 0.0974121 1.39603 7 2 0 
-0.114962 0.142736 1.40839 32 28 19 
-0.106107 0.167726 1.38957 29 26 19 
-0.0985484 0.170101 1.38224 127 123 114 
-0.154196 0.211406 1.40848 110 107 100 
-0.122737 0.248007 1.36159 5 1 0 
0.0161276 0.306348 1.24558 14 10 0 
-0.122568 0.35506 1.28903 16 13 6 
0.0215849 0.332716 1.23244 140 131 124 
-0.108685 0.369679 1.26504 116 113 106 
-0.186552 0.435631 1.31789 90 86 77 
-0.154533 0.434618 1.27791 9 6 1 
-0.103331 0.419022 1.23883 8 0 0 
-0.0628413 0.444306 1.19269 21 17 8 
-0.120227 0.505826 1.18262 104 100 91 
-0.178835 0.543284 1.22543 123 114 107 
-0.0961257 0.52213 1.15801 106 98 87 
-0.210332 -0.372219 1.71311 84 80 71 
-0.0665514 0.0475865 1.42633 81 77 68 
-0.147353 0.235687 1.39407 8 4 0 
0.0727177 0.303736 1.24531 53 42 36 
0.155399 0.354461 1.23997 41 37 28 
-0.114123 0.388138 1.26063 123 119 110 
0.142238 -0.790934 1.94287 27 24 17 
0.144978 -0.780298 1.93743 139 138 133 
0.143592 -0.755806 1.9138 93 88 84 
0.146385 -0.74679 1.90718 152 150 137 
0.135952 -0.71147 1.87414 125 117 106 
0.0503864 -0.651455 1.82322 93 88 84 
0.0346619 -0.645991 1.81846 121 114 106 
0.106607 -0.638038 1.81055 132 129 120 
0.00101636 -0.59774 1.77415 120 115 109 
0.135016 -0.594804 1.77735 92 87 83 
0.0838874 -0.566349 1.75408 20 16 7 
0.166377 -0.543592 1.72982 51 45 31 
-0.0382794 -0.539638 1.72117 41 37 28 
0.157461 -0.531098 1.71337 146 144 131 
0.0188732 -0.531812 1.71159 141 139 127 
0.0275782 -0.523136 1.70003 139 137 125 
0.112492 -0.521529 1.70029 39 37 25 
0.00362795 -0.521674 1.69622 134 131 126 
0.147684 -0.507741 1.6838 143 136 126 
0.0611433 -0.469904 1.63237 86 78 65 
0.105679 -0.427797 1.619 7 3 0 
0.108257 -0.418122 1.6161 99 95 92 
-0.0462829 -0.419157 1.63489 8 4 1 
0.0312013 -0.412454 1.60988 5 1 0 
-0.00219713 -0.407568 1.61134 98 95 88 
0.0805215 -0.398617 1.60303 7 2 0 
0.217392 -0.406076 1.65458 19 16 7 
0.227172 -0.396022 1.65302 44 43 38 
0.176415 -0.381498 1.62085 105 102 93 
-0.0681231 -0.385226 1.63005 110 103 97 
0.163827 -0.378571 1.6142 4 0 0 
0.0350289 -0.367958 1.58838 70 66 63 
0.197827 -0.373851 1.62674 10 3 0 
0.210222 -0.37416 1.63523 10 8 0 
0.12086 -0.366043 1.59288 18 8 6 
0.143231 -0.362644 1.59777 85 76 69 
0.164082 -0.356114 1.60211 21 18 9 
0.27053 -0.366509 1.67284 35 32 23 
0.250926 -0.350313 1.65007 4 1 0 
0.143913 -0.337353 1.58396 17 14 7 
0.0953743 -0.334601 1.57587 10 7 2 
0.273405 -0.346687 1.66572 4 0 0 
0.118238 -0.323093 1.572 90 85 81 
-0.196513 -0.341751 1.72636 40 36 33 
0.0809613 -0.301644 1.5566 112 109 100 
0.125971 -0.299549 1.55899 104 99 93 
0.0305658 -0.300252 1.55717 117 114 107 
0.164679 -0.300585 1.57333 100 95 89 
0.108365 -0.285091 1.55206 7 6 1 
0.266457 -0.297713 1.66075 127 123 114 
0.0330158 -0.275983 1.54506 19 11 9 
0.239073 -0.284316 1.63053 12 3 0 
0.158933 -0.2717 1.5568 23 20 15 
0.255755 -0.282876 1.64353 26 22 10 
0.226412 -0.267934 1.6129 121 111 99 
0.246387 -0.265479 1.62523 104 100 91 
0.216082 -0.25824 1.60065 23 10 1 
0.109936 -0.244072 1.52905 33 27 15 
0.194964 -0.250329 1.58612 63 55 44 
0.0414177 -0.241821 1.52721 36 33 28 
0.218646 -0.246386 1.59441 15 5 0 
0.198899 -0.241075 1.58111 140 131 122 
0.150043 -0.232076 1.53517 108 105 100 
0.200471 -0.219926 1.57243 50 40 31 
0.207741 -0.208998 1.57092 112 102 90 
0.126985 -0.202126 1.51099 16 5 0 
0.232113 -0.192024 1.57655 29 19 7 
0.25516 -0.191042 1.59281 19 9 0 
0.317591 -0.17414 1.65633 38 26 14 
0.261041 -0.163827 1.58268 109 103 89 
0.239914 -0.143317 1.55646 44 32 16 
-0.0427072 -0.115953 1.50851 96 91 88 
0.200668 -0.0968999 1.50676 18 8 0 
-0.0496917 -0.0881837 1.49498 92 91 89 
0.210468 -0.0141371 1.46861 32 20 8 
0.317752 -0.00404853 1.58001 149 136 119 
0.275052 0.00605549 1.50241 129 117 101 
0.270161 0.0214693 1.49096 134 118 105 
0.319007 0.0270451 1.56218 23 6 0 
0.256322 0.0243825 1.47583 30 20 8 
0.22681 0.0513101 1.44011 29 20 11 
0.219387 0.0611779 1.4327 53 41 27 
0.329892 0.139527 1.49556 60 57 40 
0.233745 0.135751 1.39866 35 22 6 
0.304805 0.143979 1.45781 17 7 0 
0.302717 0.152943 1.44866 152 139 123 
0.263906 0.152084 1.41204 29 15 2 
0.315064 0.159773 1.4606 151 143 124 
0.34532 0.169196 1.50449 20 8 0 
0.250183 0.156571 1.39713 64 54 44 
0.304244 0.165172 1.44473 34 24 12 
0.316371 0.170686 1.45796 32 19 3 
0.302502 0.171911 1.437 17 7 0 
0.288184 0.17361 1.42183 29 19 9 
0.280879 0.175455 1.41177 34 24 14 
0.270197 0.177319 1.40199 22 13 0 
0.264202 0.184317 1.3913 30 21 6 
0.302759 0.193466 1.42472 27 17 5 
0.286824 0.196855 1.40467 24 11 2 
0.311638 0.205673 1.42777 12 2 0 
0.299502 0.206855 1.41107 14 1 0 
0.25905 0.202793 1.37684 143 135 124 
0.215143 0.199777 1.34916 34 20 7 
0.289075 0.20988 1.39884 41 31 22 
0.149737 0.196679 1.30766 21 11 2 
0.28802 0.227474 1.38945 32 20 8 
0.339401 0.24963 1.44352 40 28 12 
0.270698 0.238218 1.36548 35 29 15 
0.288286 0.244539 1.37855 24 21 6 
0.2228 0.237387 1.33036 66 56 44 
0.286185 0.251846 1.37202 24 12 0 
0.310024 0.261771 1.39221 9 0 0 
0.276251 0.270961 1.35028 145 137 126 
0.165792 0.268882 1.26728 159 149 137 
0.279063 0.289276 1.34078 134 125 110 
0.238116 0.295144 1.30932 24 18 4 
0.295209 0.31841 1.33671 146 137 122 
0.279077 0.324432 1.3092 142 135 125 
0.296186 0.332077 1.3209 61 53 42 
0.311796 0.337715 1.33315 38 32 18 
0.295819 0.338561 1.31229 159 151 138 
0.20473 0.323203 1.24997 22 14 3 
0.267123 0.336458 1.28375 25 15 3 
0.179086 0.330412 1.23612 138 134 122 
0.337548 0.364757 1.34268 141 129 115 
0.136179 0.340341 1.22162 128 123 117 
0.162878 0.356928 1.21832 169 161 148 
0.301413 0.37939 1.28891 46 39 23 
0.344742 0.39305 1.33132 42 30 14 
0.176075 0.365897 1.21997 52 44 31 
0.246804 0.37812 1.24676 110 104 92 
0.0786326 0.368133 1.20156 112 108 99 
0.209347 0.377787 1.22634 32 23 14 
0.298825 0.398491 1.27991 24 12 0 
0.192638 0.38234 1.21576 118 111 101 
0.278135 0.404312 1.25551 39 30 21 
0.19986 0.396436 1.21154 19 15 4 
0.212509 0.408078 1.21198 139 129 119 
0.30531 0.431218 1.26729 45 36 21 
0.240023 0.418537 1.22137 27 17 5 
0.216225 0.417627 1.20873 38 29 14 
0.267033 0.427709 1.23461 129 119 107 
0.172289 0.423205 1.1784 121 115 103 
0.223052 0.430806 1.1965 21 13 2 
0.169913 0.430039 1.16917 188 184 172 
0.122905 -0.756848 1.90265 24 24 16 
0.0881787 -0.75041 1.89506 25 13 15 
0.133591 -0.743968 1.90391 127 125 112 
0.122885 -0.729019 1.88403 37 30 22 
0.0363287 -0.721053 1.87899 97 90 80 
0.0656874 -0.719193 1.87794 37 24 16 
0.0992248 -0.676196 1.84403 92 87 83 
0.0809582 -0.662348 1.83212 107 102 96 
0.127115 -0.647842 1.82015 97 94 85 
0.167856 -0.637865 1.81316 46 42 30 
0.118021 -0.635679 1.80913 35 30 26 
0.0563976 -0.626883 1.80293 119 116 111 
-0.0258571 -0.615398 1.79036 24 21 14 
0.161401 -0.610281 1.78633 125 121 110 
0.15183 -0.57743 1.76126 33 29 20 
0.0346557 -0.571432 1.75441 97 93 84 
0.0448815 -0.561819 1.7495 108 105 98 
0.00948361 -0.555514 1.74148 22 19 12 
0.102397 -0.54584 1.72991 38 33 29 
0.0761754 -0.530793 1.71168 86 82 79 
-0.0281874 -0.530049 1.70645 150 147 138 
-0.00750023 -0.497784 1.66688 143 137 125 
0.122862 -0.480094 1.64764 125 120 101 
0.203511 -0.425697 1.65419 81 77 74 
0.175553 -0.418907 1.6373 98 93 89 
0.0417067 -0.410482 1.60069 1 0 0 
0.232769 -0.417691 1.66385 4 1 0 
0.265726 -0.412053 1.68759 23 18 12 
0.30685 -0.411384 1.73726 99 96 87 
0.0372266 -0.380126 1.59262 9 4 0 
0.241838 -0.385853 1.65755 5 0 0 
0.218544 -0.377735 1.64079 95 90 87 
0.304771 -0.391537 1.72065 27 24 15 
0.282823 -0.381279 1.69087 59 54 48 
0.00799923 -0.363034 1.59103 17 16 11 
0.129951 -0.361567 1.59197 96 92 83 
0.24986 -0.370372 1.65707 15 8 2 
0.0516688 -0.348684 1.57757 81 76 72 
0.0863289 -0.349255 1.58117 88 83 79 
0.156145 -0.342212 1.59353 6 0 0 
0.108876 -0.331173 1.57504 104 100 91 
0.0434065 -0.320996 1.56853 33 28 22 
0.237736 -0.319331 1.6303 15 11 8 
-0.206046 -0.33398 1.73883 87 84 79 
-0.0186585 -0.301189 1.56745 22 18 9 
0.0697427 -0.289143 1.55034 39 35 32 
0.0585096 -0.270594 1.54246 87 84 75 
0.277401 -0.279579 1.66093 40 38 26 
0.194783 -0.270895 1.59921 120 113 105 
0.10832 -0.253171 1.53477 95 91 82 
-0.157537 -0.261341 1.67123 32 28 25 
0.157818 -0.238608 1.53854 97 93 84 
0.250346 -0.238725 1.61588 54 44 32 
0.263646 -0.238778 1.6267 14 7 0 
0.264574 -0.207598 1.60871 102 93 84 
0.20075 -0.167512 1.5442 110 100 88 
0.209082 -0.15879 1.54478 35 25 13 
0.198304 -0.147247 1.53124 116 108 97 
0.236836 -0.114716 1.53901 24 14 4 
0.228492 -0.0955128 1.52151 18 8 0 
0.245951 -0.0436445 1.50675 119 110 101 
0.248916 -0.0399401 1.51763 52 48 37 
-0.0633973 -0.0140271 1.46704 85 81 78 
0.198144 -0.0113273 1.455 105 94 88 
0.236908 0.00304523 1.47515 141 131 121 
0.261401 0.0390391 1.4727 35 20 0 
0.106733 0.0646839 1.36774 95 89 77 
0.32884 0.0951096 1.52048 52 40 18 
0.217367 0.0876315 1.41373 131 119 107 
0.268009 0.0924413 1.44842 120 106 93 
0.211702 0.144546 1.37903 142 132 122 
0.29281 0.156644 1.43328 135 123 109 
0.224511 0.151648 1.38243 70 61 46 
0.286294 0.162091 1.4243 138 128 119 
0.202818 0.161707 1.35801 13 4 0 
0.228138 0.167982 1.3795 8 0 0 
0.206408 0.18714 1.35184 95 91 79 
0.239292 0.20012 1.36641 147 134 125 
0.206037 0.200147 1.34213 101 93 82 
0.329578 0.234089 1.44107 58 48 36 
0.306231 0.231762 1.40503 52 38 25 
0.274663 0.227584 1.37939 156 148 135 
0.235787 0.229972 1.34327 43 31 19 
0.311839 0.244468 1.40476 42 32 20 
0.203624 0.23501 1.32314 15 10 4 
0.260998 0.245602 1.35293 20 14 0 
0.263034 0.258029 1.34838 148 138 128 
0.331301 0.293573 1.40722 131 122 107 
0.313876 0.290525 1.37723 59 50 35 
0.152192 0.273842 1.26091 23 15 2 
0.289128 0.296535 1.35007 49 37 25 
0.310199 0.303752 1.37148 27 15 0 
0.268541 0.297943 1.32968 140 131 116 
0.0703165 0.289518 1.2476 113 108 102 
0.270555 0.310989 1.32032 132 124 113 
0.208572 0.303008 1.27532 30 22 11 
0.286255 0.32218 1.3225 36 27 12 
0.281535 0.340062 1.29293 38 28 18 
0.300192 0.347039 1.30678 36 26 16 
0.328189 0.357661 1.33219 39 32 16 
0.235128 0.350376 1.25372 121 113 100 
0.116744 0.34281 1.22443 59 55 44 
0.298124 0.368498 1.28955 60 47 38 
0.284618 0.369179 1.27985 113 109 97 
0.253106 0.363817 1.25741 152 145 129 
0.268434 0.371483 1.2641 51 43 32 
0.312883 0.383703 1.29724 43 31 19 
0.14925 0.35982 1.21582 111 104 96 
0.218475 0.381551 1.22895 92 88 76 
0.268831 0.392531 1.25486 54 42 28 
0.24452 0.392828 1.23797 48 38 29 
0.134992 0.381422 1.19943 93 89 80 
0.262984 0.406277 1.24357 51 47 35 
0.144398 0.391108 1.19509 43 39 28 
0.24674 0.406609 1.23346 112 102 90 
0.272783 0.420645 1.24372 26 14 0 
0.141919 0.402772 1.19042 35 31 22 
0.321901 0.439132 1.2836 35 23 7 
0.225939 0.414837 1.21172 43 35 22 
0.247563 0.422255 1.22601 133 123 111 
0.155656 0.411101 1.1879 47 39 28 
0.196654 0.417143 1.1951 100 96 87 
0.133794 0.412869 1.17944 135 131 119 
0.164525 0.415355 1.18694 135 132 117 
0.311631 0.448051 1.26661 147 138 121 
0.177231 0.41933 1.18604 167 163 152 
0.187907 0.426243 1.1812 21 14 6 
0.14739 0.424965 1.16909 129 127 114 
0.124997 0.423955 1.16393 132 126 112 
0.15827 0.429217 1.16463 131 124 116 
0.135279 0.438963 1.14915 49 50 36 
-0.0600407 0.463805 1.17787 18 14 11 
0.315238 -0.790901 2.18817 72 72 62 
0.099536 -0.62356 1.79563 107 106 102 
-0.0857253 -0.608105 1.82466 32 25 17 
0.0978313 -0.383904 1.59718 4 2 3 
-0.000311236 -0.374519 1.601 91 88 83 
-0.230788 -0.374692 1.78834 82 77 74 
0.247818 -0.327882 1.63792 93 86 78 
0.298492 -0.328396 1.6825 110 103 97 
0.0185806 -0.309686 1.56338 92 90 78 
0.250248 -0.290085 1.63942 103 96 86 
-0.153628 -0.290378 1.66678 62 61 57 
0.299409 -0.278897 1.6845 91 87 78 
0.234164 -0.249708 1.61017 115 105 93 
-0.00529202 -0.223468 1.5279 15 12 5 
0.116823 -0.198177 1.50608 75 71 62 
0.179125 -0.199639 1.53157 11 8 0 
0.191459 -0.134148 1.51057 31 28 19 
0.201923 -0.11777 1.52147 109 105 94 
-0.0630217 -0.0705992 1.49868 57 53 54 
0.256196 -0.00658905 1.49513 48 40 27 
0.327453 0.048236 1.54684 65 50 29 
0.255745 0.0504077 1.45925 149 140 125 
0.311323 0.22191 1.42675 110 101 86 
0.231475 0.267316 1.32044 104 92 80 
0.293502 0.310593 1.34878 66 53 37 
-0.00594478 0.326404 1.23661 76 75 71 
0.306194 0.410879 1.27877 71 61 49 
0.231759 0.400888 1.22551 71 58 49 
0.121106 0.437474 1.14782 42 37 34 
-0.0484795 -1.51691 2.73533 74 70 67 
0.309431 -0.811598 2.19475 63 61 49 
-0.235639 -0.597413 2.01763 207 211 210 
0.0627312 -0.475854 1.64356 141 132 115 
0.256291 -0.334676 1.64201 5 3 4 
0.290161 -0.331857 1.67479 9 5 6 
0.238256 -0.302817 1.63454 8 6 7 
0.276282 0.302598 1.33486 78 68 58 
0.105082 0.394518 1.18807 107 98 89 
0.188794 -0.346274 1.60593 3 1 2 
0.105374 -0.76583 1.90433 113 105 92 
0.425816 0.530161 1.45519 181 185 184 
-0.197536 -0.836979 2.18436 211 215 216 
-0.0590106 -1.49758 2.66749 217 221 224 
0.0235735 -0.683766 1.84711 140 136 125 
-0.0175135 -0.663609 1.82831 31 28 19 
0.0326455 -0.58858 1.76534 108 103 99 
0.0612313 -0.580983 1.76011 115 113 101 
0.0485019 -0.57839 1.75818 54 50 39 
0.0859756 -0.559089 1.73972 119 114 110 
0.0289405 -0.443457 1.61074 86 85 81 
0.23389 -0.369828 1.64224 18 14 5 
0.117919 -0.342862 1.57753 5 0 0 
0.0751389 -0.340837 1.57123 106 103 98 
0.043041 -0.263042 1.53453 24 19 13 
0.153573 -0.262916 1.54738 30 25 21 
-0.0528664 -0.260345 1.58198 14 8 8 
0.0690599 -0.228324 1.51556 115 111 102 
0.220016 -0.225297 1.58329 8 0 0 
0.220149 -0.172282 1.55624 137 129 118 
0.229397 -0.14283 1.54806 143 131 115 
0.222247 -0.0347098 1.48716 143 131 117 
0.265417 0.0119441 1.48945 10 0 0 
0.0799304 0.0103388 1.39456 11 2 0 
0.258335 0.0864964 1.44362 51 39 23 
0.251167 0.18972 1.37936 137 124 115 
0.173965 0.245859 1.28242 106 93 84 
0.17 0.289543 1.25769 135 131 119 
0.186152 0.31373 1.24868 54 44 34 
0.235621 0.323096 1.27286 27 20 10 
0.30409 0.356485 1.30228 15 1 0 
0.215389 0.387962 1.22425 27 19 8 
0.234884 0.422091 1.21709 43 40 21 
0.248958 0.435378 1.20909 29 23 11 
0.246774 0.441255 1.20024 21 11 2 
0.162079 0.434748 1.15879 169 166 161 
0.1898 0.439133 1.16299 115 111 100 
0.249427 0.451149 1.18536 22 18 7 
0.179589 0.441825 1.15778 16 12 1 
0.170558 0.442922 1.15381 119 115 106 
0.114281 0.44706 1.14124 33 26 18 
0.163503 0.44903 1.14642 138 134 123 
0.0930211 0.485763 1.1154 127 124 119 
0.130432 0.493776 1.11643 91 87 76 
0.0441946 0.49983 1.07375 33 21 9 
0.0665827 0.541712 1.04615 112 104 91 
0.104277 -0.608817 1.78366 80 76 67 
0.0880501 -0.587195 1.76596 118 115 106 
0.0934632 -0.57402 1.75308 54 49 45 
-0.0354505 -0.564996 1.73855 106 101 95 
0.103469 -0.476996 1.63795 19 14 10 
0.00352351 -0.454024 1.61395 120 117 108 
0.086498 -0.339164 1.57204 86 82 79 
0.165613 -0.339685 1.59013 6 1 0 
0.165699 -0.326145 1.58144 138 135 130 
0.0889025 -0.291298 1.54978 26 23 14 
0.0992424 -0.268938 1.53877 100 97 92 
0.148635 -0.247247 1.53836 94 91 82 
0.211293 -0.23571 1.58277 40 28 16 
0.236774 -0.173053 1.56887 54 46 35 
0.156939 -0.0968415 1.46418 11 2 0 
0.253115 -0.0172421 1.49644 62 53 38 
0.270007 0.0735149 1.45803 136 123 107 
-0.0797841 0.130967 1.40866 65 61 58 
0.172922 0.178357 1.30654 106 98 85 
0.251653 0.220272 1.35995 135 126 111 
0.273939 0.261831 1.35634 126 118 105 
0.138307 0.264349 1.26468 91 82 67 
0.187763 0.302545 1.2555 61 51 39 
-0.0183488 0.322451 1.25555 87 84 79 
0.225443 0.329824 1.25777 144 134 124 
0.2491 0.426985 1.22016 120 116 104 
0.307036 0.450915 1.2518 132 124 111 
0.216118 0.436927 1.18444 139 129 117 
0.236524 0.442514 1.18851 46 38 27 
0.235401 0.450212 1.17285 124 120 109 
0.218227 0.454997 1.16356 107 98 89 
0.133962 0.449385 1.13914 105 101 89 
0.112642 0.458008 1.13294 102 97 93 
0.142556 0.461917 1.13416 22 17 11 
0.101262 0.480901 1.11927 170 165 161 
0.0585628 0.503056 1.10997 125 117 104 
0.0847444 0.494641 1.07116 144 133 113 
0.0715096 0.514074 1.06279 133 129 117 
0.0508259 0.535271 1.05368 27 25 10 
0.0876158 0.534786 1.05045 99 92 74 
0.0221206 -0.575883 1.75433 117 110 102 
0.00365569 -0.565784 1.73981 114 108 96 
0.218154 -0.293 1.61799 117 110 100 
-0.107659 -0.27284 1.63056 84 80 77 
0.27549 -0.214887 1.61911 125 117 104 
0.051971 -0.191671 1.51114 94 87 79 
0.116296 -0.0548105 1.43232 101 91 81 
-0.0897441 0.083265 1.44404 96 92 83 
0.280469 0.316975 1.32049 137 129 116 
0.126671 0.458093 1.1336 80 79 74 
0.0381048 -1.56849 2.62465 122 112 102 
0.117021 -0.127026 1.47042 92 89 82 
0.0650772 0.506054 1.09776 127 121 107 
0.0276336 -0.737084 1.89317 126 103 95 
0.0173713 -0.341062 1.57458 2 1 0 
0.0872983 -0.236516 1.52101 123 114 107 
0.149206 -0.0131505 1.41658 103 93 84 
0.154015 0.375375 1.21284 127 118 109 
0.186618 0.404078 1.20872 41 37 26 
0.178586 0.460486 1.15024 111 109 97 
0.163681 0.459876 1.14634 139 135 124 
0.230475 0.469008 1.16895 126 117 108 
0.190706 0.468911 1.14988 27 23 12 
0.114799 0.487487 1.12308 158 158 150 
0.142737 0.49487 1.08022 167 162 142 
0.129483 0.507793 1.07196 15 5 0 
0.239045 0.524327 1.09782 133 131 116 
0.13744 0.516626 1.07131 119 115 104 
0.18649 0.528256 1.07232 110 104 92 
0.125811 0.5263 1.06125 143 135 124 
0.109691 0.526802 1.06136 33 30 15 
0.136058 0.532454 1.05759 147 140 121 
0.18616 0.536666 1.06677 22 14 1 
0.173455 0.541114 1.05891 39 31 12 
0.125046 0.540139 1.05213 126 125 105 
0.160374 0.542409 1.05489 33 32 12 
0.0268978 -0.77996 1.91151 117 103 94 
0.0108563 -0.73717 1.88927 111 103 90 
0.115103 -0.430324 1.62259 23 15 12 
0.112884 -0.269378 1.54305 55 54 49 
-0.0558763 0.198303 1.35104 96 92 83 
0.236538 0.277263 1.3254 50 38 22 
0.127602 0.444398 1.14975 120 116 105 
0.205604 0.464489 1.15787 116 113 98 
0.293596 0.487243 1.20543 39 31 20 
0.154258 0.475561 1.1356 15 10 4 
0.173612 0.478638 1.13728 94 89 83 
0.0650809 0.491142 1.12496 118 110 97 
0.112025 0.509047 1.07205 110 106 94 
0.149979 0.532065 1.06102 146 139 120 
0.216538 0.541149 1.07474 112 109 100 
0.146686 0.540936 1.05423 8 0 0 
0.0444878 -0.31298 1.55938 90 89 85 
0.189757 0.455721 1.15882 119 117 105 
0.137012 0.50209 1.11109 141 129 115 
0.234129 0.504509 1.1051 27 23 11 
0.0746499 0.525816 1.06506 82 76 60 
0.116434 0.534499 1.05574 114 108 92 
-0.0301022 -0.343731 1.60125 75 71 68 
0.135966 0.364685 1.21602 60 52 41 
-0.0256378 -1.67813 2.75659 106 111 107 
-0.0158824 -1.64233 2.73641 132 127 123 
0.0136618 -1.62638 2.71126 60 56 44 
-0.0233982 -1.61641 2.72934 55 47 44 
-0.00588635 -1.53726 2.6779 137 127 117 
-0.0188744 -1.52485 2.68035 34 34 34 
-0.0165616 -1.63298 2.73253 137 130 120 
-0.0281257 -1.59399 2.71836 48 48 46 
0.0085738 -1.54831 2.67631 28 28 28 
0.146815 -0.724106 1.90108 33 25 14 
0.135351 -0.720832 1.89939 131 125 113 
0.178907 -0.732225 1.94464 126 119 109 
0.145646 -0.700347 1.8861 88 89 75 
-0.0542497 -0.714691 1.89959 109 105 94 
0.120707 -0.651548 1.83758 144 141 134 
0.116686 -0.638469 1.82959 142 139 134 
-0.0121126 -0.648655 1.83575 54 47 39 
0.134646 -0.59904 1.79046 96 92 89 
0.162121 -0.590728 1.78139 148 143 137 
0.146328 -0.590433 1.78424 85 83 71 
-0.204048 -0.714891 2.09957 106 105 101 
0.170293 -0.580512 1.77455 122 118 107 
0.147028 -0.580652 1.77679 119 115 104 
0.179842 -0.576795 1.77277 59 50 41 
0.0964239 -0.578069 1.77256 114 109 105 
-0.0711907 -0.595078 1.80243 24 22 10 
0.209138 -0.576118 1.80923 50 46 35 
-0.0132608 -0.579229 1.7744 134 130 121 
0.16888 -0.554345 1.7464 49 42 26 
0.222083 -0.566982 1.81311 113 109 100 
0.24265 -0.569448 1.84618 27 22 18 
0.263034 -0.574015 1.88944 32 29 22 
0.0265429 -0.540337 1.73173 130 125 121 
0.0860748 -0.526861 1.7117 130 127 122 
0.00549845 -0.521089 1.70465 17 17 9 
0.117593 -0.499621 1.67515 27 22 18 
0.0803437 -0.428443 1.61865 4 0 0 
0.175477 -0.42579 1.64665 10 5 2 
0.228103 -0.421767 1.67043 114 111 102 
0.203199 -0.418281 1.65566 82 77 71 
0.073085 -0.416703 1.61517 3 0 0 
0.14436 -0.410518 1.62272 124 121 116 
-0.0476534 -0.421333 1.64432 5 1 0 
0.00549788 -0.412638 1.61942 6 3 0 
0.217385 -0.406062 1.6542 31 31 19 
0.0315985 -0.402265 1.6089 98 94 93 
0.266211 -0.400815 1.68937 4 0 0 
0.279817 -0.395025 1.7045 110 107 100 
-0.246883 -0.465715 1.88953 54 49 43 
0.00781376 -0.386765 1.60623 85 82 73 
0.181483 -0.376661 1.62101 12 4 1 
0.197807 -0.373449 1.62462 11 1 0 
0.216067 -0.373556 1.63872 5 0 0 
0.234127 -0.371026 1.64913 9 6 1 
0.152212 -0.36039 1.60042 93 85 74 
0.270656 -0.367346 1.67589 42 37 33 
-0.125808 -0.392629 1.68647 21 17 16 
0.154133 -0.352133 1.59278 99 92 84 
0.325517 -0.367691 1.73758 7 4 0 
0.296953 -0.361308 1.70189 10 7 2 
0.253849 -0.352248 1.65042 104 101 96 
0.245459 -0.349214 1.64251 6 1 0 
0.00235481 -0.350114 1.59031 109 104 100 
0.28575 -0.342444 1.67747 8 5 0 
0.304228 -0.343757 1.69576 105 100 94 
0.339008 -0.346713 1.74481 47 44 39 
-0.0871214 -0.346788 1.63408 89 86 81 
0.248811 -0.313771 1.64457 29 26 21 
-0.00893196 -0.316076 1.57961 105 94 88 
-0.175339 -0.342243 1.71507 78 77 73 
-0.043533 -0.317359 1.61252 93 90 85 
0.030684 -0.291231 1.55455 103 100 93 
0.381805 -0.310544 1.81203 3 0 0 
0.249368 -0.28644 1.63671 107 100 90 
0.239056 -0.284513 1.63068 28 24 12 
0.255702 -0.282885 1.64256 9 2 0 
0.224004 -0.274985 1.61383 126 118 107 
0.269854 -0.278777 1.65321 26 17 8 
0.0280535 -0.267041 1.54136 104 99 95 
0.295055 -0.272561 1.67773 26 22 11 
0.256858 -0.267897 1.63813 31 24 16 
0.00929501 -0.26212 1.54419 10 3 0 
0.216021 -0.257667 1.59697 22 12 2 
0.288633 -0.263814 1.66671 137 133 121 
-0.0430612 -0.265082 1.5847 5 4 2 
0.244098 -0.249594 1.61321 109 100 91 
0.282169 -0.253774 1.65312 130 126 114 
0.198864 -0.240618 1.5772 129 121 110 
-0.0197255 -0.245 1.54281 152 144 133 
0.30274 -0.244403 1.67705 44 35 26 
0.254038 -0.236646 1.61577 125 119 107 
0.212061 -0.232135 1.58213 133 123 113 
-0.0235255 -0.231321 1.53371 117 110 100 
0.292805 -0.22912 1.65064 9 0 0 
0.341034 -0.234811 1.72743 54 50 39 
-0.0750972 -0.232768 1.59532 4 3 1 
0.231937 -0.191446 1.57035 28 20 9 
0.255109 -0.190895 1.59132 24 18 6 
-0.0194616 -0.194578 1.51662 112 107 101 
0.304767 -0.181305 1.63538 108 95 87 
0.191945 -0.17557 1.54112 82 73 66 
0.181215 -0.167199 1.50856 119 110 101 
-0.114238 -0.187716 1.60445 2 1 0 
0.317339 -0.174026 1.65323 25 15 5 
0.309483 -0.1676 1.63588 15 3 0 
0.260905 -0.163591 1.57962 98 88 78 
0.265387 -0.154672 1.57539 129 119 107 
0.27481 -0.147256 1.58518 111 105 93 
0.310802 -0.147829 1.63024 32 18 5 
0.326134 -0.133833 1.64342 43 30 21 
0.26748 -0.120696 1.56208 6 0 0 
0.23119 -0.115963 1.53233 69 63 47 
0.360093 -0.119852 1.69998 132 120 108 
0.352844 -0.115118 1.68481 15 1 0 
0.273465 -0.107041 1.56319 36 26 16 
0.258536 -0.0974515 1.54075 36 24 8 
0.266576 -0.0959631 1.54975 13 0 0 
0.0230356 -0.0979493 1.45665 95 92 83 
0.233381 -0.0918219 1.51921 34 28 14 
0.354235 -0.089307 1.6624 141 131 119 
0.255258 -0.0862453 1.53151 15 3 0 
0.00209891 -0.0893508 1.45701 100 97 92 
-0.0505194 -0.0883163 1.50041 94 95 90 
-0.0837541 -0.088233 1.52437 93 89 88 
0.248781 -0.0738485 1.52362 118 108 96 
0.242668 -0.0717913 1.51434 10 0 0 
0.211209 -0.0655434 1.49532 147 138 123 
0.0285982 -0.0674446 1.43601 103 100 95 
0.00632011 -0.0654382 1.4446 102 97 93 
0.227191 -0.0582092 1.49866 27 11 0 
0.191966 -0.0522906 1.47256 7 0 0 
0.270983 -0.0472286 1.52709 136 123 107 
0.0104958 -0.0517245 1.43891 102 97 91 
0.273285 -0.0375831 1.52672 126 112 99 
0.222202 -0.0347181 1.48517 146 139 123 
0.234514 -0.0348972 1.50738 43 34 19 
0.139651 -0.0345786 1.4257 32 22 13 
0.251209 -0.0303802 1.50184 65 53 41 
0.23379 -0.0242731 1.48635 135 129 115 
0.19118 -0.0249655 1.45637 6 1 0 
0.214341 -0.0235395 1.47219 7 1 0 
0.18859 -0.0237072 1.44353 106 103 94 
0.260713 -0.0211773 1.50903 15 7 0 
0.2424 -0.0163415 1.48474 136 130 118 
0.210464 -0.0140922 1.46734 38 24 15 
0.3148 -0.00462635 1.58031 50 22 11 
0.347662 -0.00154126 1.61114 49 42 26 
0.187885 -0.00115482 1.42502 20 13 3 
0.217434 0.00137735 1.46084 18 8 0 
0.275033 0.00614837 1.50178 126 114 100 
0.0194814 0.00374736 1.40285 76 73 68 
0.265405 0.0119038 1.48914 7 0 0 
0.319372 0.0271994 1.56651 13 0 0 
0.256419 0.0244854 1.47746 14 4 0 
0.0292352 0.0353965 1.38922 4 0 0 
0.0423029 0.0440426 1.37633 5 0 0 
-0.0400481 0.0491275 1.43209 93 89 86 
0.335939 0.0656303 1.54886 22 10 0 
0.219284 0.0609825 1.42744 45 37 24 
0.363609 0.0799764 1.59216 35 28 10 
-0.0574108 0.0649241 1.43553 95 91 88 
0.0337981 0.0654609 1.3695 21 17 8 
0.340881 0.0880631 1.54502 43 30 11 
0.207667 0.0770212 1.41657 14 6 0 
0.348432 0.0909426 1.55808 32 17 0 
-0.171527 0.0832514 1.54393 15 5 0 
-0.0384332 0.0768897 1.41741 14 13 9 
0.25859 0.0868161 1.44876 34 22 10 
0.228869 0.0866771 1.42141 54 45 30 
0.20591 0.0866359 1.41285 118 108 96 
0.253405 0.0925019 1.436 19 6 0 
0.27357 0.0941262 1.45337 15 1 0 
0.319122 0.117304 1.51959 156 138 124 
0.246465 0.108124 1.42266 59 51 40 
0.200985 0.105432 1.39161 107 99 88 
0.367692 0.131708 1.57587 131 122 107 
0.230267 0.114938 1.40802 11 1 0 
0.287902 0.123334 1.45046 19 9 0 
0.22645 0.1227 1.40334 126 116 104 
0.330968 0.140993 1.50676 52 42 30 
0.347558 0.148707 1.52467 152 138 112 
0.325922 0.146597 1.48552 35 27 14 
0.233786 0.135907 1.39962 30 17 1 
0.304932 0.14404 1.45944 29 19 9 
0.133248 0.130572 1.33772 6 2 0 
0.303234 0.153676 1.45516 135 123 111 
0.294134 0.153803 1.44735 42 30 16 
0.344995 0.163504 1.51697 23 11 0 
-0.00130021 0.140243 1.34354 109 105 96 
0.264065 0.1524 1.41487 21 9 0 
0.315707 0.160553 1.46803 151 138 122 
0.309519 0.160647 1.46074 15 1 0 
0.243667 0.15446 1.39688 145 133 117 
0.336696 0.16996 1.49322 132 123 106 
0.328923 0.168881 1.48231 3 2 0 
0.357424 0.177325 1.53356 58 44 33 
0.282608 0.16394 1.42445 7 0 0 
0.320534 0.170992 1.46647 143 135 122 
-0.0775235 0.161589 1.40262 5 2 0 
0.310197 0.171226 1.4497 127 115 99 
0.365954 0.185542 1.54096 137 125 113 
0.291083 0.170308 1.42849 129 119 109 
0.347118 0.187434 1.50885 36 24 8 
0.236515 0.169415 1.38142 62 53 38 
-0.0486505 0.168079 1.38014 15 8 2 
0.288819 0.17835 1.42339 30 20 8 
0.326286 0.185995 1.47141 156 147 132 
0.270156 0.177093 1.40135 10 0 0 
0.275192 0.178657 1.41216 37 27 15 
0.339823 0.190934 1.49196 27 19 6 
0.356665 0.196011 1.51594 137 129 116 
0.313078 0.186392 1.44595 103 93 81 
0.338014 0.192376 1.4823 165 158 142 
0.332458 0.195754 1.47476 29 20 5 
0.264565 0.185265 1.39781 11 0 0 
0.346412 0.201341 1.49143 55 48 30 
0.211871 0.181994 1.36419 115 111 100 
0.323043 0.197202 1.45855 45 33 19 
0.309704 0.195281 1.44111 126 116 104 
0.198389 0.183189 1.34701 18 14 5 
0.245268 0.189223 1.38276 144 134 122 
0.31585 0.200554 1.44614 117 107 95 
0.296776 0.197801 1.42156 44 37 21 
0.330199 0.205685 1.46563 44 38 22 
0.287229 0.197727 1.41039 16 4 0 
0.355187 0.21648 1.50127 30 21 6 
0.312338 0.206799 1.4359 14 5 0 
0.326799 0.210793 1.45505 132 120 106 
0.2926 0.205375 1.41373 26 14 2 
0.300187 0.208171 1.41971 18 7 1 
0.320685 0.212744 1.44434 125 117 106 
0.334882 0.218333 1.46401 11 4 0 
0.307213 0.212424 1.42521 145 135 125 
0.215284 0.200819 1.35538 23 11 0 
0.263365 0.208279 1.38104 138 128 118 
0.271624 0.210483 1.38993 149 139 127 
0.311997 0.218374 1.43329 39 30 15 
0.200329 0.204601 1.33939 85 81 69 
0.356324 0.233651 1.4925 9 0 0 
-0.0779118 0.213592 1.38046 31 27 18 
0.369735 0.239322 1.51151 23 11 0 
0.319021 0.226874 1.43501 146 138 125 
0.338668 0.232296 1.46654 19 7 0 
0.305615 0.225815 1.41801 56 46 34 
0.266236 0.222575 1.38141 23 16 0 
0.288781 0.229207 1.39998 19 6 0 
0.197843 0.217087 1.32349 111 103 90 
0.343477 0.246012 1.46171 137 127 115 
0.367217 0.258954 1.50767 30 18 6 
0.270561 0.235795 1.37419 161 153 142 
0.355784 0.256985 1.48172 47 39 20 
0.302472 0.2445 1.40048 155 146 131 
0.260637 0.239082 1.36105 136 126 116 
0.289122 0.246572 1.38998 19 11 0 
0.329348 0.256544 1.43418 23 15 4 
0.222998 0.238667 1.33763 72 62 52 
0.360718 0.269807 1.49007 142 129 113 
-0.125956 0.255257 1.40852 9 6 1 
0.346325 0.265137 1.45482 33 21 7 
0.272785 0.248639 1.36987 73 65 54 
0.28694 0.253786 1.38249 20 11 0 
0.372463 0.282204 1.50422 32 21 3 
-0.0688556 0.252604 1.35461 4 0 0 
0.310929 0.263567 1.40257 11 2 0 
0.22322 0.254864 1.33066 146 136 124 
-0.0798608 0.262296 1.35721 103 100 93 
-0.0645328 0.262208 1.34813 88 84 75 
0.353089 0.286507 1.46431 34 25 10 
0.277287 0.266242 1.36408 41 31 22 
0.317053 0.274429 1.40118 19 12 0 
0.301073 0.276517 1.38801 38 29 14 
0.330067 0.292308 1.41803 16 7 0 
0.308182 0.289404 1.38606 54 46 33 
0.347637 0.301822 1.44171 38 28 16 
0.326078 0.297251 1.40942 27 18 3 
0.0441336 0.268545 1.2706 38 34 25 
-0.13833 0.299921 1.40432 7 2 0 
0.204017 0.277432 1.30737 11 7 0 
0.15808 0.270538 1.2733 125 117 104 
0.2798 0.291604 1.35149 136 129 113 
0.20156 0.283497 1.30007 46 40 28 
0.267754 0.293265 1.34019 26 16 4 
0.348247 0.315809 1.42895 129 121 108 
0.313111 0.30962 1.39488 22 13 0 
0.025609 0.286242 1.26715 42 38 26 
0.238433 0.296906 1.31736 14 6 0 
0.0673603 0.284741 1.2608 144 137 127 
0.285726 0.311542 1.3473 137 127 115 
0.323813 0.325406 1.38825 25 16 1 
0.196834 0.301055 1.27301 161 151 139 
0.216148 0.305073 1.28905 139 133 119 
0.296467 0.322239 1.35218 143 133 121 
0.284518 0.318994 1.33509 25 13 1 
0.273866 0.318536 1.32748 141 133 122 
0.244072 0.313256 1.30269 17 9 0 
0.315142 0.330623 1.37322 149 141 128 
0.340662 0.339442 1.40241 61 51 41 
0.26053 0.317936 1.31449 49 41 28 
0.313995 0.330701 1.35432 153 145 134 
0.349335 0.350061 1.40972 38 31 15 
0.279972 0.327614 1.32182 137 134 119 
0.320575 0.338311 1.36207 54 44 32 
0.289457 0.331865 1.32389 60 51 42 
0.186158 0.316036 1.25742 55 47 34 
0.235959 0.325395 1.28154 25 19 7 
-0.0974595 0.341516 1.32562 155 151 148 
0.316565 0.343324 1.34427 164 156 145 
-0.0458238 0.33286 1.28617 82 78 75 
0.329722 0.349006 1.35903 142 138 126 
0.282602 0.337556 1.31417 21 13 2 
0.297168 0.342824 1.3285 158 148 138 
0.204924 0.326562 1.2626 10 3 0 
-0.117049 0.35188 1.33675 87 83 74 
0.339663 0.359855 1.36567 33 23 13 
-0.124726 0.360148 1.33847 111 108 103 
0.280166 0.344891 1.29938 138 129 114 
0.336503 0.361299 1.35643 59 49 40 
-0.000690122 0.339745 1.25089 105 104 99 
-0.105679 0.359968 1.31533 92 88 77 
0.323685 0.360918 1.33545 168 159 142 
0.262688 0.351187 1.28736 107 103 94 
0.218609 0.34685 1.25797 62 53 44 
0.341902 0.37393 1.355 125 116 101 
0.308236 0.364633 1.3195 144 131 115 
0.301923 0.371555 1.30786 110 100 88 
0.368842 0.410383 1.37943 117 105 89 
-0.118233 0.401383 1.30642 101 98 91 
0.25927 0.384113 1.27106 24 20 8 
0.247432 0.382121 1.25956 106 98 87 
0.198024 0.378308 1.23613 113 104 95 
0.209595 0.381766 1.23897 14 4 0 
-0.0900243 0.401909 1.27974 109 110 104 
0.369235 0.429893 1.37549 27 17 5 
0.192729 0.386951 1.22973 121 117 108 
-0.159531 0.431802 1.34298 27 22 18 
0.276231 0.402724 1.27276 32 23 8 
0.215633 0.391363 1.23415 25 18 10 
-0.0432607 0.402236 1.24424 120 117 110 
0.200028 0.401297 1.22561 42 33 26 
0.230557 0.408999 1.23903 124 120 108 
0.250833 0.413261 1.24821 23 15 2 
0.351209 0.441949 1.33667 29 21 8 
0.186625 0.406533 1.21612 33 30 21 
0.302673 0.429242 1.28577 160 150 140 
0.212784 0.412388 1.22434 138 130 119 
-0.126778 0.447331 1.29899 150 142 140 
-0.16236 0.464624 1.33446 6 3 0 
0.240707 0.424092 1.23677 25 17 6 
0.216654 0.423754 1.2255 28 21 5 
0.267988 0.43304 1.24915 121 113 100 
0.337517 0.461541 1.30651 49 42 24 
0.302364 0.449006 1.26584 47 37 25 
-0.138688 0.474366 1.29856 21 16 12 
0.150076 0.428028 1.19222 121 115 103 
0.262803 0.442905 1.23187 134 130 119 
0.332621 0.465571 1.29314 155 148 130 
0.226841 0.439134 1.21299 148 140 129 
0.281394 0.451077 1.23919 110 106 94 
0.172795 0.434181 1.18748 112 103 88 
0.36854 0.487356 1.32821 121 119 107 
0.200706 0.440019 1.19364 123 119 108 
0.247502 0.446972 1.21458 13 5 0 
0.297337 0.460254 1.24824 50 44 32 
0.1685 0.43875 1.17851 109 101 90 
0.308041 0.465612 1.25583 153 143 133 
0.189869 0.446883 1.18252 121 116 110 
0.327379 0.478393 1.26604 6 0 0 
0.250461 0.459034 1.20475 19 15 4 
0.175064 0.448897 1.1705 86 79 69 
-0.146353 0.500427 1.27556 36 31 25 
0.112965 0.455875 1.16264 20 11 2 
0.163195 0.455519 1.16221 152 152 144 
-0.113863 0.496079 1.24084 110 105 99 
0.230838 0.472781 1.17897 120 116 104 
0.145074 0.471341 1.15385 120 115 109 
0.190736 0.472966 1.16022 22 20 8 
0.219141 0.480003 1.16795 159 157 145 
0.151087 0.484328 1.1462 114 111 106 
0.0909765 0.496676 1.14015 134 131 126 
0.0397424 0.512614 1.14207 145 141 130 
0.12193 -0.740623 1.91508 27 22 19 
0.163008 -0.702346 1.89098 146 140 126 
0.186724 -0.716269 1.93672 110 106 95 
0.319095 -0.815041 2.25752 67 67 55 
0.0980647 -0.68527 1.86953 79 75 72 
0.0793757 -0.672165 1.86061 104 101 92 
0.156308 -0.654035 1.84081 108 102 90 
-0.131213 -0.730572 2.01595 100 97 90 
0.30794 -0.738893 2.14278 24 25 20 
0.0705102 -0.65493 1.8441 98 95 90 
0.308969 -0.744534 2.16224 21 21 19 
0.155337 -0.633176 1.81679 123 114 105 
0.120777 -0.63097 1.81371 115 112 107 
0.161216 -0.615147 1.80178 127 120 112 
0.19231 -0.62447 1.83863 26 20 8 
0.103212 -0.616171 1.80564 91 88 79 
-0.229777 -0.753009 2.15619 86 87 81 
0.199115 -0.621598 1.85032 76 66 56 
0.221614 -0.6274 1.8896 45 42 37 
0.119809 -0.594383 1.78705 97 94 89 
0.201555 -0.56994 1.78271 132 128 117 
0.0728207 -0.564933 1.75941 122 122 112 
0.0172815 -0.568865 1.76183 36 31 28 
0.170462 -0.546452 1.7386 134 127 111 
0.339258 -0.620259 2.05369 226 228 227 
0.157387 -0.535176 1.72259 139 135 123 
0.336572 -0.609826 2.03943 78 76 61 
0.326968 -0.598291 2.005 124 118 106 
0.128193 -0.517699 1.69797 122 120 108 
0.344823 -0.603998 2.05638 66 62 59 
0.325904 -0.564651 1.96039 42 37 31 
0.0529665 -0.502072 1.67916 37 34 27 
0.0199959 -0.485342 1.65904 130 127 122 
0.365607 -0.531663 1.98886 217 219 218 
0.00998375 -0.459437 1.62973 111 108 99 
0.363483 -0.517921 1.97078 47 44 39 
-0.239761 -0.54822 1.97637 26 27 22 
