ply                 
format ascii 1.0    
element vertex 1272
property float x    
property float y    
property float z    
property uchar red  
property uchar green
property uchar blue 
end_header          
-0.117994 -0.983193 2.19992 87 84 77 
0.317706 -0.755078 2.16337 78 79 65 
-0.206768 -0.790563 2.18305 71 69 57 
0.366745 -0.511071 1.91638 200 204 205 
-0.274533 -0.216134 1.9017 9 7 10 
-0.250316 -0.504915 1.91427 203 207 208 
-0.238513 0.555163 1.4312 178 180 179 
-0.0840932 -0.402528 1.62831 102 99 90 
-0.0792203 -0.0250748 1.45964 111 108 103 
-0.0498714 0.111119 1.38019 30 23 15 
-0.0851569 0.283996 1.31391 113 107 93 
-0.0465103 0.395095 1.21718 14 6 3 
-0.0925374 0.429316 1.22534 16 12 1 
-0.116404 -0.402968 1.64618 71 68 61 
-0.0550382 -0.354547 1.59099 80 77 72 
-0.151988 -0.106103 1.55753 86 83 78 
-0.0957474 -0.0672126 1.49354 15 10 6 
-0.0907169 0.0767681 1.41788 19 15 6 
-0.0659909 0.11439 1.38479 18 8 7 
-0.0648485 0.128178 1.37808 8 3 0 
-0.0829355 0.14931 1.37486 111 107 98 
-0.122825 0.18228 1.39011 101 96 90 
0.0386546 0.337402 1.22081 109 102 94 
-0.0868668 0.370847 1.2471 72 68 65 
-0.0272405 0.364799 1.22194 96 91 85 
-0.0751306 0.395318 1.23148 103 98 94 
-0.0560838 0.408632 1.21524 9 6 1 
0.0596393 0.421407 1.17237 148 140 127 
-0.0740864 0.503549 1.15503 174 167 159 
-0.158604 -0.0870363 1.55727 2 1 0 
-0.089949 0.0187345 1.44508 69 62 56 
-0.0944288 0.407142 1.23794 12 3 0 
-0.0671796 0.224357 1.33053 70 63 55 
-0.00950392 -1.58753 2.70939 28 32 31 
0.0516235 -0.650818 1.82105 92 89 84 
-0.0425734 -0.62259 1.78718 89 84 78 
0.00213711 -0.596059 1.76845 107 107 99 
0.0328715 -0.588116 1.76404 103 98 94 
0.0449565 -0.580223 1.7586 110 107 102 
-0.0101214 -0.571713 1.74901 128 119 110 
0.081178 -0.568075 1.74892 141 136 130 
-0.0627143 -0.548567 1.73137 132 131 126 
0.0632327 -0.480024 1.63936 126 121 102 
0.0488906 -0.424405 1.60471 6 5 1 
0.166213 -0.424648 1.63299 9 4 1 
0.091924 -0.412488 1.60173 3 0 0 
0.142857 -0.415733 1.61906 103 100 93 
0.00679283 -0.408685 1.6011 2 1 0 
0.0328102 -0.398807 1.59218 91 90 86 
0.119292 -0.401252 1.60172 108 105 100 
0.134446 -0.393237 1.6033 138 129 124 
0.126849 -0.38576 1.59697 7 0 0 
-0.05466 -0.385496 1.60899 12 9 0 
0.0866135 -0.380225 1.58567 4 0 0 
0.108071 -0.353185 1.57609 117 114 107 
0.00806119 -0.348787 1.5711 111 108 103 
0.00336252 -0.336237 1.5681 89 81 79 
-0.0836387 -0.341261 1.60471 84 79 75 
0.154124 -0.329965 1.57824 41 38 29 
0.0434139 -0.298863 1.54402 113 110 103 
0.162786 -0.259587 1.54444 33 30 23 
0.0535046 -0.227399 1.50779 120 113 103 
-0.218417 -0.255189 1.7388 7 2 0 
-0.017356 -0.210492 1.50685 10 3 0 
0.0970913 -0.191573 1.4902 92 90 78 
0.0620901 -0.187606 1.48769 78 73 67 
-0.189278 -0.200825 1.67 10 6 3 
-0.197385 -0.200022 1.6831 23 19 16 
0.0839714 -0.118747 1.45292 12 3 0 
0.0624662 -0.0901517 1.43728 4 0 0 
0.0201112 -0.0899141 1.44066 88 85 78 
-0.0948908 -0.0865065 1.53156 30 32 21 
0.131517 -0.0701128 1.43704 87 80 72 
0.0680645 -0.0573466 1.4209 8 1 0 
0.215207 -0.0459814 1.48554 22 13 4 
0.0267799 -0.0403351 1.41452 19 10 5 
0.227027 -0.0243721 1.47838 21 15 3 
0.167641 -0.0089779 1.41345 24 14 5 
0.0997881 0.00234333 1.39249 35 26 19 
0.211584 0.00631802 1.4525 98 91 81 
0.132096 0.0172634 1.38912 10 0 0 
0.0417548 0.0431891 1.36929 6 1 0 
0.0122088 0.0466346 1.37408 3 0 0 
0.17663 0.0494399 1.38722 20 9 3 
0.261525 0.0591755 1.46103 122 110 96 
0.224007 0.102111 1.40702 32 23 14 
-8.08948e-05 0.102298 1.34635 10 3 0 
0.224468 0.113467 1.40336 12 3 0 
0.177803 0.134512 1.34506 25 16 11 
-0.0514914 0.153057 1.36766 7 0 0 
-0.0334831 0.175665 1.34685 85 80 74 
0.101401 0.180642 1.3002 44 34 24 
0.0606176 0.181993 1.29905 108 104 93 
0.126836 0.189616 1.29946 64 52 40 
-0.0198743 0.199355 1.32811 82 77 71 
0.074624 0.202462 1.29048 9 0 0 
-0.00357907 0.207527 1.29933 11 3 0 
-0.153889 0.242818 1.41807 6 3 0 
-0.100584 0.280817 1.3461 19 12 6 
0.107392 0.273428 1.25595 128 120 109 
0.254515 0.292003 1.32806 22 9 0 
0.176171 0.316658 1.24695 49 39 29 
-0.00566328 0.336526 1.2353 92 85 75 
-0.100876 0.35362 1.29212 79 75 72 
0.183244 0.339778 1.23933 47 38 23 
0.0244445 0.350571 1.21894 4 0 0 
-0.154587 0.395704 1.32488 107 100 94 
-0.0700261 0.379761 1.25176 94 90 87 
0.261465 0.385898 1.26295 22 12 0 
-0.110377 0.40461 1.27209 112 109 104 
-0.158371 0.425913 1.31859 21 11 9 
-0.0566875 0.401136 1.23537 28 23 19 
0.00164166 0.401854 1.2068 81 73 70 
-0.121041 0.436198 1.26942 20 17 10 
-0.00998528 0.415859 1.20444 105 102 97 
-0.0824082 0.435603 1.23621 155 145 143 
-0.10406 0.444072 1.25165 89 82 74 
-0.011061 0.42895 1.19321 25 21 12 
-0.00668925 0.446795 1.17319 22 19 12 
-0.030562 0.463243 1.17023 113 108 102 
-0.106051 0.485232 1.21283 117 108 99 
-0.06061 0.474474 1.18146 25 22 17 
-0.0560972 0.483656 1.17138 84 79 75 
0.0573552 -0.624086 1.79513 109 106 101 
-0.0246176 -0.612139 1.78016 27 22 18 
0.0959206 -0.617508 1.79302 47 46 42 
-0.0738043 -0.609926 1.79935 105 97 84 
0.0882135 -0.587003 1.76549 106 104 92 
0.0221028 -0.577267 1.75408 104 101 92 
0.0310922 -0.574526 1.74814 34 31 26 
0.138111 -0.567465 1.74727 93 86 78 
-0.0970745 -0.581625 1.80022 124 122 110 
0.103294 -0.545157 1.727 46 41 38 
-0.0661425 -0.442432 1.62572 126 122 111 
0.157973 -0.43408 1.63197 88 85 80 
0.172946 -0.404816 1.62374 104 101 96 
0.0455044 -0.394523 1.58946 3 0 0 
0.193801 -0.407998 1.63824 17 8 3 
0.01117 -0.392341 1.59075 3 0 0 
-0.133979 -0.401682 1.66996 89 86 81 
0.008601 -0.382335 1.58631 78 73 70 
0.0462607 -0.381017 1.58496 3 0 0 
-0.0161711 -0.375368 1.59126 4 0 0 
-0.00916953 -0.370249 1.58394 85 81 78 
-0.125577 -0.382023 1.6511 9 6 1 
0.0625256 -0.364392 1.57747 4 0 0 
0.101496 -0.360783 1.57856 85 81 78 
-0.0673778 -0.362708 1.60696 85 82 75 
0.040045 -0.350166 1.56825 84 83 81 
0.125325 -0.347513 1.57684 102 99 90 
-0.00518642 -0.343055 1.56973 96 93 86 
-0.15171 -0.359274 1.6645 6 2 1 
-0.114529 -0.344269 1.62929 92 91 86 
-0.00658774 -0.328721 1.56453 84 83 79 
0.179126 -0.336583 1.59588 100 95 91 
-0.0180067 -0.326489 1.56294 97 94 87 
-0.106029 -0.3272 1.61596 77 71 71 
-0.010997 -0.311221 1.5601 12 7 1 
-0.192623 -0.328404 1.69797 9 4 1 
0.133155 -0.284232 1.54684 94 91 86 
-0.0352792 -0.273037 1.56307 15 12 7 
0.0292157 -0.190342 1.48974 91 81 71 
-0.208612 -0.198508 1.70192 80 75 72 
0.0130904 -0.134235 1.46295 72 67 64 
-0.0892132 -0.13214 1.52941 87 83 74 
0.0707679 -0.111096 1.44946 14 10 1 
0.251117 -0.111393 1.54328 74 66 55 
0.145324 -0.0910429 1.44788 25 16 7 
0.0825868 -0.0892431 1.43652 92 85 77 
0.0466874 -0.086167 1.43312 81 78 71 
0.0293585 -0.0856362 1.43476 77 70 64 
0.0423766 -0.0765323 1.43004 123 119 110 
0.00961027 -0.0678249 1.43176 7 0 0 
-0.0346162 -0.0616114 1.46446 2 2 2 
0.0277005 -0.0542459 1.42168 8 1 0 
0.156478 -0.0497923 1.43157 29 19 9 
0.123491 -0.0472666 1.41959 90 86 75 
0.00170497 -0.0457018 1.42082 7 2 0 
0.0795309 -0.0417367 1.41468 24 17 9 
0.232199 -0.0387206 1.48978 138 135 120 
0.0583121 -0.0339887 1.40892 10 0 0 
0.11408 -0.0320386 1.41383 87 76 70 
0.167278 -0.0263102 1.42468 26 17 8 
0.0506187 -0.016888 1.39955 33 29 20 
-0.000763324 -0.00172312 1.40191 63 63 53 
0.133327 0.000803773 1.39826 21 11 2 
0.0591226 0.00167857 1.38896 33 25 22 
0.143938 0.0223663 1.3893 24 13 7 
0.154586 0.023004 1.39383 17 8 0 
0.166523 0.0335208 1.39273 23 11 0 
-0.0379183 0.0363344 1.41668 2 1 0 
-0.00143301 0.040147 1.37938 86 81 75 
0.0234072 0.0414592 1.37242 74 71 62 
0.109239 0.0475974 1.369 108 105 90 
0.165167 0.0480347 1.38417 7 0 0 
0.0576274 0.0520341 1.36464 83 76 68 
0.0285813 0.0543253 1.36496 9 4 1 
-0.0579664 0.0601301 1.41639 31 26 20 
0.076605 0.0589846 1.36119 44 36 25 
0.0072828 0.0765295 1.35992 4 0 0 
0.0289776 0.0779037 1.3541 71 64 56 
0.177262 0.0788266 1.37398 102 92 82 
0.066185 0.0818752 1.34868 92 85 77 
0.108678 0.0925496 1.3464 27 18 9 
0.0439714 0.093596 1.34623 4 0 0 
0.0368367 0.124051 1.32853 5 0 0 
0.0526326 0.124769 1.32726 91 84 76 
0.0451158 0.131312 1.32594 15 8 0 
0.0889452 0.14409 1.31834 98 94 83 
-0.00311783 0.146664 1.32713 75 65 56 
0.0916403 0.154456 1.31357 95 88 78 
0.179842 0.163206 1.3316 56 43 34 
0.0717588 0.165311 1.30649 31 21 19 
0.0391929 0.191598 1.29461 11 8 1 
0.0636777 0.192341 1.29394 138 127 107 
0.0499242 0.192148 1.29011 14 5 0 
-0.00887582 0.214682 1.31794 7 6 1 
0.0179781 0.214513 1.28632 91 81 72 
-0.0903552 0.229674 1.36038 12 7 1 
0.115503 0.22314 1.28046 105 92 75 
0.215476 0.233992 1.33186 129 121 110 
0.130302 0.254217 1.26717 71 59 43 
-0.133285 0.284196 1.38081 6 1 0 
0.232655 0.296255 1.30661 128 120 109 
0.145145 0.327315 1.23492 40 29 23 
-0.095606 0.359913 1.2767 5 0 0 
0.074226 0.35199 1.21372 28 19 10 
-0.190688 0.432433 1.36374 28 23 19 
0.125765 0.383492 1.20411 102 96 84 
-0.129414 0.430773 1.28419 92 87 81 
-0.100464 0.423816 1.25413 7 4 0 
0.0756846 0.403439 1.18898 22 17 11 
0.074631 0.413095 1.18359 23 18 12 
-0.072186 0.441568 1.22353 100 92 89 
-0.112798 0.454897 1.25127 31 22 17 
0.0469746 0.427955 1.1723 13 6 0 
-0.080665 0.458153 1.21562 76 72 71 
0.0943484 0.444745 1.15228 115 112 107 
0.039838 0.448363 1.15282 97 92 86 
-0.078154 0.469765 1.20434 100 93 87 
-0.0102168 0.457276 1.16406 90 82 79 
-0.134585 0.490355 1.24404 94 85 76 
-0.0249022 0.474987 1.16025 89 84 80 
-0.0695935 0.488694 1.17888 107 100 92 
0.0120814 -0.456348 1.61247 102 99 92 
0.0781156 -0.431801 1.60895 90 86 83 
0.0150653 -0.414861 1.60274 81 78 73 
-0.0231271 -0.406692 1.60643 28 23 17 
0.000293786 -0.393952 1.59469 6 0 0 
0.117269 -0.376066 1.58781 95 91 79 
-0.168578 -0.392612 1.69554 77 74 69 
0.0220557 -0.346896 1.56839 94 89 86 
-0.0459512 -0.350345 1.58893 85 84 80 
0.0599045 -0.337596 1.564 75 72 65 
-0.206672 -0.347263 1.72589 92 89 82 
-0.150196 -0.285408 1.63643 58 55 46 
0.28171 -0.287026 1.66896 90 87 78 
0.29717 -0.28899 1.68809 7 3 0 
0.147915 -0.168257 1.4919 34 29 25 
-0.00238643 -0.116204 1.45853 7 2 0 
0.0923627 -0.087921 1.43237 80 76 67 
0.0763651 -0.0310027 1.40462 84 77 69 
0.0646628 -0.0226314 1.40301 73 64 55 
-0.0801069 -0.00141968 1.46304 75 71 68 
0.0736909 0.0241395 1.37525 13 8 2 
0.164716 0.0243342 1.39747 23 14 7 
0.0951939 0.0250239 1.37943 86 78 75 
-0.0145499 0.034954 1.3923 90 86 75 
0.074624 0.036405 1.3718 90 86 77 
-0.00464024 0.0586159 1.37159 42 37 31 
0.157762 0.071807 1.36997 36 27 18 
0.097971 0.118941 1.33204 39 35 26 
0.136392 0.141432 1.32383 90 81 72 
-0.0838995 0.250025 1.33905 35 28 22 
0.139559 0.270353 1.25896 64 57 47 
0.153249 0.305616 1.24893 108 99 90 
-0.0481807 0.386542 1.2364 87 83 74 
-0.0143924 0.38973 1.21578 30 25 21 
-0.122668 0.449607 1.26779 40 36 33 
-0.0844781 0.446661 1.2324 96 87 80 
-0.105418 0.466717 1.23351 92 89 82 
0.315945 -0.734269 2.13316 34 35 30 
0.0717593 -0.47709 1.6321 49 46 39 
0.175901 -0.349833 1.60365 90 88 76 
0.243991 -0.338215 1.63948 88 81 73 
0.231293 -0.343314 1.63442 0 2 1 
-0.0874596 -0.329917 1.60897 1 0 5 
0.0870856 -1.5547 2.66741 226 227 229 
-0.044038 -0.336379 1.58709 2 2 2 
-0.192283 -0.822242 2.14792 207 211 212 
0.0262091 -1.75403 2.79283 104 109 112 
0.0289745 -1.73947 2.79136 166 170 171 
0.0299192 -1.13922 2.2937 120 117 112 
0.0200844 -1.1316 2.28377 129 125 122 
-0.00234719 -1.11191 2.27 118 114 111 
-0.0289404 -1.11422 2.28355 7 0 0 
0.0798968 -1.07617 2.23487 135 126 117 
0.00649948 -1.04076 2.2009 145 141 132 
0.026052 -1.03389 2.19155 125 121 112 
-0.039751 -0.991897 2.16574 47 37 25 
-0.0286726 -0.979744 2.14708 113 105 94 
0.0549748 -0.858859 1.96895 143 136 120 
-0.0669667 -0.907873 2.11159 128 120 109 
0.0617985 -0.830672 1.95135 46 43 38 
-0.0850212 -0.846069 2.06404 43 36 28 
0.0717414 -0.791123 1.93331 115 106 97 
-0.0494589 -0.762934 1.94088 115 108 98 
-0.0789109 -0.783337 1.99783 56 50 38 
-0.0588562 -0.761928 1.95138 47 39 28 
-0.0350388 -0.747739 1.91866 111 108 101 
0.0326634 -0.741807 1.90469 122 99 93 
0.150528 -0.765772 1.9437 105 101 92 
-0.0562898 -0.738073 1.92239 120 116 107 
0.136164 -0.750651 1.92493 138 138 126 
-0.115098 -0.762655 2.01754 94 91 86 
-0.169364 -0.788656 2.11294 29 22 12 
0.145064 -0.720623 1.89578 14 10 0 
-0.0914942 -0.727626 1.95888 4 1 0 
0.10499 -0.704263 1.88503 103 99 96 
-0.026353 -0.686695 1.86206 99 96 87 
0.0276258 -0.692568 1.86999 123 119 108 
-0.0797716 -0.696165 1.90701 38 34 25 
-0.0144141 -0.670935 1.84666 36 34 22 
0.037042 -0.656631 1.83887 22 19 12 
-0.13322 -0.687729 1.9663 127 124 115 
0.0677545 -0.651525 1.83244 121 118 109 
-0.0814234 -0.650797 1.86341 31 28 19 
-0.0759238 -0.640139 1.84963 125 119 107 
0.139474 -0.634046 1.81876 107 104 95 
-0.139266 -0.658003 1.94634 14 11 2 
-0.141825 -0.632908 1.92244 131 128 121 
-0.15004 -0.624521 1.92478 106 103 94 
0.0649829 -0.587315 1.77746 127 120 110 
-0.192164 -0.634341 1.98095 151 146 140 
-0.0797604 -0.572533 1.78499 114 114 104 
0.149828 -0.585695 1.78048 28 23 17 
-0.188654 -0.619156 1.96381 29 25 14 
0.0842349 -0.56784 1.76204 119 115 104 
-0.125178 -0.576502 1.84684 105 102 97 
-0.0352144 -0.540346 1.71972 45 42 37 
-0.153804 -0.585875 1.88546 14 11 6 
0.174814 -0.558419 1.75609 51 47 38 
0.0558469 -0.510701 1.68764 157 154 149 
-0.153384 -0.549503 1.85655 113 110 105 
-0.040141 -0.468873 1.64705 105 100 94 
-0.138886 -0.49493 1.76524 143 137 125 
-0.21792 -0.527599 1.91231 22 19 10 
-0.130216 -0.47839 1.72867 138 130 117 
-0.182138 -0.49645 1.82839 39 33 21 
0.0309783 -0.44622 1.61778 85 86 81 
0.0829288 -0.429823 1.61854 5 2 0 
-0.0439394 -0.418843 1.62894 3 0 0 
0.108993 -0.422955 1.6205 29 28 23 
0.158804 -0.414319 1.63817 131 127 118 
0.0362287 -0.379011 1.59169 86 83 74 
-0.0785768 -0.379282 1.62521 130 126 117 
-0.0939559 -0.362483 1.63106 5 2 0 
0.20241 -0.377313 1.63639 6 3 0 
0.076721 -0.342162 1.57375 104 101 96 
-0.177291 -0.351529 1.69083 3 2 0 
-0.224057 -0.348314 1.75504 19 16 9 
0.25901 -0.355785 1.66251 95 92 87 
-0.175132 -0.324848 1.681 84 80 77 
-0.0250225 -0.303945 1.56126 146 134 122 
0.0391411 -0.292445 1.54352 123 120 115 
-0.013535 -0.282699 1.54685 21 16 13 
-0.222751 -0.302209 1.73612 96 91 87 
0.0429259 -0.279922 1.53725 96 91 87 
-0.0287787 -0.261807 1.54128 46 44 32 
0.0100856 -0.260019 1.52887 4 0 0 
0.271885 -0.300733 1.67357 123 123 113 
0.0625089 -0.254967 1.52358 15 12 7 
0.0187021 -0.251666 1.52457 30 25 21 
0.165009 -0.261188 1.55208 26 23 16 
-0.0306713 -0.24765 1.54045 39 35 32 
0.229595 -0.269618 1.61864 115 108 98 
0.250374 -0.2668 1.63164 108 104 93 
-0.135381 -0.241822 1.62031 129 125 122 
0.119148 -0.241031 1.52385 95 92 87 
0.139693 -0.240915 1.52646 143 138 134 
-0.022725 -0.22983 1.519 115 111 102 
0.201446 -0.248133 1.58629 137 133 121 
0.0284918 -0.224107 1.50795 7 0 0 
0.222198 -0.247984 1.60118 17 7 0 
0.017848 -0.2176 1.50493 98 95 90 
0.157054 -0.217428 1.5256 4 0 0 
0.223578 -0.227232 1.5925 8 0 0 
-0.0189517 -0.195921 1.4988 4 0 0 
0.167881 -0.205774 1.52056 32 29 22 
0.100105 -0.194193 1.49136 4 0 0 
0.227559 -0.205602 1.58052 31 23 12 
0.128008 -0.188718 1.49986 11 7 0 
0.218514 -0.202214 1.57377 131 121 112 
0.0977251 -0.183029 1.48811 108 104 93 
-0.0211937 -0.176844 1.49385 16 11 5 
0.0491897 -0.177301 1.48152 6 0 0 
-0.119645 -0.174085 1.57883 1 0 0 
-0.00722575 -0.165865 1.48188 92 85 79 
0.103259 -0.163048 1.479 108 99 92 
-0.028101 -0.155316 1.50516 78 75 68 
0.163161 -0.163067 1.49778 123 119 108 
0.0660425 -0.147705 1.46723 110 106 95 
0.0572338 -0.142739 1.46121 114 111 102 
0.0945544 -0.136626 1.46427 110 105 99 
0.0103914 -0.130005 1.459 15 10 7 
0.0485798 -0.13171 1.45819 15 6 1 
0.0726402 -0.131504 1.45797 32 28 17 
-0.177259 -0.131347 1.6168 4 0 0 
0.214633 -0.145904 1.5402 126 117 110 
-0.137443 -0.124825 1.56208 87 82 78 
0.15543 -0.131486 1.4768 55 46 37 
0.0422092 -0.122345 1.45399 10 0 0 
-0.104678 -0.119063 1.52894 101 97 94 
0.00771692 -0.117607 1.4554 5 1 0 
0.106509 -0.123333 1.45682 25 21 10 
0.210123 -0.133826 1.52856 6 2 0 
0.033407 -0.117092 1.44997 4 0 0 
0.0898091 -0.119761 1.45168 12 2 0 
0.115368 -0.117582 1.45709 99 95 86 
0.217881 -0.12363 1.52872 21 15 3 
0.233984 -0.125433 1.54251 17 4 0 
0.259774 -0.124558 1.56176 23 13 3 
-0.0232641 -0.100388 1.45957 9 7 0 
0.168758 -0.110261 1.47164 4 0 0 
0.100218 -0.102947 1.44486 99 97 85 
-0.181031 -0.0933962 1.60044 121 117 106 
0.0757093 -0.0940969 1.43888 98 94 83 
-0.0341052 -0.0896625 1.47164 86 82 79 
0.242309 -0.107504 1.53813 15 7 0 
0.0624662 -0.0901517 1.43728 4 0 0 
0.213906 -0.102977 1.5128 7 0 0 
0.233264 -0.104254 1.52901 29 20 5 
-0.179376 -0.0808966 1.59672 22 18 7 
0.00601208 -0.0784783 1.43353 83 78 72 
-0.00581396 -0.0767129 1.43297 88 84 81 
0.243884 -0.0912379 1.53118 19 11 0 
0.153974 -0.0794131 1.44937 122 113 104 
0.225063 -0.0855716 1.51106 111 103 92 
0.211075 -0.082665 1.50483 129 121 108 
0.118701 -0.0732685 1.43417 8 4 0 
0.0611235 -0.0690598 1.4232 104 95 88 
0.0200242 -0.0665651 1.42505 121 119 107 
0.13852 -0.0727091 1.43905 118 109 100 
-0.101764 -0.0626383 1.50498 113 109 100 
0.234846 -0.0751668 1.51397 65 53 39 
-0.197901 -0.0537957 1.62019 7 4 0 
-0.0216873 -0.0557819 1.44542 84 81 76 
0.166313 -0.0639296 1.44528 25 15 6 
0.128406 -0.0607529 1.42967 94 85 76 
0.052661 -0.0556108 1.41578 9 2 0 
0.150088 -0.061416 1.43512 103 95 84 
0.174156 -0.0554308 1.44106 15 6 0 
0.0707404 -0.0477459 1.41342 27 23 12 
0.114274 -0.0483949 1.41997 128 119 110 
-0.0316981 -0.0384416 1.44621 3 0 0 
-0.0660445 -0.0356707 1.45836 89 86 81 
0.0148651 -0.0387957 1.41083 10 1 0 
0.162332 -0.0472882 1.43353 121 113 100 
-4.54909e-05 -0.0375145 1.41366 23 14 7 
0.0378126 -0.0383855 1.41092 98 89 80 
0.0965479 -0.0417814 1.41213 7 0 0 
0.257977 -0.0533061 1.52351 115 105 93 
-0.0187293 -0.0350961 1.42332 123 118 112 
-0.18257 -0.028817 1.5819 120 117 112 
0.215498 -0.0460372 1.4864 13 3 0 
-0.0579674 -0.0296977 1.45215 105 101 98 
0.0293721 -0.0309571 1.40595 108 99 90 
0.0538441 -0.0315314 1.40342 112 102 93 
-0.149207 -0.0218573 1.54828 112 101 95 
0.016134 -0.0275152 1.40421 9 5 0 
-0.0887848 -0.0228324 1.46513 107 102 98 
-0.17119 -0.0187594 1.55197 10 2 0 
0.0433549 -0.0258288 1.39886 19 10 1 
0.151866 -0.0309459 1.42073 136 127 120 
-0.0500415 -0.0189051 1.44356 111 108 103 
0.0892381 -0.026205 1.40525 23 18 12 
0.00592441 -0.0210487 1.40411 22 15 7 
-0.0150459 -0.0189263 1.40978 20 10 1 
-0.202023 -0.00925365 1.60296 5 2 0 
0.131777 -0.0241503 1.41222 106 103 96 
0.144747 -0.0236951 1.41576 130 122 120 
-0.00757808 -0.0134496 1.40404 111 106 103 
0.035534 -0.0154541 1.39218 8 1 0 
0.245655 -0.0265908 1.498 41 31 19 
0.00897936 -0.012483 1.39924 6 1 0 
0.0857648 -0.0160989 1.39846 10 0 0 
0.228694 -0.0243186 1.483 16 6 0 
0.123331 -0.0165014 1.4049 106 100 88 
-0.204997 0.000236944 1.60454 6 3 0 
0.227961 -0.0130469 1.47696 53 43 34 
-0.0796483 0.00986018 1.4473 88 83 79 
0.160411 -0.00192758 1.40889 113 103 94 
0.208965 -0.000888341 1.45775 42 39 22 
0.151704 0.00274248 1.40324 9 3 0 
-0.00396232 0.0147802 1.38905 99 90 81 
0.100407 0.0100448 1.38723 9 0 0 
0.0339354 0.0150956 1.37903 106 102 93 
0.230905 0.00751099 1.46803 28 15 7 
-0.0176121 0.0201666 1.39884 93 86 80 
-0.025572 0.0225427 1.40993 88 83 80 
0.119569 0.0144923 1.38797 18 14 3 
0.00108359 0.0221624 1.38175 115 106 97 
0.219168 0.0163102 1.45633 27 19 8 
0.0546721 0.0238305 1.37404 8 3 0 
-0.0719972 0.0325532 1.43146 97 92 88 
0.0399306 0.0252219 1.37437 7 4 0 
0.0891862 0.0246029 1.37612 102 100 88 
0.17546 0.0205984 1.40103 117 108 101 
0.12266 0.0339605 1.37543 122 114 103 
0.163181 0.0396479 1.39047 121 111 99 
-0.0505892 0.0519577 1.41196 93 90 85 
0.224091 0.0396952 1.44663 19 9 0 
0.153373 0.0415863 1.38475 13 3 0 
0.0998449 0.0462301 1.36597 92 85 69 
0.0721312 0.0511707 1.35985 101 97 86 
0.261628 0.0472495 1.47047 51 42 27 
0.1772 0.0495749 1.38884 26 17 8 
0.00969249 0.0621887 1.35673 20 11 6 
0.159745 0.055385 1.37825 33 20 11 
-0.0140983 0.0652098 1.36925 117 108 99 
0.0241915 0.0649512 1.35725 6 0 0 
0.263026 0.0593588 1.46491 151 137 124 
0.249471 0.0598693 1.45121 124 115 100 
0.126954 0.0680119 1.36114 16 6 0 
0.181641 0.0669348 1.37885 118 106 92 
0.137804 0.0756321 1.36279 120 111 102 
0.190325 0.0803295 1.37966 136 126 116 
0.0495097 0.0868601 1.34268 8 0 0 
0.170721 0.0885668 1.36562 116 106 94 
0.10074 0.0919438 1.34532 7 0 0 
0.252395 0.0975022 1.43407 29 19 9 
0.188852 0.0964811 1.37135 11 2 0 
0.0223245 0.104627 1.33666 9 5 0 
0.118896 0.100787 1.34419 9 0 0 
0.13388 0.100473 1.34718 15 8 0 
0.225289 0.102373 1.41045 21 11 0 
0.0886028 0.108849 1.33618 83 79 67 
-0.00650057 0.116385 1.33782 84 76 65 
0.0643824 0.112319 1.33254 133 124 117 
0.275371 0.11377 1.45213 121 111 99 
0.326834 0.118963 1.52621 28 12 0 
0.21755 0.113289 1.40276 42 32 22 
0.119399 0.113364 1.33822 105 98 90 
0.107592 0.120386 1.33174 136 128 117 
0.256183 0.122788 1.42978 131 121 111 
-0.0539384 0.134478 1.37105 127 123 114 
0.212237 0.123613 1.39266 58 48 38 
0.240626 0.129 1.41067 16 7 0 
0.199348 0.127528 1.36646 141 133 122 
0.11211 0.129324 1.32708 16 10 0 
0.145018 0.130166 1.33471 12 8 0 
0.0297776 0.134784 1.32282 108 99 90 
0.278485 0.139104 1.4394 14 4 0 
0.297326 0.142618 1.45419 109 101 88 
0.0482259 0.139817 1.31727 107 103 94 
0.107784 0.139318 1.32108 151 141 131 
0.180389 0.14171 1.34522 28 20 9 
0.192024 0.141919 1.34637 15 7 0 
0.238182 0.146414 1.39876 71 59 45 
-0.0615124 0.15685 1.36222 126 113 105 
0.0395328 0.148021 1.31512 12 8 0 
0.256703 0.149442 1.41308 36 26 14 
0.00282927 0.151795 1.32078 9 0 0 
0.127597 0.148595 1.32201 123 115 104 
-0.0119811 0.159327 1.34123 17 10 0 
0.182544 0.1506 1.34022 15 5 0 
0.163401 0.153268 1.32965 13 3 0 
0.111748 0.15772 1.3131 12 8 0 
0.126755 0.158398 1.31631 51 41 31 
0.150833 0.159738 1.32372 27 19 8 
0.261976 0.165732 1.40636 44 37 21 
0.0970614 0.166046 1.30628 94 86 75 
0.128288 0.169735 1.31188 14 1 0 
0.086016 0.171428 1.30372 131 122 113 
0.049076 0.173525 1.29966 111 101 91 
0.233168 0.176599 1.37911 21 11 1 
0.00458878 0.177642 1.30586 120 116 107 
-0.00695219 0.180113 1.30881 105 98 88 
-0.0938997 0.194613 1.3769 85 81 72 
0.245851 0.179516 1.38701 44 34 24 
-0.160895 0.207956 1.43828 14 6 3 
-0.0704038 0.194536 1.35195 4 0 0 
0.0177356 0.182565 1.30065 30 22 11 
0.147018 0.178745 1.31083 115 107 96 
0.166288 0.181014 1.31649 9 5 0 
0.0302817 0.185075 1.29619 101 97 88 
0.27385 0.189439 1.40577 138 128 116 
0.224562 0.186881 1.36745 12 6 0 
0.259605 0.189438 1.39329 27 17 5 
0.238401 0.189645 1.3739 50 40 28 
0.276755 0.199149 1.40214 41 29 17 
0.191621 0.193375 1.32149 54 46 35 
0.00707086 0.198461 1.29545 123 115 104 
0.167055 0.196763 1.31055 143 133 121 
0.126983 0.198489 1.29507 47 36 16 
0.254815 0.206546 1.37759 172 162 150 
0.282695 0.209669 1.40347 165 155 143 
0.237503 0.207338 1.36271 136 126 116 
0.13757 0.201735 1.29733 140 125 102 
0.036277 0.204831 1.28483 129 122 112 
0.0589285 0.205064 1.28526 137 126 108 
0.177678 0.20502 1.31238 100 90 78 
0.222715 0.210062 1.35383 131 121 111 
0.232953 0.21706 1.36191 155 146 131 
0.140702 0.210497 1.29159 23 13 4 
0.231113 0.222461 1.34993 30 16 3 
-0.00340127 0.223105 1.2867 17 8 0 
-0.0356173 0.231561 1.31591 102 95 89 
0.168957 0.21989 1.2991 21 11 2 
0.129419 0.223184 1.28334 132 120 106 
0.0575797 0.227125 1.27431 10 0 0 
0.141515 0.225259 1.28524 34 22 8 
0.178085 0.229899 1.29678 133 125 112 
-0.183156 0.276195 1.44951 7 0 0 
0.232802 0.239608 1.34439 8 0 0 
0.251546 0.242639 1.35763 26 18 5 
0.129825 0.234279 1.28014 62 49 32 
-0.149769 0.274411 1.39864 96 93 88 
0.148083 0.238636 1.28086 106 96 86 
0.182164 0.241907 1.29193 116 108 97 
0.253907 0.254812 1.35177 134 125 110 
0.246017 0.262697 1.3423 141 129 113 
0.0749791 0.257336 1.26147 16 7 0 
-0.109933 0.284248 1.34676 106 103 96 
0.158048 0.258046 1.27491 129 117 103 
0.148907 0.263055 1.26905 26 16 4 
0.183667 0.265107 1.28169 16 6 0 
0.242631 0.274424 1.33369 161 151 141 
0.270043 0.279943 1.35225 35 25 15 
-0.0994065 0.293342 1.33581 104 95 88 
0.0254589 0.273512 1.25768 99 95 86 
0.0913024 0.271694 1.25578 32 25 9 
0.119359 0.27198 1.25818 19 12 0 
0.10153 0.272938 1.25437 161 153 142 
0.187257 0.277445 1.2758 31 21 9 
0.219005 0.289029 1.31006 20 8 0 
0.25721 0.293291 1.33453 37 25 11 
0.262196 0.302707 1.33558 59 50 33 
0.215621 0.296994 1.30046 49 40 25 
-0.012617 0.303827 1.26785 89 84 78 
0.228743 0.301754 1.30247 138 130 119 
0.147745 0.294133 1.25596 27 19 8 
0.254368 0.306329 1.32141 73 65 52 
-0.0146577 0.311586 1.26011 101 97 86 
0.0644 0.308591 1.2366 27 15 1 
0.16657 0.310201 1.25066 35 25 15 
-0.176236 0.364529 1.39923 10 7 2 
0.304526 0.330945 1.34734 42 34 21 
0.0906149 0.315845 1.23145 20 17 8 
0.0713264 0.318747 1.22995 107 98 89 
0.259344 0.337608 1.29207 21 11 2 
0.0987616 0.329426 1.22895 102 98 89 
-0.0722796 0.350612 1.25825 89 84 80 
0.230723 0.341135 1.26587 125 118 108 
0.281789 0.35032 1.29944 131 121 111 
0.170156 0.344233 1.23739 130 120 111 
0.272163 0.358175 1.28794 46 39 29 
0.209373 0.353144 1.2489 120 114 102 
0.0935799 0.352889 1.21753 103 97 85 
0.231185 0.366218 1.25776 8 0 0 
-0.13036 0.413315 1.28643 97 94 85 
0.176493 0.385257 1.22 126 118 107 
-0.0311873 0.397608 1.22142 106 101 98 
0.0982218 0.387185 1.20255 143 139 128 
0.162115 0.402761 1.21011 54 45 36 
-0.167568 0.455939 1.32009 17 13 4 
-0.0919871 0.435244 1.24166 16 12 1 
-0.13561 0.451893 1.28111 15 6 0 
-0.0229824 0.428212 1.20697 15 12 3 
0.134292 0.423025 1.18351 56 48 37 
-0.14886 0.474239 1.28485 130 121 114 
0.111871 0.435221 1.16728 96 92 81 
-0.0948698 0.469509 1.22403 128 120 117 
-0.189406 0.517221 1.32498 105 98 90 
-0.205246 0.554194 1.31906 120 116 107 
-0.126225 0.519139 1.21512 101 96 92 
-0.145729 0.530304 1.23611 124 114 112 
-0.179082 0.550729 1.27009 128 119 112 
-0.0370363 0.501408 1.16093 21 11 2 
-0.142805 0.539156 1.2242 125 122 113 
-0.0060998 0.506372 1.14413 136 126 116 
-0.173622 0.569721 1.25862 109 105 96 
-0.185495 0.577092 1.26887 89 85 74 
-0.12866 0.54888 1.20728 122 113 104 
0.0456459 0.507827 1.13067 129 125 113 
-0.000168909 0.517598 1.13761 106 100 88 
-0.0748396 0.537141 1.16393 163 154 145 
-0.146316 0.568864 1.22269 113 107 95 
0.0177863 0.517006 1.12661 56 50 36 
-0.210778 0.612058 1.30649 120 115 109 
-0.177275 0.586708 1.25383 124 118 106 
-0.111027 0.55109 1.18094 171 162 145 
-0.0564371 0.52335 1.11236 40 34 20 
-0.0670859 0.531406 1.11525 65 62 57 
-0.111304 0.545747 1.13891 44 40 28 
0.0212096 0.516898 1.08806 111 108 99 
-0.188771 0.585308 1.20086 10 1 0 
-0.205322 0.601328 1.22223 17 8 1 
-0.178356 0.584338 1.1858 83 73 63 
-0.214395 0.606279 1.22547 91 84 78 
-0.124102 0.560558 1.14046 95 86 77 
-0.158641 0.577413 1.16347 120 110 98 
-0.0830121 0.548512 1.11117 76 72 63 
-0.228029 0.624613 1.24869 4 0 0 
-0.21816 0.616923 1.23294 136 135 131 
-0.059118 0.554232 1.09809 92 85 75 
-0.172391 0.596016 1.1682 22 12 0 
-0.123672 0.578404 1.13191 106 96 86 
-0.0734753 0.564887 1.10153 115 106 91 
-0.00229885 0.554264 1.07202 119 109 97 
-0.111252 0.58372 1.11509 135 125 115 
-0.0660494 0.570943 1.08998 21 11 0 
0.0070723 0.555439 1.06147 21 19 4 
-0.0204715 0.562434 1.03783 152 145 129 
0.0171084 0.561404 1.02146 174 168 144 
-0.043583 0.569496 1.01994 141 140 120 
0.0232952 -1.74465 2.80552 239 240 244 
0.01284 -1.72758 2.82212 47 55 66 
0.0444049 -1.57693 2.63917 133 124 117 
0.0363559 -1.56599 2.63774 54 51 42 
0.0129082 -1.48404 2.59599 135 126 119 
0.0345699 -1.51094 2.64447 23 19 20 
0.0759134 -1.48212 2.62606 71 66 63 
0.0873725 -1.47069 2.63543 233 234 236 
0.00731404 -1.35703 2.49899 137 129 118 
0.0403244 -1.33943 2.48206 22 14 11 
0.0683754 -1.12427 2.27739 119 110 101 
0.0571281 -1.10683 2.26332 112 104 93 
0.0198703 -1.06068 2.22144 25 18 12 
0.0601747 -1.06154 2.22449 112 109 102 
-0.0210745 -0.96128 2.12578 133 129 117 
-0.00523947 -0.961849 2.12521 129 125 114 
-0.00800465 -0.952683 2.11885 44 40 31 
-0.0221133 -0.943039 2.10638 137 133 121 
-0.0136762 -0.928126 2.09245 139 136 121 
0.0318458 -0.784093 1.92197 101 91 81 
-0.0889621 -0.816934 2.04527 129 125 114 
-0.0140183 -0.77987 1.94169 10 1 2 
-0.0218307 -0.782182 1.9508 87 85 73 
-0.02347 -0.763223 1.9345 91 88 83 
0.128145 -0.756797 1.91271 17 13 12 
-0.11395 -0.789175 2.04972 88 79 70 
-0.0819409 -0.742956 1.95526 5 0 0 
0.0413956 -0.728136 1.89881 105 96 87 
0.128603 -0.736254 1.90635 40 38 26 
0.0778605 -0.730947 1.9054 79 79 69 
-0.101066 -0.737911 1.98309 76 73 68 
-0.0492561 -0.679322 1.858 118 110 108 
-0.108001 -0.710603 1.95565 112 107 103 
-0.126496 -0.722812 1.99481 119 116 111 
-0.0585675 -0.675641 1.86328 128 124 115 
0.104422 -0.682323 1.86233 89 84 80 
-0.00209739 -0.643781 1.82716 107 100 92 
0.134451 -0.641896 1.8293 42 36 36 
0.126681 -0.631214 1.81429 130 127 120 
0.109263 -0.617197 1.80647 86 82 79 
-0.0783513 -0.605994 1.81322 21 14 6 
-0.0894549 -0.611924 1.83403 115 108 98 
-0.0648466 -0.590045 1.7829 35 32 23 
0.125784 -0.596253 1.78995 96 93 88 
-0.0757713 -0.582347 1.79644 116 112 103 
0.0491414 -0.565967 1.75928 108 104 95 
0.0732656 -0.557937 1.7505 90 87 82 
-0.0661229 -0.54517 1.74186 102 99 94 
-0.0942431 -0.555005 1.78583 51 48 41 
-0.175421 -0.593477 1.92479 33 30 25 
-0.15751 -0.575962 1.87545 34 31 26 
-0.184131 -0.58622 1.93115 121 118 111 
-0.0043946 -0.499331 1.66819 135 133 120 
0.106651 -0.481427 1.64989 25 22 17 
-0.0311988 -0.468591 1.64237 14 11 4 
0.00547243 -0.456911 1.62134 111 108 99 
0.118508 -0.432682 1.62763 14 11 6 
0.0428725 -0.411163 1.59909 10 6 7 
0.124166 -0.401213 1.61319 7 2 0 
0.080912 -0.385135 1.59659 1 0 0 
0.10111 -0.385834 1.5999 11 10 8 
-0.123257 -0.372938 1.65524 3 0 0 
-0.276931 -0.392873 1.88108 115 111 99 
-0.200852 -0.356815 1.72177 25 21 18 
-0.0259648 -0.323753 1.57106 29 26 21 
0.111198 -0.332446 1.57638 106 101 97 
0.0101615 -0.322731 1.56241 12 5 0 
0.168697 -0.328636 1.58988 137 133 124 
-0.222451 -0.33483 1.74799 14 9 6 
-0.0937746 -0.302009 1.59636 86 83 76 
0.0452896 -0.29698 1.56561 130 127 122 
0.242627 -0.322397 1.64165 20 15 11 
0.0971312 -0.293901 1.54854 104 99 95 
0.30277 -0.330413 1.6882 105 101 90 
-0.03092 -0.286069 1.56743 119 119 111 
0.097345 -0.284458 1.53986 126 123 116 
-0.0485173 -0.278853 1.57556 89 85 82 
0.168095 -0.287508 1.56427 19 16 9 
0.120857 -0.280863 1.54693 114 109 105 
-0.000880506 -0.265852 1.53163 11 8 3 
-0.0135245 -0.26091 1.53187 120 116 105 
0.0315252 -0.26333 1.52962 6 0 0 
-0.12099 -0.267208 1.61882 79 73 73 
0.0958367 -0.260277 1.52424 112 109 104 
0.130033 -0.260014 1.53775 73 70 65 
-0.114781 -0.255643 1.60669 76 75 71 
0.143337 -0.254857 1.54106 23 18 12 
-0.0241141 -0.240811 1.52708 91 85 73 
0.172423 -0.254817 1.54896 25 20 17 
-0.0337669 -0.235163 1.54831 8 4 5 
-0.0716943 -0.229401 1.56987 6 5 1 
0.120254 -0.231287 1.51981 8 3 0 
-0.0286187 -0.225409 1.54298 101 100 98 
-0.123185 -0.226704 1.60253 38 34 31 
-0.221729 -0.242423 1.75049 87 84 77 
0.108233 -0.222707 1.51261 102 98 89 
0.0346767 -0.215856 1.4989 86 86 74 
0.127919 -0.22133 1.51719 38 33 27 
0.077348 -0.214469 1.49858 88 79 70 
0.141329 -0.219081 1.51841 17 13 4 
-0.00815973 -0.206999 1.50092 16 11 8 
0.0226696 -0.206752 1.49681 110 107 98 
-0.195009 -0.219075 1.68577 4 3 0 
0.226 -0.216541 1.58782 122 113 104 
0.137908 -0.197788 1.50586 90 87 78 
-0.0904683 -0.184552 1.55644 89 86 81 
-0.0642595 -0.16848 1.52828 92 88 85 
0.0259285 -0.166272 1.47301 90 88 76 
0.140843 -0.174235 1.49568 18 14 5 
0.118009 -0.170457 1.48492 97 90 80 
-0.0892679 -0.163583 1.54174 60 54 54 
-0.0251294 -0.159489 1.48417 97 92 86 
0.147343 -0.167576 1.49085 46 42 33 
-0.108151 -0.158173 1.55441 72 67 63 
-0.020615 -0.149039 1.47756 24 14 13 
0.0460649 -0.15205 1.46984 19 10 3 
-0.0394847 -0.150391 1.50598 74 70 67 
0.117547 -0.154511 1.47688 99 92 84 
0.160484 -0.151492 1.49385 97 93 82 
-0.00720804 -0.134994 1.46845 18 15 10 
0.1572 -0.14313 1.48798 84 75 66 
0.130291 -0.137186 1.47385 107 97 87 
-0.0857923 -0.128727 1.52018 8 7 3 
-0.0167638 -0.123637 1.46118 85 81 72 
0.0240261 -0.121419 1.4529 91 87 78 
0.133068 -0.128243 1.46477 98 94 85 
0.22287 -0.135655 1.53863 110 103 93 
-0.0118402 -0.115224 1.45419 19 16 11 
0.245337 -0.137646 1.55961 44 36 23 
0.077249 -0.118576 1.45116 32 29 20 
0.161379 -0.121588 1.47381 9 2 0 
-0.0244554 -0.109113 1.46549 23 22 18 
0.0699299 -0.11059 1.44596 12 8 0 
-0.0803378 -0.106668 1.50492 78 74 71 
0.0288788 -0.106765 1.4447 110 106 95 
-0.106591 -0.1042 1.5286 49 45 42 
-0.0517517 -0.102718 1.48895 23 19 16 
0.017965 -0.102465 1.44429 125 121 118 
0.055512 -0.104418 1.44522 6 3 0 
0.140533 -0.109146 1.45652 130 123 113 
-0.00786677 -0.0988095 1.44417 140 133 127 
0.217683 -0.113051 1.52364 9 1 0 
0.0022306 -0.0936213 1.44383 7 3 2 
0.253612 -0.111863 1.55023 85 77 64 
0.108425 -0.0959418 1.44138 90 81 72 
0.223988 -0.105648 1.51959 46 38 27 
-0.0248292 -0.0880615 1.46586 8 4 1 
-0.0901355 -0.0815558 1.49838 9 5 2 
0.143859 -0.0904664 1.44294 29 20 11 
0.173069 -0.0929932 1.46197 90 83 73 
0.16153 -0.0862969 1.4537 107 98 89 
0.029179 -0.0739128 1.4283 86 83 76 
-0.0140362 -0.0692222 1.4313 82 77 73 
0.0434706 -0.0718463 1.42523 30 26 15 
0.000100528 -0.068806 1.43077 19 16 11 
0.182378 -0.0796594 1.45977 32 28 17 
-0.0763818 -0.0661873 1.48175 75 70 66 
0.196103 -0.0744821 1.47854 117 109 98 
0.106261 -0.0654547 1.42744 24 20 9 
0.218258 -0.0737051 1.50593 83 71 59 
-0.0134318 -0.0482174 1.42285 56 53 48 
0.239583 -0.0645271 1.51319 16 4 0 
-0.0411994 -0.0423353 1.45259 22 18 15 
0.235136 -0.0538392 1.50245 128 122 110 
0.248776 -0.0528777 1.51634 116 110 98 
0.121625 -0.0428096 1.41477 43 39 28 
0.22549 -0.047915 1.49252 106 100 86 
0.208736 -0.0391357 1.47854 78 69 54 
0.233904 -0.0387082 1.49449 132 126 114 
0.0267224 -0.0207603 1.3984 87 78 69 
-0.0731558 -0.0117692 1.45465 79 76 71 
-0.0922231 -0.0072047 1.47367 113 110 105 
-0.0455695 0.00483784 1.43237 3 0 0 
-0.0308521 0.00526934 1.42354 88 84 81 
-0.0138231 0.00429248 1.39731 14 7 1 
0.134632 -0.00251979 1.39294 107 98 89 
0.119989 -0.000648288 1.39535 96 88 77 
-0.0582178 0.0107158 1.43455 71 70 68 
0.245306 -0.00364001 1.48439 142 132 123 
0.0489376 0.0104745 1.3808 30 26 17 
0.0179956 0.0232974 1.37679 101 92 85 
0.13515 0.0176101 1.38681 95 85 73 
0.249757 0.015428 1.47505 124 111 95 
-0.0508889 0.0349883 1.41908 115 110 106 
-0.0626028 0.037531 1.42124 86 81 77 
0.207605 0.0240412 1.44327 116 106 96 
0.0569339 0.0347858 1.36704 90 83 73 
0.231308 0.0279937 1.45626 110 100 88 
0.153183 0.0327013 1.3896 14 4 0 
0.136062 0.03435 1.38258 100 94 82 
0.215456 0.0328207 1.43985 124 114 102 
0.176561 0.0346389 1.39548 37 29 18 
0.242485 0.0436321 1.45952 76 64 50 
0.123785 0.0481512 1.37114 116 107 98 
0.0138666 0.055441 1.36616 89 82 72 
0.0399595 0.0552793 1.35132 4 0 0 
-0.0716348 0.0665693 1.41261 88 84 81 
-0.0463968 0.0701768 1.39738 94 89 86 
0.119809 0.0599753 1.36449 22 14 3 
0.0580557 0.0656505 1.35564 87 78 69 
-0.0764024 0.0773573 1.41158 94 91 82 
0.154076 0.0667083 1.37234 101 93 80 
0.214919 0.0676616 1.42314 126 116 104 
0.0921008 0.0737391 1.354 93 91 79 
0.0180774 0.0827639 1.34888 8 4 0 
-0.0101204 0.0868442 1.35816 6 0 0 
0.17746 0.0788975 1.37454 107 97 87 
0.239544 0.0881141 1.43334 13 3 0 
0.210225 0.0993118 1.40887 119 109 97 
0.187074 0.104023 1.36462 19 10 1 
0.0420598 0.111474 1.33321 26 22 11 
-0.09471 0.127041 1.39931 94 89 83 
0.242322 0.111977 1.41769 119 109 97 
-0.0796622 0.128967 1.38872 76 72 69 
0.0922932 0.116231 1.329 128 121 115 
0.175943 0.114458 1.35712 21 17 5 
0.175937 0.124117 1.35227 22 14 3 
0.088009 0.127139 1.32368 92 83 74 
0.164631 0.126599 1.34388 126 116 107 
0.224338 0.130369 1.39683 144 134 122 
0.076962 0.1363 1.31896 4 0 0 
-0.0950582 0.154103 1.39391 98 94 83 
0.00956963 0.143674 1.3215 17 8 0 
0.171656 0.144205 1.3311 114 105 98 
0.0208674 0.151632 1.31168 102 95 89 
0.0590978 0.154891 1.30564 78 74 65 
-0.0241234 0.163162 1.33704 94 91 84 
-0.00930248 0.164125 1.31736 75 69 57 
0.165648 0.159491 1.34228 112 104 93 
0.217788 0.166194 1.37326 58 50 39 
0.179842 0.163206 1.3316 56 43 34 
0.246929 0.16876 1.39092 23 15 2 
0.16259 0.166255 1.32247 113 105 94 
0.108018 0.170199 1.30847 32 23 14 
0.190195 0.172655 1.33035 52 42 32 
0.21959 0.177671 1.36569 120 114 100 
0.17775 0.180285 1.32334 126 118 105 
0.249663 0.194982 1.3744 143 131 119 
0.159459 0.189333 1.31084 55 48 40 
-0.171761 0.233802 1.44965 112 107 101 
-0.0865265 0.214669 1.3516 82 78 69 
0.0179528 0.201745 1.28956 34 30 19 
0.113152 0.198585 1.29764 17 4 0 
-0.0245734 0.212182 1.30695 86 81 75 
-0.144809 0.236347 1.40582 9 4 0 
0.189993 0.205703 1.31442 44 35 26 
-0.0849467 0.225452 1.34941 25 22 15 
-0.135022 0.237201 1.39234 36 32 23 
0.24357 0.216289 1.36554 44 35 20 
0.0557716 0.214779 1.2813 16 4 0 
0.0269528 0.218303 1.28122 34 26 15 
0.26907 0.225801 1.37822 113 103 91 
0.214415 0.223438 1.33963 98 94 83 
0.257509 0.228207 1.37136 29 19 9 
0.0409442 0.224281 1.27599 96 91 85 
0.0108619 0.227009 1.28016 106 97 88 
0.0295699 0.234831 1.27166 37 27 17 
0.0344485 0.2436 1.26733 41 33 22 
0.243819 0.250434 1.34552 43 31 17 
0.0661869 0.242066 1.2636 156 148 127 
0.229091 0.250441 1.33766 89 79 67 
-0.00506772 0.251781 1.28559 12 5 0 
-0.18691 0.296984 1.44618 12 8 0 
0.193431 0.24915 1.29021 22 12 3 
-0.121614 0.281115 1.35912 18 14 11 
0.286953 0.269829 1.37064 125 117 104 
-0.0596601 0.280002 1.3114 96 87 82 
0.259379 0.280694 1.34527 136 129 113 
0.228579 0.277923 1.32044 99 87 71 
-0.0648094 0.29262 1.31577 14 7 0 
-0.138616 0.307483 1.36632 23 19 8 
0.184518 0.28531 1.26755 21 10 4 
-0.0035106 0.296918 1.26107 111 107 98 
0.160495 0.293418 1.25929 69 56 47 
-0.0402527 0.308325 1.27962 15 5 3 
0.0637573 0.294816 1.23855 25 20 16 
-0.024605 0.309234 1.26855 23 18 15 
-0.0998629 0.327803 1.31351 12 7 1 
0.235944 0.309133 1.29954 138 131 121 
-0.147079 0.352081 1.36179 21 14 6 
0.207228 0.314124 1.27014 115 106 97 
0.260568 0.323649 1.30796 22 12 2 
0.134754 0.319308 1.24023 33 26 20 
0.229664 0.325402 1.2755 99 89 79 
0.202245 0.323267 1.25254 40 31 22 
0.12323 0.325188 1.23625 124 114 102 
0.246905 0.341276 1.2779 47 37 27 
0.26099 0.344674 1.28341 36 30 18 
0.198247 0.342229 1.24898 60 53 43 
0.105426 0.339892 1.2249 108 101 91 
0.261697 0.35525 1.28301 33 25 14 
0.18141 0.349579 1.24157 60 48 34 
0.0440508 0.349554 1.21247 11 7 0 
0.278725 0.366707 1.2897 37 27 15 
0.196149 0.359802 1.24082 44 38 26 
0.117187 0.359816 1.21531 102 93 84 
0.262199 0.37284 1.27505 22 16 4 
0.168143 0.370524 1.22639 120 112 101 
0.0998724 0.370621 1.20757 43 39 27 
0.00905944 0.377609 1.21642 20 15 12 
0.295044 0.400737 1.28898 72 62 50 
0.226704 0.39359 1.24207 63 53 43 
0.175063 0.402578 1.21055 67 59 48 
0.0502913 0.405089 1.19581 101 97 88 
-0.0668585 0.445175 1.22023 23 18 14 
0.0223542 0.436058 1.18724 5 0 0 
-0.0662054 0.460183 1.20351 86 81 77 
-0.159319 0.498395 1.27885 52 41 37 
0.154108 0.446747 1.16441 132 124 113 
-0.0400939 0.465433 1.18071 90 83 77 
0.00462563 0.461555 1.16104 26 22 13 
-0.157413 0.511094 1.26051 98 96 84 
0.102156 0.462972 1.15118 32 27 23 
-0.116956 0.500833 1.21138 101 96 90 
-0.217529 0.568261 1.3541 29 25 16 
-0.115832 0.526301 1.20236 110 101 94 
-0.112034 0.532991 1.1956 102 93 84 
-0.101133 0.533201 1.18919 34 24 14 
0.018594 0.504859 1.13751 9 0 0 
-0.09574 0.532074 1.17987 27 16 10 
-0.0544751 0.529619 1.15323 93 90 75 
-0.0136617 0.520132 1.13333 152 143 128 
-0.0452441 0.517732 1.10654 127 125 113 
-0.0321914 0.515267 1.10107 137 131 119 
-0.089854 0.530877 1.12603 165 159 145 
-0.0217935 0.516411 1.09939 7 5 0 
-0.0800654 0.530872 1.12388 41 35 23 
-0.0393462 0.528449 1.10975 107 100 90 
-0.128662 0.551864 1.14759 10 2 0 
-0.155207 0.563876 1.16569 86 79 73 
-0.139279 0.557932 1.15449 70 63 55 
-0.0969863 0.543586 1.12633 99 90 81 
-0.235404 0.626899 1.26522 74 70 61 
-0.166884 0.578246 1.17205 112 103 94 
-0.0302834 0.538766 1.09082 82 80 68 
-0.100737 0.556021 1.11936 94 85 76 
-0.104474 0.56338 1.12841 19 10 1 
-0.150309 0.584508 1.15012 76 71 65 
-0.0175261 0.547342 1.08392 23 16 8 
-0.0057984 0.547222 1.0802 98 94 83 
0.00789026 0.54513 1.0775 106 101 95 
-0.0877225 0.566258 1.10485 36 28 15 
-0.210323 0.628659 1.20834 89 80 65 
-0.0339279 0.55779 1.08599 36 33 26 
-0.156991 0.596632 1.15072 13 9 0 
-0.144506 0.592955 1.14453 120 114 100 
-0.116872 0.582164 1.12306 115 105 93 
-0.128033 0.589919 1.12421 28 19 4 
-0.079536 0.573978 1.0954 1 1 0 
-0.0890877 0.577412 1.10098 8 0 0 
-0.0953076 0.585545 1.11376 15 5 0 
-0.00388394 0.557495 1.0576 150 145 126 
-0.0420052 0.564366 1.06416 143 138 119 
-0.0718116 0.571871 1.06988 86 77 60 
-0.0561739 0.566408 1.05237 82 75 57 
-0.04457 0.565087 1.04087 33 31 10 
0.00518363 0.558333 1.03162 172 170 147 
0.0381588 0.558812 1.03456 132 123 106 
-0.0602806 0.570984 1.01613 53 41 15 
-0.0122784 -1.73349 2.82373 113 117 120 
0.00450324 -1.57868 2.64385 129 120 113 
0.0225439 -1.48014 2.59018 33 33 33 
0.0189037 -1.40171 2.53515 34 24 22 
0.0932666 -1.43744 2.61391 231 232 234 
-0.021049 -0.971429 2.13194 63 55 52 
-0.0365797 -0.935566 2.1056 133 126 110 
-0.0552964 -0.859339 2.03958 139 136 121 
-0.14266 -0.934442 2.24827 91 82 73 
-0.0461326 -0.803791 1.97688 109 100 85 
-0.0144853 -0.782972 1.92188 25 19 19 
0.0175366 -0.763515 1.91705 113 101 89 
-0.0815336 -0.791132 2.00721 129 125 113 
-0.144421 -0.686099 1.98302 88 86 73 
-0.204586 -0.713066 2.09111 9 7 12 
0.0280381 -0.629878 1.81722 106 102 91 
0.00613593 -0.569222 1.74917 113 109 97 
-0.161559 -0.590862 1.90684 93 90 85 
0.032064 -0.484277 1.64899 59 58 54 
-0.147066 -0.445527 1.70827 45 41 32 
-0.246539 -0.491023 1.91292 218 220 219 
-0.203031 -0.406336 1.72466 113 110 103 
0.0659372 -0.350926 1.57362 83 80 75 
0.33092 -0.410576 1.76978 102 101 99 
0.112685 -0.351375 1.58264 104 100 97 
-0.205541 -0.346149 1.72102 84 83 78 
-0.17415 -0.337196 1.68399 3 2 0 
-0.0588975 -0.279954 1.58452 67 63 60 
-0.166647 -0.290281 1.68698 80 76 73 
-0.0303897 -0.271754 1.55398 108 105 96 
0.233711 -0.301346 1.6389 25 21 20 
0.122602 -0.269019 1.53674 96 93 86 
0.0328241 -0.234608 1.51371 86 85 80 
0.353194 -0.28662 1.75435 85 80 74 
0.168287 -0.23744 1.53728 104 100 89 
-0.0985222 -0.226946 1.58018 79 78 76 
0.336815 -0.269761 1.74033 111 108 101 
-0.0889542 -0.217638 1.5643 80 76 73 
0.0480147 -0.186569 1.47085 121 119 107 
-0.115499 -0.18629 1.57157 66 62 59 
-0.18165 -0.179916 1.64406 10 6 3 
0.0364636 -0.159273 1.47141 91 89 77 
0.0824883 -0.150601 1.46737 86 77 68 
0.140771 -0.151763 1.48131 93 85 72 
0.0661747 -0.124699 1.45086 69 65 54 
-0.0339827 -0.10963 1.48147 71 66 63 
0.00602001 -0.10254 1.44864 98 91 83 
0.308714 -0.117731 1.61826 13 8 2 
0.115003 -0.0858295 1.43429 85 78 68 
0.124255 -0.0868101 1.44347 86 84 72 
-0.0833902 -0.0771667 1.48869 95 94 90 
-0.0450839 -0.0738751 1.46954 71 68 63 
-0.0220201 -0.0643397 1.43699 55 50 46 
-0.0761218 -0.0576885 1.4636 73 68 65 
-0.0393049 -0.0595267 1.475 5 1 0 
0.20811 -0.0648063 1.48745 132 128 116 
-0.0995336 -0.0445874 1.49019 8 3 0 
0.107707 -0.0349751 1.41144 27 20 10 
-0.0516642 -0.00246919 1.43658 67 63 60 
0.223669 -0.00571602 1.46791 73 61 47 
0.0721627 0.0242616 1.36936 18 11 5 
0.113205 0.026485 1.38008 94 88 76 
0.164741 0.0244187 1.39751 59 49 40 
0.0817359 0.0359829 1.36835 94 87 77 
0.206203 0.0415356 1.4323 94 84 72 
-0.196441 0.0720193 1.56229 90 87 82 
-0.0900184 0.0806489 1.4042 96 92 83 
-0.0549571 0.0825632 1.39496 88 84 75 
-0.0824713 0.0990275 1.40967 76 66 56 
-0.0151431 0.0969085 1.36436 75 68 60 
-0.00706874 0.0951078 1.34763 107 99 86 
0.101496 0.124922 1.32345 107 99 88 
0.150675 0.142676 1.33208 87 79 68 
-0.0734467 0.169878 1.36509 16 5 0 
0.122605 0.179744 1.30735 42 32 20 
0.0478382 0.205438 1.28463 99 95 86 
0.294348 0.239289 1.4005 57 50 34 
0.283855 0.260908 1.37563 66 53 37 
0.176733 0.301347 1.2591 72 61 55 
0.097491 0.303213 1.23763 119 114 108 
0.245813 0.32216 1.28858 121 113 102 
0.0273523 0.32309 1.23166 80 76 67 
-0.154301 0.37294 1.34145 97 93 84 
0.0284139 0.332411 1.22522 93 89 78 
0.160552 0.381102 1.22051 124 112 96 
-0.050666 0.442289 1.20985 90 85 79 
0.147348 0.436243 1.17137 63 57 45 
0.027496 0.476777 1.14836 15 6 0 
0.0424384 0.506942 1.09201 142 132 120 
-0.0498194 0.545827 1.09387 66 61 58 
-0.144448 0.590476 1.09974 53 47 35 
-0.158417 0.592971 1.10085 74 68 52 
0.00589442 0.563295 1.01549 68 63 44 
0.0478102 -1.60988 2.66064 51 51 49 
0.0443262 -1.55892 2.64653 131 126 107 
0.0277366 -1.49513 2.61054 34 32 35 
0.0952915 -1.33896 2.5151 68 67 65 
-0.0164636 -0.808445 1.95569 108 107 89 
0.093527 -0.753332 1.91006 20 12 10 
0.0677396 -0.476155 1.65034 146 141 122 
-0.127415 -0.103474 1.5688 18 14 11 
0.212073 0.260128 1.31169 116 106 96 
0.0807328 0.305311 1.23736 96 96 84 
-0.148648 0.563669 1.14812 83 75 62 
-0.137688 0.589898 1.13555 21 14 0 
-0.00123466 -1.53873 2.58886 133 127 113 
-0.0126973 -1.54942 2.64547 28 32 31 
0.0472543 -1.48109 2.59757 126 117 102 
0.191405 -0.348346 1.61079 3 5 4 
-0.115358 -0.320989 1.61226 2 2 0 
-0.0954615 -0.291133 1.61226 2 0 1 
-0.194815 -0.296816 1.69909 2 2 2 
-0.278995 -0.181212 1.95339 27 23 24 
0.114205 -1.3379 2.55359 71 70 66 
-0.21786 -0.848961 2.31066 96 92 80 
0.321155 -0.761198 2.17946 75 76 62 
-0.146705 -0.358392 1.64272 4 1 0 
-0.160439 -0.252897 1.6299 5 2 0 
-0.111602 -0.219682 1.57476 98 94 93 
-0.174971 -0.202165 1.62014 123 120 115 
-0.178577 -0.128875 1.59345 5 1 0 
-0.17482 -0.0273396 1.54192 110 107 100 
-0.17778 0.0107001 1.52951 6 1 0 
-0.0926382 0.0976529 1.40789 6 0 0 
-0.0791848 0.105599 1.39521 101 90 84 
-0.00632379 0.126451 1.33522 87 85 73 
-0.0467951 0.179206 1.34195 14 5 0 
-0.11027 0.223743 1.35713 113 109 100 
-0.114031 0.233556 1.35468 6 2 0 
-0.104262 0.248408 1.34126 148 140 137 
-0.111767 0.281261 1.3316 105 100 94 
-0.147669 0.308957 1.3548 17 7 5 
-0.102713 0.299428 1.31589 10 1 0 
-0.0887128 0.308634 1.30334 12 8 0 
-0.105289 0.314851 1.31118 148 137 131 
-0.0755043 0.320276 1.27793 25 20 14 
-0.0654637 0.328989 1.25937 99 94 90 
-0.123964 0.423112 1.24811 19 10 3 
-0.149355 0.514773 1.2012 121 111 110 
-0.135599 -0.397041 1.65144 91 87 78 
-0.164438 -0.239782 1.62858 11 8 3 
-0.11744 -0.198109 1.57078 14 10 7 
-0.113359 -0.177315 1.55741 89 86 81 
-0.109227 -0.143265 1.53777 12 9 4 
-0.0561664 0.0965265 1.38874 7 2 0 
-0.114399 0.141648 1.40164 32 28 19 
-0.105638 0.166523 1.38306 29 26 19 
-0.0981427 0.168889 1.37576 127 123 114 
-0.153384 0.21 1.40222 110 107 100 
-0.122221 0.246479 1.35579 5 1 0 
0.0156109 0.304641 1.23991 14 10 0 
-0.122217 0.353271 1.28441 16 13 6 
0.0210292 0.330932 1.22692 140 131 124 
-0.108453 0.367895 1.26064 116 113 106 
-0.185832 0.433477 1.31352 90 86 77 
-0.154061 0.432603 1.27383 9 6 1 
-0.103175 0.417147 1.23476 8 0 0 
-0.0629548 0.442463 1.18881 21 17 8 
-0.120125 0.503967 1.17952 104 100 91 
-0.178423 0.541165 1.22236 123 114 107 
-0.0961607 0.520303 1.15497 106 98 87 
-0.208259 -0.36937 1.70097 84 80 71 
-0.0663046 0.046972 1.4186 81 77 68 
-0.146617 0.234178 1.38799 8 4 0 
0.0717977 0.30193 1.23892 53 42 36 
0.153824 0.352252 1.23264 41 37 28 
-0.113874 0.386309 1.25635 123 119 110 
0.141073 -0.778187 1.91218 27 24 17 
0.143785 -0.767863 1.90713 139 138 133 
0.142479 -0.744271 1.88506 93 88 84 
0.145246 -0.735537 1.87888 152 150 137 
0.135047 -0.70143 1.84797 125 117 106 
0.0507064 -0.643144 1.80006 93 88 84 
0.0351852 -0.637813 1.79553 121 114 106 
0.106216 -0.630208 1.7883 132 129 120 
0.00191595 -0.590865 1.75363 120 115 109 
0.134346 -0.588117 1.7571 92 87 83 
0.0838313 -0.560336 1.73511 20 16 7 
0.165488 -0.538258 1.71226 51 45 31 
-0.0370317 -0.534153 1.70331 41 37 28 
0.156706 -0.526119 1.69664 146 144 131 
0.0194965 -0.526699 1.69464 141 139 127 
0.028103 -0.518295 1.68374 139 137 125 
0.112201 -0.516824 1.68428 39 37 25 
0.00438451 -0.516851 1.68 134 131 126 
0.147099 -0.503426 1.66867 143 136 126 
0.0613459 -0.466528 1.61966 86 78 65 
0.10557 -0.425003 1.60718 7 3 0 
0.108136 -0.415442 1.60445 99 95 92 
-0.0451763 -0.41597 1.62147 8 4 1 
0.0316359 -0.409777 1.59821 5 1 0 
-0.00150842 -0.404846 1.5994 98 95 88 
0.0806103 -0.396204 1.59195 7 2 0 
0.216359 -0.403141 1.64122 19 16 7 
0.226074 -0.393202 1.63977 44 43 38 
0.175821 -0.379119 1.60917 105 102 93 
-0.0668282 -0.382326 1.61668 110 103 97 
