ply                 
format ascii 1.0    
element vertex 81
property float x    
property float y    
property float z    
property uchar red  
property uchar green
property uchar blue 
end_header          
-0.0967874 -0.154455 1.5681 7 4 0 
-0.0785865 -0.0867896 1.52171 87 86 82 
-0.0557104 -0.0624457 1.50028 79 78 74 
0.0039952 -0.0375143 1.44958 19 11 8 
-0.0558104 0.0298473 1.45617 82 81 77 
-0.0605425 0.0874444 1.43073 105 101 92 
-0.0627682 0.184893 1.38438 11 0 0 
-0.0264654 0.213433 1.35412 21 16 10 
-0.0344624 0.214402 1.35744 5 1 0 
0.0217337 0.209801 1.32105 170 164 152 
-0.0916005 0.23694 1.37836 5 0 0 
0.0349241 0.274342 1.28949 124 120 109 
-0.0537521 0.291724 1.33152 124 119 115 
0.0372058 0.301927 1.2755 19 15 6 
0.021065 0.401913 1.23128 109 100 91 
0.00138159 0.416751 1.22929 144 140 137 
-0.0304672 0.522433 1.16651 147 139 128 
-0.0953831 0.540673 1.14418 83 78 74 
-0.075146 0.572382 1.11406 130 117 108 
0.00687939 -1.46071 2.59441 136 124 112 
0.0293794 -0.0848566 1.46849 81 73 70 
-0.0886259 -0.0436107 1.50876 83 79 76 
-0.0343313 0.0757107 1.42506 10 6 3 
-0.028411 0.138114 1.39174 108 101 93 
-0.0279003 0.216474 1.35317 97 93 84 
-0.031907 0.223372 1.35157 23 14 9 
-0.0449347 0.229067 1.3537 90 85 79 
0.0202232 0.224791 1.31545 88 79 70 
0.0142461 0.229301 1.31463 95 87 76 
-0.0245349 0.239448 1.34186 15 4 0 
-0.0369617 0.254473 1.3391 60 52 50 
-0.0477254 0.265417 1.3402 25 16 9 
-0.0342704 0.272526 1.33042 42 33 28 
-0.0367433 0.276061 1.3294 90 80 71 
0.030787 0.315908 1.26989 25 15 13 
0.033444 0.323008 1.26531 8 1 0 
0.0397716 0.328118 1.26187 94 86 83 
-0.0388222 0.349085 1.27204 72 68 65 
-0.0262953 0.358867 1.26297 4 0 0 
0.0550442 0.356429 1.24594 19 9 8 
-0.057891 0.373564 1.27085 25 22 17 
-0.0660143 0.38368 1.27052 71 66 63 
-0.0819234 0.47411 1.22051 25 18 10 
-0.0103735 0.486331 1.17721 110 106 95 
-0.00485083 0.494641 1.17314 114 105 100 
-0.0652119 0.513571 1.18752 104 101 94 
-0.0212317 0.508928 1.1698 8 0 0 
-0.0349291 0.511609 1.17504 18 11 1 
0.0107576 0.506565 1.16242 7 0 0 
-0.110414 0.528898 1.21091 99 88 82 
-0.105774 0.530684 1.20596 33 22 18 
0.0111391 0.521785 1.11333 68 65 56 
-0.0620842 0.537208 1.12776 14 9 6 
-0.164368 0.571497 1.18515 106 99 91 
-0.103081 0.557237 1.14052 16 13 4 
-0.085864 0.564528 1.1259 31 21 12 
-0.0779795 0.563222 1.12363 30 21 16 
-0.0817274 0.564857 1.1243 100 92 79 
-0.0220645 0.561298 1.09938 106 102 91 
-0.0434018 0.565312 1.10489 7 0 0 
-0.000649816 -1.55587 2.64557 129 119 109 
-0.0876447 0.0102675 1.48441 80 75 71 
-0.0837473 0.171554 1.40343 30 20 19 
0.0197574 0.180264 1.33723 82 73 66 
-0.0449665 0.229166 1.35349 90 85 79 
0.0157256 0.223121 1.3175 13 4 0 
-0.0322236 0.261694 1.33359 13 4 0 
-0.0800326 0.347421 1.29613 89 86 79 
-0.0686827 0.369496 1.27864 74 73 68 
-0.00372322 0.491271 1.17382 49 38 34 
-0.0547141 0.529013 1.12975 5 2 0 
-0.00817635 0.536338 1.10957 70 66 54 
-0.0310674 0.547115 1.11075 73 64 55 
-0.0400328 0.55995 1.10603 26 15 9 
-0.0197987 0.558354 1.0995 8 4 1 
-0.043552 0.56521 1.10478 7 0 0 
-0.168616 0.569589 1.19228 1 1 1 
-0.156376 0.569649 1.17978 112 103 96 
-0.0796867 0.572188 1.11595 5 0 0 
-0.0387088 -0.332259 1.61457 2 2 2 
-0.0232327 0.558118 1.10218 9 5 4 
