ply
format ascii 1.0
comment PCL generated
element vertex 1124
property float x
property float y
property float z
property uchar red
property uchar green
property uchar blue
element face 0
element camera 0
property float view_px
property float view_py
property float view_pz
property float x_axisx
property float x_axisy
property float x_axisz
property float y_axisx
property float y_axisy
property float y_axisz
property float z_axisx
property float z_axisy
property float z_axisz
property float focal
property float scalex
property float scaley
property float centerx
property float centery
property int viewportx
property int viewporty
property float k1
property float k2
end_header
-1.1038001 -0.356594 2.3225501 122 98 74
-1.08872 -0.35512701 2.3220999 83 62 45
-1.08453 -0.35519001 2.3203499 96 74 57
-1.08067 -0.354628 2.3187599 97 74 55
-1.04749 -0.35424799 2.3141501 144 116 88
-1.04361 -0.35425401 2.3131101 173 144 112
-1.04154 -0.35519499 2.3144901 165 135 102
-1.02468 -0.353304 2.31651 173 134 96
-1.02098 -0.35607699 2.31833 184 141 96
-0.98188299 -0.354132 2.3164899 149 118 87
-0.912907 -0.353634 2.3167801 181 143 102
-0.90879297 -0.35272399 2.31411 175 140 102
-0.90409702 -0.34986401 2.3078101 184 152 117
-0.88746798 -0.35029799 2.31076 195 160 123
-0.88289797 -0.34994099 2.30954 168 135 99
-0.863648 -0.35080999 2.3078799 179 144 107
-0.79841101 -0.34933099 2.30585 169 131 93
-0.69917202 -0.34504399 2.30356 136 100 67
-0.68930501 -0.342195 2.29351 196 158 121
-0.67335701 -0.34387001 2.3029001 147 107 70
-0.67046398 -0.34496599 2.3049099 147 108 73
-0.32418501 -0.099997804 1.55908 219 218 217
-0.21673401 -0.0831929 1.5083801 39 38 41
-0.13489801 -0.086208001 1.52482 224 224 228
-0.133286 -0.086431801 1.52551 223 223 227
-0.13138101 -0.084833004 1.52299 223 223 227
-0.124927 -0.082830802 1.51322 223 223 228
-0.123393 -0.084109001 1.51662 221 221 225
-0.086853899 -0.105182 1.5821199 235 204 166
-0.084763899 -0.105488 1.58181 236 204 169
-0.081584103 -0.103463 1.5817 236 202 166
-0.079456903 -0.103447 1.5814 227 191 158
-0.070596501 -0.104636 1.5814101 222 191 165
-0.067717999 -0.104786 1.58082 215 185 159
-0.0528889 -0.105249 1.5825599 196 182 166
-0.0505418 -0.104422 1.58316 187 173 157
0.613208 -0.085019402 1.54941 210 196 183
0.61442399 -0.086749397 1.55005 190 178 165
0.88556802 -0.30849001 2.24424 190 175 157
0.92773199 -0.30473101 2.2388501 175 159 141
0.95051801 -0.30499199 2.23439 159 138 119
0.95403701 -0.30480099 2.2343299 159 140 122
0.95549798 -0.302275 2.23544 155 137 119
0.89249098 -0.107721 1.63125 228 223 218
0.89985597 -0.109033 1.63404 228 224 217
-1.1224999 -0.35308599 2.3230801 90 67 47
-1.08534 -0.35199499 2.31511 76 56 38
-1.08271 -0.353066 2.3178401 92 71 54
-1.05323 -0.349911 2.31757 111 85 62
-1.0271 -0.351078 2.3149199 173 134 96
-1.02321 -0.350622 2.31637 167 126 85
-0.98446202 -0.35080001 2.3155799 166 135 107
-0.96703303 -0.35159799 2.31651 155 124 90
-0.94164503 -0.35093701 2.3151 128 95 65
-0.941908 -0.351125 2.3155701 127 95 65
-0.93964499 -0.346746 2.3117299 148 117 84
-0.93536401 -0.350835 2.3157699 158 124 89
-0.92954999 -0.34900501 2.31323 165 131 97
-0.870933 -0.34688899 2.30791 149 116 86
-0.86738002 -0.34698299 2.30634 160 126 96
-0.86370599 -0.34698099 2.3057499 170 136 103
-0.860569 -0.346939 2.30632 164 130 98
-0.858504 -0.346984 2.3097301 164 131 97
-0.79049897 -0.34496799 2.30497 143 110 77
-0.77212101 -0.345 2.3069899 164 129 93
-0.76914603 -0.34201699 2.3031199 162 128 91
-0.738177 -0.340956 2.3017001 138 106 71
-0.70126599 -0.341858 2.3027599 122 85 49
-0.67081499 -0.340933 2.30268 160 119 78
-0.33017701 -0.098740302 1.56265 207 202 198
-0.133285 -0.084626101 1.52422 224 224 228
-0.120517 -0.079616301 1.51413 221 221 225
-0.118421 -0.079108097 1.50977 221 221 226
-0.117036 -0.081252001 1.51429 216 216 221
-0.082643598 -0.101611 1.58119 236 203 166
0.87699699 -0.30326399 2.23685 179 163 148
0.883573 -0.30005401 2.2347801 184 169 151
0.88993102 -0.300392 2.23773 189 175 157
0.89530498 -0.30339 2.24418 193 179 162
0.92824501 -0.30017999 2.2348299 173 155 138
0.92999297 -0.30095801 2.2323201 170 151 134
0.943461 -0.301103 2.23528 159 139 123
0.94865298 -0.29950699 2.23208 156 136 119
0.95904499 -0.30170599 2.2411399 155 137 118
-1.12458 -0.34991601 2.3215799 75 54 37
-1.1174099 -0.34671399 2.31566 85 64 45
-1.02917 -0.34849799 2.3158901 187 148 108
-0.99900103 -0.34614 2.3136599 155 123 86
-0.994156 -0.346643 2.31757 151 119 85
-0.97969002 -0.34668899 2.31428 140 110 79
-0.963871 -0.34799099 2.31791 164 133 98
-0.96083701 -0.34837899 2.32042 186 157 119
-0.92469698 -0.34764999 2.31637 206 171 129
-0.92225897 -0.34575501 2.3192799 226 191 146
-0.91799802 -0.34501001 2.3180001 221 186 141
-0.896384 -0.34243199 2.30808 160 126 90
-0.83486497 -0.341631 2.3086901 127 95 62
-0.83044398 -0.34252399 2.3099501 151 120 90
-0.82370901 -0.340027 2.3032401 135 105 76
-0.82209802 -0.33948299 2.30406 130 100 71
-0.80674899 -0.34093899 2.30459 205 174 137
-0.80086499 -0.34116799 2.30599 171 137 102
-0.80066198 -0.33910599 2.30003 190 157 121
-0.79801899 -0.341178 2.3071101 145 111 76
-0.78815103 -0.34168601 2.30265 141 109 75
-0.78825599 -0.34154001 2.3029399 142 110 76
-0.767371 -0.33956501 2.30143 156 124 90
-0.69943202 -0.33866301 2.2989299 137 99 59
-0.66767198 -0.33919901 2.3013999 169 127 88
-0.59870201 -0.33809599 2.29895 121 90 59
-0.333269 -0.097353198 1.56864 196 189 179
-0.33071801 -0.095706001 1.56267 209 205 200
-0.33119401 -0.095791601 1.56258 207 202 196
-0.113644 -0.078345701 1.51595 212 212 217
0.880413 -0.29971501 2.2356901 179 163 146
0.944915 -0.29754499 2.23248 159 139 122
0.94822502 -0.29609099 2.2334299 158 138 121
0.952546 -0.298529 2.2345099 156 136 118
0.89936101 -0.103549 1.63201 226 221 215
-1.00791 -0.34195 2.3143101 191 156 122
-0.98128498 -0.34340999 2.3127999 169 139 109
-0.96084899 -0.34380701 2.3153701 171 139 105
-0.93965203 -0.33938599 2.30951 175 144 112
-0.83165997 -0.33552799 2.3012099 135 103 67
-0.79001701 -0.337446 2.3009601 147 114 82
-0.33318299 -0.095235802 1.56486 197 189 180
-0.329225 -0.093943402 1.55901 214 209 207
-0.111254 -0.076542102 1.51846 205 204 209
-0.109209 -0.076506503 1.51963 192 189 192
-0.0504984 -0.098128401 1.58252 194 180 163
-0.048612598 -0.096924603 1.5815099 167 154 137
-0.045642 -0.094799504 1.57844 169 156 140
0.61219001 -0.076954603 1.54609 215 202 190
0.88719702 -0.296893 2.2375 184 169 151
0.89141703 -0.29688999 2.23931 185 170 152
0.94498301 -0.29482201 2.2348599 160 140 123
0.95577002 -0.29462701 2.2366099 153 134 116
0.897874 -0.101182 1.63069 229 224 217
-1.06889 -0.341187 2.3182499 131 102 76
-1.03828 -0.34003401 2.3130801 176 141 104
-0.98687202 -0.338056 2.3122499 135 105 79
-0.98070598 -0.33980599 2.31145 157 127 97
-0.971973 -0.33999601 2.31142 144 116 85
-0.94859701 -0.33634201 2.30983 147 116 86
-0.93656498 -0.33575401 2.3096001 169 137 106
-0.91442502 -0.334712 2.3065801 204 167 122
-0.899418 -0.337277 2.3072901 147 112 76
-0.87170702 -0.334135 2.30739 156 116 77
-0.86751002 -0.334694 2.3042099 144 108 71
-0.85964698 -0.33312601 2.30422 157 122 89
-0.77815902 -0.33010101 2.2962999 172 131 93
-0.637564 -0.33603799 2.31354 165 122 83
-0.63468301 -0.33351001 2.3120501 186 144 103
-0.63075 -0.33423999 2.3068099 150 112 74
-0.109867 -0.078413203 1.52639 172 167 168
-0.052928802 -0.093715698 1.58075 198 185 167
0.61471498 -0.074853301 1.5477 194 180 168
0.891729 -0.29243299 2.2415199 180 164 147
0.95431799 -0.291224 2.2351501 154 135 116
0.829557 -0.169533 1.8469 123 108 96
0.89268398 -0.097515002 1.62757 226 218 207
-1.07613 -0.33967799 2.32533 118 91 67
-1.06648 -0.33555999 2.3111601 114 88 66
-1.06284 -0.337329 2.3119199 129 101 73
-1.05935 -0.33584401 2.31057 146 116 88
-1.02237 -0.335421 2.30953 154 122 93
-0.96785498 -0.335576 2.31218 184 154 124
-0.96455699 -0.33419201 2.31108 176 145 111
-0.945768 -0.33213899 2.30863 151 121 89
-0.92544401 -0.33419701 2.31323 197 164 122
-0.92106003 -0.33450001 2.3100901 213 177 131
-0.91808301 -0.334598 2.3078401 212 174 128
-0.91234303 -0.331884 2.30516 189 151 108
-0.90925598 -0.331871 2.30568 182 145 105
-0.905604 -0.33143699 2.3056901 172 135 97
-0.90144801 -0.33113 2.3039701 173 135 98
-0.898785 -0.33146501 2.3057699 180 142 105
-0.87450999 -0.33299401 2.3066399 150 111 70
-0.86861902 -0.33259401 2.3055501 169 130 92
-0.865722 -0.33141401 2.3043001 145 107 70
-0.862876 -0.33311999 2.30477 143 107 74
-0.86083698 -0.33034 2.30126 172 136 99
-0.80292702 -0.32774401 2.2962999 157 126 98
-0.72156501 -0.32734901 2.30005 170 139 106
-0.052374899 -0.091641299 1.5807199 199 185 167
-0.047925901 -0.090845898 1.58043 184 171 155
-0.045829099 -0.090789899 1.57916 170 157 141
0.61663699 -0.072685704 1.5479 164 152 140
0.88202 -0.28944299 2.2379301 170 153 135
0.883223 -0.28704801 2.23717 169 153 135
0.890872 -0.28843501 2.2391901 175 160 143
0.89702803 -0.29241899 2.24578 178 162 145
0.95515001 -0.28834301 2.23524 155 136 116
0.90593898 -0.094128899 1.62739 226 222 214
0.91417098 -0.093395501 1.62644 230 225 218
-1.08462 -0.336144 2.3176301 121 96 75
-1.0730799 -0.333821 2.3171899 91 66 46
-1.06681 -0.33235499 2.30935 105 81 59
-1.06036 -0.33260599 2.3104401 146 117 91
-1.05379 -0.33257601 2.3106899 146 112 79
-1.01445 -0.331826 2.3135099 155 123 90
-0.96813798 -0.332342 2.3105299 168 139 105
-0.92198098 -0.32814601 2.30653 178 147 108
-0.90598798 -0.33016399 2.30512 177 141 102
-0.90237099 -0.329162 2.30423 172 137 98
-0.89911699 -0.32879999 2.30424 183 148 110
-0.89515901 -0.32794899 2.3006001 183 148 111
-0.89411598 -0.32873899 2.3065701 152 116 79
-0.89024502 -0.32670999 2.3039899 138 104 71
-0.89033198 -0.33140901 2.3096499 185 150 113
-0.82653397 -0.32438999 2.2976501 159 123 86
-0.82307702 -0.326938 2.29972 168 135 97
-0.0510787 -0.089562602 1.57938 199 185 167
-0.048869599 -0.089568302 1.57866 198 183 167
0.611853 -0.066608898 1.53754 172 161 150
0.61551201 -0.070510298 1.54686 184 172 159
0.884018 -0.284143 2.2362399 167 151 133
0.883102 -0.282455 2.23209 167 151 133
0.88672602 -0.28504601 2.23528 170 154 136
-1.12745 -0.33244601 2.3195901 78 58 40
-1.12779 -0.33046499 2.31779 72 53 34
-1.12783 -0.33039799 2.31744 72 53 34
-1.0635999 -0.327575 2.30813 117 93 71
-0.98298901 -0.326424 2.30883 139 108 77
-0.97939599 -0.32603499 2.30881 143 111 77
-0.96434897 -0.329422 2.31374 175 144 108
-0.96085799 -0.32792601 2.3122699 183 152 115
-0.95534497 -0.32707101 2.3097401 176 147 112
-0.93537802 -0.32564801 2.30721 145 113 81
-0.92638499 -0.32358399 2.3032899 152 123 94
-0.92345703 -0.32400301 2.30374 176 147 114
-0.92315 -0.32573 2.3044 179 149 114
-0.918423 -0.32687899 2.3044701 173 141 102
-0.90574002 -0.32562 2.3009 181 146 107
-0.89290702 -0.32472199 2.30269 157 124 90
-0.88721299 -0.32530701 2.3034201 151 118 86
-0.72656202 -0.31959701 2.29636 146 118 88
0.010618 -0.084937401 1.57899 195 181 164
0.145634 -0.079975598 1.56696 173 160 147
0.95629501 -0.28272799 2.2383499 156 137 117
0.91253698 -0.089919098 1.62769 226 221 216
-1.12331 -0.328823 2.3140099 89 67 50
-1.0662 -0.32477599 2.3102701 105 82 61
-1.0161901 -0.322997 2.30937 148 107 69
-1.001 -0.32524401 2.31236 162 130 96
-0.99327499 -0.322442 2.3067 151 121 91
-0.989788 -0.32428199 2.3076301 145 113 84
-0.982876 -0.32295901 2.3062799 158 128 96
-0.97955197 -0.323006 2.3069201 154 123 88
-0.97450501 -0.32386401 2.30633 159 126 92
-0.935215 -0.32207 2.3052001 168 136 102
-0.93142998 -0.321888 2.30672 144 113 83
-0.927333 -0.32289401 2.30459 148 119 91
-0.922979 -0.32231599 2.3016601 167 137 107
-0.87053102 -0.32038999 2.2986901 186 145 98
-0.788683 -0.31739101 2.29444 146 115 82
-0.684282 -0.31543899 2.29668 166 132 96
-0.053714201 -0.084732004 1.58004 204 190 172
-0.0516208 -0.084663898 1.58022 208 193 176
-0.0490846 -0.084526397 1.5798399 208 194 177
-0.048468798 -0.0828541 1.57961 209 196 179
-0.046969801 -0.084481299 1.57871 202 189 172
0.0266513 -0.082935698 1.57763 193 180 163
0.157361 -0.072954103 1.55169 156 147 138
0.911762 -0.087533101 1.62817 227 222 216
-1.1256 -0.32534599 2.3133099 79 59 43
-1.12193 -0.325351 2.3128901 86 65 48
-1.08605 -0.32224399 2.3147299 108 84 64
-1.08188 -0.32360801 2.31355 94 67 47
-1.0300601 -0.32170799 2.30969 114 84 56
-1.02669 -0.32170701 2.31024 138 107 75
-0.98821902 -0.32143599 2.3060901 147 117 88
-0.97341102 -0.320115 2.3069301 149 118 85
-0.95514798 -0.32110301 2.30865 159 130 96
-0.95256501 -0.317976 2.30563 167 138 104
-0.93390101 -0.318831 2.3037801 162 130 95
-0.82363701 -0.31383201 2.2962999 151 120 85
-0.81726301 -0.31548101 2.2981901 136 106 75
-0.81848598 -0.31551999 2.2994201 137 107 76
-0.79089499 -0.3143 2.2948201 160 130 101
-0.78141201 -0.31501499 2.2962 167 133 97
-0.69100899 -0.312152 2.2958801 165 128 89
-0.68729299 -0.31146899 2.2941799 170 134 95
-0.055169199 -0.082977302 1.58021 202 189 171
-0.045155499 -0.080966897 1.57809 199 186 168
-0.043393001 -0.0814851 1.57726 193 180 162
0.93755001 -0.274793 2.23264 162 144 124
0.93608397 -0.27235699 2.23353 161 143 123
0.90962702 -0.083785497 1.62336 232 228 221
-1.12967 -0.321785 2.3162601 86 67 50
-1.12221 -0.32174301 2.3132801 92 70 53
-1.11842 -0.31889701 2.31194 84 60 39
-1.04886 -0.32162601 2.3152599 147 115 82
-1.03203 -0.318203 2.30897 142 108 76
-1.01776 -0.31740499 2.3089399 174 133 91
-1.01138 -0.321504 2.3176501 145 111 75
-1.01138 -0.321504 2.3176501 145 111 75
-1.00503 -0.31755 2.3140099 168 139 106
-0.96717203 -0.31679299 2.3035901 146 115 84
-0.96455002 -0.315736 2.30406 160 130 96
-0.94371301 -0.31467801 2.30474 164 132 97
-0.94072598 -0.314199 2.3045299 167 134 96
-0.82718998 -0.31111699 2.2950499 169 138 105
-0.82415199 -0.31121999 2.2957699 164 133 98
-0.82099599 -0.31233701 2.2966499 152 122 87
-0.81823099 -0.31045201 2.2964499 154 125 90
-0.79913503 -0.31175101 2.2941201 195 163 131
-0.77713102 -0.30889499 2.2932501 172 140 105
-0.619407 -0.30729699 2.29422 129 100 73
-0.320768 -0.075981103 1.55539 104 97 89
-0.046983998 -0.079894401 1.57815 202 189 171
0.61416799 -0.057126701 1.53321 125 116 103
0.93663198 -0.269353 2.23634 161 143 124
0.926525 -0.081296697 1.62694 231 226 219
-1.07614 -0.314538 2.3083301 89 64 43
-1.0568399 -0.31483501 2.3108001 150 120 94
-1.05723 -0.317922 2.3139 125 96 69
-1.05258 -0.31429201 2.3078599 129 98 74
-1.02542 -0.31458801 2.30653 169 131 93
-0.94300002 -0.310866 2.30531 172 139 103
-0.88994002 -0.31217301 2.30318 147 113 79
-0.86926299 -0.31005499 2.3006401 154 119 87
-0.85902297 -0.30795699 2.2978301 127 97 68
-0.83219701 -0.30838001 2.2957399 152 121 88
-0.79020298 -0.308083 2.2927699 140 110 80
-0.321908 -0.074000701 1.55624 143 134 122
-0.096901298 -0.055607401 1.5078 217 217 220
-0.0539115 -0.075385399 1.57839 199 185 169
-0.051368099 -0.075969003 1.57936 201 188 171
-0.052128501 -0.076708697 1.57858 202 189 172
0.909145 -0.27408701 2.25984 178 162 144
0.91910201 -0.264108 2.22909 170 153 131
0.94072902 -0.269256 2.2372301 154 136 116
0.94085699 -0.26935101 2.23774 154 136 116
0.938703 -0.26587999 2.2346499 154 136 117
0.83713698 -0.16770799 1.90487 132 118 105
0.83895701 -0.16111299 1.8887399 119 104 93
-1.06111 -0.311793 2.30933 199 171 140
-1.05755 -0.31042001 2.3076501 194 165 135
-1.05531 -0.310579 2.3074501 173 145 115
-1.04712 -0.308671 2.3032701 148 119 90
-1.0275 -0.31174299 2.3071201 199 161 120
-0.96375299 -0.30931601 2.3058801 131 102 75
-0.91830999 -0.30844599 2.3018899 189 152 114
-0.903225 -0.306429 2.3018999 167 132 93
-0.87779498 -0.30874601 2.3018601 169 136 100
-0.82001603 -0.303725 2.2971301 138 108 81
-0.74441499 -0.30520901 2.2985101 163 129 93
-0.744174 -0.30533299 2.29845 164 129 94
-0.053169701 -0.074816696 1.57937 200 187 171
-0.051394001 -0.074556701 1.5795 199 185 168
-0.0358539 -0.072261497 1.57407 195 182 164
-1.08781 -0.30998799 2.3137901 89 69 49
-1.08368 -0.310013 2.3124499 99 78 56
-1.04187 -0.30711499 2.30634 177 149 117
-1.03952 -0.306894 2.30826 166 136 104
-1.03022 -0.307946 2.30689 204 168 130
-1.00159 -0.30583999 2.3059001 150 120 86
-0.99866599 -0.307657 2.3061299 161 129 97
-0.96568102 -0.30533901 2.3052101 166 138 110
-0.94766098 -0.303922 2.30424 137 110 77
-0.92049497 -0.30464199 2.3032501 212 174 128
-0.917431 -0.305318 2.30477 211 170 129
-0.81848598 -0.30130801 2.29756 127 98 73
-0.80618 -0.30014399 2.2917199 217 183 144
-0.80355799 -0.299871 2.2939501 175 140 100
-0.800776 -0.29977101 2.2945099 181 145 105
-0.083633803 -0.056144901 1.52474 171 161 147
-0.051175699 -0.0718491 1.58044 192 179 161
-0.035907801 -0.0704116 1.5755301 193 180 163
0.146203 -0.065530702 1.56451 207 193 178
0.157428 -0.062225599 1.55246 141 130 119
0.90877098 -0.268462 2.2572 180 163 145
0.912476 -0.26739001 2.25788 184 166 149
0.920394 -0.26038599 2.2346799 171 154 134
0.92276198 -0.259877 2.22837 167 149 130
0.92294103 -0.25676301 2.22282 166 148 130
-1.09067 -0.30383301 2.3079 84 61 43
-0.98816401 -0.30184799 2.30742 171 141 108
-0.98383802 -0.30186301 2.3060701 155 124 92
-0.97486401 -0.30418399 2.3053501 139 106 74
-0.96888602 -0.303754 2.3043499 121 91 64
-0.96309 -0.302919 2.30636 170 140 111
-0.9192 -0.30218899 2.3061099 220 180 134
-0.907579 -0.302223 2.30374 156 122 87
-0.88892102 -0.299593 2.3004999 176 141 104
-0.76683497 -0.29818299 2.2951701 171 138 101
-0.085940003 -0.051245399 1.5204 87 81 75
0.899737 -0.25977501 2.2465501 166 148 130
0.89731401 -0.25595799 2.2344999 174 157 139
0.897174 -0.257332 2.23856 169 151 133
0.90642297 -0.26427299 2.25616 173 155 137
0.900181 -0.25787601 2.2351799 181 164 145
0.90995198 -0.26244399 2.25576 182 165 147
0.90896398 -0.26560301 2.25577 182 164 146
0.91920501 -0.25546199 2.2298501 170 152 133
0.921525 -0.258053 2.2323 168 151 131
0.918688 -0.25401101 2.2248499 170 152 133
0.92039001 -0.25486901 2.2214999 168 150 131
0.92430401 -0.071093097 1.6233 229 225 218
0.92485797 -0.070682302 1.62287 229 224 218
-1.12919 -0.30255699 2.31428 67 48 31
-1.12885 -0.30503899 2.31317 67 48 32
-1.11347 -0.300152 2.3043699 87 66 48
-1.11858 -0.30353701 2.3132901 83 62 45
-1.09056 -0.30012599 2.3053999 87 64 45
-1.08701 -0.30244899 2.30597 72 51 33
-1.06539 -0.30199599 2.30567 167 141 108
-1.02854 -0.29947901 2.3078001 170 136 101
-0.95207798 -0.301272 2.3076601 144 116 84
-0.94587499 -0.29888701 2.30129 142 114 84
-0.90514898 -0.29675999 2.29969 159 125 91
-0.88692898 -0.29689699 2.29865 167 132 93
-0.80302602 -0.29350901 2.29301 195 162 124
-0.74089301 -0.29030201 2.2906499 143 104 62
0.89295602 -0.25399899 2.23088 167 150 131
0.89319402 -0.25521499 2.23578 166 149 130
0.89596301 -0.25423801 2.23 175 158 139
0.89570701 -0.25581399 2.2339799 170 153 135
0.89554602 -0.25184301 2.2272401 175 158 139
0.89444202 -0.251531 2.2291901 171 154 135
0.91633201 -0.253014 2.22685 172 155 136
0.91719902 -0.25115299 2.22457 172 154 135
0.91874599 -0.068397999 1.62115 233 225 217
0.924317 -0.067396499 1.62017 232 228 223
0.93061799 -0.068052903 1.6231101 226 221 215
0.93284702 -0.066939697 1.6212 227 222 214
-1.06589 -0.29640001 2.3062501 164 137 109
-1.06471 -0.29942599 2.30773 169 142 111
-1.0330499 -0.29750499 2.30917 149 117 84
-1.02657 -0.296785 2.3065901 168 135 102
-0.92913097 -0.29422599 2.3016601 194 163 129
-0.80267602 -0.2904 2.2896399 171 139 103
-0.797234 -0.28976199 2.29392 177 145 109
0.91510999 -0.24946301 2.2268701 173 156 138
0.91735601 -0.248831 2.22755 172 155 136
0.82861602 -0.1567 1.92093 128 113 101
0.82683998 -0.15477 1.91781 126 111 98
0.90411299 -0.076647602 1.6568 132 118 107
0.91615301 -0.064638503 1.62291 150 137 125
0.93212801 -0.063770302 1.6206599 227 221 214
-1.12736 -0.29340401 2.3069699 79 58 39
-1.12786 -0.296832 2.31357 64 45 26
-1.10611 -0.294631 2.31113 103 80 59
-1.0324301 -0.291509 2.3045399 131 99 66
-1.03157 -0.29409799 2.30669 130 98 66
-1.02476 -0.29231101 2.3045001 150 117 86
-1.02087 -0.29059401 2.3018401 165 131 98
-1.0188 -0.29263499 2.3055 162 124 88
-1.01719 -0.29490101 2.3084199 170 129 90
-0.96461201 -0.29231799 2.3036399 185 156 122
-0.926193 -0.28891599 2.30071 215 184 146
-0.89931202 -0.29065701 2.29723 158 124 92
-0.86000198 -0.28679401 2.2963901 123 92 60
-0.83139902 -0.28767401 2.29356 135 100 66
-0.82183701 -0.28655201 2.29566 125 93 62
-0.70892602 -0.286538 2.29445 163 128 90
0.150621 -0.053028401 1.55967 186 173 156
0.93018401 -0.0609756 1.6171499 230 226 220
0.93360198 -0.061309699 1.6196899 227 222 215
-1.0364799 -0.28795201 2.30074 187 151 110
-1.03758 -0.291372 2.3057301 179 145 106
-1.0341001 -0.29002699 2.3041999 148 116 79
-1.02889 -0.28942901 2.30302 143 112 78
-1.01846 -0.28796101 2.3015599 169 135 99
-1.00279 -0.28920999 2.30667 175 135 93
-0.98401499 -0.28775799 2.30164 133 103 75
-0.96322203 -0.28971699 2.30371 184 153 119
-0.92480499 -0.285492 2.29915 216 184 145
-0.90572798 -0.28644499 2.3002501 178 139 101
-0.86355799 -0.28420401 2.29336 141 105 67
-0.81982899 -0.28219399 2.2918799 132 99 65
-0.75038898 -0.28241101 2.2937901 167 129 89
-0.73330599 -0.28122601 2.2929699 152 114 72
-0.73078102 -0.282767 2.2946701 136 103 68
-0.71963501 -0.28030401 2.2906101 170 137 104
-0.702999 -0.27992001 2.29036 166 122 78
-0.0804075 -0.043471999 1.51925 162 153 145
0.149248 -0.052018002 1.56392 206 192 175
0.91757101 -0.245226 2.23704 175 158 139
0.91757101 -0.245226 2.23704 175 158 139
0.91757101 -0.245226 2.23704 175 158 139
0.91824597 -0.243935 2.2330201 173 156 137
0.93160897 -0.058733601 1.61719 232 227 221
-1.08962 -0.288174 2.30862 74 51 31
-1.02324 -0.28522399 2.3006101 157 125 90
-0.94948 -0.283043 2.29901 156 125 92
-0.946486 -0.28304601 2.2999599 148 117 87
-0.90638202 -0.283865 2.2976799 184 144 102
-0.90493 -0.28126001 2.29849 184 146 104
-0.89622903 -0.28213799 2.3010001 174 139 101
-0.86743498 -0.28198299 2.29756 165 125 84
-0.86766499 -0.28196999 2.29915 161 121 80
-0.84706998 -0.27977699 2.29336 175 140 107
-0.84350598 -0.28050801 2.2938299 173 141 104
-0.84067899 -0.27829501 2.28971 178 147 110
-0.83057302 -0.281488 2.2913101 160 124 89
-0.82076001 -0.28106299 2.2981701 141 108 75
-0.77680498 -0.27781501 2.2899401 194 159 119
-0.71882898 -0.276014 2.28789 165 133 100
-0.71641803 -0.27920401 2.28898 164 133 98
-0.69815201 -0.27712199 2.2876 158 115 70
-0.69557899 -0.275619 2.2881999 145 106 65
0.154048 -0.048841599 1.5614001 176 163 146
0.917696 -0.24139699 2.23806 176 159 139
-1.14215 -0.28505 2.3115799 85 65 45
-1.12868 -0.284749 2.3087499 98 78 57
-1.08676 -0.282765 2.30511 92 68 49
-1.0694799 -0.283402 2.3093901 130 103 77
-1.0634201 -0.28195801 2.3018301 137 110 83
-1.04992 -0.283034 2.3077199 142 110 81
-1.02556 -0.28062201 2.29895 141 109 74
-0.99488598 -0.28044701 2.3021801 175 133 95
-0.970209 -0.281205 2.3006799 152 122 93
-0.95562798 -0.28004199 2.30351 177 144 107
-0.94371998 -0.28163499 2.3001201 143 111 80
-0.94061399 -0.28013599 2.30108 125 93 59
-0.93962502 -0.28196001 2.30075 127 95 62
-0.93615597 -0.28300101 2.3092101 186 154 119
-0.90547198 -0.278992 2.2966001 193 156 112
-0.89897799 -0.27876499 2.2985301 207 171 128
-0.89335001 -0.27946901 2.2997701 154 119 83
-0.88920498 -0.27990001 2.2973299 151 119 84
-0.86591297 -0.27669299 2.2928901 193 152 107
-0.86157203 -0.27821401 2.29111 168 128 86
-0.85341698 -0.27844501 2.29404 129 96 64
-0.84825402 -0.27553201 2.29265 150 118 90
-0.84118402 -0.27554801 2.2901399 171 140 106
-0.72253603 -0.27599499 2.28932 174 142 108
-0.717004 -0.27317101 2.2880499 175 144 110
-0.67925602 -0.27246299 2.2860999 166 133 99
-0.075595804 -0.053148899 1.57442 190 178 163
-0.071456298 -0.0536162 1.5746 182 169 155
0.40751201 -0.039292399 1.54656 207 191 176
0.86966503 -0.228315 2.2053399 156 140 128
0.91301799 -0.23653699 2.2316799 177 161 142
0.91194999 -0.23377401 2.2228999 174 157 138
0.82735902 -0.15002801 1.9323601 125 109 98
0.94156098 -0.055376999 1.61848 226 222 215
-1.14043 -0.28213099 2.3103299 78 58 40
-1.13536 -0.28155801 2.30932 77 57 36
-1.13126 -0.28145099 2.3083799 86 66 45
-1.07221 -0.27974999 2.30878 114 86 61
-1.04809 -0.281818 2.3071001 141 108 78
-1.04539 -0.279425 2.3034501 150 117 86
-1.01144 -0.27722701 2.30004 147 110 73
-0.99405402 -0.27694401 2.3011799 165 125 87
-0.95389903 -0.276521 2.2998099 157 126 91
-0.94858402 -0.276898 2.2995601 172 142 108
-0.92188197 -0.27483001 2.2954199 196 163 127
-0.90794599 -0.27473801 2.2955799 194 159 114
-0.89855403 -0.27410901 2.2955799 206 173 133
-0.70086801 -0.26905599 2.2841699 150 106 63
-0.66046202 -0.269627 2.28756 165 123 82
0.406122 -0.038026702 1.54592 205 189 174
0.877675 -0.226234 2.2061901 159 142 129
0.909549 -0.22472499 2.2066 166 148 134
0.94091302 -0.052016899 1.61854 229 224 218
-1.1426899 -0.27905101 2.31282 72 53 38
-1.14197 -0.27886099 2.31129 70 52 37
-1.13454 -0.27798301 2.3050499 80 60 43
-1.1317 -0.276806 2.3050201 91 70 52
-1.09849 -0.27531901 2.3020101 84 64 46
-1.09838 -0.27869299 2.30831 91 70 51
-1.0691299 -0.27727601 2.3017499 122 94 67
-1.04977 -0.27754 2.3062601 161 129 100
-1.04205 -0.27627 2.30111 178 146 109
-1.02242 -0.274488 2.30199 159 120 82
-1.01176 -0.27568099 2.30247 153 115 78
-0.99829298 -0.27693799 2.3033199 173 134 96
-0.99273801 -0.27348799 2.29899 157 119 84
-0.98838001 -0.27374399 2.3007801 140 107 75
-0.98493201 -0.271485 2.29584 160 128 99
-0.98176098 -0.27572799 2.29919 155 125 99
-0.98151898 -0.272892 2.2965801 163 132 103
-0.96471202 -0.27469799 2.2965801 141 113 81
-0.95211703 -0.27392301 2.2997 147 117 84
-0.94366097 -0.27370799 2.2992899 190 158 124
-0.94063401 -0.271952 2.2972801 179 147 111
-0.92696702 -0.27287501 2.2990501 169 138 106
-0.92174399 -0.26908499 2.2899301 171 141 109
-0.91821599 -0.27266601 2.29369 175 144 108
-0.91333997 -0.27005199 2.2936101 159 125 91
-0.86537802 -0.27037799 2.29142 199 157 112
-0.824211 -0.266792 2.2868199 170 133 95
-0.80549502 -0.26928899 2.2916601 146 114 87
-0.791004 -0.26858899 2.2887299 161 127 94
-0.78734797 -0.26839399 2.28725 164 132 97
-0.73759401 -0.26568899 2.28689 194 154 111
-0.60858703 -0.26616901 2.28303 145 116 86
-0.60351503 -0.26707101 2.2883799 146 112 78
-0.071213201 -0.050108802 1.57512 183 171 157
0.40805599 -0.035526302 1.54768 204 188 173
0.86968601 -0.2255 2.20875 173 159 149
0.90250099 -0.22102199 2.2038901 181 166 152
0.90516102 -0.224123 2.2067299 171 154 139
0.90852302 -0.22412699 2.2065699 168 151 138
-1.13814 -0.27569601 2.3043599 69 51 36
-1.1121401 -0.27619401 2.3137 103 79 56
-1.0927 -0.27368301 2.3050599 84 63 43
-1.05392 -0.27512801 2.3087499 121 91 63
-1.04616 -0.27439499 2.3032401 159 128 97
-1.02946 -0.270796 2.30092 146 113 79
-1.01083 -0.272459 2.30247 145 106 70
-1.01289 -0.27177799 2.3018799 146 104 66
-1.00886 -0.27308601 2.3060701 143 109 75
-1.00713 -0.27203301 2.3015101 137 103 70
-1.00211 -0.27059701 2.29599 135 102 71
-1.00018 -0.27214101 2.30006 178 145 111
-0.99872899 -0.26915601 2.29477 156 124 92
-0.99662 -0.270798 2.29831 175 141 108
-0.98833197 -0.269921 2.2964499 147 115 85
-0.98442298 -0.26899099 2.2938499 165 134 105
-0.97977298 -0.27110901 2.2966299 170 140 110
-0.97777802 -0.2685 2.29566 158 127 99
-0.94374698 -0.27015799 2.2972801 179 147 110
-0.94067103 -0.26908699 2.29561 172 139 101
-0.92974597 -0.271759 2.29951 146 116 85
-0.91970098 -0.26970401 2.29316 169 138 105
-0.91516399 -0.26740199 2.2939301 160 126 95
-0.91135502 -0.268664 2.2929101 157 122 88
-0.847161 -0.26852399 2.2954099 158 125 96
-0.78933799 -0.26357499 2.2867301 170 139 105
-0.78903198 -0.26572499 2.2874701 162 130 95
-0.78632498 -0.26360801 2.2876101 151 119 86
-0.71800399 -0.262312 2.2864101 170 135 96
-0.077499397 -0.046526499 1.57068 185 173 159
0.150959 -0.040021401 1.55958 207 193 175
0.160074 -0.039484099 1.55764 176 163 147
-1.13753 -0.27067801 2.30671 69 51 35
-1.09877 -0.26967299 2.3050499 84 63 44
-1.0927 -0.27034801 2.3025801 85 64 44
-1.05669 -0.270996 2.3090401 121 91 64
-1.04948 -0.27061799 2.3047299 125 95 68
-1.04521 -0.270623 2.30252 137 107 77
-1.03951 -0.266812 2.2989399 142 110 80
-1.03973 -0.26681599 2.2994599 142 110 80
-1.02722 -0.268085 2.29917 159 125 90
-1.0232199 -0.26910499 2.30124 153 114 74
-1.01249 -0.26573899 2.2973599 185 142 98
-1.00947 -0.26915601 2.3001599 131 93 58
-1.00472 -0.26823401 2.2973299 120 87 56
-0.991234 -0.26769999 2.2950399 167 134 103
-0.981152 -0.26710099 2.2949901 156 125 96
-0.92444003 -0.26306301 2.2923901 139 110 78
-0.91130501 -0.264806 2.29515 161 127 90
-0.74644399 -0.262306 2.29352 148 110 74
-0.72144401 -0.26233199 2.2878301 172 138 99
-0.68731898 -0.26217899 2.2923501 179 144 105
-0.075641103 -0.042542301 1.56897 180 169 155
-0.077596001 -0.043155901 1.56998 179 167 153
-0.077599697 -0.044851199 1.57161 181 169 155
0.158594 -0.038369201 1.5606101 176 163 146
0.15872601 -0.036681201 1.56066 181 168 151
0.826711 -0.157415 1.99669 138 123 112
-1.1446 -0.266543 2.3046401 58 41 25
-1.14468 -0.270035 2.3072801 58 41 27
-1.10199 -0.26765999 2.3074801 77 55 37
-1.07166 -0.26550901 2.29777 114 87 62
-1.04908 -0.26265901 2.28914 138 110 83
-1.0332 -0.26488 2.30374 149 115 83
-1.02157 -0.26337701 2.29807 174 133 91
-1.01284 -0.26237401 2.29617 185 141 95
-1.00773 -0.26500401 2.2983 129 92 57
-1.00588 -0.261825 2.29562 141 106 69
-0.95673001 -0.261381 2.2932401 157 128 97
-0.953183 -0.26309499 2.2934401 170 140 108
-0.95000702 -0.26287699 2.2946501 153 124 90
-0.91433001 -0.261843 2.29703 156 122 84
-0.86132199 -0.261861 2.2913799 178 137 95
-0.79400402 -0.258591 2.2929201 149 117 85
-0.78378898 -0.25991499 2.2885699 151 119 86
-0.72491002 -0.25932801 2.2916701 164 131 95
-0.65245903 -0.25461799 2.2864699 174 140 105
-0.068211697 -0.041013502 1.57143 186 174 158
0.15420701 -0.034693699 1.55957 212 197 181
0.90359998 -0.215152 2.2156601 152 137 124
0.82156497 -0.150078 1.98567 141 126 113
-1.14359 -0.26310301 2.30002 62 43 26
-1.14206 -0.26507199 2.3053601 59 42 26
-1.1420701 -0.26426601 2.30899 60 42 28
-1.11806 -0.263549 2.30481 97 74 52
-1.10709 -0.26328701 2.2988999 105 80 57
-1.0852799 -0.262604 2.30123 93 72 51
-1.08281 -0.26168001 2.3023901 90 67 47
-1.07566 -0.264844 2.3047199 108 82 58
-1.01641 -0.26034999 2.2955699 185 140 96
-0.98753297 -0.26078001 2.2962799 185 155 124
-0.94436198 -0.25949401 2.2941599 150 119 87
-0.91544598 -0.259078 2.2976699 201 164 120
-0.86397702 -0.25584 2.29216 164 126 87
-0.838431 -0.25599399 2.2926199 141 107 71
-0.82193398 -0.25776699 2.2925999 130 95 64
-0.81760597 -0.25542 2.29087 156 124 95
-0.81496799 -0.25729999 2.29619 156 125 94
-0.805502 -0.25603101 2.2911301 200 168 130
-0.80223799 -0.25601301 2.2910199 196 163 123
-0.802315 -0.25615299 2.2909701 196 163 123
-0.78653902 -0.25441501 2.28774 164 134 103
-0.57239199 -0.25362301 2.29072 195 160 123
0.41481501 -0.0235314 1.54252 207 191 175
0.41697699 -0.0232959 1.54186 213 197 182
0.897811 -0.213577 2.2198601 116 100 90
0.90229499 -0.211806 2.2163 103 87 78
0.95691198 -0.0379804 1.61528 226 222 216
-1.14104 -0.26088199 2.3090601 70 51 36
-1.04548 -0.25651699 2.29105 140 113 86
-1.03904 -0.25718999 2.3016901 191 158 120
-0.90960503 -0.256217 2.2964001 173 135 94
-0.86706001 -0.25425199 2.2906899 172 134 96
-0.86395299 -0.252913 2.2895801 178 142 105
-0.86064601 -0.25441799 2.29071 170 134 98
-0.829714 -0.25402501 2.2918401 130 96 66
0.896007 -0.210647 2.2195401 106 89 79
0.89940101 -0.210467 2.2184601 108 91 82
0.95652401 -0.0357638 1.61299 226 221 216
-1.13916 -0.25781801 2.3006401 88 68 48
-1.11897 -0.25839901 2.30442 88 66 44
-1.04704 -0.25370401 2.2920499 121 95 67
-1.04355 -0.25436801 2.2935801 127 99 73
-1.04151 -0.25489599 2.2985599 148 119 88
-1.03838 -0.25364301 2.2977901 158 126 94
-1.03301 -0.25694701 2.3015699 215 179 138
-0.999744 -0.25388801 2.2967501 127 93 63
-0.99611402 -0.25387499 2.29618 137 103 72
-0.99286902 -0.25131699 2.2943299 152 120 86
-0.93903702 -0.250054 2.29142 145 117 86
-0.94049197 -0.253023 2.2931199 145 116 84
-0.93567598 -0.25134701 2.29373 155 125 93
-0.89170098 -0.250945 2.29339 163 129 91
-0.87335598 -0.25179601 2.2948101 151 117 79
-0.87353098 -0.24956501 2.2930501 152 119 83
-0.86926299 -0.24980301 2.29024 144 112 75
-0.65841502 -0.244063 2.28317 137 103 67
-0.65484297 -0.246318 2.29146 148 116 79
-0.35999799 -0.053960402 1.62675 134 112 92
0.891096 -0.20771 2.22035 159 141 126
0.89447498 -0.20771 2.2202499 168 150 135
0.89789099 -0.207707 2.2202301 172 155 140
0.89670599 -0.205562 2.21962 185 168 149
0.901187 -0.20786899 2.21943 165 148 135
0.89994901 -0.205566 2.2191501 183 166 147
0.95920599 -0.0308879 1.6106 227 223 217
-1.13659 -0.25259501 2.2976601 86 63 43
-1.0299 -0.25041199 2.29776 182 146 107
-1.02738 -0.25163299 2.29849 176 138 98
-1.02162 -0.24892101 2.29687 132 95 59
-0.998667 -0.25074801 2.2959199 133 100 69
-0.99040502 -0.25139201 2.2973199 161 129 98
-0.934928 -0.247118 2.2936101 170 141 109
-0.89412898 -0.245994 2.28929 164 133 96
-0.89127398 -0.24558599 2.2911301 161 130 92
-0.89284003 -0.24856301 2.2904601 167 134 96
-0.81586701 -0.24521001 2.29004 165 134 101
0.890674 -0.203824 2.21948 168 151 131
0.89392501 -0.20520701 2.2209101 177 159 141
0.93798298 -0.037884202 1.6376801 132 119 108
0.93798298 -0.037884202 1.6376801 132 119 108
-1.1326801 -0.249853 2.3039999 86 63 42
-1.03811 -0.24566001 2.29546 133 102 74
-1.02399 -0.245511 2.29444 157 123 89
-1.00125 -0.247417 2.2948599 166 133 97
-0.99023998 -0.2484 2.299 153 122 91
-0.93904799 -0.24312399 2.2895401 159 129 97
-0.92497098 -0.24733999 2.2978401 221 191 151
-0.89014399 -0.243678 2.29003 166 133 96
-0.88376898 -0.241502 2.2885001 174 141 105
-0.86961198 -0.24532001 2.2932401 151 119 84
-0.76618999 -0.239575 2.2868099 154 123 91
-0.739847 -0.23908301 2.28422 168 131 91
-0.73521399 -0.239169 2.28356 170 132 92
-0.72128499 -0.240725 2.28443 149 114 79
-0.66744399 -0.240105 2.2852099 165 128 89
-0.57327902 -0.234888 2.2742901 119 88 56
-0.57023603 -0.235875 2.27297 116 84 53
-0.064418599 -0.028125901 1.56525 185 174 159
0.89335698 -0.200333 2.2239599 169 152 131
-1.13826 -0.24734101 2.3038299 90 66 43
-1.13442 -0.247383 2.30318 99 75 53
-1.00059 -0.241089 2.2908299 157 119 83
-0.99939299 -0.24032199 2.2904899 150 112 75
-0.99366999 -0.244316 2.2962201 182 151 118
-0.98817497 -0.242433 2.2974501 148 118 88
-0.952685 -0.240849 2.2890799 172 141 105
-0.953933 -0.24003799 2.2895801 185 152 117
-0.94291699 -0.241696 2.2894399 161 131 99
-0.902937 -0.24226899 2.29129 174 143 105
-0.881194 -0.23987301 2.28913 178 145 110
-0.88011801 -0.242134 2.2915101 197 166 130
-0.76369399 -0.240316 2.2916 147 115 83
-0.75320703 -0.23611499 2.2843299 161 129 95
-0.73512602 -0.23672301 2.2811899 161 123 82
-0.73323101 -0.23678499 2.2814801 158 121 81
-0.73316902 -0.236792 2.28127 158 120 81
-0.73316902 -0.236792 2.28127 158 120 81
-0.70191097 -0.236425 2.2855401 161 120 79
-0.65981299 -0.234282 2.2786801 143 105 65
-0.062697798 -0.0252822 1.5642101 196 184 169
-1.00685 -0.237838 2.29035 186 151 115
-1.00323 -0.237804 2.28987 182 144 106
-0.99916899 -0.237802 2.2883101 156 116 79
-0.97598702 -0.238058 2.28966 154 123 89
-0.97146398 -0.23765901 2.28756 173 143 110
-0.96259201 -0.236534 2.2896299 163 132 102
-0.91593403 -0.238574 2.2934899 201 165 121
-0.88685399 -0.23581301 2.29075 170 137 99
-0.88352001 -0.235819 2.2904201 162 128 91
-0.86926001 -0.23444299 2.28759 183 146 104
-0.832829 -0.235937 2.2874701 128 92 59
-0.74606901 -0.233335 2.2843001 171 135 95
-0.73513901 -0.23095 2.27689 201 164 123
-0.70075601 -0.234506 2.2878499 163 121 78
-0.684129 -0.23019101 2.27947 171 138 102
-0.59814799 -0.229533 2.2788999 147 117 89
-0.063713603 -0.0232313 1.56546 185 172 159
-0.0558776 -0.0202298 1.55957 197 185 170
-1.11838 -0.237564 2.2985899 86 62 42
-1.09285 -0.235682 2.29217 85 63 44
-1.09097 -0.238639 2.2936599 93 70 49
-1.03232 -0.236761 2.2953501 144 113 82
-1.00605 -0.23451801 2.28932 181 147 111
-0.99984598 -0.235034 2.2908599 168 128 89
-0.99550498 -0.23381899 2.2883 168 129 87
-0.99175102 -0.23406801 2.29161 191 154 114
-0.95882797 -0.23550899 2.29001 162 129 98
-0.918266 -0.23506901 2.29375 221 185 141
-0.91649699 -0.23604999 2.2934101 216 180 134
-0.91468 -0.23505799 2.29213 207 170 125
-0.88399398 -0.23287 2.2896299 184 151 112
-0.880674 -0.23394801 2.29021 175 142 103
-0.870112 -0.234236 2.2887299 180 143 101
-0.81329399 -0.231379 2.2855501 161 128 94
-0.789487 -0.22802 2.28036 140 109 76
-0.74690801 -0.230803 2.2852199 179 144 105
-0.73512203 -0.22823501 2.2742901 207 169 125
-0.68557 -0.22752 2.2783101 157 121 86
-0.67952001 -0.227558 2.2783599 171 139 103
-0.064986102 -0.0202474 1.5648201 173 162 149
-0.062860899 -0.0195242 1.5625 177 164 151
-0.058212802 -0.0185297 1.56145 194 181 166
-0.0553868 -0.0158484 1.5492899 197 185 170
-1.1420799 -0.238508 2.30229 108 85 62
-1.06069 -0.231341 2.2881999 130 101 75
-1.04741 -0.234074 2.2946801 143 112 82
-1.04328 -0.233587 2.2915599 138 107 75
-1.04118 -0.230967 2.29003 131 100 68
-1.03728 -0.23102 2.2890501 151 119 85
-1.00132 -0.230692 2.28808 173 135 97
-1.00035 -0.232195 2.28793 175 136 96
-0.99684602 -0.229379 2.2859099 156 119 80
-0.962946 -0.23017301 2.2880099 143 113 87
-0.92227101 -0.232852 2.2934599 218 187 147
-0.89957201 -0.23012801 2.28811 170 130 88
-0.88093197 -0.231102 2.28877 165 131 93
-0.78772801 -0.225307 2.28108 149 119 84
-0.77349502 -0.228412 2.2845199 142 109 74
-0.68168598 -0.22405399 2.2776401 169 135 100
-0.66859698 -0.22219899 2.27671 175 133 87
-0.64648098 -0.223703 2.27601 151 121 89
-0.64173198 -0.223242 2.2745199 175 143 108
-0.05734 -0.016168401 1.55914 192 180 165
-0.056314599 -0.0129429 1.54541 189 177 162
0.83524501 -0.123226 1.98418 106 91 80
-1.13529 -0.23241 2.30304 93 71 48
-1.12286 -0.231466 2.29916 80 59 39
-1.06029 -0.228181 2.2916999 132 103 76
-1.04975 -0.231121 2.2948301 133 102 71
-0.98921502 -0.227837 2.28724 162 125 85
-0.98492098 -0.22734199 2.2858701 142 107 73
-0.976255 -0.224702 2.2826099 151 119 84
-0.972 -0.228066 2.2873001 148 118 81
-0.96856201 -0.22825 2.28776 145 115 81
-0.96166903 -0.22896001 2.2910299 157 127 99
-0.95692599 -0.229307 2.28918 182 151 117
-0.94713801 -0.22689401 2.2894101 148 117 87
-0.93387902 -0.226817 2.2917299 166 134 97
-0.93402898 -0.23000699 2.29439 161 128 92
-0.883973 -0.22764599 2.2892799 175 142 104
-0.68347597 -0.219629 2.2781 149 113 77
-0.68217498 -0.22251 2.2784801 171 137 102
-0.0573056 -0.0100512 1.54541 181 168 154
-0.0580412 -0.0130598 1.55668 180 168 154
0.86550599 -0.18661401 2.2232599 180 163 144
0.87524402 -0.18599699 2.2219701 157 137 120
0.82654297 -0.133265 2.02793 134 119 105
-1.1194299 -0.2296 2.29809 85 62 43
-1.0644 -0.224352 2.2883501 109 79 53
-1.06112 -0.224603 2.2883 116 86 60
-1.04889 -0.22760101 2.2939799 154 123 90
-1.04419 -0.227612 2.29164 128 96 64
-1.01256 -0.225126 2.2892301 154 120 86
-1.00442 -0.22387099 2.28982 210 179 144
-1.00054 -0.22391 2.2885201 173 140 107
-1.0007499 -0.22588199 2.28912 158 124 90
-0.99706 -0.22586 2.2881401 145 109 75
-0.98619998 -0.22208001 2.28269 142 111 80
-0.98278099 -0.223748 2.2829101 147 115 83
-0.97265202 -0.224007 2.2830999 174 142 105
0.87412697 -0.182247 2.2209001 157 136 118
0.82634401 -0.12557501 2.0183401 117 102 89
-1.13886 -0.224347 2.29796 65 47 32
-1.13933 -0.22464199 2.29864 64 46 31
-1.14042 -0.228699 2.30392 77 57 40
-1.13571 -0.226263 2.2997701 77 57 40
-1.1323299 -0.22784901 2.3006401 87 66 46
-1.11724 -0.226696 2.2969899 91 67 46
-1.07429 -0.222588 2.29268 127 97 68
-1.07276 -0.223884 2.2929599 121 91 62
-1.04022 -0.223341 2.2889099 134 100 68
-0.99704802 -0.21837801 2.2823999 173 142 109
-0.99305201 -0.21916901 2.2817299 164 134 105
-0.98773998 -0.220194 2.28247 145 115 85
-0.945324 -0.221839 2.28982 182 150 114
-0.90673703 -0.22054601 2.29146 206 167 126
-0.84357297 -0.218674 2.283 154 120 87
-0.83992201 -0.218595 2.28087 158 125 90
-1.14292 -0.22296201 2.2974701 57 39 24
-1.1357599 -0.223148 2.29722 73 54 39
-1.1353101 -0.222968 2.2964699 73 54 39
-1.13397 -0.222744 2.29972 80 60 42
-1.08435 -0.22037099 2.28684 130 109 87
-1.08064 -0.22141001 2.29163 129 101 75
-1.06726 -0.21896 2.2881801 130 101 70
-1.06224 -0.218887 2.2860501 134 105 76
-1.06296 -0.22017699 2.28705 124 94 66
-1.05803 -0.21886399 2.28441 129 100 72
-1.01407 -0.21789099 2.2866499 178 138 98
-0.98981899 -0.217354 2.28058 177 148 115
-0.98714 -0.217536 2.2829199 155 126 94
-0.98810601 -0.21444599 2.2813301 172 142 110
-0.97448701 -0.21476901 2.28124 164 132 97
-0.83918101 -0.21575999 2.2832401 148 113 77
-0.76671499 -0.212614 2.2770801 131 99 68
-0.76341498 -0.212557 2.27775 148 117 85
-0.69430703 -0.21263701 2.2843499 128 90 52
0.89229 -0.176199 2.2319701 159 139 118
-1.14456 -0.21755099 2.2922599 70 51 34
-1.12596 -0.217363 2.29424 89 70 51
-1.11909 -0.216727 2.29298 88 68 47
-1.02042 -0.212805 2.28597 162 124 83
-1.00519 -0.21336199 2.2851701 154 121 89
-1.00175 -0.21543001 2.28599 174 142 110
-0.90284902 -0.213829 2.2869301 218 182 136
-0.774059 -0.207967 2.2772801 150 115 79
-0.74879402 -0.20969 2.2828901 160 129 95
-0.70842999 -0.208654 2.2813499 151 115 79
-0.661084 -0.20637999 2.2771599 129 95 62
-1.15098 -0.215193 2.29861 77 58 39
-1.14477 -0.21426301 2.2906401 67 48 31
-1.12383 -0.214591 2.29496 80 61 43
-1.1210999 -0.21343701 2.2950399 79 60 42
-1.11658 -0.216498 2.2980199 96 72 48
-1.11494 -0.213387 2.2939701 99 77 53
-1.11151 -0.214599 2.29567 103 78 52
-1.10874 -0.21198601 2.2867501 108 86 60
-1.10958 -0.214946 2.2999301 94 69 49
-1.10876 -0.214737 2.2976601 94 69 48
-1.08899 -0.211972 2.29088 75 51 32
-1.02988 -0.20987301 2.2788301 137 106 72
-1.0266401 -0.209852 2.27951 157 126 88
-0.97453499 -0.20947599 2.2815499 197 165 127
-0.93186402 -0.207871 2.2832301 167 135 96
-0.884359 -0.209436 2.28458 142 107 69
-0.86711901 -0.20712 2.2821701 165 120 74
-0.85640401 -0.20769501 2.2779801 144 103 65
-0.82227802 -0.20750301 2.2834499 128 90 54
-0.78342301 -0.20538899 2.2779801 157 125 91
-0.73607999 -0.20529801 2.27969 161 124 87
-0.12639999 0.0117685 1.50172 217 218 221
-0.0706622 -0.0031348499 1.55954 165 154 143
-0.068358801 -0.0042998502 1.56164 174 163 151
-0.066467598 -0.00319016 1.56147 174 163 151
-1.15107 -0.21165299 2.29635 76 56 38
-1.14332 -0.211307 2.29655 68 49 31
-1.11397 -0.209894 2.29159 94 73 51
-1.10976 -0.20664699 2.2831299 81 62 43
-1.10965 -0.209903 2.2897301 105 82 59
-1.1063499 -0.211229 2.2940099 86 62 42
-1.08872 -0.20868801 2.28826 91 65 44
-0.93218499 -0.205998 2.28267 159 127 88
-0.91567397 -0.206673 2.28565 167 134 96
-0.86599201 -0.203869 2.2809801 159 116 73
-0.82872403 -0.20491301 2.2845099 140 104 68
-0.82180899 -0.204796 2.28022 141 104 69
-0.81843698 -0.20309 2.28004 140 104 68
-0.78164399 -0.201993 2.2764499 171 138 104
-0.77862102 -0.201883 2.27705 178 145 112
-0.73590702 -0.202629 2.27688 181 149 113
-0.697285 -0.201269 2.2764001 164 131 99
-0.67613 -0.19910499 2.2756801 165 126 88
-0.67547703 -0.201894 2.2788701 179 140 100
-0.154248 0.0181718 1.4882801 221 220 224
-0.047863699 0.000103668 1.55948 189 176 161
0.866606 -0.166466 2.22224 163 145 126
-1.14359 -0.20824701 2.29478 75 55 38
-1.12334 -0.207294 2.29404 70 51 35
-1.11919 -0.20682999 2.29142 67 48 32
-1.11476 -0.206917 2.2895401 75 56 39
-1.11243 -0.203142 2.2821901 71 53 39
-1.11041 -0.203191 2.28111 75 56 41
-0.872338 -0.20320299 2.2852399 133 93 51
-0.85113502 -0.201795 2.2848401 156 117 79
-0.82330197 -0.200196 2.2796199 132 99 63
-0.816028 -0.201363 2.28 155 122 85
-0.80734497 -0.20112599 2.28233 189 152 115
-0.80356503 -0.199746 2.2813201 183 144 104
-0.798814 -0.199625 2.2811601 180 142 100
-0.78183502 -0.19858 2.2748201 163 132 97
-0.77575999 -0.19945601 2.27349 167 136 100
-0.77346402 -0.199375 2.2764599 159 126 92
-1.12272 -0.202186 2.28672 76 55 38
-1.12299 -0.204584 2.2911899 73 53 37
-1.1182899 -0.200679 2.2823999 65 47 31
-1.1034 -0.200561 2.2842 78 58 40
-1.09945 -0.20118 2.28491 101 79 59
-1.09954 -0.20049199 2.2836201 96 75 55
-1.09585 -0.20264301 2.28406 107 83 61
-1.0754499 -0.201207 2.2888601 133 105 76
-0.89409798 -0.197889 2.2778499 163 130 94
-0.89020699 -0.19845399 2.2797 183 149 112
-0.88712102 -0.19802199 2.28022 170 136 101
-0.871647 -0.20004299 2.28543 134 97 61
-0.86787498 -0.199358 2.2814701 147 110 75
-0.69528502 -0.195639 2.2773399 158 123 90
-0.67481297 -0.193437 2.26893 183 146 108
-0.070104398 0.00437635 1.55673 165 154 142
-0.067900203 0.0045607602 1.5580699 170 158 146
-1.12271 -0.198451 2.2843699 89 68 49
-1.1013 -0.196769 2.2814701 79 60 42
-1.0962501 -0.197392 2.2788999 100 78 58
-0.88827902 -0.19537701 2.2790699 157 123 90
-0.88539499 -0.19528601 2.2802899 187 153 119
-0.70165801 -0.190752 2.2759099 158 120 83
-0.697065 -0.19057 2.2743499 163 123 85
-0.618622 -0.189127 2.26847 84 57 32
0.60766798 0.0238344 1.52525 207 192 178
0.60836202 0.0268941 1.52086 191 177 162
0.83206499 -0.110177 2.04245 95 78 66
-1.13738 -0.19711 2.2909701 93 69 46
-1.13156 -0.194447 2.28389 81 57 38
-1.13083 -0.197198 2.28597 87 64 44
-1.1249599 -0.194574 2.2864101 105 83 60
-1.09929 -0.19398101 2.2794099 85 65 45
-1.08448 -0.193216 2.2804501 113 87 63
-1.0421 -0.193335 2.2777901 125 95 64
-1.0394 -0.194077 2.2800701 130 99 67
-1.02248 -0.189923 2.2696199 142 107 72
-0.91294003 -0.192535 2.28742 229 193 144
-0.89420199 -0.192458 2.2781601 161 130 94
-0.889584 -0.192223 2.2797599 174 140 105
-0.863186 -0.19019 2.27911 134 96 60
-0.85844201 -0.192433 2.2803199 155 121 85
-0.76798898 -0.188851 2.2741101 142 111 79
-0.66490197 -0.18611 2.2713301 150 109 68
-0.180921 0.0184133 1.5144399 28 27 27
0.60676402 0.0271025 1.52316 206 193 178
0.61022502 0.027820799 1.51968 140 128 112
-1.12529 -0.19119801 2.28543 96 73 50
-1.1172 -0.193361 2.2849901 64 44 28
-1.11347 -0.191994 2.2829399 63 44 29
-1.0594701 -0.190762 2.2822499 152 122 94
-1.04002 -0.188701 2.2746899 133 101 68
-1.0229501 -0.187001 2.2679999 138 105 71
-1.00704 -0.188272 2.27793 159 127 91
-1.0002 -0.188803 2.2813301 207 175 139
-0.920811 -0.189611 2.28827 215 183 142
-0.85916901 -0.186326 2.27776 161 120 80
-0.80344599 -0.185505 2.28002 186 152 116
-0.77182001 -0.18667699 2.2767301 126 93 61
-0.76978099 -0.183318 2.2734599 125 93 61
-0.72844702 -0.18458 2.2718899 138 104 66
-0.66181499 -0.181793 2.27175 169 126 86
-0.64736801 -0.182934 2.27809 181 146 109
-0.18084501 0.021918099 1.51276 23 21 23
-0.181107 0.0221115 1.51293 23 22 24
-0.065624997 0.0122839 1.55487 173 161 148
-0.06112 0.0108278 1.55955 176 164 152
0.83410299 -0.086580999 1.98341 113 98 87
0.97784698 0.0081196502 1.6282001 105 93 82
-1.14642 -0.190955 2.2889099 83 64 45
-1.1411901 -0.19112 2.29035 103 79 56
-1.1214499 -0.188741 2.28316 88 67 46
-1.0865999 -0.18827499 2.2813101 98 73 51
-1.08082 -0.187043 2.2793701 152 123 98
-1.0552 -0.18782499 2.28125 144 115 87
-1.02829 -0.185882 2.2721601 142 109 73
-1.0228601 -0.183772 2.2658401 123 93 64
-1.01735 -0.183512 2.2687399 152 121 92
-0.87525398 -0.18326201 2.27913 176 140 101
-0.85773599 -0.183699 2.2776999 160 118 78
-0.80967498 -0.185003 2.2789099 164 131 100
-0.803909 -0.18327899 2.2790501 179 146 112
-0.80643499 -0.185003 2.2792799 184 151 117
-0.80113101 -0.18159799 2.2780499 170 137 102
-0.79680002 -0.18307599 2.2758901 182 151 113
-0.795358 -0.182677 2.2823901 178 147 112
-0.76707 -0.183154 2.27461 134 105 73
-0.74044502 -0.17882399 2.26911 187 144 98
-0.737638 -0.178831 2.2702301 202 157 108
-0.676884 -0.17972501 2.2679801 150 115 78
-0.67133999 -0.178468 2.2695601 169 129 87
-0.662992 -0.179538 2.26617 171 126 83
-0.64250499 -0.17736 2.2688899 166 133 98
-0.62308902 -0.174558 2.26037 183 148 109
-0.18234301 0.0242642 1.5120699 22 21 23
0.61132801 0.0336289 1.52105 138 127 112
-1.12529 -0.18553901 2.2855999 103 81 60
-1.08893 -0.182119 2.2755101 80 59 40
-1.08548 -0.183488 2.27527 83 61 43
-1.08047 -0.18280201 2.27683 131 102 79
-1.04018 -0.181261 2.2750199 125 93 64
-1.02408 -0.181527 2.2683201 117 88 62
-1.02245 -0.180525 2.2708001 123 95 68
-1.01933 -0.18096 2.2690201 141 112 84
-0.87532598 -0.18061 2.2766099 180 145 107
-0.85229099 -0.181283 2.2756901 163 124 86
-0.80678201 -0.17984401 2.2793901 136 104 74
-0.79473001 -0.180075 2.2743199 167 136 100
-0.79198301 -0.177801 2.2741499 164 134 98
-0.77526999 -0.178845 2.2776 183 147 107
-0.76093102 -0.17674001 2.2720101 168 136 105
-0.70099998 -0.17708901 2.2667 167 126 82
-0.67248398 -0.17607901 2.26776 177 138 97
-0.66245598 -0.17423999 2.26442 192 145 95
