ply                 
format ascii 1.0    
element vertex 1260
property float x    
property float y    
property float z    
property uchar red  
property uchar green
property uchar blue 
end_header          
0.0801136 0.434892 1.74967 96 105 136 
0.101498 -0.495189 1.87263 48 42 56 
0.114791 -0.496663 1.88247 67 58 75 
0.127034 -0.550194 1.90268 29 28 36 
0.136791 -0.5362 1.91232 103 94 113 
0.137654 -0.546252 1.91334 101 89 109 
0.1432 -0.519187 1.91636 38 34 49 
0.174372 -0.547043 1.96189 136 124 144 
0.187683 -0.408602 1.9754 30 27 34 
0.206341 -0.50413 1.97679 135 131 154 
0.228815 -0.450436 1.99136 136 138 159 
0.312964 0.0318369 2.07943 70 68 79 
0.321143 -0.169329 2.0765 141 139 161 
0.342669 -0.6281 2.15569 148 153 191 
0.327243 0.120649 2.05487 40 38 51 
0.333747 0.0351551 2.06269 137 138 158 
0.325846 0.390191 1.99728 37 39 52 
0.333248 0.31185 2.01688 109 111 72 
0.330465 0.404421 1.99359 55 54 70 
0.348056 -0.139643 2.08939 35 34 42 
0.335263 0.33191 2.00808 114 122 101 
0.339617 0.391079 2.00187 46 53 71 
0.340544 0.407412 2.00077 78 78 102 
0.35755 -0.167038 2.09427 110 115 137 
0.344838 0.475999 2.00166 96 100 125 
0.358193 0.293607 2.05798 128 130 153 
0.362109 0.438477 2.01883 105 113 132 
0.368868 0.440917 2.02608 56 63 89 
0.397942 -0.104139 2.14319 126 142 168 
0.39802 0.0217892 2.12935 167 178 210 
0.383399 0.366344 2.05054 96 98 119 
0.398242 0.0398295 2.12823 165 170 202 
0.422775 -0.618077 2.2382 135 142 186 
0.38544 0.449194 2.04352 41 47 71 
0.388664 0.476925 2.04545 42 53 73 
0.417782 -0.318497 2.19103 134 139 179 
0.423804 -0.213296 2.18714 130 142 180 
0.420921 0.322955 2.11206 106 111 114 
0.429767 0.464589 2.08908 37 44 63 
0.438122 0.385058 2.10735 33 40 58 
0.440559 0.48938 2.09337 57 59 80 
0.462755 0.319807 2.1586 65 71 97 
0.526586 -0.598179 2.34068 144 148 183 
0.549416 -0.0952032 2.31038 142 155 190 
0.57573 -0.364511 2.36503 153 162 195 
0.569462 -0.0145666 2.31708 113 121 158 
0.58625 -0.374265 2.37791 81 91 127 
0.569688 -0.176625 2.30809 91 97 121 
0.571701 0.107571 2.30572 118 126 165 
0.581446 -0.0227274 2.33155 167 177 213 
0.548397 0.339929 2.1857 96 120 154 
0.588437 -0.226222 2.33496 117 117 143 
0.579652 0.269823 2.29397 158 167 198 
0.542838 0.525972 2.13705 132 135 166 
0.606202 0.26158 2.31657 33 33 43 
0.654268 -0.539845 2.46421 130 129 169 
0.609799 0.438343 2.28003 52 55 86 
0.622047 0.358384 2.31477 57 54 75 
0.763709 -0.104501 2.84041 52 49 70 
0.670312 -0.525846 2.48391 173 185 223 
0.626268 0.445275 2.29548 30 36 52 
0.692123 -0.431722 2.49364 83 69 104 
0.704078 -0.456432 2.50611 76 62 97 
0.704877 -0.473117 2.50778 133 124 153 
0.814567 -0.0960503 2.8912 119 117 139 
0.823639 -0.0891737 2.91217 37 32 52 
0.836726 -0.224303 2.92766 95 92 121 
0.737076 -0.571501 2.55677 82 97 128 
0.84562 -0.0890732 2.93092 81 78 95 
0.859684 -0.118153 2.94541 109 98 128 
0.864977 -0.0825774 2.95133 32 30 44 
0.769589 -0.620611 2.60448 133 142 183 
0.7692 -0.561337 2.57019 114 115 143 
0.779555 -0.492944 2.59288 36 32 47 
0.793286 -0.501102 2.61271 112 102 126 
0.902391 -0.12394 2.95666 48 43 66 
0.874287 -0.334914 2.86145 113 117 146 
0.83175 -0.486721 2.6886 126 112 137 
0.902409 -0.308051 2.88932 103 96 127 
0.825377 -0.467189 2.60066 115 102 132 
0.853374 -0.614576 2.67316 139 161 185 
0.852314 -0.580211 2.66289 73 94 123 
0.965488 -0.196638 2.93975 91 87 110 
0.96662 -0.16881 2.93988 87 82 112 
0.960424 -0.327764 2.88679 68 63 86 
0.971326 0.321324 2.89592 109 120 150 
0.971564 0.340569 2.8888 48 37 54 
0.937204 -0.50564 2.76141 46 37 58 
0.975914 0.349678 2.8746 99 82 100 
0.989145 0.344118 2.8962 31 27 42 
0.978271 0.382178 2.8636 96 81 102 
0.967968 -0.710539 2.81999 144 158 187 
0.95518 -0.50075 2.77592 124 119 141 
0.991475 0.356245 2.88421 34 23 37 
1.01211 0.0136419 2.94114 25 25 35 
1.00052 0.289486 2.90747 88 85 104 
0.97477 -0.74043 2.82542 145 153 176 
0.964844 -0.565645 2.7838 151 168 194 
0.991998 0.441641 2.8624 50 47 64 
0.988233 -0.585826 2.82025 63 53 78 
1.02381 -0.0456514 2.91578 29 26 33 
1.00675 -0.456043 2.84092 101 106 128 
1.01416 -0.441348 2.86039 35 35 43 
0.999631 -0.537724 2.81489 93 110 130 
1.00818 -0.635698 2.83089 49 53 80 
1.00739 -0.469748 2.82521 115 106 133 
1.01392 -0.463543 2.83981 39 36 55 
1.04629 0.0844041 2.92923 56 44 68 
1.04539 0.233048 2.91089 57 42 63 
1.05442 -0.0418247 2.92944 28 25 34 
1.05671 -0.277061 2.92314 90 82 106 
1.05046 -0.493472 2.8633 75 75 87 
0.974057 0.315675 2.64865 26 22 36 
1.06342 -0.444091 2.88097 110 106 133 
1.06901 0.340516 2.89022 33 28 35 
1.08476 -0.0221323 2.92599 40 39 57 
1.08243 -0.0458523 2.9169 28 25 34 
1.09676 -0.220629 2.94624 53 50 67 
1.08384 -0.417716 2.90045 117 109 133 
1.09474 -0.0292836 2.92728 106 111 133 
1.08747 0.325012 2.90126 102 109 137 
1.0962 -0.0587325 2.90687 129 125 150 
1.10139 0.172122 2.91889 58 45 71 
1.11877 -0.0572807 2.92295 40 38 51 
1.13065 -0.113291 2.95159 98 89 110 
1.13481 -0.249386 2.9496 92 84 107 
1.13287 -0.224658 2.94055 54 45 62 
1.1441 -0.185889 2.95211 54 50 67 
1.14332 -0.0680509 2.94533 59 48 65 
1.13915 -0.0547832 2.92973 104 95 124 
1.12815 0.275889 2.90081 103 108 130 
1.12959 0.331583 2.89674 74 76 101 
1.19121 -0.683693 3.04625 142 137 178 
1.13066 0.350456 2.88233 71 69 90 
1.16497 -0.201468 2.96019 97 84 112 
1.15561 0.0546742 2.93617 92 84 105 
1.16285 -0.0710295 2.95385 32 26 38 
1.12752 0.388304 2.86385 93 84 101 
1.17344 -0.163316 2.96654 104 88 115 
1.16605 0.0114608 2.94615 31 27 42 
1.15619 0.244341 2.91417 83 88 110 
1.17861 -0.125267 2.96832 93 80 106 
1.15707 0.281846 2.91123 85 91 113 
1.14247 0.394914 2.87191 43 36 52 
1.16587 0.108813 2.92662 74 73 89 
1.16497 0.143824 2.92138 115 112 133 
1.15275 0.344234 2.89057 18 22 34 
1.15178 0.404758 2.87048 137 133 150 
1.17079 0.271942 2.91093 72 77 96 
1.17587 0.247168 2.92075 94 101 127 
1.17565 0.283429 2.91552 90 98 121 
1.20919 0.0301127 2.97848 166 181 212 
1.1527 0.490662 2.83421 98 101 134 
1.19866 0.113543 2.94465 116 123 149 
1.21994 0.103244 2.97326 99 102 135 
1.1826 0.482341 2.87099 74 65 96 
1.21104 0.274737 2.93913 241 244 253 
1.2185 0.257783 2.95192 114 118 145 
1.25022 -0.0613038 3.01702 128 147 179 
1.23675 0.121225 2.97475 167 178 210 
1.18626 0.495943 2.83645 37 51 90 
1.13247 0.509664 2.67289 97 106 139 
1.4571 -0.592213 3.30828 76 70 106 
1.39939 0.0469867 3.17845 78 81 122 
1.29435 0.512754 2.93507 55 69 98 
1.50485 -0.583981 3.35619 71 66 98 
1.41171 0.416853 3.14515 112 122 171 
1.53481 -0.587994 3.386 112 114 135 
1.43625 0.502461 3.13447 104 112 135 
1.45194 0.542081 3.14191 45 51 75 
-0.486747 0.184586 1.56699 169 198 228 
-0.514199 0.113993 1.6108 75 87 125 
-0.4618 0.206189 1.59024 64 149 214 
-0.451588 0.170629 1.59093 31 45 74 
-0.495924 -0.303001 1.67375 74 65 86 
-0.455754 0.200019 1.59736 57 57 69 
-0.498629 -0.38585 1.68631 81 69 89 
-0.448748 0.211235 1.60054 168 191 245 
-0.443701 0.198777 1.60376 97 116 174 
-0.447376 0.230987 1.60714 143 168 225 
-0.44005 0.172607 1.60617 29 44 75 
-0.439173 0.408688 1.59338 35 38 57 
-0.433956 0.190505 1.60402 212 226 255 
-0.433092 0.200432 1.60633 126 146 196 
-0.433737 0.149138 1.61449 23 34 88 
-0.4426 0.142995 1.6292 118 141 191 
-0.435196 0.398157 1.60682 38 37 51 
-0.431499 0.417851 1.60428 28 30 53 
-0.423259 0.388664 1.60802 76 98 148 
-0.423762 0.355527 1.61341 82 102 153 
-0.15088 0.397875 1.27042 135 137 149 
-0.417497 0.249141 1.61596 126 134 170 
-0.421244 0.27086 1.62252 125 146 193 
-0.427911 0.31365 1.64233 93 91 113 
-0.420289 0.313845 1.66259 42 47 66 
-0.224467 0.411313 1.43247 124 123 157 
-0.417028 0.246386 1.71983 125 135 162 
-0.386445 0.331388 1.69386 32 31 47 
-0.333055 0.427745 1.62586 77 84 103 
-0.36906 0.218995 1.73638 56 64 83 
-0.351244 0.40778 1.6982 21 20 36 
-0.350923 0.325916 1.70549 40 38 59 
-0.342498 0.324237 1.69609 32 33 54 
-0.370286 0.144265 1.7501 74 78 105 
-0.351519 0.336478 1.70973 36 36 60 
-0.350038 0.315184 1.70952 31 32 53 
-0.34073 0.389232 1.69873 78 103 144 
-0.234301 0.340247 1.55979 76 95 135 
-0.349676 0.237008 1.73829 164 187 228 
-0.363915 -0.06311 1.7814 34 48 75 
-0.335605 0.279712 1.71647 169 183 220 
-0.352508 0.0079704 1.76409 142 165 207 
-0.347627 0.142123 1.7505 167 190 231 
-0.332628 0.396141 1.71093 49 61 87 
-0.348028 0.107798 1.7556 155 180 220 
-0.346932 0.221768 1.74827 77 91 118 
-0.356211 -0.41822 1.81708 34 44 71 
-0.349078 -0.0127919 1.77712 89 103 142 
-0.345844 0.0101016 1.77499 96 109 143 
-0.348192 0.0427628 1.77664 76 87 119 
-0.346072 -0.0629908 1.78722 32 32 56 
-0.157133 0.42665 1.51336 122 122 156 
-0.123482 0.270621 1.5537 119 119 85 
-0.128625 -0.151666 1.61947 38 33 40 
-0.121233 0.221018 1.58282 34 36 49 
-0.0954491 0.425695 1.52407 59 65 99 
-0.124474 -0.114199 1.61907 56 44 64 
-0.125438 -0.0764842 1.64865 108 119 151 
-0.115928 -0.128679 1.63738 134 126 150 
-0.104809 -0.176149 1.62652 103 101 115 
-0.0873885 0.405755 1.54785 92 73 92 
-0.0895034 0.422909 1.55222 126 125 143 
-0.111186 -0.109468 1.63794 73 64 91 
-0.104177 0.221346 1.59798 44 46 58 
-0.120096 -0.34955 1.67561 138 123 144 
-0.103899 -0.186937 1.63512 30 35 39 
-0.103885 -0.234347 1.63984 59 51 72 
-0.102545 0.205149 1.61602 122 126 151 
-0.0862789 0.39507 1.57311 92 79 107 
-0.0938866 -0.193425 1.63838 124 107 126 
-0.0850448 0.424904 1.57014 135 131 148 
-0.102315 -0.105226 1.64711 61 56 79 
-0.0936772 -0.228497 1.64282 131 113 127 
-0.100405 -0.320605 1.6654 119 123 150 
-0.0842248 0.340229 1.58085 141 142 163 
-0.0976851 0.184117 1.62686 161 167 201 
-0.0928484 -0.154516 1.64957 140 131 148 
-0.0922107 -0.308974 1.6627 65 57 80 
-0.0822289 0.276302 1.59425 126 124 63 
-0.0886721 -0.277199 1.65447 128 114 131 
-0.077538 0.380262 1.5815 35 44 73 
-0.0914312 -0.128965 1.65282 96 83 109 
-0.0894357 -0.325936 1.66987 62 54 75 
-0.090759 -0.103179 1.65912 63 53 77 
-0.0705635 0.396858 1.58835 238 240 253 
-0.0855126 -0.159989 1.67063 49 50 54 
-0.095808 -0.0803237 1.69281 154 149 172 
-0.0645959 0.38156 1.59493 36 49 81 
-0.0795313 -0.187477 1.68145 142 135 151 
-0.075579 -0.238518 1.68065 170 168 189 
-0.0701568 -0.352038 1.68148 127 110 129 
-0.0613801 0.358073 1.60173 59 63 127 
-0.0782302 -0.222626 1.68688 170 171 192 
-0.0776081 -0.466885 1.70982 164 166 187 
-0.0680674 -0.159451 1.66605 30 30 30 
-0.0697095 -0.123587 1.67841 138 128 153 
-0.0683872 -0.218316 1.69034 187 185 209 
-0.0649187 -0.107752 1.68302 88 75 103 
-0.0646887 -0.238083 1.69806 57 62 94 
-0.062658 -0.526461 1.73179 93 96 137 
-0.0607418 -0.268941 1.70568 70 56 89 
-0.0601014 -0.281993 1.7058 167 148 168 
-0.0536961 -0.152937 1.68857 41 33 44 
-0.0417948 0.393103 1.61739 72 59 87 
-0.0563741 -0.297743 1.71181 161 143 165 
-0.0526203 -0.312628 1.71846 161 143 167 
-0.0451445 0.419066 1.65619 126 139 171 
-0.0445105 -0.328655 1.72897 78 67 99 
-0.0447328 -0.528332 1.75116 118 122 159 
-0.0450892 -0.461682 1.74613 184 189 219 
-0.0390227 -0.342627 1.73696 61 51 78 
-0.0330091 -0.35521 1.7441 65 55 82 
-0.0314788 -0.465651 1.7575 169 181 207 
-0.0218527 -0.533378 1.77572 138 144 180 
-0.0125424 -0.433357 1.75895 73 76 81 
-0.0128767 -0.388233 1.7701 63 49 74 
-0.010156 -0.491147 1.78087 170 176 212 
-0.0043898 -0.398584 1.78048 64 52 74 
-0.101777 0.320573 1.93741 119 126 152 
0.00859404 -0.433392 1.81183 104 88 114 
0.0278087 0.44482 1.70699 156 162 194 
-0.122954 0.093908 2.13132 31 41 77 
-0.121489 0.151026 2.12777 25 31 45 
-0.116016 0.0780871 2.14231 24 34 59 
0.0413885 -0.511622 1.83116 122 132 168 
-0.112236 0.161642 2.13651 33 39 55 
0.0456275 0.448509 1.72259 144 155 183 
-0.109991 0.0630261 2.15015 148 166 238 
0.045441 -0.436232 1.83475 73 55 77 
-0.05641 0.0770436 2.03773 27 33 59 
-0.102864 0.153736 2.14835 29 38 53 
0.0557982 -0.475206 1.83816 24 21 28 
-0.0969815 0.300179 2.13392 59 81 104 
-0.0980383 0.0574295 2.16524 14 22 68 
0.0661315 -0.530485 1.8458 136 128 152 
0.0682819 -0.533781 1.85564 125 117 141 
0.0673709 0.450922 1.74575 141 152 180 
0.0752964 -0.48867 1.85511 119 118 90 
0.0332743 0.396903 1.85823 97 103 135 
0.0746145 -0.458456 1.85417 29 29 31 
0.0805851 -0.466684 1.85173 94 87 103 
0.076484 -0.548883 1.87419 55 42 59 
0.0801559 -0.498583 1.86449 60 52 65 
0.0616552 0.433317 1.81269 169 177 200 
-0.00947252 0.357144 2.03237 96 105 136 
0.0865084 -0.573938 1.8919 55 46 67 
0.0989793 -0.451487 1.89226 58 39 69 
0.106485 -0.521388 1.89194 118 106 128 
0.0833732 0.431181 1.83383 169 176 195 
0.105028 0.441172 1.78487 94 103 132 
-0.00910232 0.0625613 2.22871 84 82 104 
0.123082 -0.449639 1.91541 72 53 81 
0.0854281 0.418999 1.91103 84 89 118 
0.137441 -0.505828 1.92556 43 32 48 
0.143475 -0.493819 1.92645 145 122 140 
0.0283819 0.32495 2.16757 21 23 35 
0.149521 -0.521815 1.93256 134 125 142 
0.0257679 0.233524 2.21232 75 87 113 
0.153336 -0.507894 1.94174 57 49 64 
0.161314 -0.502302 1.94937 155 131 145 
0.154267 0.450436 1.83555 88 95 123 
0.166587 -0.53728 1.96431 67 49 71 
0.0624769 -0.0709543 2.24399 71 70 84 
0.176352 -0.562082 1.98699 64 56 80 
0.188353 -0.458828 1.96508 117 104 121 
0.181662 0.463857 1.8618 160 171 199 
0.192652 -0.4924 1.98298 53 42 56 
0.194973 -0.394996 2.01487 48 43 49 
0.179709 0.437892 1.93422 145 152 178 
0.21197 -0.501272 1.99506 104 95 122 
0.212 -0.483786 2.00561 106 93 119 
0.215307 -0.462897 1.9909 130 119 133 
0.218262 -0.446908 1.99541 36 30 32 
0.21922 -0.552189 2.03017 130 130 166 
0.23395 -0.349439 2.04569 41 38 45 
0.219724 0.433804 1.97921 104 118 147 
0.249591 -0.43387 2.02391 142 149 168 
0.246426 -0.533257 2.05523 138 142 179 
0.240727 0.454314 1.9282 160 176 209 
0.25454 -0.597822 2.0692 136 138 176 
0.254433 -0.367605 2.04169 128 125 146 
0.257044 -0.382226 2.03982 128 119 150 
0.263067 -0.419051 2.03765 134 125 146 
0.264545 -0.34302 2.05278 84 73 103 
0.271324 -0.330519 2.05962 81 68 96 
0.279135 -0.416763 2.05314 101 100 98 
0.273382 -0.186912 2.10277 81 82 100 
0.259999 -0.0193213 2.14549 41 37 54 
0.271591 0.457223 1.99857 45 52 71 
0.291352 -0.287468 2.07088 84 70 96 
0.296459 -0.418922 2.09165 132 136 171 
0.273414 -0.0118905 2.1306 98 102 127 
0.274472 0.137355 2.10968 103 113 140 
0.29154 0.478997 1.97146 134 145 167 
0.304779 -0.242997 2.08148 94 81 111 
0.286182 -0.00514852 2.12106 52 44 57 
0.311757 -0.522407 2.12043 117 115 154 
0.308173 -0.227264 2.08391 86 76 103 
0.316142 -0.371128 2.09814 169 175 209 
0.307974 0.329624 1.99413 22 29 48 
0.313993 -0.188633 2.08293 96 80 107 
0.315662 -0.089061 2.05773 118 109 128 
0.316412 -0.173354 2.07414 108 104 131 
0.315933 -0.130567 2.07722 69 56 82 
0.32426 -0.634692 2.15073 146 148 187 
0.301267 0.235852 2.06931 62 50 64 
0.318637 -0.108225 2.06059 123 123 147 
0.318288 -0.0694702 2.06205 37 34 45 
0.322269 -0.183833 2.09053 62 48 71 
0.333648 -0.632075 2.15693 154 156 194 
0.325198 -0.0462729 2.07272 49 39 47 
0.32909 -0.20661 2.09634 112 101 131 
0.329871 -0.0989421 2.07213 118 109 130 
0.334136 -0.325943 2.11662 177 188 216 
0.337987 -0.352286 2.105 182 191 222 
0.333391 -0.170963 2.09081 118 110 134 
0.325663 0.173521 2.0523 52 45 61 
0.327456 0.483136 1.98079 53 77 81 
0.335734 -0.148942 2.09956 117 115 137 
0.331654 0.153592 2.05575 135 132 151 
0.331333 0.211829 2.05125 130 128 149 
0.335311 0.426408 2.00216 63 60 79 
0.342555 -0.107135 2.10346 116 126 153 
0.346262 -0.158177 2.10019 43 40 51 
0.338745 0.15599 2.06344 142 138 161 
0.348751 -0.331401 2.13512 148 151 184 
0.351354 -0.384273 2.1432 136 139 170 
0.342666 0.0668243 2.08227 148 146 168 
0.34005 0.482441 1.99807 60 57 74 
0.344135 0.485731 1.97475 66 79 98 
0.348951 -0.122101 2.1067 25 24 29 
0.357118 -0.301652 2.12447 186 192 228 
0.356734 -0.152397 2.10159 124 126 141 
0.356957 -0.130786 2.09799 89 86 105 
0.349165 0.395141 2.02189 62 64 85 
0.368033 -0.62757 2.19321 146 151 191 
0.362277 -0.177987 2.11033 75 79 90 
0.364376 -0.129142 2.10482 82 89 99 
0.355933 0.363862 2.03122 55 61 73 
0.355946 0.424297 2.02817 127 128 149 
0.366596 -0.0222453 2.11169 30 29 37 
0.362345 0.261125 2.07728 132 136 165 
0.36408 0.324342 2.05507 56 62 60 
0.374763 -0.127487 2.11685 86 87 105 
0.364579 0.469779 2.02836 109 117 138 
0.367203 0.39359 2.04143 111 106 126 
0.367998 0.375952 2.04329 51 55 80 
0.377255 -0.104748 2.12362 100 111 131 
0.366783 0.484862 2.02883 51 52 73 
0.373989 0.0794542 2.11243 117 107 131 
0.380857 0.128873 2.11268 166 170 199 
0.382733 0.0620034 2.12129 160 165 194 
0.386564 -0.0492277 2.12916 158 171 203 
0.380684 0.402884 2.05431 113 124 142 
0.396595 -0.398097 2.19207 128 133 171 
0.387517 -0.0137046 2.13796 119 102 121 
0.387844 0.0541484 2.12809 128 113 134 
0.385964 0.138785 2.1199 115 103 123 
0.394266 0.00864792 2.14221 168 177 210 
0.399899 -0.120597 2.14394 61 63 84 
0.390155 0.492621 2.02771 134 128 166 
0.390307 0.413559 2.06101 47 52 71 
0.393369 0.157905 2.12255 169 184 215 
0.406197 0.00577495 2.14661 176 186 222 
0.401024 0.220917 2.11936 159 172 204 
0.400539 0.320897 2.10593 132 143 145 
0.418842 -0.439285 2.22392 144 149 181 
0.406575 0.487969 2.07342 56 61 80 
0.416304 0.291328 2.12989 52 53 101 
0.421745 0.266951 2.13693 56 70 107 
0.424702 0.239903 2.14466 135 126 155 
0.427019 0.252862 2.14576 239 243 254 
0.434504 0.269185 2.15099 53 66 108 
0.456854 -0.430216 2.26043 146 156 191 
0.439532 0.294546 2.15306 42 48 100 
0.441538 0.326275 2.1478 122 129 135 
0.456426 -0.163121 2.22667 136 146 182 
0.456896 -0.178585 2.22867 146 154 190 
0.445632 0.320097 2.1579 60 68 91 
0.468852 -0.395021 2.26953 146 154 193 
0.464596 0.315244 2.1779 173 184 214 
0.496028 -0.581251 2.31356 155 152 171 
0.466983 0.463612 2.13512 116 114 136 
0.470917 0.339955 2.16844 48 54 70 
0.502159 -0.457985 2.30965 140 142 180 
0.479962 0.433206 2.14907 91 95 122 
0.510814 -0.458101 2.3191 140 147 189 
0.485054 0.492033 2.14684 53 50 77 
0.523345 -0.669986 2.3588 157 162 204 
0.514836 -0.0771534 2.27671 138 144 180 
0.519076 -0.176198 2.30193 176 182 216 
0.540849 -0.343196 2.33859 150 153 188 
0.527171 0.124168 2.26308 148 156 195 
0.541872 -0.122554 2.31301 148 161 193 
0.534484 0.124945 2.2703 151 159 195 
0.54674 -0.198849 2.3262 97 109 135 
0.547222 -0.183156 2.32269 97 111 138 
0.549263 -0.128263 2.31997 77 86 117 
0.567854 -0.663403 2.40421 153 158 196 
0.55398 -0.242572 2.33621 146 157 189 
0.554684 -0.262604 2.34122 96 102 138 
0.548307 -0.0966638 2.33178 139 149 185 
0.533358 0.418969 2.20824 31 36 55 
0.536034 0.467834 2.20539 39 47 70 
0.549149 0.0571682 2.29541 110 115 153 
0.55606 -0.0557237 2.32238 155 167 205 
0.568101 -0.354036 2.37405 163 167 202 
0.562503 -0.13992 2.33305 87 98 126 
0.57198 -0.419619 2.41377 195 205 240 
0.543625 0.477224 2.21842 94 103 132 
0.564956 -0.0546972 2.32808 146 159 193 
0.559887 0.163483 2.29999 150 159 192 
0.571733 -0.14422 2.33768 26 30 39 
0.571676 -0.0714149 2.33335 38 43 62 
0.561508 0.329788 2.21215 28 37 76 
0.577329 -0.0784811 2.34618 70 76 102 
0.564812 0.342649 2.21121 69 90 121 
0.594642 -0.482387 2.40925 130 132 171 
0.591414 -0.351072 2.38854 84 93 124 
0.579795 0.000943351 2.33159 144 154 190 
0.578376 0.07896 2.30766 88 96 115 
0.571599 0.252999 2.28902 45 51 65 
0.583096 -0.0509284 2.34322 169 181 219 
0.591477 -0.24349 2.353 130 124 150 
0.596181 -0.380326 2.39865 63 82 114 
0.589374 -0.154997 2.34805 26 28 40 
0.577398 0.15799 2.31253 75 84 115 
0.577655 0.146905 2.32659 148 156 193 
0.580917 0.0954927 2.3246 165 178 212 
0.601334 -0.441905 2.41039 140 149 188 
0.599107 -0.363414 2.39693 30 33 50 
0.588759 0.124434 2.32905 121 108 136 
0.591311 0.0874393 2.33189 46 38 51 
0.581727 0.440509 2.26004 97 101 130 
0.584486 0.426142 2.26328 42 54 78 
0.620189 -0.432619 2.43206 150 164 203 
0.615276 -0.27717 2.40458 163 163 187 
0.603283 0.0712503 2.33345 141 145 170 
0.593699 0.384399 2.27838 102 112 137 
0.627171 -0.469956 2.44266 171 178 207 
0.606596 0.0889788 2.3571 44 43 57 
0.594052 0.462111 2.26075 38 45 63 
0.609422 0.129281 2.35082 77 59 85 
0.639282 -0.509789 2.44769 181 189 225 
0.607811 0.279775 2.32831 154 146 167 
0.602244 0.433812 2.28079 108 109 139 
0.630797 -0.273361 2.42262 80 69 101 
0.634991 -0.331028 2.43349 94 79 112 
0.627339 -0.118308 2.402 122 112 136 
0.627099 -0.103171 2.41281 63 45 67 
0.609988 0.343206 2.33265 135 136 157 
0.639967 -0.310739 2.4364 77 66 96 
0.632522 -0.107719 2.43554 99 88 105 
0.646942 -0.329352 2.44907 58 48 73 
0.655725 -0.512089 2.47596 172 178 214 
0.650841 -0.377646 2.45406 148 140 164 
0.651207 -0.345035 2.45297 75 65 100 
0.65412 -0.365868 2.45167 120 116 141 
0.630761 0.467691 2.23659 36 45 62 
0.670949 -0.429876 2.48751 136 123 149 
0.633125 0.485747 2.16382 19 27 40 
0.670554 -0.39796 2.47025 122 113 140 
0.634982 0.485224 2.09367 35 40 59 
0.64264 0.351051 2.36398 144 142 164 
0.677765 -0.400379 2.48615 119 115 138 
0.681764 -0.407109 2.49313 78 63 96 
0.683519 -0.434025 2.49402 90 77 105 
0.683477 -0.319498 2.67306 164 161 190 
0.691968 -0.447877 2.50534 150 129 160 
0.68119 -0.114685 2.76637 49 44 67 
0.698349 -0.551385 2.5216 164 178 213 
0.697585 -0.450309 2.51382 160 145 168 
0.688134 -0.111781 2.77727 93 95 116 
0.699996 -0.435453 2.51825 70 59 93 
0.659163 0.454351 2.199 46 53 79 
0.713783 -0.693983 2.55852 203 212 245 
0.707497 -0.547849 2.53314 85 98 130 
0.705804 -0.445679 2.52131 132 118 141 
0.712345 -0.503013 2.5158 69 71 94 
0.66573 0.464503 2.12776 47 54 80 
0.708861 -0.341215 2.69453 130 128 152 
0.701413 -0.109841 2.78989 81 83 106 
0.717918 -0.568367 2.54638 174 187 221 
0.699705 0.0868558 3.09267 67 86 126 
0.712953 -0.375104 2.64378 93 82 114 
0.714705 -0.443977 2.53614 39 35 49 
0.667764 0.481853 2.05636 52 58 80 
0.69588 0.106454 2.76137 34 47 91 
0.706918 -0.105285 2.79746 38 34 49 
0.717837 -0.463164 2.53618 130 120 144 
0.723144 -0.562723 2.5585 85 100 123 
0.701989 0.0828182 2.76788 48 64 116 
0.719773 -0.284336 2.84109 104 99 131 
0.722921 -0.378817 2.65518 95 90 120 
0.726351 -0.481271 2.5426 75 60 91 
0.708345 0.067462 2.7748 208 221 255 
0.707713 0.0988036 2.77176 208 221 255 
0.707586 0.111843 2.77451 44 63 93 
0.727381 -0.396198 2.66565 91 82 109 
0.73025 -0.414765 2.7637 91 82 109 
0.676174 0.493767 2.05468 116 129 163 
0.718322 -0.112443 2.80293 48 45 76 
0.719946 -0.103242 2.81008 36 31 51 
0.713534 0.0833451 2.78056 48 59 113 
0.734799 -0.523797 2.54348 59 57 79 
0.735583 -0.463852 2.55679 37 35 49 
0.738863 -0.398714 2.67488 98 89 118 
0.720091 0.106441 2.77911 54 55 109 
0.740643 -0.361567 2.74142 115 105 132 
0.742905 -0.530221 2.55223 60 56 79 
0.740612 -0.384712 2.67804 87 76 106 
0.733002 -0.101748 2.81907 32 30 41 
0.732675 -0.0844623 2.81629 21 29 48 
0.753266 -0.692495 2.59935 131 140 183 
0.75201 -0.636069 2.59188 117 124 166 
0.746667 -0.301835 2.85159 99 97 119 
0.751614 -0.590904 2.59077 158 172 201 
0.729109 0.0835668 2.78883 25 36 56 
0.751112 -0.536336 2.56261 50 52 73 
0.752683 -0.494166 2.57374 128 118 142 
0.761584 -0.582015 2.59301 62 71 104 
0.759532 -0.541881 2.57168 46 52 74 
0.757369 -0.482089 2.58011 33 30 41 
0.751822 -0.100248 2.84304 37 32 52 
0.769918 -0.679608 2.61703 139 143 188 
0.762359 -0.491567 2.58755 123 120 141 
0.706698 0.47259 2.16222 72 85 117 
0.767822 -0.546789 2.58037 38 45 64 
0.765969 -0.226798 2.87442 36 35 49 
0.768039 -0.514059 2.59225 144 138 166 
0.77037 -0.490345 2.60175 127 125 147 
0.722781 0.410892 2.36396 141 149 188 
0.775165 -0.5519 2.59002 43 46 63 
0.766537 -0.0969385 2.85776 35 32 49 
0.7753 -0.555902 2.57758 122 122 146 
0.77478 -0.518096 2.60146 76 66 103 
0.774748 -0.399377 2.72027 103 94 113 
0.771119 -0.134386 2.85884 118 123 145 
0.781709 -0.598835 2.6112 40 48 67 
0.783617 -0.555208 2.59775 35 37 50 
0.777337 -0.103879 2.86376 57 48 75 
0.783691 -0.454915 2.66357 121 118 147 
0.790861 -0.25021 2.8889 109 102 133 
0.791981 -0.559214 2.6073 32 35 50 
0.725275 0.484253 2.11784 123 134 179 
0.802058 -0.652828 2.63127 144 134 159 
0.797022 -0.220936 2.89969 103 101 125 
0.737311 0.455904 2.26801 70 80 116 
0.800426 -0.562802 2.6178 33 36 55 
0.801161 -0.528734 2.62757 69 56 86 
0.797422 -0.101736 2.88286 104 102 126 
0.804747 -0.508099 2.63159 31 29 42 
0.814858 -0.630144 2.66025 61 60 92 
0.810603 -0.556526 2.63445 24 32 43 
0.812352 -0.228466 2.91025 26 24 35 
0.818026 -0.656199 2.66642 146 152 176 
0.813436 -0.404627 2.76114 93 89 106 
0.817167 -0.581037 2.63432 175 198 216 
0.820123 -0.614297 2.65932 139 143 172 
0.822877 -0.596169 2.65372 140 154 180 
0.832187 -0.657234 2.68198 28 36 55 
0.830054 -0.628121 2.66675 149 163 189 
0.829729 -0.610813 2.66794 123 127 152 
0.828163 -0.537591 2.65957 75 62 90 
0.831981 -0.20739 2.94262 34 32 43 
0.825237 -0.0942983 2.91066 54 46 70 
0.830385 -0.516496 2.66091 30 28 42 
0.841225 -0.646055 2.68296 106 122 147 
0.838638 -0.592897 2.6746 70 83 117 
0.807005 0.416366 2.8343 21 22 40 
0.836476 -0.0953343 2.92167 52 44 68 
0.843675 -0.605825 2.68323 120 126 152 
0.762942 0.498286 2.1541 75 80 110 
0.844572 -0.543186 2.66859 113 103 130 
0.850357 -0.202195 2.94706 107 102 132 
0.851723 -0.651916 2.68685 174 186 210 
0.848398 -0.509324 2.69089 119 120 140 
0.855748 -0.596214 2.68434 149 161 187 
0.855132 -0.552997 2.69077 116 107 134 
0.857461 -0.520183 2.69025 33 29 44 
0.859418 -0.0877797 2.95145 97 96 114 
0.870422 -0.726658 2.72639 121 124 165 
0.872721 -0.600997 2.70058 160 176 202 
0.869871 -0.0421556 2.96012 90 95 117 
0.870047 -0.0253259 2.95911 85 81 106 
0.875363 -0.089837 2.96084 53 43 67 
0.809099 0.46798 2.41148 102 110 147 
0.876474 -0.511272 2.71625 97 87 114 
0.890431 -0.723853 2.73905 164 177 209 
0.889488 -0.681445 2.73508 166 175 208 
0.883509 -0.520942 2.71828 41 35 49 
0.885612 -0.542955 2.71972 70 64 98 
0.868104 0.271167 2.9206 87 92 112 
0.894005 -0.633809 2.72782 95 108 140 
0.895823 -0.657403 2.73191 115 124 163 
0.902651 -0.741505 2.7522 82 98 132 
0.90182 -0.719449 2.74587 79 84 124 
0.901533 -0.709708 2.73973 145 160 189 
0.904728 -0.0998663 2.96203 49 46 67 
0.904868 -0.572979 2.72344 155 171 194 
0.823445 0.492412 2.28324 82 91 130 
0.90355 0.059979 2.94297 59 49 73 
0.912042 -0.498341 2.7707 37 34 45 
0.910571 -0.517046 2.74654 38 30 51 
0.837492 0.470831 2.37141 95 106 138 
0.902385 0.193958 2.92505 58 48 72 
0.92442 -0.633069 2.76638 120 125 157 
0.92124 -0.587189 2.74896 178 189 219 
0.92517 -0.569407 2.74362 139 156 182 
0.852707 0.472981 2.4529 93 103 139 
0.930347 -0.59255 2.76151 126 135 168 
0.832918 0.508398 2.22031 73 82 111 
0.931667 -0.537255 2.7621 143 148 178 
0.910234 0.309551 2.90367 99 92 123 
0.939022 -0.490674 2.80106 37 34 45 
0.948368 -0.637538 2.7925 52 51 83 
0.943041 -0.529676 2.77829 75 65 100 
0.844608 0.498382 2.23359 121 132 177 
0.949196 -0.581644 2.7785 49 58 91 
0.947456 -0.560055 2.76929 55 72 98 
0.967801 -0.734995 2.82916 76 92 128 
0.958319 -0.489528 2.80353 94 91 112 
0.95872 -0.512446 2.78099 131 121 145 
0.944258 0.204986 2.92007 104 106 131 
0.964706 -0.476691 2.81864 46 39 46 
0.963495 -0.563431 2.77249 149 156 185 
0.964465 -0.497949 2.80072 40 36 51 
0.96528 -0.555411 2.78129 143 163 188 
0.973392 -0.623973 2.82418 84 90 122 
0.943996 0.305855 2.90721 90 87 114 
0.976517 -0.648958 2.83418 143 158 187 
0.98108 -0.722438 2.84672 25 20 50 
0.977573 -0.631795 2.83312 138 150 176 
0.970212 -0.517948 2.80464 71 58 86 
0.938046 0.424962 2.86953 38 30 41 
0.954119 0.190494 2.9228 39 38 56 
0.971553 -0.553604 2.79137 66 81 110 
0.977534 -0.587942 2.81947 54 60 92 
0.974851 -0.563634 2.79906 81 89 125 
0.979606 -0.579175 2.82489 154 161 187 
0.981516 -0.611282 2.82704 66 63 94 
0.977723 -0.126329 2.95776 83 74 101 
0.870073 0.510341 2.26091 66 75 104 
0.982916 -0.476021 2.82917 94 90 113 
0.987453 -0.438535 2.84366 103 97 125 
0.908743 0.480518 2.51167 80 84 129 
0.992986 -0.575198 2.83111 50 56 82 
0.983937 -0.0599439 2.91344 113 102 134 
0.903081 0.482074 2.43729 92 103 135 
0.992049 -0.539142 2.81272 84 107 125 
0.993502 -0.53063 2.82087 29 28 36 
1.00976 -0.648759 2.84169 49 53 80 
0.98928 0.119778 2.93044 60 52 73 
0.977488 0.42438 2.85759 95 91 118 
1.01607 -0.533989 2.83694 24 28 39 
1.02183 -0.478391 2.86396 116 111 134 
1.01115 -0.0440565 2.91485 29 27 32 
1.06715 0.529769 3.44235 53 50 71 
1.03166 -0.543009 2.84477 84 99 128 
1.03424 -0.486123 2.86433 120 120 144 
1.01064 0.295013 2.91151 33 33 45 
1.03255 -0.0415242 2.91505 81 78 95 
1.03466 -0.0285266 2.92654 104 99 129 
1.04868 -0.508362 2.86276 28 34 48 
1.04612 0.0159381 2.94262 51 46 66 
1.0551 -0.426427 2.87653 103 99 124 
1.03089 0.289452 2.90491 113 124 152 
1.02543 0.320019 2.86603 105 115 140 
1.06085 -0.419837 2.89487 37 33 50 
1.06509 -0.494394 2.87977 32 35 52 
0.955873 0.52287 2.40865 142 158 192 
1.04632 0.20583 2.92216 56 47 68 
1.0805 -0.392389 2.91163 33 30 47 
1.08201 -0.399935 2.90468 112 107 130 
1.04795 0.341571 2.8816 29 25 39 
1.08949 -0.444151 2.91223 37 28 49 
1.07057 0.101233 2.93639 28 31 50 
1.05714 0.329901 2.90265 91 89 111 
1.09228 -0.354554 2.92418 89 83 109 
1.05818 0.35045 2.8931 83 70 88 
1.05107 0.445144 2.86675 60 47 73 
1.09421 -0.408554 2.91382 123 120 141 
0.968208 0.524405 2.35226 61 75 104 
1.09578 -0.33114 2.91962 46 42 57 
1.06826 0.314845 2.91155 30 29 45 
1.10006 -0.362067 2.92705 31 28 45 
1.07187 0.3422 2.90831 33 29 43 
1.10826 -0.386981 2.93435 104 91 117 
1.10894 -0.321925 2.93812 88 86 110 
1.10933 -0.340927 2.92532 102 98 121 
1.06324 0.451835 2.83747 130 142 182 
1.08808 0.297454 2.90656 116 129 161 
1.11763 -0.21066 2.95375 124 122 146 
1.12349 -0.287097 2.94889 95 99 124 
1.12936 -0.357037 2.95474 106 95 127 
1.13165 -0.339361 2.9547 64 60 87 
1.13146 -0.294908 2.95344 30 27 46 
1.11777 -0.0424122 2.93333 29 26 33 
1.11026 0.145659 2.93266 83 85 100 
1.1322 -0.303095 2.94521 101 99 121 
1.10042 0.333031 2.90439 47 41 67 
1.13906 -0.272055 2.94916 115 107 131 
1.14352 -0.303686 2.95911 69 60 91 
1.14416 -0.256782 2.95886 33 29 44 
1.12973 -0.0502322 2.92071 124 119 141 
1.13254 -0.00358694 2.94406 122 120 144 
1.17883 -0.640495 3.0374 181 194 228 
1.1312 0.0860007 2.93249 101 89 113 
1.14612 -0.0685683 2.96073 62 49 67 
1.15224 -0.173577 2.96358 89 90 110 
1.0989 0.479979 2.80622 143 152 191 
1.15683 -0.136112 2.96473 89 80 101 
1.16646 -0.186442 2.96447 100 92 115 
1.16603 -0.141374 2.96805 37 35 48 
1.15698 0.0137163 2.94635 98 94 117 
1.16833 -0.101652 2.9664 41 36 56 
1.17083 -0.12638 2.96315 119 109 134 
1.16754 -0.0256872 2.95591 26 24 38 
1.14312 0.345933 2.90774 21 19 33 
1.16051 0.0760804 2.93871 39 33 45 
1.17056 -0.0872676 2.95493 121 107 130 
1.07008 0.522545 2.54161 69 75 107 
1.18246 -0.126092 2.98823 94 79 108 
1.16678 0.0490905 2.94387 46 40 52 
1.1827 -0.0880782 2.98368 95 79 105 
1.17029 0.131288 2.95939 43 38 61 
1.16505 0.236566 2.91839 36 30 40 
1.13948 0.477958 2.83531 139 153 188 
1.16651 0.220918 2.91789 119 111 134 
1.17936 0.0915886 2.94762 114 116 139 
1.15771 0.353406 2.88663 111 108 129 
1.16318 0.336277 2.89733 69 77 100 
1.17825 0.151508 2.92872 35 34 42 
1.17658 0.221482 2.93006 117 113 140 
1.09145 0.526166 2.56195 77 88 116 
1.18452 0.0985491 2.94024 49 51 74 
1.10822 0.523765 2.64313 89 95 131 
1.23827 -0.501774 3.07631 143 148 188 
1.18602 0.125849 2.93985 28 28 40 
1.07549 0.540582 2.47124 79 88 119 
1.20377 -0.0639841 2.98325 32 30 54 
1.19678 0.00868373 2.95955 104 100 123 
1.16526 0.41072 2.88483 145 137 158 
1.18224 0.239652 2.92922 76 62 87 
1.16158 0.429441 2.86438 64 69 91 
1.20229 0.0195521 2.98135 41 41 51 
1.21562 -0.117962 2.98919 38 40 65 
1.18607 0.279426 2.92147 34 37 54 
1.21654 -0.103848 2.98818 45 43 67 
1.19564 0.160455 2.93568 129 118 135 
1.23216 -0.213911 3.0167 168 185 215 
1.19082 0.292692 2.91745 136 148 170 
1.23473 -0.239001 3.02088 172 181 220 
1.11185 0.526407 2.57778 79 93 122 
1.20964 0.18472 2.96379 170 181 213 
1.20133 0.264752 2.93294 84 93 136 
1.22348 0.0602751 2.99067 180 192 232 
1.20945 0.239551 2.95278 173 184 216 
1.18543 0.336182 2.854 97 116 146 
1.20621 0.290069 2.93395 90 103 156 
1.25819 -0.254424 3.07384 136 144 183 
1.26119 -0.131874 3.05718 186 193 222 
1.25357 -0.062067 3.03252 123 143 170 
1.20544 0.41913 2.89697 172 184 208 
1.23417 0.164253 2.97814 181 194 226 
1.2247 0.269176 2.95347 105 112 164 
1.22428 0.317267 2.94877 94 104 153 
0.951086 0.500728 1.72198 79 86 112 
1.14214 0.529368 2.60807 86 99 133 
1.23387 0.256189 2.96427 177 190 224 
1.16924 0.51434 2.70673 92 105 137 
1.21733 0.402418 2.88805 171 176 208 
1.2196 0.49023 2.91054 38 38 66 
1.22967 0.383387 2.90056 183 182 213 
1.24778 0.456844 2.95396 109 112 127 
1.2525 0.474526 2.94168 111 117 141 
1.26007 0.419428 2.94077 168 173 203 
1.38379 -0.702229 3.26314 193 208 241 
1.26528 0.477419 2.92414 89 96 122 
1.27177 0.42142 2.93598 180 176 199 
1.27388 0.532332 2.96165 47 58 86 
1.27387 0.543427 2.96114 57 69 109 
1.39567 -0.675399 3.25105 139 130 157 
1.28413 0.4193 2.94405 168 182 211 
1.2884 0.43029 2.95251 23 29 63 
1.42494 -0.788464 3.3066 128 121 165 
1.28506 0.515529 2.93998 43 57 92 
1.29317 0.440852 2.95456 83 99 124 
1.28579 0.540103 2.94047 37 55 93 
1.38706 -0.315951 3.1805 133 146 178 
1.44183 -0.783113 3.32408 175 172 201 
1.30425 0.445531 2.9682 25 32 61 
1.43065 -0.600976 3.28716 124 110 143 
1.38001 0.0113289 3.16379 167 176 209 
1.34178 0.441593 3.07095 178 184 210 
1.38355 0.0518378 3.16426 178 189 219 
1.40161 -0.0419429 3.21251 176 188 226 
1.33289 0.526527 3.02305 49 65 91 
1.40775 -0.129676 3.20847 138 133 173 
1.39745 -0.00670963 3.18307 86 97 129 
1.26302 0.547046 2.73499 93 104 136 
1.45887 -0.605735 3.3167 36 31 53 
1.41676 -0.091047 3.21928 162 170 206 
1.41079 -0.0159342 3.20451 139 144 174 
1.43064 -0.216818 3.24462 145 145 181 
1.40729 0.0417629 3.1854 91 103 125 
1.40945 0.0529954 3.1863 108 123 152 
1.40146 0.209743 3.16902 175 188 222 
1.44441 -0.168096 3.27056 165 174 213 
1.47526 -0.603956 3.31783 84 88 100 
1.36583 0.532648 3.06529 66 73 102 
1.36991 0.513671 3.06746 40 47 75 
1.38673 0.427399 3.11752 168 171 190 
1.40427 0.268175 3.15949 182 191 230 
1.4228 0.0411899 3.18865 102 114 136 
1.4347 -0.0218709 3.21975 34 42 61 
1.3677 0.578686 3.05321 75 87 113 
1.26707 0.56585 2.66801 82 93 121 
1.40212 0.365136 3.14027 122 105 139 
1.49448 -0.601687 3.33809 79 87 100 
1.42289 0.119885 3.17686 82 93 113 
1.3922 0.458422 3.11212 116 125 132 
1.50021 -0.592955 3.35202 90 95 114 
1.40607 0.392872 3.14289 127 137 190 
1.44162 0.00754013 3.20625 101 113 129 
1.38937 0.504571 3.08611 117 122 144 
1.3829 0.591754 3.06679 79 84 116 
1.51156 -0.594133 3.36511 62 60 81 
1.47579 -0.251868 3.27065 180 194 231 
1.53614 -0.657078 3.43201 84 69 100 
1.45221 0.0344427 3.22089 120 118 139 
1.51121 -0.47154 3.3573 132 137 175 
1.41878 0.434211 3.14931 245 246 251 
1.42433 0.419157 3.15581 96 104 169 
1.42901 0.394122 3.16355 91 88 143 
1.43113 0.443435 3.15885 107 99 150 
1.43438 0.407622 3.1646 126 119 161 
1.48411 -0.0408207 3.27595 121 112 133 
1.41984 0.549613 3.11138 66 70 97 
1.48747 -0.0325897 3.26422 33 28 50 
1.60743 -0.785356 3.58622 25 24 40 
1.54942 -0.589545 3.39897 50 46 71 
1.43584 0.520228 3.13263 49 56 84 
1.60945 -0.655665 3.55923 124 114 138 
1.56296 -0.440872 3.40869 178 188 223 
1.56008 -0.402728 3.4016 161 172 204 
1.54804 -0.270721 3.37154 185 196 228 
1.5442 -0.25591 3.35559 72 79 97 
1.45038 0.58176 3.14082 49 60 88 
1.62382 -0.810331 3.54641 34 37 56 
1.55591 -0.282227 3.38088 164 175 207 
1.59148 -0.56329 3.46002 172 188 222 
1.4531 0.601919 3.14031 60 69 100 
1.58878 -0.587649 3.43216 94 100 114 
1.45665 0.614493 3.14108 51 56 85 
1.462 0.579564 3.15078 62 76 102 
-0.26348 0.201388 1.84518 55 48 64 
-0.248966 -0.127353 1.89863 98 93 113 
-0.247887 -0.113736 1.91618 81 78 99 
0.117969 -0.661505 1.92258 119 108 125 
0.424539 0.325779 2.13047 106 111 114 
0.762151 -0.846183 2.61825 167 175 211 
0.890197 -0.833607 2.74889 77 78 106 
0.984739 -0.792069 2.83319 31 29 51 
-0.107328 -0.343202 1.65261 138 123 144 
-0.0735504 -0.206702 1.67298 170 171 191 
-0.0600904 -0.536237 1.72099 124 127 162 
0.0699681 -0.441803 1.84704 68 48 73 
0.091267 -0.447078 1.87076 61 42 62 
0.126715 -0.550717 1.90364 21 20 28 
0.128556 -0.535957 1.90647 116 105 122 
0.137475 -0.545855 1.91377 98 83 104 
0.169012 -0.585649 1.95869 157 146 160 
0.257948 -0.354642 2.0339 77 65 89 
0.29947 -0.52308 2.09752 133 135 173 
0.307874 -0.394528 2.08321 161 164 195 
0.320907 -0.630816 2.13248 136 138 177 
0.322669 -0.198501 2.07996 59 44 67 
0.373619 0.104075 2.09772 116 106 131 
0.388943 -0.197792 2.1414 173 177 212 
0.394196 -0.37435 2.1757 182 187 216 
0.417972 -0.625261 2.23858 185 194 235 
0.417628 -0.318792 2.19225 138 140 179 
0.486527 -0.389754 2.27377 133 141 180 
0.526512 -0.598672 2.34186 143 145 183 
0.531607 -0.475578 2.33126 149 152 185 
0.53089 -0.0680834 2.28138 138 143 181 
0.545865 0.0222383 2.29463 168 174 210 
0.581368 -0.0226881 2.33359 172 182 218 
0.598123 -0.150409 2.34494 129 116 142 
0.622284 -0.264207 2.40095 105 94 126 
0.712228 0.0824971 2.72253 48 59 113 
0.744087 -0.312612 2.84061 32 26 38 
0.723911 0.416274 2.39856 141 149 188 
0.784008 -0.401892 2.71243 112 104 127 
0.786157 -0.536094 2.60511 160 164 193 
0.737007 0.472163 2.25738 71 80 119 
0.837723 -0.746068 2.69074 107 113 145 
0.761572 0.476754 2.28411 77 90 125 
0.843552 -0.160597 2.93097 106 104 126 
0.855192 -0.735292 2.70908 110 115 153 
0.853764 -0.616577 2.67711 161 176 199 
0.856081 -0.540654 2.68149 68 62 96 
0.870835 -0.0813915 2.96105 36 32 49 
0.912064 -0.776103 2.77794 149 164 187 
0.906712 -0.687197 2.73631 170 181 211 
0.913519 -0.537464 2.73973 76 72 105 
0.90417 0.347774 2.88765 102 97 119 
0.955329 -0.744276 2.82158 55 56 74 
0.968607 -0.712443 2.82507 145 158 190 
0.988138 -0.782721 2.8395 30 24 52 
0.952209 0.296584 2.90068 37 34 51 
0.97844 -0.356653 2.8892 28 25 32 
0.976386 -0.0532827 2.89446 111 107 130 
0.986023 -0.504803 2.80842 118 104 127 
1.00839 -0.622428 2.83101 47 52 74 
1.00326 -0.443555 2.84628 44 34 45 
1.01037 0.436178 2.8608 48 46 60 
1.03954 -0.0592165 2.90189 106 101 131 
1.04684 0.0994241 2.92892 62 49 69 
1.04844 0.341955 2.88481 29 25 39 
1.12083 -0.682053 2.97442 151 159 195 
1.10274 0.157742 2.92202 58 49 68 
1.19528 -0.637522 3.04767 127 130 175 
1.1969 0.274693 2.91973 122 137 180 
1.21752 0.291428 2.93865 98 110 170 
1.21958 0.40453 2.89864 171 176 208 
1.21972 0.499943 2.82799 129 140 168 
1.37251 -0.694541 3.25458 190 200 235 
1.28162 0.519458 2.85316 79 91 117 
1.39768 -0.0416395 3.19703 176 188 226 
1.35121 0.443029 3.07123 83 90 119 
1.41737 0.0272237 3.1799 84 91 107 
1.40058 0.276325 3.14467 140 130 165 
1.36799 0.54296 3.05743 59 63 90 
1.40602 0.441094 3.1326 78 75 118 
1.41758 0.40218 3.1507 246 247 251 
1.40739 0.46592 3.1126 56 63 81 
1.40406 0.578781 3.09244 59 70 100 
1.58991 -0.918571 3.51689 57 49 86 
1.4267 0.548246 3.11512 68 72 99 
1.44232 0.537246 3.13486 108 103 125 
1.58134 -0.542902 3.43662 127 139 177 
1.62883 -0.799627 3.54632 103 108 128 
-0.0992725 -0.379108 1.63094 92 80 90 
-0.108524 -0.549168 1.66254 132 127 157 
-0.0894352 -0.183624 1.61629 28 29 34 
-0.0834106 -0.17304 1.61877 94 90 105 
-0.0725484 0.390698 1.55572 83 68 99 
-0.072527 0.353735 1.56426 29 21 68 
-0.0820522 -0.156114 1.62962 37 33 47 
-0.0755132 -0.229625 1.63565 72 65 81 
-0.10537 0.186005 1.64636 145 153 189 
-0.0701931 -0.159424 1.63586 25 25 27 
-0.0817672 0.184438 1.62666 149 154 184 
-0.076831 -0.0935077 1.6526 55 51 68 
-0.0987154 -0.0675398 1.68559 167 173 209 
-0.0915263 0.207147 1.65175 125 123 137 
-0.0436594 0.416392 1.58517 86 69 87 
-0.0505542 -0.155844 1.65684 117 113 127 
-0.0534413 -0.56105 1.71978 126 119 152 
-0.0394395 -0.482391 1.70999 166 175 208 
-0.228605 -0.249092 1.96901 21 20 28 
-0.0285033 -0.459795 1.73191 152 159 188 
-0.0332095 0.385637 1.65568 122 135 167 
-0.0166288 -0.362524 1.73684 67 54 84 
-0.0173066 -0.580794 1.76106 129 133 170 
-0.0279302 0.411305 1.69475 88 97 126 
-0.000554625 -0.577932 1.77737 125 128 169 
0.00659392 -0.433556 1.77056 145 151 177 
0.0228812 -0.425635 1.78852 97 84 104 
0.0313734 -0.548284 1.80749 176 185 218 
0.0592099 -0.541768 1.82451 87 82 112 
0.0811179 -0.57309 1.84246 87 73 98 
-0.154264 0.0788165 2.20942 27 33 57 
-0.101388 0.0939048 2.1322 146 164 236 
-0.0955874 0.078818 2.14023 24 31 57 
0.104673 -0.570143 1.88399 63 55 78 
0.114977 -0.574294 1.89378 137 128 149 
0.12844 -0.603618 1.9133 113 102 119 
0.137772 -0.607363 1.91903 53 41 61 
0.140561 -0.598269 1.92303 39 26 44 
0.152503 -0.510012 1.91229 109 94 113 
0.159867 -0.573851 1.93284 132 117 140 
0.16474 -0.575543 1.95245 135 115 140 
0.172547 0.440019 1.83617 140 155 188 
0.214055 -0.550837 1.97941 65 59 87 
0.219103 -0.448276 1.97342 154 141 159 
0.226807 -0.395644 1.99318 75 66 93 
0.227758 -0.601947 2.02119 127 111 138 
0.234877 0.447028 1.89336 131 147 181 
0.243898 -0.594723 2.03947 134 132 169 
0.254083 -0.364597 2.01922 72 62 87 
0.260404 -0.638142 2.06217 126 134 171 
0.270684 -0.638679 2.07247 134 143 182 
0.280567 -0.444625 2.02744 172 178 214 
0.281994 -0.634664 2.08231 140 143 184 
0.29688 -0.378308 2.04301 101 93 104 
0.29979 -0.402217 2.06984 161 166 198 
0.300761 -0.632942 2.10436 134 133 175 
0.311238 -0.630648 2.11215 137 138 182 
0.329528 -0.117353 2.06735 52 40 60 
0.340786 0.0850225 2.05219 137 134 155 
0.359642 -0.650692 2.16541 124 127 170 
0.358732 -0.301562 2.11953 175 181 217 
0.356331 0.473194 1.99947 41 44 59 
0.395483 -0.403325 2.17209 132 137 179 
0.391712 0.120605 2.09705 157 163 195 
0.401095 -0.103721 2.13953 124 135 163 
0.414011 -0.400516 2.1887 137 142 182 
0.429783 0.385403 2.08409 88 93 113 
0.45253 0.30967 2.13661 165 178 210 
0.48687 0.338978 2.15963 50 59 66 
0.51207 -0.668361 2.3285 141 150 191 
0.500001 0.464383 2.15116 117 117 143 
0.50363 0.324433 2.19265 66 76 103 
0.534796 -0.244283 2.30927 173 177 212 
0.546767 0.343889 2.1798 23 30 49 
0.55873 0.317753 2.14507 62 72 99 
0.561744 -0.306268 2.33681 157 164 193 
0.563992 -0.278086 2.33188 78 88 124 
0.553696 0.219101 2.25787 157 167 202 
0.573905 -0.170223 2.30678 73 77 102 
0.578068 -0.412962 2.38109 183 191 228 
0.580754 -0.274523 2.34149 44 52 73 
0.574911 0.0146012 2.29992 39 44 63 
0.583166 -0.154828 2.31774 24 23 29 
0.582762 -0.414839 2.404 180 192 232 
0.575337 0.463276 2.2301 41 43 58 
0.575705 0.0515003 2.35392 75 80 109 
0.596995 -0.419861 2.38417 145 150 190 
0.612732 -0.368432 2.38131 85 95 122 
0.62363 -0.251061 2.39632 135 126 147 
0.623813 -0.195492 2.38623 73 58 87 
0.623581 -0.156965 2.38014 64 52 76 
0.625205 -0.207682 2.39877 155 153 177 
0.623081 -0.101448 2.37951 111 103 127 
0.634896 -0.431594 2.41746 40 48 61 
0.622505 -0.0440884 2.36606 68 56 80 
0.619008 0.0902999 2.34419 121 118 139 
0.619355 0.0528586 2.3574 132 133 154 
0.618379 0.131925 2.34755 142 130 152 
0.637557 -0.46748 2.43327 60 70 97 
0.62751 0.274086 2.33054 150 151 172 
0.651916 -0.408628 2.42194 71 75 100 
0.665137 0.429217 2.22839 48 56 79 
0.679229 -0.387727 2.46281 40 33 49 
0.652244 -0.0869616 2.57315 89 82 98 
0.63984 -0.194832 2.7161 72 75 110 
0.699205 -0.483353 2.48331 70 67 94 
0.706944 -0.491182 2.49132 54 54 78 
0.670936 -0.118506 2.73512 101 102 133 
0.721592 0.487126 2.08236 73 80 108 
0.728908 -0.51311 2.51736 48 47 65 
0.692802 0.363383 2.44656 31 28 49 
0.744595 -0.566866 2.55747 113 129 155 
0.715551 0.420814 2.42454 126 138 178 
0.710728 -0.229322 2.79248 67 72 104 
0.75338 -0.465896 2.5547 149 151 176 
0.756678 -0.471134 2.57187 132 130 154 
0.723727 0.0822468 2.68177 44 54 103 
0.774202 -0.496632 2.58591 122 108 133 
0.774257 -0.477778 2.60247 62 49 67 
0.77694 0.49437 2.14808 80 91 123 
0.731419 0.402488 2.74464 16 18 31 
0.798635 -0.590699 2.59282 132 128 155 
0.783416 0.503212 2.15446 110 121 153 
0.765065 -0.213042 2.86054 30 28 42 
0.764194 -0.139705 2.84587 28 30 45 
0.803274 -0.496287 2.6241 90 80 104 
0.755062 0.231164 2.77386 8 16 35 
0.78667 0.465995 2.30577 65 74 107 
0.825386 -0.7065 2.66934 69 84 117 
0.796617 0.463465 2.38382 90 95 133 
0.837748 -0.698186 2.67814 166 177 205 
0.836634 -0.499529 2.65898 36 33 42 
0.842279 -0.615154 2.66596 114 128 154 
0.842683 -0.570595 2.64162 80 101 128 
0.853052 -0.637216 2.67502 142 153 175 
0.813755 -0.0812232 2.89668 95 93 117 
0.821921 0.464836 2.34015 84 94 130 
0.862024 -0.576375 2.66135 128 142 171 
0.858599 -0.506956 2.68582 79 77 91 
0.862547 -0.50151 2.69558 33 30 37 
0.869359 -0.577291 2.67083 132 149 175 
0.833898 -0.079015 2.92278 100 95 125 
0.87628 -0.601187 2.69425 142 151 182 
0.85134 0.508834 2.22737 73 80 108 
0.888397 -0.49973 2.72467 35 28 35 
0.857707 0.486982 2.30382 82 90 126 
0.870346 -0.00274989 2.94397 86 83 110 
0.918833 -0.696492 2.74051 124 139 172 
0.903104 -0.416736 2.81008 21 20 26 
0.877116 0.49215 2.32343 62 72 99 
0.868537 0.256763 2.9088 81 83 104 
0.925402 -0.710554 2.75703 137 143 177 
0.920904 -0.59549 2.74311 176 187 217 
0.914793 -0.440842 2.78525 100 94 120 
0.934403 -0.720734 2.77907 138 143 175 
0.941636 -0.71903 2.79929 175 184 217 
0.932647 -0.497788 2.76567 95 91 114 
0.884035 0.434922 2.88609 47 37 48 
0.938701 -0.506703 2.75939 40 34 48 
0.958154 -0.640914 2.78924 147 161 188 
0.957748 -0.581836 2.77669 143 153 180 
0.974856 -0.753879 2.82419 97 103 135 
0.919393 0.47885 2.50931 67 79 103 
0.972234 -0.585313 2.7954 125 142 170 
0.925817 0.516761 2.30242 70 77 105 
0.986893 -0.587693 2.8239 45 37 61 
0.962416 -0.0426168 2.90406 34 32 43 
0.997796 -0.499233 2.81699 57 47 72 
0.987613 -0.287746 2.91071 65 60 80 
1.00966 -0.580352 2.81687 38 46 69 
1.00951 -0.567929 2.81884 33 39 61 
1.02432 -0.54492 2.82325 125 123 145 
1.03153 -0.518646 2.83328 23 27 39 
1.03319 -0.454396 2.84298 69 56 82 
1.03703 -0.47215 2.84986 108 106 130 
1.0415 -0.511057 2.84053 27 29 42 
1.03864 -0.415891 2.86846 37 36 44 
1.01099 0.188174 2.91096 35 32 49 
1.04716 -0.528641 2.84936 68 80 104 
1.01076 0.278018 2.89921 35 33 46 
1.04871 -0.457985 2.86626 64 60 87 
1.04373 -0.307552 2.90793 89 94 124 
1.05642 -0.498932 2.86013 27 30 39 
1.08046 -0.474041 2.87908 26 30 41 
1.09248 -0.610303 2.92116 167 173 207 
1.0308 0.510347 2.55342 79 88 121 
1.07096 0.0112173 2.93423 36 34 47 
1.09046 -0.396937 2.90333 108 105 126 
1.09274 -0.369901 2.89759 101 97 124 
1.09739 -0.37475 2.90522 60 45 74 
1.04259 0.532838 2.41962 72 82 109 
1.04966 0.516287 2.50338 76 82 114 
1.1139 -0.273601 2.94033 49 42 58 
1.10937 -0.0614913 2.9208 117 98 126 
1.12374 -0.307223 2.92824 95 90 112 
1.09022 0.340297 2.8808 50 39 55 
1.12378 -0.261961 2.93622 50 43 59 
1.06349 0.534718 2.44514 72 81 112 
1.12474 -0.176435 2.94539 102 96 122 
1.13702 -0.0549541 2.90181 91 87 110 
1.1304 0.244979 2.89909 93 86 117 
1.10599 0.504051 2.70165 90 99 138 
1.12197 0.448555 2.8405 56 49 67 
1.15987 -0.0381172 2.9393 27 25 36 
1.14558 0.35835 2.88095 32 31 39 
1.14511 0.37263 2.87211 39 33 45 
1.14517 0.473339 2.83451 126 136 171 
1.21848 -0.689271 3.07443 171 182 212 
1.16512 0.200819 2.91479 38 32 46 
1.17202 0.179708 2.90401 97 83 109 
1.18549 -0.0248504 2.94893 23 21 32 
1.16448 0.387119 2.88149 142 134 149 
1.17816 0.293101 2.89769 51 58 84 
1.19897 0.31145 2.91605 52 60 107 
1.211 0.262915 2.93219 104 108 155 
1.23205 -0.0451954 2.99642 146 155 184 
1.22104 0.132291 2.96185 94 90 117 
1.21052 0.305316 2.92608 240 243 250 
1.18741 0.532537 2.71353 84 97 132 
1.24974 -0.0942349 3.03036 167 181 216 
1.23613 0.148569 2.97029 161 174 208 
1.20751 0.509782 2.81671 126 138 176 
1.2612 0.421648 2.95192 156 161 193 
1.27343 0.424334 2.95161 157 157 185 
1.33858 -0.214908 3.13809 122 130 166 
1.25028 0.575234 2.64157 58 86 71 
1.35098 -0.223941 3.15424 134 143 172 
1.27834 0.540417 2.83238 124 136 176 
1.29902 0.427786 2.94474 83 94 122 
1.38763 -0.599259 3.25639 165 178 213 
1.31524 0.524474 2.99908 48 62 88 
1.41011 -0.654363 3.27436 162 174 212 
1.37888 0.0893201 3.14684 161 177 213 
1.29972 0.580669 2.68649 51 69 73 
1.38194 0.354653 3.12234 169 178 211 
1.45128 -0.58064 3.30143 140 149 180 
1.3664 0.522965 3.05152 105 113 136 
1.40475 0.10993 3.1718 132 144 184 
1.43137 -0.216691 3.24952 136 134 171 
1.41188 0.0208432 3.18987 46 56 66 
1.40217 0.193277 3.15661 125 112 140 
1.46182 -0.581975 3.31385 129 135 169 
1.44201 -0.201245 3.24824 119 127 164 
1.44048 -0.16578 3.24505 157 169 207 
1.4196 0.124701 3.1858 25 24 38 
1.38489 0.532813 3.06981 55 64 95 
