ply                 
format ascii 1.0    
element vertex 1259
property float x    
property float y    
property float z    
property uchar red  
property uchar green
property uchar blue 
end_header          
1.13677 -0.250767 2.95842 92 84 107 
1.13482 -0.225923 2.94931 54 45 62 
1.14609 -0.186986 2.96095 54 50 67 
1.14527 -0.0686223 2.95412 59 48 65 
1.14107 -0.055292 2.93842 104 95 124 
1.12992 0.276818 2.9093 103 108 130 
1.13134 0.33275 2.9052 74 76 101 
1.19363 -0.687133 3.05574 142 137 178 
1.13239 0.351699 2.89071 71 69 90 
1.16706 -0.202634 2.96909 97 84 112 
1.15758 0.0546479 2.9449 92 84 105 
1.1649 -0.0716131 2.9627 32 26 38 
1.12922 0.389699 2.8721 93 84 101 
1.17557 -0.164313 2.97548 104 88 115 
1.16809 0.0112446 2.95495 31 27 42 
1.15809 0.24514 2.92275 83 88 110 
1.18076 -0.126094 2.97728 93 80 106 
1.15896 0.282807 2.91979 85 91 113 
1.14423 0.396342 2.88021 43 36 52 
1.16786 0.109026 2.93529 74 73 89 
1.16694 0.144189 2.93002 115 112 133 
1.15459 0.345455 2.899 18 22 34 
1.15358 0.406229 2.87878 137 133 150 
1.17274 0.272861 2.9195 72 77 96 
1.17786 0.247984 2.92938 94 101 127 
1.17763 0.2844 2.92411 90 98 121 
1.21145 0.0299809 2.9875 166 181 212 
1.15444 0.492473 2.84228 98 101 134 
1.2008 0.113781 2.95345 116 123 149 
1.22222 0.10344 2.98224 99 102 135 
1.1845 0.484142 2.87929 74 65 96 
1.21319 0.275681 2.94788 241 244 253 
1.22071 0.258656 2.96076 114 118 145 
1.25272 -0.0618473 3.02631 128 147 179 
1.23909 0.121503 2.98374 167 178 210 
1.18813 0.497779 2.84454 37 51 90 
1.13394 0.511449 2.68001 97 106 139 
1.4611 -0.595461 3.31971 76 70 106 
1.40275 0.0469358 3.18889 78 81 122 
1.29678 0.514731 2.94379 55 69 98 
1.50915 -0.58723 3.368 71 66 98 
1.41499 0.418531 3.15532 112 122 171 
1.53931 -0.59129 3.39805 112 114 135 
1.43959 0.50453 3.14456 104 112 135 
1.45535 0.544337 3.15205 45 51 75 
-0.48889 0.184617 1.5679 169 198 228 
-0.516572 0.113927 1.6119 75 87 125 
-0.463942 0.206258 1.59119 64 149 214 
-0.453697 0.170645 1.59187 31 45 74 
-0.498346 -0.303789 1.67497 74 65 86 
-0.457898 0.20008 1.59833 57 57 69 
-0.501068 -0.386795 1.68755 81 69 89 
-0.450885 0.211314 1.60151 168 191 245 
-0.445829 0.198838 1.60474 97 116 174 
-0.449531 0.231097 1.60813 143 168 225 
-0.442171 0.17263 1.60714 29 44 75 
-0.441288 0.409047 1.59434 35 38 57 
-0.436054 0.190553 1.60499 212 226 255 
-0.435195 0.200496 1.6073 126 146 196 
-0.435861 0.149128 1.61548 23 34 88 
-0.444793 0.142978 1.63025 118 141 191 
-0.43734 0.398513 1.60781 38 37 51 
-0.433629 0.418233 1.60527 28 30 53 
-0.42537 0.389003 1.609 76 98 148 
-0.425884 0.355822 1.6144 82 102 153 
-0.151538 0.397804 1.27047 135 137 149 
-0.419591 0.249279 1.61694 126 134 170 
-0.423372 0.271034 1.62353 125 146 193 
-0.430126 0.313904 1.64342 93 91 113 
-0.422543 0.314113 1.66374 42 47 66 
-0.225648 0.411446 1.43283 124 123 157 
-0.419428 0.246572 1.72117 125 135 162 
-0.388691 0.3317 1.69508 32 31 47 
-0.334985 0.428133 1.62681 77 84 103 
-0.371347 0.219134 1.73772 56 64 83 
-0.353417 0.408216 1.69941 21 20 36 
-0.353094 0.32622 1.70671 40 38 59 
-0.34462 0.32453 1.69727 32 33 54 
-0.372595 0.144274 1.75147 74 78 105 
-0.353707 0.336803 1.71096 36 36 60 
-0.352216 0.315473 1.71075 31 32 53 
-0.34287 0.389634 1.69993 78 103 144 
-0.235813 0.340438 1.56045 76 95 135 
-0.351911 0.237178 1.73961 164 187 228 
-0.366236 -0.0634827 1.78284 34 48 75 
-0.337752 0.279942 1.71771 169 183 220 
-0.35477 0.00773539 1.76547 142 165 207 
-0.349868 0.142129 1.75185 167 190 231 
-0.334781 0.396564 1.71216 49 61 87 
-0.350275 0.107744 1.75696 155 180 220 
-0.349181 0.221915 1.74962 77 91 118 
-0.358485 -0.419271 1.81853 34 44 71 
-0.35136 -0.0130671 1.77854 89 103 142 
-0.348112 0.00986971 1.7764 96 109 143 
-0.350479 0.04259 1.77807 76 87 119 
-0.348354 -0.0633607 1.78866 32 32 56 
-0.158427 0.426874 1.51389 122 122 156 
-0.12477 0.270724 1.55427 119 119 85 
-0.129962 -0.152006 1.62014 38 33 40 
-0.122567 0.221085 1.58345 34 36 49 
-0.0966818 0.42592 1.5246 59 65 99 
-0.125815 -0.114497 1.61975 56 44 64 
-0.126846 -0.0767537 1.64942 108 119 151 
-0.117285 -0.129002 1.63809 134 126 150 
-0.106115 -0.176513 1.62719 103 101 115 
-0.0886526 0.405985 1.54844 92 73 92 
-0.0907853 0.423161 1.55282 126 125 143 
-0.11254 -0.109767 1.63866 73 64 91 
-0.105514 0.22142 1.59865 44 46 58 
-0.121479 -0.350167 1.67638 138 123 144 
-0.105215 -0.187319 1.63581 30 35 39 
-0.105203 -0.234787 1.64054 59 51 72 
-0.103911 0.205212 1.61673 122 126 151 
-0.087589 0.395313 1.57376 92 79 107 
-0.0951888 -0.193813 1.63907 124 107 126 
-0.0863574 0.425177 1.57079 135 131 148 
-0.103671 -0.105522 1.64784 61 56 79 
-0.0949831 -0.228929 1.64352 131 113 127 
-0.101742 -0.321167 1.66614 119 123 150 
-0.0855298 0.34042 1.5815 141 142 163 
-0.0990595 0.184159 1.6276 161 167 201 
-0.0941796 -0.154868 1.6503 140 131 148 
-0.0935305 -0.309516 1.66343 65 57 80 
-0.0835386 0.276432 1.59492 126 124 63 
-0.0899765 -0.277694 1.65519 128 114 131 
-0.078847 0.380496 1.58216 35 44 73 
-0.0927724 -0.129289 1.65356 96 83 109 
-0.0907612 -0.326505 1.67062 62 54 75 
-0.0921161 -0.103476 1.65988 63 53 77 
-0.0718814 0.397116 1.58903 238 240 253 
-0.086869 -0.160359 1.67141 49 50 54 
-0.0972416 -0.0806099 1.69368 154 149 172 
-0.0659125 0.381806 1.59562 36 49 81 
-0.0808864 -0.187886 1.68224 142 135 151 
-0.0769125 -0.238985 1.68143 170 168 189 
-0.0714545 -0.352638 1.68223 127 110 129 
-0.0626972 0.358298 1.60243 59 63 127 
-0.0795835 -0.223081 1.68768 170 171 192 
-0.0789349 -0.467662 1.71062 164 166 187 
-0.0693843 -0.159811 1.66681 30 30 30 
-0.0710581 -0.123913 1.67921 138 128 153 
-0.0697314 -0.218765 1.69115 187 185 209 
-0.0662695 -0.108059 1.68383 88 75 103 
-0.0660333 -0.238561 1.69888 57 62 94 
-0.0639736 -0.527332 1.73262 93 96 137 
-0.0620836 -0.269462 1.70651 70 56 89 
-0.0614407 -0.282531 1.70663 167 148 168 
-0.0550239 -0.153299 1.68938 41 33 44 
-0.0431232 0.393381 1.61814 72 59 87 
-0.0577117 -0.298305 1.71265 161 143 165 
-0.053958 -0.313214 1.71931 161 143 167 
-0.0465568 0.419414 1.65706 126 139 171 
-0.045844 -0.329268 1.72984 78 67 99 
-0.046042 -0.529223 1.75203 118 122 159 
-0.0464109 -0.462482 1.74701 184 189 219 
-0.0403535 -0.343263 1.73784 61 51 78 
-0.0343367 -0.355867 1.745 65 55 82 
-0.0327915 -0.466465 1.7584 169 181 207 
-0.0231525 -0.534298 1.77664 138 144 180 
-0.0138298 -0.434121 1.75985 73 76 81 
-0.0141952 -0.388953 1.77105 63 49 74 
-0.0114555 -0.492015 1.78181 170 176 212 
-0.00570352 -0.399326 1.78145 64 52 74 
-0.103777 0.320988 1.93927 119 126 152 
0.00727734 -0.434211 1.81286 104 88 114 
0.0264218 0.445246 1.708 156 162 194 
-0.12528 0.0938619 2.13399 31 41 77 
-0.123822 0.151125 2.13045 25 31 45 
-0.118331 0.0780016 2.14502 24 34 59 
0.0401288 -0.512558 1.83221 122 132 168 
-0.114558 0.16177 2.13923 33 39 55 
0.044245 0.448955 1.72365 144 155 183 
-0.112295 0.0629027 2.15288 148 166 238 
0.0441623 -0.437067 1.83583 73 55 77 
-0.0583744 0.0769637 2.03988 27 33 59 
-0.105172 0.153846 2.15111 29 38 53 
0.0545463 -0.476094 1.83924 24 21 28 
-0.099296 0.300663 2.13667 59 81 104 
-0.100326 0.0572925 2.16803 14 22 68 
0.0649084 -0.531452 1.84687 136 128 152 
0.0670541 -0.534765 1.85673 125 117 141 
0.0659907 0.451394 1.74687 141 152 180 
0.0740705 -0.489586 1.85621 119 118 90 
0.0316941 0.397392 1.85973 97 103 135 
0.0733757 -0.459332 1.85529 29 29 31 
0.0793625 -0.467564 1.85283 94 87 103 
0.0752526 -0.549914 1.87533 55 42 59 
0.078927 -0.499527 1.86562 60 52 65 
0.0601808 0.433827 1.81404 169 177 200 
-0.0113891 0.357693 2.03458 96 105 136 
0.0852881 -0.575023 1.89307 55 46 67 
0.0977427 -0.45239 1.89348 58 39 69 
0.105286 -0.522386 1.89313 118 106 128 
0.0819128 0.431705 1.83524 169 176 195 
0.103664 0.441664 1.78611 94 103 132 
-0.0111967 0.0624457 2.23172 84 82 104 
0.121867 -0.450557 1.9167 72 53 81 
0.0838799 0.419571 1.91271 84 89 118 
0.136261 -0.506837 1.92685 43 32 48 
0.142305 -0.494805 1.92774 145 122 140 
0.0263968 0.325506 2.17037 21 23 35 
0.148363 -0.52285 1.93386 134 125 142 
0.023748 0.233862 2.2153 75 87 113 
0.152174 -0.508919 1.94307 57 49 64 
0.160158 -0.503325 1.95072 155 131 145 
0.152926 0.45099 1.83696 88 95 123 
0.16544 -0.538375 1.96569 67 49 71 
0.0606335 -0.0714069 2.24692 71 70 84 
0.175213 -0.563244 1.98843 64 56 80 
0.187225 -0.45979 1.96649 117 104 121 
0.180339 0.464458 1.86331 160 171 199 
0.191526 -0.493438 1.98444 53 42 56 
0.193799 -0.395911 2.01649 48 43 49 
0.178323 0.438514 1.93597 145 152 178 
0.210877 -0.50233 1.99654 104 95 122 
0.210892 -0.484832 2.00714 106 93 119 
0.214211 -0.463887 1.99239 130 119 133 
0.217162 -0.447878 1.99693 36 30 32 
0.218132 -0.553375 2.03174 130 130 166 
0.232815 -0.350294 2.04744 41 38 45 
0.21838 0.434456 1.98113 104 118 147 
0.248529 -0.434838 2.02551 142 149 168 
0.245369 -0.534434 2.05689 138 142 179 
0.239458 0.454959 1.92992 160 176 209 
0.253511 -0.599123 2.07087 136 138 176 
0.253351 -0.368479 2.04339 128 125 146 
0.255971 -0.383122 2.04151 128 119 150 
0.262019 -0.420005 2.0393 134 125 146 
0.26347 -0.343857 2.05452 84 73 103 
0.270256 -0.331337 2.0614 81 68 96 
0.278107 -0.417726 2.05486 101 100 98 
0.272249 -0.187496 2.10481 81 82 100 
0.258759 -0.0195786 2.14782 41 37 54 
0.270331 0.457939 2.00057 45 52 71 
0.290303 -0.288213 2.07273 84 70 96 
0.295448 -0.419925 2.09349 132 136 171 
0.272212 -0.0121256 2.13286 98 102 127 
0.273242 0.137444 2.11194 103 113 140 
0.29033 0.479732 1.97337 134 145 167 
0.303741 -0.243663 2.08338 94 81 111 
0.285012 -0.00536489 2.12328 52 44 57 
0.310793 -0.523625 2.12231 117 115 154 
0.307137 -0.227901 2.08583 86 76 103 
0.315155 -0.372043 2.10003 169 175 209 
0.306828 0.330072 1.99602 22 29 48 
0.312957 -0.189195 2.08487 96 80 107 
0.314615 -0.0894198 2.05962 118 109 128 
0.31538 -0.173881 2.07606 108 104 131 
0.314888 -0.131014 2.07917 69 56 82 
0.323343 -0.636146 2.15264 146 148 187 
0.300092 0.236145 2.07144 62 50 64 
0.3176 -0.108621 2.06249 123 123 147 
0.317239 -0.0697927 2.06397 37 34 45 
0.321245 -0.184389 2.0925 62 48 71 
0.332747 -0.633531 2.15887 154 156 194 
0.324151 -0.0465529 2.0747 49 39 47 
0.328083 -0.207212 2.09832 112 101 131 
0.328848 -0.099323 2.07407 118 109 130 
0.333165 -0.326787 2.1186 177 188 216 
0.337035 -0.353166 2.10691 182 191 222 
0.332386 -0.171492 2.09279 118 110 134 
0.324566 0.173681 2.05432 52 45 61 
0.326308 0.483887 1.98273 53 77 81 
0.334724 -0.149432 2.10158 117 115 137 
0.330573 0.153712 2.05777 135 132 151 
0.330237 0.212067 2.05329 130 128 149 
0.334184 0.42706 2.00414 63 60 79 
0.341547 -0.107543 2.10552 116 126 153 
0.345276 -0.158683 2.1022 43 40 51 
0.337674 0.156117 2.06549 142 138 161 
0.347804 -0.332267 2.13717 148 151 184 
0.350424 -0.385248 2.14524 136 139 170 
0.341619 0.066771 2.08434 148 146 168 
0.338917 0.483208 2.00008 60 57 74 
0.343019 0.486481 1.97667 66 79 98 
0.347959 -0.122538 2.10875 25 24 29 
0.356183 -0.30245 2.12649 186 192 228 
0.355768 -0.15289 2.10361 124 126 141 
0.355987 -0.131234 2.1 89 86 105 
0.348065 0.395743 2.02393 62 64 85 
0.36719 -0.629057 2.19528 146 151 191 
0.361325 -0.178533 2.11237 75 79 90 
0.363418 -0.129589 2.10687 82 89 99 
0.354852 0.364406 2.03327 55 61 73 
0.354849 0.424966 2.03026 127 128 149 
0.365611 -0.0224808 2.11383 30 29 37 
0.361287 0.261478 2.07945 132 136 165 
0.363017 0.324817 2.05719 56 62 60 
0.373822 -0.127934 2.11894 86 87 105 
0.363484 0.470547 2.03048 109 117 138 
0.366132 0.394204 2.04354 111 106 126 
0.366933 0.37653 2.0454 51 55 80 
0.37631 -0.105152 2.12575 100 111 131 
0.365689 0.485663 2.03096 51 52 73 
0.372992 0.0794302 2.11463 117 107 131 
0.379861 0.128954 2.11491 166 170 199 
0.381756 0.0619435 2.12351 160 165 194 
0.385622 -0.0495198 2.13134 158 171 203 
0.379632 0.403528 2.05649 113 124 142 
0.395748 -0.399135 2.19428 128 133 171 
0.386565 -0.0139251 2.1402 119 102 121 
0.386877 0.0540722 2.13034 128 113 134 
0.384974 0.138889 2.12217 115 103 123 
0.393321 0.00847462 2.14448 168 177 210 
0.398999 -0.121038 2.14613 61 63 84 
0.389104 0.493437 2.02984 134 128 166 
0.389269 0.414232 2.06322 47 52 71 
0.392388 0.158051 2.12484 169 184 215 
0.405277 0.00559668 2.14889 176 186 222 
0.400043 0.221201 2.12168 159 172 204 
0.399534 0.321396 2.10826 132 143 145 
0.418048 -0.44043 2.22623 144 149 181 
0.405544 0.48882 2.07574 56 61 80 
0.415333 0.291773 2.1323 52 53 101 
0.420791 0.267345 2.13935 56 70 107 
0.423759 0.240238 2.14709 135 126 155 
0.426078 0.253228 2.1482 239 243 254 
0.433574 0.26959 2.15347 53 66 108 
0.456134 -0.431373 2.26289 146 156 191 
0.438605 0.295011 2.15557 42 48 100 
0.440608 0.326811 2.15031 122 129 135 
0.455641 -0.163682 2.22918 136 146 182 
0.456116 -0.179181 2.23118 146 154 190 
0.444711 0.320625 2.16045 60 68 91 
0.468148 -0.39611 2.27205 146 154 193 
0.463715 0.315772 2.18053 173 184 214 
0.495429 -0.582773 2.31612 155 152 171 
0.466073 0.464463 2.13768 116 114 136 
0.470044 0.340536 2.17105 48 54 70 
0.501543 -0.45924 2.31229 140 142 180 
0.479087 0.433996 2.15167 91 95 122 
0.510218 -0.459364 2.32178 140 147 189 
0.484174 0.492965 2.14948 53 50 77 
0.522831 -0.671744 2.36148 157 162 204 
0.514158 -0.0775329 2.27948 138 144 180 
0.518432 -0.176817 2.30474 176 182 216 
0.540296 -0.344218 2.34145 150 153 188 
0.526474 0.124268 2.26595 148 156 195 
0.541268 -0.123049 2.31592 148 161 193 
0.533804 0.125049 2.2732 151 159 195 
0.546166 -0.199529 2.3291 97 109 135 
0.546645 -0.183797 2.3256 97 111 138 
0.548679 -0.128774 2.3229 77 86 117 
0.567445 -0.665201 2.40708 153 158 196 
0.553434 -0.243359 2.33914 146 157 189 
0.554145 -0.263441 2.34415 96 102 138 
0.547715 -0.0971043 2.3348 139 149 185 
0.532602 0.419773 2.21109 31 36 55 
0.535272 0.468759 2.20827 39 47 70 
0.54852 0.0571092 2.29837 110 115 153 
0.555475 -0.0560607 2.32538 155 167 205 
0.567617 -0.355109 2.37706 163 167 202 
0.561954 -0.140461 2.33604 87 98 126 
0.571527 -0.420884 2.41691 195 205 240 
0.542879 0.478185 2.22137 94 103 132 
0.564392 -0.055032 2.33111 146 159 193 
0.559259 0.163689 2.30306 150 159 192 
0.571206 -0.144773 2.34069 26 30 39 
0.571133 -0.0717905 2.33638 38 43 62 
0.560837 0.330374 2.21495 28 37 76 
0.576802 -0.0788779 2.34928 70 76 102 
0.564145 0.343266 2.21401 69 90 121 
0.594256 -0.483784 2.4123 130 132 171 
0.590988 -0.352144 2.39161 84 93 124 
0.579255 0.000746166 2.33468 144 154 190 
0.577811 0.0789577 2.31069 88 96 115 
0.570978 0.25343 2.29211 45 51 65 
0.582577 -0.0512553 2.34632 169 181 219 
0.59102 -0.244282 2.35599 130 124 150 
0.595774 -0.381475 2.40174 63 82 114 
0.588893 -0.155576 2.35109 26 28 40 
0.576815 0.158186 2.31565 75 84 115 
0.577077 0.147075 2.32977 148 156 193 
0.580358 0.095532 2.32773 165 178 212 
0.600955 -0.443208 2.41349 140 149 188 
0.598704 -0.364521 2.40003 30 33 50 
0.588213 0.124548 2.33222 121 108 136 
0.59078 0.0874596 2.33504 46 38 51 
0.581083 0.441411 2.26315 97 101 130 
0.583852 0.427009 2.2664 42 54 78 
0.619858 -0.433918 2.43526 150 164 203 
0.614895 -0.278075 2.40779 163 163 187 
0.602784 0.0712314 2.3366 141 145 170 
0.593098 0.385167 2.28153 102 112 137 
0.626868 -0.471353 2.44588 171 178 207 
0.606106 0.0890051 2.36038 44 43 57 
0.593432 0.463071 2.26388 38 45 63 
0.608929 0.129411 2.3541 77 59 85 
0.639018 -0.511277 2.45089 181 189 225 
0.607277 0.280295 2.33161 154 146 167 
0.601653 0.434713 2.284 108 109 139 
0.630457 -0.274267 2.42592 80 69 101 
0.634677 -0.332081 2.43678 94 79 112 
0.626953 -0.118817 2.40533 122 112 136 
0.626713 -0.103646 2.4162 63 45 67 
0.609447 0.343899 2.33603 135 136 157 
0.63966 -0.311745 2.43973 77 66 96 
0.632157 -0.108215 2.43904 99 88 105 
0.646661 -0.330412 2.45244 58 48 73 
0.65551 -0.513616 2.47929 172 178 214 
0.650581 -0.378828 2.45742 148 140 164 
0.65094 -0.346137 2.45635 75 65 100 
0.653865 -0.367017 2.45502 120 116 141 
0.630219 0.468646 2.23962 36 45 62 
0.67076 -0.431216 2.49099 136 123 149 
0.632564 0.486683 2.16655 19 27 40 
0.670352 -0.3992 2.47366 122 113 140 
0.634405 0.486095 2.09611 35 40 59 
0.642187 0.351785 2.36753 144 142 164 
0.677587 -0.401641 2.48964 119 115 138 
0.6816 -0.408394 2.49664 78 63 96 
0.683365 -0.435376 2.49751 90 77 105 
0.683373 -0.320724 2.67767 164 161 190 
0.691842 -0.449272 2.50887 150 129 160 
0.681077 -0.115336 2.77179 49 44 67 
0.698264 -0.55305 2.52512 164 178 213 
0.697478 -0.451718 2.5174 160 145 168 
0.688048 -0.112426 2.78276 93 95 116 
0.699893 -0.43683 2.52187 70 59 93 
0.658675 0.455241 2.20186 46 53 79 
0.713779 -0.696034 2.56208 203 212 245 
0.70744 -0.549517 2.53671 85 98 130 
0.705719 -0.447082 2.52492 132 118 141 
0.712284 -0.504548 2.51933 69 71 94 
0.665229 0.465358 2.13033 47 54 80 
0.708844 -0.342517 2.69923 130 128 152 
0.701375 -0.110482 2.79546 81 83 106 
0.717897 -0.570099 2.55 174 187 221 
0.699757 0.0868888 3.10069 67 86 126 
0.712931 -0.376452 2.64814 93 82 114 
0.714649 -0.44539 2.53983 39 35 49 
0.667237 0.482685 2.05868 52 58 80 
0.695772 0.106554 2.76698 34 47 91 
0.706901 -0.105913 2.80307 38 34 49 
0.717793 -0.464625 2.53985 130 120 144 
0.723141 -0.564455 2.56219 85 100 123 
0.701909 0.0828371 2.77351 48 64 116 
0.719849 -0.285585 2.84679 104 99 131 
0.722933 -0.380183 2.65961 95 90 120 
0.726334 -0.482781 2.54629 75 60 91 
0.708292 0.0674285 2.78045 208 221 255 
0.707651 0.0988787 2.77743 208 221 255 
0.707522 0.111964 2.78021 44 63 93 
0.727413 -0.397623 2.67012 91 82 109 
0.730343 -0.416349 2.76875 91 82 109 
0.67566 0.494625 2.05701 116 129 163 
0.718345 -0.113095 2.80857 48 45 76 
0.719977 -0.103866 2.81578 36 31 51 
0.713498 0.0833673 2.78627 48 59 113 
0.734811 -0.52541 2.54713 59 57 79 
0.735594 -0.465333 2.56057 37 35 49 
0.738934 -0.400152 2.67939 98 89 118 
0.720071 0.106545 2.78483 54 55 109 
0.740747 -0.362964 2.74638 115 105 132 
0.742943 -0.531858 2.55591 60 56 79 
0.740687 -0.386113 2.68258 87 76 106 
0.73308 -0.102367 2.82482 32 30 41 
0.732748 -0.0850222 2.82204 21 29 48 
0.753382 -0.694594 2.60312 131 140 183 
0.75211 -0.638019 2.59567 117 124 166 
0.74684 -0.303141 2.85732 99 97 119 
0.751705 -0.592741 2.59459 158 172 201 
0.729128 0.0835916 2.79458 25 36 56 
0.751178 -0.537999 2.56634 50 52 73 
0.752752 -0.495738 2.57757 128 118 142 
0.7617 -0.583831 2.59685 62 71 104 
0.759625 -0.543567 2.57546 46 52 74 
0.757452 -0.483637 2.58399 33 30 41 
0.751975 -0.100869 2.84895 37 32 52 
0.770085 -0.681694 2.62089 139 143 188 
0.762461 -0.493146 2.59146 123 120 141 
0.706292 0.473497 2.16496 72 85 117 
0.767942 -0.548495 2.58418 38 45 64 
0.766206 -0.227865 2.88038 36 35 49 
0.768161 -0.515698 2.59615 144 138 166 
0.770501 -0.491934 2.60573 127 125 147 
0.722517 0.411798 2.36756 141 149 188 
0.77531 -0.55363 2.59387 43 46 63 
0.766747 -0.0975505 2.86376 35 32 49 
0.775439 -0.557624 2.58136 122 122 146 
0.774926 -0.519756 2.60541 76 66 103 
0.774948 -0.400852 2.72503 103 94 113 
0.77135 -0.135127 2.8648 118 123 145 
0.781891 -0.60071 2.61512 40 48 67 
0.783789 -0.556954 2.60164 35 37 50 
0.777588 -0.104515 2.86979 57 48 75 
0.78389 -0.456481 2.66793 121 118 147 
0.791193 -0.251362 2.89493 109 102 133 
0.792182 -0.56098 2.61124 32 35 50 
0.724883 0.485151 2.12043 123 134 179 
0.802313 -0.654861 2.63524 144 134 159 
0.797378 -0.221992 2.90581 103 101 125 
0.737026 0.456861 2.27121 70 80 116 
0.800656 -0.564588 2.62179 33 36 55 
0.801395 -0.530446 2.63165 69 56 86 
0.797752 -0.102368 2.88901 104 102 126 
0.804989 -0.509763 2.63572 31 29 42 
0.815163 -0.632157 2.66439 61 60 92 
0.81087 -0.558315 2.63853 24 32 43 
0.812768 -0.22955 2.91643 26 24 35 
0.818347 -0.658288 2.67057 146 152 176 
0.813776 -0.406148 2.76614 93 89 106 
0.817454 -0.582886 2.63838 175 198 216 
0.82044 -0.616267 2.66347 139 143 172 
0.823195 -0.598083 2.65787 140 154 180 
0.832557 -0.659345 2.68622 28 36 55 
0.830404 -0.630135 2.67093 149 163 189 
0.830077 -0.612782 2.67214 123 127 152 
0.828492 -0.53936 2.66381 75 62 90 
0.832483 -0.208417 2.94905 34 32 43 
0.825679 -0.0949104 2.917 54 46 70 
0.830718 -0.51821 2.66519 30 28 42 
0.841619 -0.648135 2.68721 106 122 147 
0.839013 -0.594824 2.67885 70 83 117 
0.807264 0.417633 2.84072 21 22 40 
0.836965 -0.0959521 2.92808 52 44 68 
0.84407 -0.607798 2.68752 120 126 152 
0.762642 0.499255 2.15686 75 80 110 
0.844952 -0.544972 2.67286 113 103 130 
0.850925 -0.203204 2.95351 107 102 132 
0.852148 -0.654012 2.69112 174 186 210 
0.848802 -0.511049 2.69534 119 120 140 
0.856176 -0.598159 2.68865 149 161 187 
0.855559 -0.554838 2.69516 116 107 134 
0.85789 -0.521935 2.69468 33 29 44 
0.860008 -0.0883771 2.95807 97 96 114 
0.870937 -0.729003 2.73078 121 124 165 
0.873208 -0.602973 2.70497 160 176 202 
0.8705 -0.0425864 2.96685 90 95 117 
0.870673 -0.025694 2.96585 85 81 106 
0.876017 -0.0904425 2.96752 53 43 67 
0.809072 0.469094 2.41541 102 110 147 
0.876974 -0.513026 2.72084 97 87 114 
0.891011 -0.726203 2.74351 164 177 209 
0.890057 -0.683679 2.73958 166 175 208 
0.884032 -0.522724 2.72287 41 35 49 
0.886144 -0.544797 2.72429 70 64 98 
0.86866 0.271922 2.92743 87 92 112 
0.894576 -0.635903 2.73232 95 108 140 
0.896405 -0.659566 2.73641 115 124 163 
0.903276 -0.743919 2.75672 82 98 132 
0.902436 -0.721793 2.75036 79 84 124 
0.902142 -0.712018 2.74421 145 160 189 
0.905485 -0.100503 2.9687 49 46 67 
0.905459 -0.5749 2.72798 155 171 194 
0.823362 0.493487 2.28658 82 91 130 
0.904271 0.0599358 2.94969 59 49 73 
0.912688 -0.500113 2.77561 37 34 45 
0.911194 -0.518843 2.75129 38 30 51 
0.837508 0.471922 2.37515 95 106 138 
0.903075 0.194419 2.93181 58 48 72 
0.92511 -0.635209 2.7711 120 125 157 
0.921901 -0.589178 2.75363 178 189 219 
0.925835 -0.571339 2.74828 139 156 182 
0.852824 0.474148 2.45706 93 103 139 
0.931045 -0.594569 2.76625 126 135 168 
0.832808 0.50946 2.2234 73 82 111 
0.932365 -0.539121 2.76691 143 148 178 
0.910922 0.310449 2.91042 99 92 123 
0.939774 -0.492452 2.80615 37 34 45 
0.94915 -0.63972 2.79737 52 51 83 
0.943786 -0.531537 2.7832 75 65 100 
0.844535 0.499431 2.23673 121 132 177 
0.949963 -0.58365 2.78335 49 58 91 
0.948207 -0.561989 2.77411 55 72 98 
0.96868 -0.737496 2.83412 76 92 128 
0.95913 -0.4913 2.80864 94 91 112 
0.959511 -0.514256 2.78593 131 121 145 
0.945089 0.205491 2.9268 104 106 131 
0.96555 -0.478441 2.82386 46 39 46 
0.964294 -0.565373 2.77733 149 156 185 
0.965291 -0.499741 2.8058 40 36 51 
0.966094 -0.557343 2.7862 143 163 188 
0.974276 -0.626155 2.82925 84 90 122 
0.944806 0.306743 2.91398 90 87 114 
0.977422 -0.651226 2.83929 143 158 187 
0.982014 -0.72493 2.8518 25 20 50 
0.978478 -0.63401 2.83822 138 150 176 
0.97106 -0.519801 2.80972 71 58 86 
0.93879 0.426289 2.87619 38 30 41 
0.954988 0.190946 2.92953 39 38 56 
0.972394 -0.555541 2.79632 66 81 110 
0.978422 -0.590014 2.82456 54 60 92 
0.97571 -0.565608 2.80405 81 89 125 
0.980506 -0.581227 2.83001 154 161 187 
0.982426 -0.613429 2.83214 66 63 94 
0.978729 -0.127045 2.96434 83 74 101 
0.870076 0.51145 2.26419 66 75 104 
0.983824 -0.477775 2.83445 94 90 113 
0.988388 -0.440193 2.84908 103 97 125 
0.909061 0.481762 2.51617 80 84 129 
0.99393 -0.577242 2.83627 50 56 82 
0.984914 -0.0604056 2.9198 113 102 134 
0.903317 0.483259 2.4414 92 103 135 
0.99297 -0.541059 2.81782 84 107 125 
0.994435 -0.532532 2.82603 29 28 36 
1.01077 -0.651025 2.84683 49 53 80 
0.990282 0.119969 2.93714 60 52 73 
0.978357 0.425699 2.86416 95 91 118 
1.01708 -0.535914 2.84219 24 28 39 
1.02289 -0.480183 2.86945 116 111 134 
1.01221 -0.0444574 2.92121 29 27 32 
1.06904 0.53205 3.45379 53 50 71 
1.03273 -0.544968 2.85006 84 99 128 
1.03534 -0.487934 2.8698 120 120 144 
1.01169 0.295866 2.91829 33 33 45 
1.03369 -0.041913 2.92143 81 78 95 
1.03581 -0.0288715 2.93301 104 99 129 
1.04983 -0.510234 2.8682 28 34 48 
1.04733 0.0157522 2.94926 51 46 66 
1.05627 -0.428064 2.88216 103 99 124 
1.032 0.290282 2.91164 113 124 152 
1.02648 0.320947 2.87253 105 115 140 
1.06207 -0.421471 2.90063 37 33 50 
1.0663 -0.496239 2.88532 32 35 52 
0.956217 0.524159 2.41269 142 158 192 
1.0475 0.206349 2.9289 56 47 68 
1.0818 -0.393948 2.91753 33 30 47 
1.08331 -0.40151 2.91052 112 107 130 
1.04909 0.34259 2.88823 29 25 39 
1.09082 -0.445872 2.91807 37 28 49 
1.07186 0.101364 2.9431 28 31 50 
1.05834 0.330887 2.90941 91 89 111 
1.09363 -0.355999 2.93021 89 83 109 
1.05937 0.35151 2.89983 83 70 88 
1.0522 0.446554 2.87342 60 47 73 
1.09555 -0.410163 2.91972 123 120 141 
0.968527 0.525648 2.35603 61 75 104 
1.09713 -0.332505 2.92565 46 42 57 
1.06951 0.315778 2.91835 30 29 45 
1.10144 -0.363537 2.93308 31 28 45 
1.07313 0.343237 2.91513 33 29 43 
1.10967 -0.388539 2.94041 104 91 117 
1.11036 -0.323271 2.94428 88 86 110 
1.11073 -0.342326 2.93138 102 98 121 
1.06438 0.453249 2.84396 130 142 182 
1.08939 0.298319 2.91331 116 129 161 
1.1191 -0.211642 2.96017 124 122 146 
1.12497 -0.288334 2.95517 95 99 124 
1.13087 -0.35851 2.96097 106 95 127 
1.13316 -0.340774 2.96094 64 60 87 
1.13297 -0.296172 2.95974 30 27 46 
1.11921 -0.0427953 2.93983 29 26 33 
1.11168 0.14596 2.93939 83 85 100 
1.1337 -0.30438 2.95145 101 99 121 
1.10177 0.334033 2.91118 47 41 67 
1.1406 -0.273237 2.95546 115 107 131 
1.14508 -0.304981 2.96543 69 60 91 
1.14572 -0.257919 2.96525 33 29 44 
1.1312 -0.0506376 2.92711 124 119 141 
1.13405 -0.00383121 2.95068 122 120 144 
1.1806 -0.642971 3.04379 181 194 228 
1.13269 0.0860836 2.93915 101 89 113 
1.14769 -0.0690484 2.96737 62 49 67 
1.15384 -0.174429 2.97011 89 90 110 
1.10012 0.481479 2.81255 143 152 191 
1.15844 -0.136831 2.97131 89 80 101 
1.16811 -0.187336 2.97099 100 92 115 
1.16768 -0.142112 2.97465 37 35 48 
1.15857 0.0135378 2.95301 98 94 117 
1.16999 -0.102249 2.97304 41 36 56 
1.17249 -0.127062 2.96973 119 109 134 
1.16918 -0.0260085 2.96258 26 24 38 
1.14462 0.34699 2.91458 21 19 33 
1.16211 0.0761305 2.94539 39 33 45 
1.1722 -0.0878082 2.96152 121 107 130 
1.07088 0.523967 2.5464 69 75 107 
1.1842 -0.126782 2.99499 94 79 108 
1.16841 0.0490424 2.95056 46 40 52 
1.18443 -0.0886306 2.99047 95 79 105 
1.17195 0.131545 2.9663 43 38 61 
1.16664 0.237212 2.92515 36 30 40 
1.14088 0.479476 2.84183 139 153 188 
1.1681 0.221504 2.92463 119 111 134 
1.18103 0.0916982 2.95439 114 116 139 
1.15923 0.354481 2.89333 111 108 129 
1.16474 0.337293 2.90409 69 77 100 
1.1799 0.151839 2.93544 35 34 42 
1.17822 0.222075 2.93688 117 113 140 
1.09233 0.52762 2.56687 77 88 116 
1.18621 0.098685 2.94697 49 51 74 
1.10926 0.525286 2.64851 89 95 131 
1.2403 -0.50383 3.08316 143 148 188 
1.18771 0.126086 2.94662 28 28 40 
1.07622 0.541999 2.47569 79 88 119 
1.20557 -0.0644456 2.99006 32 30 54 
1.19852 0.00849057 2.9663 104 100 123 
1.16681 0.412017 2.8916 145 137 158 
1.1839 0.240315 2.93606 76 62 87 
1.16309 0.430796 2.87104 64 69 91 
1.20409 0.0193962 2.98826 41 41 51 
1.21747 -0.118618 2.99597 38 40 65 
1.18774 0.280237 2.92831 34 37 54 
1.21839 -0.104453 2.99497 45 43 67 
1.19735 0.160822 2.94246 129 118 135 
1.2341 -0.21492 3.02355 168 185 215 
1.1925 0.293554 2.92429 136 148 170 
1.23668 -0.240101 3.02773 172 181 220 
1.11281 0.527879 2.58279 79 93 122 
1.21145 0.185185 2.97081 170 181 213 
1.20307 0.265513 2.93985 84 93 136 
1.22537 0.0602727 2.99769 180 192 232 
1.21124 0.240223 2.95979 173 184 216 
1.187 0.337178 2.86047 97 116 146 
1.20797 0.290929 2.94091 90 103 156 
1.26031 -0.255609 3.08102 136 144 183 
1.2633 -0.132602 3.06442 186 193 222 
1.25562 -0.0625291 3.03969 123 143 170 
1.20714 0.420472 2.90385 172 184 208 
1.23609 0.164645 2.98523 181 194 226 
1.22655 0.269964 2.96053 105 112 164 
1.22612 0.318241 2.95587 94 104 153 
0.950748 0.501366 1.72363 79 86 112 
1.14324 0.530881 2.61328 86 99 133 
1.23576 0.256932 2.97139 177 190 224 
1.17056 0.51589 2.71251 92 105 137 
1.21907 0.403689 2.89485 171 176 208 
1.22138 0.491865 2.91762 38 38 66 
1.23147 0.384594 2.90742 183 182 213 
1.24973 0.45838 2.9613 109 112 127 
1.25445 0.476125 2.94896 111 117 141 
1.26204 0.420805 2.94797 168 173 203 
1.38661 -0.70519 3.27103 193 208 241 
1.26725 0.479017 2.93131 89 96 122 
1.27377 0.422802 2.94315 180 176 199 
1.27594 0.534188 2.96916 47 58 86 
1.27593 0.545328 2.96867 57 69 109 
1.39852 -0.678244 3.25889 139 130 157 
1.28619 0.420681 2.95128 168 182 211 
1.29049 0.431722 2.95981 23 29 63 
1.42797 -0.791784 3.31467 128 121 165 
1.28712 0.517297 2.94732 43 57 92 
1.29528 0.442328 2.9619 83 99 124 
1.28786 0.541973 2.94785 37 55 93 
1.3898 -0.317419 3.18839 133 146 178 
1.44496 -0.78644 3.3323 175 172 201 
1.30642 0.447037 2.97564 25 32 61 
1.4337 -0.603598 3.29539 124 110 143 
1.38275 0.0111391 3.17203 167 176 209 
1.34427 0.44316 3.07914 178 184 210 
1.3863 0.0518122 3.17257 178 189 219 
1.40451 -0.0423553 3.22104 176 188 226 
1.33527 0.528418 3.03102 49 65 91 
1.41066 -0.130439 3.21684 138 133 173 
1.40029 -0.00697318 3.19143 86 97 129 
1.26468 0.548754 2.74104 93 104 136 
1.46208 -0.608407 3.32515 36 31 53 
1.41973 -0.0916581 3.2278 162 170 206 
1.41372 -0.0162376 3.21303 139 144 174 
1.43368 -0.21794 3.25313 145 145 181 
1.41017 0.0416976 3.19386 91 103 125 
1.41235 0.0529763 3.19479 108 123 152 
1.40432 0.210375 3.17761 175 188 222 
1.44756 -0.169036 3.27935 165 174 213 
1.47854 -0.60662 3.3263 84 88 100 
1.36842 0.534606 3.07359 66 73 102 
1.37251 0.515548 3.07574 40 47 75 
1.38947 0.428941 3.12605 168 171 190 
1.40714 0.269053 3.1681 182 191 230 
1.42575 0.041124 3.19714 102 114 136 
1.43774 -0.0221984 3.22838 34 42 61 
1.37028 0.580835 3.0615 75 87 113 
1.26864 0.567565 2.6737 82 93 121 
1.40496 0.366422 3.14889 122 105 139 
1.49787 -0.604365 3.34671 79 87 100 
1.42583 0.120144 3.18538 82 93 113 
1.39496 0.460096 3.12066 116 125 132 
1.50365 -0.595618 3.36077 90 95 114 
1.40893 0.394281 3.15156 127 137 190 
1.44467 0.00733668 3.21482 101 113 129 
1.39208 0.506427 3.09453 117 122 144 
1.38557 0.593976 3.0752 79 84 116 
1.51507 -0.596814 3.37396 62 60 81 
1.47905 -0.253137 3.27932 180 194 231 
1.53987 -0.660088 3.4413 84 69 100 
1.45533 0.0343496 3.22962 120 118 139 
1.51473 -0.473742 3.3663 132 137 175 
1.42171 0.435808 3.15811 245 246 251 
1.42729 0.420692 3.16464 96 104 169 
1.432 0.395552 3.1724 91 88 143 
1.43414 0.445081 3.16774 107 99 150 
1.43739 0.409113 3.17348 126 119 161 
1.48746 -0.0412329 3.28499 121 112 133 
1.42273 0.551694 3.12008 66 70 97 
1.4908 -0.0329642 3.27319 33 28 50 
1.61174 -0.789091 3.59655 25 24 40 
1.55314 -0.592245 3.4081 50 46 71 
1.43883 0.522197 3.14145 49 56 84 
1.61374 -0.658836 3.56958 124 114 138 
1.5668 -0.442997 3.41816 178 188 223 
1.5639 -0.404692 3.41107 161 172 204 
1.55179 -0.272124 3.38098 185 196 228 
1.54789 -0.257242 3.36494 72 79 97 
1.45345 0.584017 3.14981 49 60 88 
1.6281 -0.81409 3.55636 34 37 56 
1.5597 -0.283682 3.39039 164 175 207 
1.59551 -0.565955 3.46969 172 188 222 
1.45619 0.604269 3.14933 60 69 100 
1.59273 -0.590376 3.44157 94 100 114 
1.45976 0.616901 3.15012 51 56 85 
1.46513 0.581822 3.15984 62 76 102 
-0.266426 0.201658 1.84709 55 48 64 
-0.25189 -0.127821 1.90058 98 93 113 
-0.250829 -0.114177 1.91817 81 78 99 
0.115917 -0.663092 1.92441 119 108 125 
0.423002 0.326377 2.13322 106 111 114 
0.761667 -0.848935 2.62229 167 175 211 
0.890155 -0.836478 2.75353 77 78 106 
0.985042 -0.794911 2.83826 31 29 51 
-0.108446 -0.343651 1.65295 138 123 144 
-0.0746945 -0.207036 1.6734 170 171 191 
-0.0611387 -0.536882 1.72129 124 127 162 
0.0689582 -0.442434 1.84752 68 48 73 
0.0902723 -0.447728 1.87126 61 42 62 
0.125783 -0.551489 1.90412 21 20 28 
0.12762 -0.536716 1.90697 116 105 122 
0.136552 -0.546626 1.91426 98 83 104 
0.16812 -0.586497 1.95924 157 146 160 
0.257073 -0.35527 2.0347 77 65 89 
0.298685 -0.523958 2.09834 133 135 173 
0.307065 -0.395232 2.08409 161 164 195 
0.320175 -0.631854 2.1333 136 138 177 
0.321826 -0.198938 2.08096 59 44 67 
0.372761 0.104092 2.09896 116 106 131 
0.388187 -0.198245 2.14253 173 177 212 
0.393492 -0.375075 2.17678 182 187 216 
0.417368 -0.62638 2.23962 185 194 235 
0.416943 -0.319444 2.19341 138 140 179 
0.485966 -0.390556 2.27508 133 141 180 
0.52607 -0.599839 2.34318 143 145 183 
0.531144 -0.476547 2.33264 149 152 185 
0.530324 -0.0683581 2.28295 138 143 181 
0.545305 0.0221242 2.29632 168 174 210 
0.580885 -0.0228865 2.33535 172 182 218 
0.597699 -0.15084 2.34662 129 116 142 
0.621939 -0.264861 2.40271 105 94 126 
0.712111 0.0825325 2.72579 48 59 113 
0.744166 -0.313589 2.84396 32 26 38 
0.723619 0.416988 2.40091 141 149 188 
0.784125 -0.402985 2.71514 112 104 127 
0.786239 -0.537366 2.60728 160 164 193 
0.736664 0.472893 2.25934 71 80 119 
0.837982 -0.74781 2.69301 107 113 145 
0.761283 0.477512 2.28615 77 90 125 
0.843903 -0.161217 2.93489 106 104 126 
0.855494 -0.737036 2.71143 110 115 153 
0.854028 -0.618062 2.67947 161 176 199 
0.856343 -0.541995 2.68394 68 62 96 
0.871267 -0.0818022 2.9652 36 32 49 
0.912531 -0.777998 2.78051 149 164 187 
0.907128 -0.688871 2.73881 170 181 211 
0.913935 -0.538846 2.7424 76 72 105 
0.904587 0.348587 2.89193 102 97 119 
0.955915 -0.746157 2.82436 55 56 74 
0.96922 -0.714263 2.8279 145 158 190 
0.988809 -0.784696 2.84231 30 24 52 
0.952766 0.297246 2.90496 37 34 51 
0.979102 -0.357741 2.89268 28 25 32 
0.977026 -0.0536059 2.89832 111 107 130 
0.986642 -0.50617 2.81141 118 104 127 
1.00909 -0.624062 2.83396 47 52 74 
1.00395 -0.444815 2.84948 44 34 45 
1.01104 0.437228 2.86505 48 46 60 
1.04034 -0.0595565 2.90578 106 101 131 
1.04768 0.0995187 2.93311 62 49 69 
1.04922 0.342736 2.88908 29 25 39 
1.12191 -0.683958 2.97792 151 159 195 
1.1037 0.157998 2.92625 58 49 68 
1.19662 -0.639396 3.05157 127 130 175 
1.1981 0.275283 2.92412 122 137 180 
1.2188 0.292074 2.94315 98 110 170 
1.22081 0.405492 2.90307 171 176 208 
1.22087 0.501141 2.83222 129 140 168 
1.37457 -0.696768 3.25947 190 200 235 
1.28295 0.52073 2.85754 79 91 117 
1.39978 -0.0419665 3.20247 176 188 226 
1.35304 0.444218 3.07662 83 90 119 
1.4195 0.0271103 3.18534 84 91 107 
1.40264 0.277002 3.15025 140 130 165 
1.36985 0.544472 3.06289 59 63 90 
1.4081 0.442314 3.13834 78 75 118 
1.41972 0.403279 3.15649 246 247 251 
1.40945 0.467211 3.11826 56 63 81 
1.40608 0.580443 3.09814 59 70 100 
1.59297 -0.921734 3.52298 57 49 86 
1.42882 0.54982 3.12091 68 72 99 
1.44452 0.538798 3.14076 108 103 125 
1.5843 -0.544876 3.44278 127 139 177 
1.63209 -0.802485 3.55277 103 108 128 
-0.100165 -0.379513 1.6311 92 80 90 
-0.109344 -0.549682 1.6626 132 127 157 
-0.0904187 -0.183896 1.61656 28 29 34 
-0.0843908 -0.173304 1.61905 94 90 105 
-0.0737966 0.390951 1.55631 83 68 99 
-0.0737589 0.353951 1.56482 29 21 68 
-0.0830419 -0.156367 1.62991 37 33 47 
-0.0764585 -0.229933 1.63589 72 65 81 
-0.106566 0.18607 1.64684 145 153 189 
-0.0711709 -0.15968 1.63615 25 25 27 
-0.0829314 0.184493 1.62715 149 154 184 
-0.0778516 -0.0937127 1.65293 55 51 68 
-0.0997794 -0.0677235 1.68594 167 173 209 
-0.0927189 0.207235 1.65225 125 123 137 
-0.044887 0.416683 1.58577 86 69 87 
-0.0515142 -0.1561 1.65713 117 113 127 
-0.0542124 -0.561593 1.71984 126 119 152 
-0.0402364 -0.482884 1.7101 166 175 208 
-0.229834 -0.249507 1.96946 21 20 28 
-0.0293005 -0.460283 1.73202 152 159 188 
-0.0344169 0.385924 1.65628 122 135 167 
-0.0174603 -0.362949 1.73702 67 54 84 
-0.0180373 -0.581365 1.7611 129 133 170 
-0.0291461 0.411642 1.69538 88 97 126 
-0.001272 -0.578508 1.77742 125 128 169 
0.00581654 -0.43404 1.7707 145 151 177 
0.0221152 -0.42612 1.78867 97 84 104 
0.0306717 -0.548855 1.80757 176 185 218 
0.0585294 -0.542341 1.82459 87 82 112 
0.0804741 -0.573687 1.84252 87 73 98 
-0.155616 0.0788495 2.21039 27 33 57 
-0.102631 0.0939467 2.13305 146 164 236 
-0.0968149 0.078837 2.14108 24 31 57 
0.10405 -0.57076 1.88407 63 55 78 
0.114366 -0.57492 1.89386 137 128 149 
0.127857 -0.604271 1.91337 113 102 119 
0.1372 -0.60802 1.9191 53 41 61 
0.139988 -0.598922 1.9231 39 26 44 
0.151907 -0.510597 1.91241 109 94 113 
0.159304 -0.574491 1.93293 132 117 140 
0.164183 -0.576196 1.95256 135 115 140 
0.171586 0.440421 1.83687 140 155 188 
0.213543 -0.551479 1.97954 65 59 87 
0.218556 -0.448837 1.97361 154 141 159 
0.226252 -0.396171 1.99343 75 66 93 
0.227283 -0.602652 2.02132 127 111 138 
0.234005 0.447457 1.8941 131 147 181 
0.243442 -0.595431 2.03961 134 132 169 
0.253552 -0.365103 2.01951 72 62 87 
0.259984 -0.638894 2.06229 126 134 171 
0.270277 -0.639437 2.0726 134 143 182 
0.280094 -0.445202 2.02767 172 178 214 
0.281599 -0.635424 2.08245 140 143 184 
0.296404 -0.378832 2.0433 101 93 104 
0.299333 -0.402773 2.07013 161 166 198 
0.30039 -0.633712 2.10452 134 133 175 
0.310878 -0.63142 2.11231 137 138 182 
0.32901 -0.117616 2.06784 52 40 60 
0.340211 0.0850013 2.05281 137 134 155 
0.359354 -0.651509 2.1656 124 127 170 
0.358318 -0.302036 2.11994 175 181 217 
0.355639 0.473691 2.00031 41 44 59 
0.395161 -0.403918 2.17246 132 137 179 
0.391205 0.120632 2.09774 157 163 195 
0.400681 -0.103976 2.14009 124 135 163 
0.413715 -0.401112 2.1891 137 142 182 
0.429244 0.385797 2.08494 88 93 113 
0.452063 0.30997 2.13747 165 178 210 
0.486452 0.339326 2.16054 50 59 66 
0.512015 -0.669287 2.32884 141 150 191 
0.499566 0.464922 2.15215 117 117 143 
0.503254 0.32477 2.19359 66 76 103 
0.534653 -0.244737 2.30993 173 177 212 
0.54644 0.344241 2.18072 23 30 49 
0.558404 0.318049 2.14593 62 72 99 
0.561665 -0.306804 2.33745 157 164 193 
0.563906 -0.278586 2.33253 78 88 124 
0.553447 0.21929 2.25882 157 167 202 
0.573795 -0.170581 2.30748 73 77 102 
0.578055 -0.413643 2.38171 183 191 228 
0.580695 -0.275021 2.34216 44 52 73 
0.574756 0.0144927 2.30077 39 44 63 
0.583071 -0.155168 2.31847 24 23 29 
0.58277 -0.415531 2.40465 180 192 232 
0.575047 0.463843 2.23119 41 43 58 
0.575576 0.0514505 2.35487 75 80 109 
0.597011 -0.420548 2.38479 145 150 190 
0.612753 -0.369056 2.38196 85 95 122 
0.623653 -0.251542 2.39708 135 126 147 
0.623817 -0.195897 2.38703 73 58 87 
0.623574 -0.157317 2.38096 64 52 76 
0.625223 -0.208105 2.39957 155 153 177 
0.623063 -0.101722 2.38037 111 103 127 
0.634981 -0.432307 2.41811 40 48 61 
0.622465 -0.0442815 2.36695 68 56 80 
0.618924 0.0903038 2.34515 121 118 139 
0.619288 0.0528078 2.35835 132 133 154 
0.618288 0.131994 2.34855 142 130 152 
0.637662 -0.468242 2.43391 60 70 97 
0.627393 0.274375 2.33162 150 151 172 
0.652021 -0.409313 2.4226 71 75 100 
0.664976 0.429706 2.22943 48 56 79 
0.67939 -0.388403 2.46356 40 33 49 
0.652382 -0.0872297 2.57441 89 82 98 
0.640068 -0.195301 2.71759 72 75 110 
0.699421 -0.484154 2.48401 70 67 94 
0.707176 -0.491997 2.49203 54 54 78 
0.671213 -0.118843 2.73673 101 102 133 
0.72139 0.487604 2.08323 73 80 108 
0.729191 -0.513963 2.51809 48 47 65 
0.69284 0.363865 2.44792 31 28 49 
0.744935 -0.567808 2.55822 113 129 155 
0.715596 0.421387 2.4259 126 138 178 
0.711131 -0.229868 2.79412 67 72 104 
0.753713 -0.466709 2.55554 149 151 176 
0.75703 -0.471962 2.57274 132 130 154 
0.724025 0.0822773 2.68341 44 54 103 
0.774589 -0.497501 2.58678 122 108 133 
0.774656 -0.47863 2.60339 62 49 67 
0.776851 0.494887 2.14903 80 91 123 
0.731727 0.403193 2.74674 16 18 31 
0.799074 -0.591684 2.5936 132 128 155 
0.783337 0.503745 2.15542 110 121 153 
0.76561 -0.213573 2.86236 30 28 42 
0.764715 -0.140095 2.84772 28 30 45 
0.80373 -0.497174 2.62504 90 80 104 
0.755462 0.231508 2.77586 8 16 35 
0.786722 0.466561 2.30693 65 74 107 
0.825935 -0.707681 2.67018 69 84 117 
0.796746 0.464073 2.38512 90 95 133 
0.83832 -0.699363 2.679 166 177 205 
0.837164 -0.500436 2.65999 36 33 42 
0.842837 -0.616216 2.66686 114 128 154 
0.843215 -0.571583 2.64251 80 101 128 
0.853634 -0.638311 2.67593 142 153 175 
0.814399 -0.0815055 2.89872 95 93 117 
0.82205 0.465413 2.34136 84 94 130 
0.862597 -0.577384 2.66229 128 142 171 
0.859184 -0.507886 2.68687 79 77 91 
0.863145 -0.502438 2.69666 33 30 37 
0.869953 -0.578304 2.67177 132 149 175 
0.8346 -0.079295 2.92489 100 95 125 
0.876906 -0.602248 2.69523 142 151 182 
0.851404 0.509406 2.22842 73 80 108 
0.889056 -0.500669 2.72581 35 28 35 
0.857849 0.487566 2.30498 82 90 126 
0.871126 -0.00287536 2.94621 86 83 110 
0.919567 -0.697702 2.74148 124 139 172 
0.903856 -0.417594 2.81151 21 20 26 
0.8773 0.49275 2.32462 62 72 99 
0.869256 0.257193 2.9112 81 83 104 
0.926161 -0.711794 2.75803 137 143 177 
0.921634 -0.596573 2.7442 176 187 217 
0.915541 -0.441724 2.78659 100 94 120 
0.935196 -0.722006 2.78011 138 143 175 
0.942459 -0.720314 2.80037 175 184 217 
0.933408 -0.498743 2.76689 95 91 114 
0.884748 0.435746 2.88858 47 37 48 
0.939464 -0.507667 2.7606 40 34 48 
0.958983 -0.642085 2.79038 147 161 188 
0.958561 -0.582914 2.77784 143 153 180 
0.975751 -0.755225 2.82529 97 103 135 
0.919811 0.479535 2.51084 67 79 103 
0.973086 -0.586409 2.79661 125 142 170 
0.926042 0.517378 2.30358 70 77 105 
0.987795 -0.588807 2.82516 45 37 61 
0.963328 -0.0428285 2.9061 34 32 43 
0.998702 -0.500213 2.81833 57 47 72 
0.988589 -0.288421 2.91251 65 60 80 
1.01058 -0.581448 2.81811 38 46 69 
1.01044 -0.569009 2.8201 33 39 61 
1.02527 -0.545969 2.82455 125 123 145 
1.0325 -0.519661 2.83463 23 27 39 
1.03417 -0.455318 2.84441 69 56 82 
1.03803 -0.473103 2.85129 108 106 130 
1.04249 -0.512065 2.8419 27 29 42 
1.03965 -0.416764 2.86999 37 36 44 
1.01199 0.188435 2.91325 35 32 49 
1.04817 -0.52968 2.85074 68 80 104 
1.01173 0.27847 2.90154 35 33 46 
1.04974 -0.458924 2.86775 64 60 87 
1.04479 -0.308259 2.90969 89 94 124 
1.05746 -0.49993 2.86155 27 30 39 
1.08155 -0.47501 2.88058 26 30 41 
1.09364 -0.611505 2.92262 167 173 207 
1.03143 0.511095 2.55505 79 88 121 
1.07209 0.0111074 2.93638 36 34 47 
1.09159 -0.397792 2.90497 108 105 126 
1.09387 -0.37071 2.89924 101 97 124 
1.09854 -0.375568 2.90688 60 45 74 
1.04308 0.533535 2.42099 72 82 109 
1.05026 0.517007 2.50489 76 82 114 
1.11512 -0.274255 2.94218 49 42 58 
1.11055 -0.0617475 2.92283 117 98 126 
1.12496 -0.307933 2.93003 95 90 112 
1.09132 0.340865 2.88311 50 39 55 
1.125 -0.262594 2.93808 50 43 59 
1.06404 0.535431 2.44655 72 81 112 
1.12598 -0.176913 2.94737 102 96 122 
1.13822 -0.0551987 2.90378 91 87 110 
1.13159 0.245342 2.90135 93 86 117 
1.1069 0.504867 2.70362 90 99 138 
1.12308 0.449334 2.84279 56 49 67 
1.16116 -0.0383306 2.94139 27 25 36 
1.14677 0.358949 2.88328 32 31 39 
1.1463 0.373254 2.87441 39 33 45 
1.14631 0.474165 2.8368 126 136 171 
1.22002 -0.690698 3.07622 171 182 212 
1.16639 0.201088 2.91704 38 32 46 
1.17329 0.179929 2.90621 97 83 109 
1.18683 -0.025039 2.95105 23 21 32 
1.16571 0.387777 2.88383 142 134 149 
1.17943 0.293559 2.89998 51 58 84 
1.2003 0.311952 2.91841 52 60 107 
1.21237 0.263316 2.93455 104 108 155 
1.23354 -0.0454271 2.99865 146 155 184 
1.22246 0.132421 2.96416 94 90 117 
1.21189 0.305807 2.92846 240 243 250 
1.18846 0.533402 2.71553 84 97 132 
1.25129 -0.0945675 3.03264 167 181 216 
1.23759 0.148734 2.97263 161 174 208 
1.20873 0.510664 2.81897 126 138 176 
1.26269 0.422402 2.95448 156 161 193 
1.27494 0.425092 2.95416 157 157 185 
1.34043 -0.215501 3.14056 122 130 166 
1.25134 0.57612 2.64341 58 86 71 
1.35288 -0.224555 3.15676 134 143 172 
1.2797 0.541362 2.83469 124 136 176 
1.30057 0.428545 2.94728 83 94 122 
1.38971 -0.600651 3.25883 165 178 213 
1.3169 0.52549 3.00188 48 62 88 
1.41225 -0.655865 3.27678 162 174 212 
1.38084 0.089374 3.14965 161 177 213 
1.30091 0.581589 2.68844 51 69 73 
1.3839 0.355319 3.12537 169 178 211 
1.45354 -0.58202 3.30403 140 149 180 
1.36823 0.524003 3.05448 105 113 136 
1.4068 0.110032 3.17472 132 144 184 
1.43355 -0.217313 3.25235 136 134 171 
1.41396 0.0207453 3.19277 46 56 66 
1.4042 0.193569 3.15959 125 112 140 
1.46412 -0.583365 3.31649 129 135 169 
1.44421 -0.201834 3.25108 119 127 164 
1.44269 -0.166292 3.24792 157 169 207 
1.4217 0.124838 3.18878 25 24 38 
1.38679 0.533883 3.07284 55 64 95 
1.40814 0.354689 3.14192 124 102 125 
1.41678 0.264306 3.1585 124 109 140 
1.40489 0.47738 3.11107 108 111 120 
1.51643 -0.674109 3.45096 40 29 46 
1.47513 -0.213313 3.30143 170 183 218 
1.48503 -0.313932 3.31853 117 120 153 
1.41263 0.564532 3.10027 41 46 65 
1.46225 0.00812922 3.23315 116 117 135 
1.46346 -0.00944222 3.234 123 124 145 
1.5146 -0.574467 3.37205 142 155 187 
1.47001 -0.0338733 3.24423 112 110 134 
1.43484 0.433168 3.15865 123 111 157 
1.46856 0.0400609 3.24387 86 71 100 
1.42287 0.604606 3.10714 37 35 56 
1.43273 0.54109 3.12174 53 60 86 
1.55335 -0.80876 3.47509 112 107 129 
1.4523 0.399251 3.18512 125 122 149 
1.53218 -0.592507 3.37729 40 39 57 
1.43476 0.61761 3.11992 101 99 121 
1.4416 0.609833 3.12277 110 116 138 
1.53149 -0.268204 3.36298 164 176 216 
1.60212 0.108813 3.82306 82 84 99 
1.55851 -0.502416 3.41134 110 112 153 
1.46701 0.588332 3.16501 132 144 158 
1.60226 0.142632 3.80578 66 64 77 
1.47133 0.571254 3.17041 51 58 77 
1.60265 0.229248 3.80934 84 71 89 
1.57014 -0.587077 3.41583 42 43 64 
1.47177 0.581856 3.15779 73 85 109 
1.47573 0.557148 3.17215 48 60 86 
1.47081 0.59858 3.15363 132 138 154 
1.6066 0.123548 3.7907 86 76 100 
1.60123 -0.663844 3.55252 102 98 121 
1.60411 0.300623 3.8056 88 80 101 
1.5584 -0.301868 3.38331 166 180 209 
1.57625 -0.509541 3.42813 152 167 196 
1.62654 0.111868 3.83823 32 30 43 
1.61021 -0.644862 3.55185 25 23 36 
1.59993 0.467859 3.75987 111 113 134 
1.56543 -0.275552 3.37593 66 72 96 
1.57505 -0.307149 3.39705 72 67 107 
1.63743 0.105468 3.83739 114 120 134 
1.60097 0.542273 3.74013 103 101 123 
1.64174 0.0762023 3.84324 100 99 115 
1.60645 -0.576837 3.45246 87 91 102 
-0.505454 0.3186 1.56164 108 98 123 
-0.503402 0.307611 1.56424 39 36 57 
-0.515579 -0.226078 1.64116 95 91 114 
-0.480841 0.402346 1.57824 92 97 127 
-0.497543 -0.266627 1.66599 73 64 85 
-0.449975 0.170045 1.58712 40 53 85 
-0.443702 0.185797 1.58908 210 223 255 
-0.438129 0.172117 1.60196 43 56 90 
-0.431946 0.148642 1.61024 32 44 102 
-0.420703 0.414839 1.59996 67 90 134 
-0.417486 0.244759 1.61254 66 85 125 
-0.365187 0.271076 1.72212 37 37 45 
-0.364736 0.211856 1.74208 27 32 52 
-0.346379 0.307153 1.70336 76 96 133 
-0.340263 0.380816 1.69815 87 113 162 
-0.339995 0.356396 1.70079 145 171 220 
-0.359255 -0.298191 1.80265 39 48 79 
-0.346879 0.164516 1.74274 154 173 213 
-0.343438 0.263902 1.72689 179 201 240 
-0.346618 0.141958 1.74623 150 174 212 
-0.3468 -0.00242196 1.76346 157 169 209 
-0.332845 0.36846 1.70259 39 48 91 
-0.332188 0.380006 1.70726 21 23 38 
-0.349449 -0.410272 1.81539 69 90 135 
-0.342938 -0.416236 1.82374 24 29 49 
-0.310525 -0.1359 1.84805 126 130 159 
-0.304209 0.175846 1.82067 146 150 179 
-0.305571 -0.0928776 1.84494 129 133 160 
-0.302071 -0.150255 1.8524 25 28 47 
-0.300021 -0.0652062 1.84456 97 87 114 
-0.291326 -0.0376624 1.84959 90 95 124 
-0.286259 0.103088 1.83434 99 87 111 
-0.286744 -0.150273 1.86802 108 106 128 
-0.260506 -0.115887 1.90291 82 79 100 
-0.260201 -0.101958 1.91086 105 99 125 
-0.175691 -0.212904 1.67682 72 73 93 
-0.147513 -0.25918 1.64715 39 37 48 
-0.124 0.382653 1.52052 131 125 139 
-0.121347 -0.167478 1.60654 32 30 35 
-0.121015 -0.122763 1.61136 139 131 152 
-0.114797 0.384136 1.53202 139 135 152 
-0.118921 -0.244158 1.62936 127 119 140 
-0.117943 -0.345389 1.64146 132 115 133 
-0.116432 -0.219834 1.62678 124 121 142 
-0.114481 -0.266013 1.63635 98 94 121 
-0.104253 -0.155629 1.62606 128 126 140 
-0.100702 0.220062 1.58838 45 45 57 
-0.101036 -0.235365 1.63387 52 50 64 
-0.094097 0.238376 1.59904 110 106 131 
-0.0907514 -0.227193 1.63543 131 114 132 
-0.0877057 -0.258149 1.64385 123 110 127 
-0.087014 0.186758 1.64821 30 41 61 
-0.0777929 -0.187683 1.65839 133 124 143 
-0.0977499 0.0568104 2.16054 1 11 62 
-0.0972627 0.103059 2.15552 17 25 61 
-0.0726049 -0.151904 1.66158 111 109 130 
-0.0694246 0.363408 1.58168 230 235 254 
-0.0688247 0.386381 1.58244 237 240 249 
-0.0687194 0.396328 1.58417 233 239 255 
-0.0647621 -0.240021 1.6874 181 183 204 
-0.0606305 -0.149906 1.67374 126 125 143 
-0.0604977 -0.109387 1.68028 129 124 144 
-0.0547378 0.388593 1.59193 105 91 127 
-0.0513236 -0.234468 1.69631 24 23 29 
-0.0484738 -0.317394 1.71406 155 141 166 
-0.0414804 -0.318525 1.72191 135 123 147 
-0.0400662 -0.166611 1.68923 92 94 115 
-0.0105737 -0.386945 1.76343 66 52 77 
-0.00335573 0.295855 2.18567 72 77 99 
0.00809063 -0.40782 1.78538 86 80 106 
0.0255538 0.232793 2.20918 76 83 111 
0.0298917 -0.0739681 2.22147 66 65 81 
0.0456887 0.192566 2.21146 47 46 60 
0.0624952 -0.159736 2.26067 62 60 73 
0.0624853 -0.0714024 2.24178 68 71 80 
0.0725968 0.452033 1.7429 87 92 121 
0.0864711 0.418669 1.90837 83 88 118 
0.0947959 0.451248 1.74329 78 99 104 
0.150257 0.458231 1.82552 127 140 172 
