ply                 
format ascii 1.0    
element vertex 211
property float x    
property float y    
property float z    
property uchar red  
property uchar green
property uchar blue 
end_header          
-0.507309 -0.257186 1.6664 100 96 119 
-0.490545 0.0672879 1.64343 116 97 127 
-0.472924 0.160582 1.59386 101 170 235 
-0.490871 -0.179977 1.67505 119 126 155 
-0.481665 0.0212664 1.66062 102 110 146 
-0.489189 -0.364939 1.69958 121 125 160 
-0.459016 0.138797 1.60308 166 188 238 
-0.485233 -0.311461 1.69789 75 67 90 
-0.487514 -0.432919 1.70788 113 126 160 
-0.457478 0.151172 1.60195 88 87 103 
-0.485311 -0.373215 1.70437 80 65 86 
-0.47307 0.0704949 1.66569 111 96 127 
-0.447174 0.151701 1.60646 208 221 255 
-0.480249 -0.584817 1.73368 76 84 123 
-0.44594 0.13764 1.61387 183 206 250 
-0.467918 -0.262674 1.70087 119 132 167 
-0.456119 -0.226859 1.71421 86 89 120 
-0.44366 -0.256146 1.73448 116 129 164 
-0.408619 0.284625 1.64132 54 60 74 
-0.402766 0.420022 1.67097 82 87 107 
-0.354323 0.0380572 1.77335 57 64 90 
-0.345678 0.249374 1.74791 134 152 198 
-0.342912 0.246495 1.751 101 121 174 
-0.340461 0.251155 1.7519 229 241 255 
-0.333291 0.415246 1.71427 71 99 146 
-0.333471 0.344031 1.72246 92 114 153 
-0.343682 -0.00865958 1.78216 143 168 209 
-0.343682 -0.00865958 1.78216 143 168 209 
-0.332233 0.306225 1.72806 111 134 178 
-0.11378 -0.161828 1.62879 51 45 59 
-0.102617 -0.164524 1.63634 23 22 28 
-0.0919466 -0.52054 1.70539 161 149 169 
-0.0887787 -0.162859 1.64978 24 23 29 
-0.0858161 -0.116736 1.66541 86 78 102 
-0.0791525 0.405242 1.58556 109 104 126 
-0.0811449 -0.18209 1.65542 73 69 92 
-0.0779318 0.224319 1.63315 43 42 56 
-0.0654321 0.362248 1.60321 230 235 254 
-0.0640027 -0.244631 1.70345 95 76 104 
-0.0648914 -0.523592 1.7336 170 175 205 
-0.0623633 -0.184564 1.69845 140 136 151 
-0.0623633 -0.184564 1.69845 140 136 151 
-0.0588481 -0.249895 1.71021 150 138 158 
-0.0508049 0.38777 1.61418 105 91 127 
-0.0507971 0.376448 1.61547 108 93 126 
-0.050648 0.371281 1.61579 122 101 134 
-0.0505801 0.38763 1.61388 105 91 127 
-0.0505615 0.376347 1.61516 108 93 126 
-0.046928 -0.460699 1.74607 165 175 202 
-0.0347916 -0.316687 1.74527 155 146 167 
-0.013089 -0.374569 1.77259 64 50 76 
0.0129635 -0.577989 1.82151 128 133 173 
0.0184936 -0.403739 1.80475 145 133 157 
0.060864 -0.442697 1.85892 116 103 121 
0.0608157 -0.507184 1.85228 50 42 55 
0.0676069 0.414082 1.82456 153 165 189 
0.112336 0.131106 2.25329 82 87 107 
0.131281 -0.525743 1.92533 62 60 74 
0.134933 -0.513114 1.93033 49 37 57 
0.140546 -0.44289 1.93744 75 62 88 
0.168859 -0.484697 1.9756 117 106 122 
0.16918 -0.576971 1.97614 35 21 44 
0.195707 -0.419032 1.99156 72 58 83 
0.199339 -0.422905 1.99595 105 92 109 
0.205893 -0.418132 1.99932 144 145 165 
0.215578 -0.403541 2.00848 76 66 90 
0.215943 -0.412842 2.00852 104 95 122 
0.25308 -0.355203 2.04097 122 124 147 
0.311268 -0.390892 2.09508 166 177 209 
0.312206 -0.204224 2.08602 120 116 139 
0.316013 -0.14625 2.0823 127 122 144 
0.320515 -0.203529 2.09334 121 116 139 
0.320315 -0.142934 2.08574 80 70 97 
0.324311 -0.146607 2.09056 136 128 149 
0.336287 0.198024 2.05797 117 115 137 
0.335901 0.25509 2.05005 117 108 129 
0.342664 -0.0304406 2.08047 114 112 134 
0.338501 0.372568 2.01483 102 107 126 
0.340644 0.459492 2.00971 112 108 125 
0.340644 0.459492 2.00971 112 108 125 
0.342038 0.436731 2.01066 144 145 165 
0.354109 0.433771 2.02476 150 153 170 
0.35734 0.431062 2.02739 63 68 90 
0.359423 0.408406 2.03211 94 102 123 
0.359423 0.408406 2.03211 94 102 123 
0.368526 0.312367 2.06934 116 125 132 
0.390721 -0.368403 2.18471 131 135 173 
0.380652 0.0459148 2.12278 141 139 163 
0.391002 0.0412935 2.13783 119 105 130 
0.383225 0.376697 2.06175 93 98 118 
0.401253 -0.130086 2.14951 69 77 90 
0.418563 0.238588 2.14075 75 75 127 
0.412275 0.440213 2.08437 92 101 118 
0.430174 0.279236 2.14695 227 232 254 
0.442506 0.241482 2.16476 80 90 141 
0.43479 0.341843 2.12461 129 131 143 
0.484583 -0.59906 2.30925 138 139 169 
0.466488 0.325285 2.16578 105 111 123 
0.487482 0.320176 2.20372 62 69 97 
0.492676 0.314795 2.21127 172 181 210 
0.488326 0.348587 2.18 114 121 140 
0.52335 -0.431164 2.32891 137 146 187 
0.499905 0.330713 2.20372 108 110 131 
0.550792 -0.113796 2.31974 82 91 124 
0.550748 0.176324 2.29126 154 160 194 
0.568395 -0.149551 2.32977 72 75 84 
0.571386 0.1626 2.29898 38 45 61 
0.609732 -0.420212 2.41976 162 170 216 
0.759338 0.176051 2.80367 66 95 113 
0.759338 0.176051 2.80367 66 95 113 
0.780522 -0.0952574 2.85843 87 86 104 
0.796783 -0.0904478 2.87823 33 29 43 
0.75983 -0.389446 2.69273 129 121 145 
0.8277 -0.127389 2.90783 34 30 55 
0.8277 -0.127389 2.90783 34 30 55 
0.836588 -0.121965 2.90648 124 125 146 
0.798858 -0.397587 2.73464 108 105 126 
0.859463 -0.307235 2.87677 36 34 47 
0.787274 -0.558409 2.59332 70 80 107 
0.894013 0.011049 2.92747 45 40 62 
0.894013 0.011049 2.92747 45 40 62 
0.893273 0.0814761 2.91846 48 43 65 
0.893273 0.0814761 2.91846 48 43 65 
0.893088 0.167185 2.90664 53 45 68 
0.892434 0.210181 2.90109 52 44 67 
0.751996 0.451445 2.35453 85 94 127 
0.751996 0.451445 2.35453 85 94 127 
0.928623 -0.251792 2.90728 110 114 143 
0.855976 -0.556662 2.67336 83 99 114 
0.931192 0.141665 2.90767 58 55 72 
0.934434 0.114733 2.91195 102 101 119 
0.945808 0.0103051 2.92373 29 29 39 
0.944351 -0.21729 2.918 99 100 128 
0.944351 -0.21729 2.918 99 100 128 
0.872526 -0.5534 2.69223 30 30 42 
0.93298 0.34064 2.87078 80 71 88 
0.891787 -0.681093 2.72168 128 148 172 
0.894461 -0.664851 2.72895 99 105 141 
0.943603 0.332023 2.87673 27 21 31 
0.962698 0.0275022 2.91909 111 124 156 
0.968306 -0.024344 2.90694 93 87 113 
0.975535 0.0139195 2.92483 44 41 60 
0.954049 0.431147 2.83358 44 44 70 
0.968027 -0.348577 2.87185 29 26 33 
0.988154 0.32385 2.88537 80 78 99 
0.989571 0.341302 2.87175 72 62 71 
0.989571 0.341302 2.87175 72 62 71 
1.04213 0.458038 3.02442 50 47 64 
0.978933 -0.448864 2.82841 42 36 48 
0.999985 0.3323 2.87865 33 28 34 
0.971581 -0.476631 2.79477 111 109 133 
1.01967 0.027735 2.91994 109 123 152 
1.01234 -0.336973 2.88398 103 107 136 
0.992567 -0.587775 2.82005 66 67 88 
1.03474 0.120234 2.91073 61 53 76 
1.01997 -0.426688 2.85522 83 82 100 
1.02667 -0.433473 2.85486 37 33 50 
1.04098 -0.358034 2.88903 99 93 119 
1.0412 -0.402334 2.8738 81 79 100 
1.06058 -0.375076 2.89013 90 92 115 
1.06058 -0.375076 2.89013 90 92 115 
1.0753 0.0274282 2.92136 113 128 161 
1.0753 0.0274282 2.92136 113 128 161 
1.0875 -0.264543 2.92658 110 110 136 
1.06004 0.428579 2.84989 51 45 59 
1.0894 0.0175769 2.92323 44 35 56 
1.0894 0.132553 2.90885 50 42 66 
0.886899 0.490728 2.361 67 78 108 
1.09991 -0.0160464 2.92355 46 42 59 
1.08806 0.295272 2.88939 58 54 79 
1.07909 0.347304 2.86168 94 82 106 
1.08856 0.279992 2.88683 61 57 80 
1.09488 0.159651 2.90259 57 54 73 
1.07512 0.406369 2.84139 105 101 118 
1.07512 0.406369 2.84139 105 101 118 
1.09529 0.229565 2.89289 52 41 55 
1.09093 0.334922 2.88042 30 24 34 
1.11752 -0.0271175 2.92709 106 104 126 
1.11752 -0.0271175 2.92709 106 104 126 
1.09934 0.3366 2.87524 29 26 37 
1.11606 0.0325962 2.91748 103 91 113 
1.11549 0.141978 2.90349 110 107 128 
1.13564 -0.303412 2.94672 125 125 149 
1.12956 0.0216971 2.92522 50 36 51 
1.11407 0.288018 2.88311 97 99 124 
1.13901 -0.213323 2.94526 30 25 45 
1.13001 0.130691 2.91139 48 37 53 
1.14279 0.0880983 2.91827 88 85 102 
1.11588 0.408272 2.84811 97 92 114 
1.14102 0.203226 2.90203 90 87 104 
1.15239 -0.00839339 2.92608 79 76 97 
1.16577 -0.0860279 2.95276 92 77 100 
1.14402 0.259571 2.89374 35 34 48 
1.15114 0.160024 2.91178 33 31 45 
1.12965 0.404286 2.85666 47 40 58 
1.12797 0.420535 2.84365 25 32 42 
1.12583 0.449768 2.83775 36 42 56 
1.15091 0.251605 2.89192 84 89 111 
1.15841 0.17572 2.90866 109 104 126 
1.15841 0.17572 2.90866 109 104 126 
1.14973 0.289446 2.8853 90 92 115 
1.13896 0.431134 2.83418 106 112 134 
1.17973 0.144871 2.9204 119 109 133 
1.34805 -0.29818 3.15879 132 136 174 
1.25546 0.412165 2.92869 172 176 205 
1.26583 0.42634 2.93798 100 106 122 
1.37331 -0.224372 3.17573 136 139 180 
1.3351 0.362756 3.06255 140 129 159 
1.10034 0.545388 2.49503 19 42 32 
1.4616 -0.550229 3.30442 157 165 201 
1.44316 -0.205898 3.25132 174 188 223 
