ply
format ascii 1.0
comment PCL generated
element vertex 1123
property float x
property float y
property float z
property uchar red
property uchar green
property uchar blue
element face 0
element camera 0
property float view_px
property float view_py
property float view_pz
property float x_axisx
property float x_axisy
property float x_axisz
property float y_axisx
property float y_axisy
property float y_axisz
property float z_axisx
property float z_axisy
property float z_axisz
property float focal
property float scalex
property float scaley
property float centerx
property float centery
property int viewportx
property int viewporty
property float k1
property float k2
end_header
0.49963599 0.45425501 4.0410099 163 142 147
0.509664 0.438088 4.0467401 152 123 128
0.509597 0.435361 4.04843 152 123 128
0.51481998 0.424353 4.05024 139 111 112
-0.60792899 0.58757901 3.88433 42 40 43
-0.58923501 0.580616 3.88516 60 58 61
-0.44609299 0.609411 3.8916199 67 66 67
-0.440707 0.612203 3.8943 75 75 75
-0.44030401 0.616566 3.8941 63 62 63
-0.437114 0.62531602 3.88819 57 56 58
-0.43422899 0.62112802 3.89309 68 67 69
-0.43028101 0.61130297 3.89468 151 150 154
-0.42502499 0.61344999 3.8968 178 177 181
-0.42588499 0.60717601 3.89501 227 226 230
-0.42081699 0.606273 3.8979299 226 225 230
-0.415766 0.60632801 3.9009099 226 225 230
-0.377166 0.588094 3.9107699 226 226 230
-0.37378299 0.58359897 3.9106801 226 226 230
-0.36880299 0.583745 3.9118199 226 225 230
-0.36552301 0.57841498 3.9119401 226 226 231
-0.35980299 0.58039802 3.91274 226 226 230
-0.35529301 0.57525897 3.9140799 226 226 230
-0.35002401 0.57581103 3.9166901 226 226 231
-0.346762 0.57116503 3.91593 225 224 229
-0.34468901 0.57577902 3.9184799 225 224 230
-0.34143701 0.571136 3.9179399 226 225 230
-0.338076 0.56652802 3.91745 224 224 228
-0.33218101 0.56859303 3.9182601 225 224 228
-0.32741401 0.56884098 3.92256 179 178 182
-0.326285 0.56436402 3.92156 225 224 228
-0.32426399 0.56260401 3.9220901 223 223 227
-0.32260099 0.55945098 3.92154 223 224 228
-0.319235 0.55313802 3.9235101 219 219 223
-0.31598401 0.557679 3.9265599 207 207 210
0.38491899 0.448948 4.0380702 172 162 159
0.39337599 0.46180299 4.0300202 179 173 173
0.39939401 0.469814 4.0307999 87 84 85
0.404607 0.47163299 4.03087 29 27 28
0.410797 0.47558701 4.03262 28 27 29
0.41014501 0.47952199 4.0299902 29 28 29
0.429333 0.49662101 4.0260601 31 29 31
0.43440399 0.494665 4.0271502 76 75 76
0.43970701 0.494131 4.02461 204 201 204
0.44432801 0.49002701 4.0279398 209 207 210
0.473003 0.46862301 4.0412598 200 192 198
0.483702 0.46847701 4.0415702 195 183 189
0.48915201 0.46359 4.0408502 190 176 181
0.49439701 0.46373901 4.04532 166 149 153
0.50959998 0.44086599 4.0539999 150 122 126
0.51953697 0.432179 4.0562401 115 91 91
-0.612028 0.59409797 3.88414 37 36 39
-0.60664302 0.59601599 3.88658 41 39 42
-0.43539399 0.61833298 3.8994901 67 66 67
-0.43021899 0.61566299 3.89821 96 95 98
-0.42015699 0.613666 3.9012201 201 200 204
-0.41520801 0.61321902 3.90413 219 218 221
-0.410786 0.60596001 3.90381 226 225 230
-0.40503001 0.61006999 3.90663 227 226 230
-0.399979 0.60674101 3.90645 226 225 229
-0.395273 0.60225099 3.9067099 227 226 230
-0.39072001 0.59783298 3.9066701 226 226 230
-0.39074099 0.60094899 3.91116 227 227 230
-0.38647401 0.59317702 3.9109099 226 226 230
-0.38091901 0.59362602 3.9105401 226 226 230
-0.37560299 0.59372598 3.9137499 227 227 231
-0.37198299 0.58846402 3.91344 226 226 231
-0.36664799 0.58845502 3.9149699 227 227 232
-0.35989001 0.58530003 3.91658 225 225 229
-0.354978 0.58146101 3.9166801 228 228 232
-0.34600401 0.58472598 3.92101 112 111 116
-0.34800899 0.58003098 3.91816 213 212 217
-0.33950999 0.57536399 3.9209099 199 198 203
-0.33736399 0.580033 3.92291 113 113 118
-0.33209199 0.57309002 3.9221699 151 150 154
-0.325762 0.57341498 3.9258599 120 120 123
-0.322326 0.568012 3.9254899 115 114 118
-0.31911099 0.56266803 3.92573 173 173 176
-0.317168 0.56782299 3.9283099 128 127 131
-0.30864799 0.563335 3.9308801 160 158 160
-0.31379899 0.56335002 3.9280701 111 110 113
-0.303592 0.56377602 3.93191 194 191 191
-0.29817301 0.56384599 3.93277 195 191 189
0.37918299 0.446527 4.0437598 129 118 110
0.38393399 0.46407899 4.0383101 156 145 141
0.39469099 0.465617 4.0352201 178 173 173
0.40548599 0.476542 4.0355501 28 27 28
0.42360201 0.492625 4.0345998 27 25 28
0.434506 0.49630299 4.03298 75 73 75
0.44398999 0.49019501 4.0334601 210 207 211
0.44366801 0.49566299 4.0320902 208 205 208
0.446513 0.50115699 4.0344501 211 208 211
0.45421699 0.43466401 4.0552502 209 206 210
0.46187899 0.46104801 4.0484099 205 199 204
0.46072501 0.45339099 4.04949 207 201 206
0.46011099 0.44588399 4.0494699 207 202 206
0.467832 0.47448701 4.0397801 201 194 200
0.473003 0.472285 4.04636 200 192 197
0.478376 0.470485 4.04392 199 188 195
0.483677 0.472772 4.04638 193 181 187
0.48914799 0.468097 4.0458498 180 166 172
0.51412398 0.435689 4.06148 131 105 106
0.51490802 0.42929301 4.0595698 131 105 107
1.61599 0.14703999 4.2748199 167 151 135
-0.61202502 0.59778303 3.88972 35 34 37
-0.60691601 0.59723502 3.8930299 42 40 43
-0.43032199 0.62025303 3.9033101 74 73 74
-0.42346701 0.61923301 3.9043901 88 87 89
-0.418354 0.61811501 3.9038601 120 120 122
-0.41339499 0.61763501 3.90674 131 131 131
-0.410155 0.613114 3.90692 219 218 221
-0.40503001 0.615049 3.9103601 170 169 170
-0.40022501 0.61090302 3.9103899 219 218 221
-0.39500901 0.61066902 3.9135599 175 174 176
-0.38560399 0.60074699 3.91363 228 227 231
-0.379715 0.59812701 3.9146099 221 221 225
-0.37348801 0.59827298 3.9161699 162 161 165
-0.360719 0.598611 3.91945 181 179 183
-0.35771099 0.59404898 3.9196701 128 127 132
-0.3554 0.59860098 3.9207301 221 220 225
-0.34923601 0.58942801 3.9214499 142 141 146
-0.35245201 0.59403199 3.9214599 198 197 201
-0.343972 0.58940899 3.9235001 214 214 218
-0.340749 0.584723 3.9231999 162 161 166
-0.33872601 0.58942199 3.9258001 229 229 232
-0.33889499 0.589477 3.9261301 229 228 232
-0.33550701 0.58474398 3.9258299 222 221 226
-0.333518 0.58924198 3.92699 228 228 232
-0.33209699 0.58001298 3.92524 182 181 186
-0.330091 0.584723 3.9274499 228 228 232
-0.33026701 0.58474201 3.92837 228 228 232
-0.32688701 0.58001101 3.92767 226 226 229
-0.321639 0.57991803 3.9295101 227 226 230
-0.320326 0.57301599 3.92851 195 194 198
-0.31507099 0.57320797 3.93062 227 226 229
-0.31189999 0.56816101 3.9310601 207 206 210
-0.30982 0.573228 3.9326301 225 224 228
-0.30658999 0.568376 3.93261 224 222 225
-0.30121401 0.56848103 3.93362 223 222 224
-0.298632 0.57323301 3.9344699 215 214 217
-0.00400856 0.28875199 4.0584202 102 95 87
-0.000124085 0.27966699 4.0582099 98 90 82
0.39508301 0.46878299 4.0422902 179 172 172
0.38975799 0.46719301 4.0396199 176 167 166
0.39970401 0.47086099 4.0434299 99 95 95
0.42666399 0.49691701 4.0364199 28 26 29
0.43206999 0.50046498 4.03758 35 34 36
0.43882301 0.51219499 4.0346899 169 166 170
0.439944 0.49936199 4.03581 203 201 204
0.45583799 0.44525301 4.0572801 207 203 208
0.461265 0.45792001 4.0550098 204 199 204
0.46750501 0.47069699 4.0521898 200 193 199
0.47834399 0.474821 4.0482402 198 187 194
0.47836599 0.474897 4.0486302 198 187 194
0.47845101 0.47578499 4.04743 198 187 193
0.483693 0.47736701 4.05059 193 180 185
0.48918 0.47343299 4.0500498 174 160 165
0.49906099 0.46191901 4.0546298 161 139 144
-0.60769397 0.59940797 3.8986599 38 36 40
-0.60187298 0.59966397 3.89853 45 42 45
-0.60188699 0.59828299 3.89623 46 44 47
-0.59614497 0.59953398 3.8985801 51 48 51
-0.427425 0.62273502 3.90711 69 68 70
-0.427028 0.62601 3.90799 56 55 56
-0.42225701 0.62390101 3.90994 66 65 66
-0.405148 0.61970598 3.9140999 80 80 79
-0.39543301 0.61655802 3.9164901 76 76 75
-0.389516 0.616768 3.91785 151 151 153
-0.38388899 0.61698699 3.91821 218 217 220
-0.3784 0.61704397 3.9184401 226 225 229
-0.375613 0.61236602 3.9182 221 219 224
-0.378268 0.60766602 3.9173501 139 138 142
-0.34199199 0.594069 3.9263599 228 228 232
-0.34220701 0.594239 3.9261401 228 228 232
-0.32885501 0.58800501 3.9326301 219 218 222
-0.32541499 0.58345503 3.9321699 220 219 224
-0.0081889099 0.29085499 4.0647302 104 97 87
-0.00998664 0.29826999 4.06042 105 97 87
-0.0050871801 0.28792399 4.06564 105 98 89
0.11833 0.310482 4.0715699 147 134 120
0.135212 0.295697 4.0774002 140 127 115
0.157756 0.28387001 4.0812602 118 107 97
0.15978 0.28407401 4.0809102 119 108 98
0.165659 0.28839901 4.0830202 126 115 104
0.38969699 0.47020501 4.0452499 176 167 164
0.39471701 0.46797299 4.0489001 181 175 174
0.39471099 0.46799701 4.04878 181 175 174
0.405444 0.47661501 4.0448399 29 26 28
0.41113999 0.48069799 4.0471501 27 26 28
0.411147 0.48110399 4.0467501 27 26 28
0.42411399 0.502303 4.03789 28 26 29
0.44923699 0.51196003 4.0431399 199 194 199
0.45583901 0.45013699 4.06288 206 201 206
0.46222401 0.47578701 4.0520101 203 197 202
0.472956 0.47545001 4.0519199 196 188 194
0.47835901 0.479132 4.0532098 196 186 192
0.483648 0.48030001 4.0570102 184 172 178
0.488902 0.477088 4.0552301 169 155 159
0.494537 0.46735799 4.0583 164 146 150
0.50380802 0.45656401 4.0651498 152 128 134
-0.60064799 0.59920102 3.9037499 43 41 44
-0.43329901 0.62567902 3.9119201 34 33 36
-0.42832899 0.62610698 3.91503 43 42 45
-0.42201099 0.62738597 3.91223 55 55 56
-0.40998501 0.62345803 3.9147799 71 71 71
-0.40481499 0.62515301 3.9181199 61 60 61
-0.39520401 0.62179297 3.9203801 142 142 143
-0.0122895 0.29747999 4.0678601 105 96 88
-0.0135321 0.29442599 4.0655198 133 127 120
-0.0086394399 0.293033 4.0703902 108 100 91
0.001855 0.28579199 4.0721302 125 116 107
0.0075552599 0.285754 4.0724702 142 133 124
0.0132668 0.285754 4.0727801 144 134 125
0.111968 0.30516899 4.0753198 145 133 120
0.118324 0.312655 4.0783701 155 143 129
0.124134 0.31304401 4.07442 149 137 123
0.140536 0.29590201 4.0803399 142 129 116
0.146432 0.298774 4.0804501 141 128 116
0.15198 0.29966399 4.08355 140 127 116
0.15513501 0.304223 4.0850601 145 133 121
0.161038 0.30540401 4.0834198 145 133 121
0.15975501 0.28814101 4.0878801 135 123 112
0.172298 0.30418301 4.0843 144 131 120
0.16568001 0.29298401 4.0893798 145 133 121
0.40068501 0.48858601 4.04632 118 113 112
0.40621001 0.487578 4.0479298 29 26 27
0.41113999 0.48285601 4.05301 27 26 27
0.411147 0.48331001 4.0526099 27 26 27
0.427766 0.50713098 4.04706 30 29 31
0.438541 0.50990802 4.0452299 156 153 156
0.45398101 0.49721801 4.04877 200 195 199
0.46742001 0.47332501 4.0584102 198 192 197
0.478237 0.48073101 4.0609498 194 184 190
0.48888999 0.48063701 4.0606599 165 150 155
0.493965 0.47194701 4.0644698 161 144 147
0.49937201 0.46640399 4.06457 156 135 139
-0.60485202 0.599527 3.9077799 36 34 37
-0.60341102 0.59940499 3.9121799 35 33 37
-0.59921497 0.59792101 3.90944 42 40 43
-0.41004199 0.63244301 3.9219601 56 56 58
-0.416583 0.62600601 3.9196999 56 56 58
-0.40505299 0.62904501 3.9221799 66 66 68
-0.39999101 0.62573302 3.92119 104 103 105
-0.395022 0.62665999 3.92452 218 218 221
-0.38990399 0.62378103 3.9233999 229 228 232
-0.322548 0.62141001 3.93102 227 228 231
-0.317451 0.61940902 3.93276 228 228 231
-0.31179801 0.61949497 3.93275 228 228 232
-0.306153 0.61960101 3.93279 227 228 230
-0.30068499 0.619385 3.9335101 225 226 228
-0.29835901 0.62258297 3.9351399 211 212 214
-0.0174565 0.304378 4.0669198 102 94 85
0.0046429401 0.29060599 4.0734301 144 135 126
0.0013398899 0.29412001 4.0774899 146 136 127
0.0098358896 0.31317499 4.0720301 143 133 123
0.01549 0.31877199 4.0704298 142 130 120
0.090369202 0.307255 4.0822301 142 130 114
0.095876999 0.30940399 4.0828099 142 130 115
0.095031299 0.29993099 4.0822301 141 128 115
0.101249 0.30654201 4.0804901 143 131 118
0.101253 0.31117401 4.0826001 151 139 125
0.099937499 0.29313299 4.08425 141 128 116
0.10687 0.30930001 4.0823302 152 140 126
0.112522 0.31238601 4.0819001 162 150 135
0.13303401 0.30138099 4.0844598 153 140 127
0.129977 0.30528599 4.08778 153 141 127
0.135667 0.30523601 4.0880799 154 141 128
0.141452 0.305738 4.0878301 153 141 128
0.149363 0.30455199 4.08917 150 139 125
0.155421 0.311189 4.0886598 151 138 126
0.160502 0.30482301 4.0884199 147 136 123
0.166658 0.304299 4.0876698 146 134 122
0.166536 0.30424601 4.0910301 148 136 124
0.177664 0.30414301 4.0877199 143 130 119
0.17206299 0.30511999 4.09062 147 135 123
0.183025 0.304142 4.0911598 141 129 117
0.188619 0.306833 4.0936298 145 134 120
0.193656 0.30182201 4.09514 144 132 120
0.400693 0.49113899 4.0521002 132 126 126
0.40905699 0.488832 4.0546198 27 25 26
0.467675 0.48039499 4.0632401 198 192 197
0.47282499 0.48124301 4.0648899 195 188 193
0.47832501 0.48690999 4.06424 188 179 184
0.47814399 0.48333699 4.0672002 191 182 187
0.48878899 0.48209801 4.0679202 162 148 151
0.49431601 0.47354999 4.0724902 159 142 144
-0.60197198 0.59925097 3.91661 35 33 37
-0.59665298 0.59735203 3.9184999 40 39 42
-0.59095001 0.59730297 3.91822 46 44 47
-0.40991399 0.63745898 3.92588 58 58 59
-0.414 0.63925701 3.92153 49 49 51
-0.40496501 0.63341498 3.9252999 103 102 104
-0.39975601 0.63536602 3.92747 219 218 220
-0.39986399 0.63480997 3.92802 219 218 220
-0.39455301 0.63591498 3.92855 230 230 231
-0.321179 0.624152 3.9355199 227 227 231
-0.026020501 0.30636501 4.0761199 98 90 81
-0.0145552 0.30634299 4.0785999 137 128 119
-0.00463488 0.31549299 4.0743899 153 144 133
0.000875408 0.313703 4.0752301 150 141 130
-0.00289051 0.306025 4.0763798 151 141 131
-0.0044609099 0.29402301 4.0781798 139 131 121
-0.0012168901 0.29981399 4.07693 148 139 129
0.0042325198 0.320667 4.0752902 153 143 133
0.0101102 0.32007599 4.0738702 145 134 123
0.0153035 0.32309899 4.0746698 143 131 121
0.017514501 0.31621099 4.0740199 141 130 119
0.022647999 0.32893699 4.0753598 145 133 122
0.043825202 0.31691501 4.0804701 149 136 124
0.049496502 0.32168999 4.08006 150 137 125
0.079182297 0.31136 4.0850101 144 131 117
0.084959596 0.310532 4.0827198 143 130 115
0.0904423 0.31247601 4.0841999 145 132 117
0.095890097 0.31418201 4.08674 160 147 133
0.101241 0.31455201 4.0884199 169 156 142
0.118325 0.31490099 4.0849199 170 157 143
0.124121 0.31737199 4.0882502 170 158 143
0.135515 0.31815401 4.0905499 164 152 136
0.14104301 0.31575999 4.0897298 154 142 128
0.138239 0.30989701 4.0903101 154 141 128
0.14668 0.31514499 4.0921602 152 140 126
0.152419 0.31511199 4.0921898 152 139 126
0.151969 0.32048601 4.0917001 156 143 130
0.162687 0.32064399 4.0918698 151 138 126
0.162441 0.31405801 4.0920501 150 138 125
0.166563 0.307533 4.0929499 150 138 125
0.17744499 0.305181 4.0939999 148 136 124
0.17204501 0.309062 4.0928998 150 138 126
0.17209101 0.309237 4.0956202 151 139 126
0.18255199 0.314996 4.0946698 147 135 123
0.188279 0.315272 4.0956602 149 136 124
0.191276 0.310078 4.0952802 148 136 123
0.19683699 0.30900499 4.0955601 149 136 124
0.20243999 0.30814299 4.0957198 148 135 123
0.40035501 0.48874199 4.0627198 146 141 141
0.40688601 0.491653 4.0584502 31 28 28
0.46740299 0.481527 4.0690298 197 191 196
0.47277001 0.48459101 4.0703902 192 186 190
0.478212 0.489292 4.0701499 185 177 181
0.48309299 0.48624101 4.0678701 173 162 166
-0.60472399 0.60395402 3.9186499 32 30 34
-0.59364098 0.602332 3.91962 39 38 41
-0.41512701 0.64228201 3.92732 47 47 49
-0.40987399 0.64219999 3.9293399 75 74 77
-0.404991 0.63843 3.92904 163 162 164
-0.39976099 0.64034998 3.931 229 228 230
-0.0360814 0.319525 4.07832 98 90 82
-0.030544 0.321356 4.0775099 99 90 81
-0.032841001 0.31494799 4.0774002 97 89 81
-0.029347001 0.31156099 4.0762801 97 88 80
-0.0223288 0.31449401 4.0789299 118 109 100
-0.0219838 0.31442699 4.0790701 121 112 103
-0.0132444 0.31931999 4.0785699 152 143 132
-0.0165595 0.31433499 4.0778399 144 134 125
-0.007216 0.32031199 4.0767598 161 152 142
-0.00159295 0.32001501 4.07761 165 156 146
0.00230748 0.32705501 4.08003 187 178 165
0.0078377696 0.32496801 4.0771499 160 150 138
0.0134578 0.32854301 4.0781202 155 143 131
0.022651101 0.333105 4.0801702 155 143 132
0.0281536 0.330845 4.0778699 148 136 125
0.026744001 0.312024 4.0861101 124 114 104
0.039322801 0.32978401 4.0815601 156 144 132
0.032089699 0.31288901 4.0867701 132 121 111
0.032107901 0.308633 4.0845098 129 119 110
0.045001499 0.33254901 4.0828099 158 145 133
0.044374701 0.32521001 4.0808802 153 140 128
0.065424301 0.32792699 4.0858898 153 140 128
0.067965403 0.32082799 4.0873899 148 135 122
0.073540397 0.31998101 4.0882602 147 136 122
0.079238802 0.31992999 4.0882702 160 148 134
0.084941499 0.319785 4.08882 170 157 143
0.090459503 0.317283 4.0879898 168 155 141
0.095914401 0.31905001 4.09026 174 161 146
0.106741 0.315846 4.0892901 172 159 145
0.129926 0.32022399 4.0908599 169 156 140
0.135575 0.322907 4.09271 167 155 138
0.14122599 0.32566899 4.0946598 168 156 140
0.146602 0.32306299 4.0929699 165 153 138
0.151968 0.32561401 4.0948601 167 155 140
0.15717401 0.323338 4.0921502 159 146 133
0.15739501 0.32845101 4.0962701 168 156 141
0.16784599 0.322476 4.0949302 151 139 127
0.173317 0.324366 4.0981798 156 143 131
0.173208 0.318831 4.0956202 152 139 128
0.179049 0.31816399 4.0979099 151 138 126
0.185239 0.320048 4.0969901 149 136 124
0.190981 0.320057 4.09758 149 136 124
0.243706 0.323594 4.1054802 148 135 124
0.249447 0.32339299 4.1054502 150 137 126
0.264128 0.331256 4.10567 156 144 131
0.41181201 0.49229199 4.0676699 29 26 27
0.46202999 0.48987401 4.0759702 192 188 191
0.46426201 0.480259 4.0752101 203 198 203
0.47774401 0.49192601 4.07618 181 172 177
0.482573 0.48950899 4.0776601 168 156 159
-0.42127901 0.65934402 3.92996 27 28 30
-0.41726401 0.65179998 3.9314899 38 38 40
-0.413284 0.64698398 3.93172 56 55 57
-0.40797201 0.64686197 3.9335301 168 167 170
-0.040619198 0.33473799 4.07692 97 88 79
-0.0354652 0.328554 4.07691 99 91 81
-0.0393553 0.335125 4.0791402 101 92 82
-0.0305067 0.31918699 4.0798302 99 90 81
-0.0249481 0.31856501 4.0810099 125 115 106
-0.0253263 0.31891501 4.0806599 122 113 103
-0.023500299 0.3263 4.0819402 161 151 140
-0.0192366 0.31840101 4.0809798 147 138 128
-0.0182123 0.32925999 4.0834298 185 175 164
-0.0157598 0.32424301 4.0809102 172 162 152
-0.0124538 0.32843801 4.0830698 188 179 167
0.0079547102 0.33078501 4.0808601 184 175 161
0.0131366 0.33288699 4.08285 181 170 156
0.0189701 0.33642599 4.0841799 179 166 153
0.0278614 0.33484399 4.0838499 159 147 135
0.033066999 0.33208501 4.0826502 151 139 128
0.0395521 0.334894 4.08424 156 144 132
0.045358699 0.33386201 4.0872698 157 145 132
0.050953299 0.32930899 4.08565 155 143 131
0.053443599 0.33636299 4.0885401 156 145 131
0.053293701 0.33430699 4.08882 153 142 129
0.0565864 0.32924399 4.0876598 152 139 127
0.058981899 0.33433601 4.0898399 157 145 132
0.059866499 0.32370499 4.0876098 148 136 123
0.068048701 0.33203301 4.0885201 163 151 139
0.070554502 0.33593699 4.09092 175 163 149
0.070767097 0.32541001 4.0887599 159 147 135
0.076295301 0.33622599 4.0907998 176 164 149
0.082212403 0.33641601 4.0903902 174 162 147
0.076453097 0.325248 4.0890002 167 155 142
0.081425503 0.32644901 4.09131 170 158 144
0.093064196 0.336137 4.0906501 170 158 144
0.098476999 0.338397 4.0929899 171 158 143
0.103929 0.33598101 4.0914698 167 155 141
0.110122 0.339156 4.0927801 166 153 139
0.11062 0.33891401 4.09268 166 153 139
0.121493 0.33743599 4.0956898 167 154 139
0.121597 0.33865401 4.0932202 167 154 139
0.137058 0.34164801 4.0945301 169 157 141
0.13771801 0.34121501 4.0945001 169 157 141
0.14661001 0.32818201 4.0961699 167 156 140
0.153694 0.344405 4.0966702 170 158 142
0.16786399 0.32747301 4.0988102 168 155 142
0.173393 0.32989699 4.1005301 169 155 142
0.21902201 0.32737601 4.10463 147 134 122
0.224775 0.32741699 4.10501 145 133 120
0.230663 0.33267301 4.1083598 159 147 134
0.23060299 0.32720301 4.1057501 143 130 118
0.23603299 0.329786 4.1073399 148 136 123
0.241846 0.332275 4.10919 150 137 125
0.24777301 0.332389 4.1094098 150 137 125
0.24751 0.33534101 4.10993 159 146 133
0.25318399 0.33514401 4.11093 155 142 129
0.252767 0.328381 4.1069899 150 137 126
0.25864699 0.333617 4.1069899 152 139 127
0.25853801 0.332757 4.1086898 152 139 127
0.400341 0.49140599 4.0695901 158 152 152
0.41174299 0.49546701 4.0732002 29 27 27
0.45966199 0.506414 4.0724401 190 184 189
0.464573 0.50250399 4.07758 186 180 183
2.15084 -0.21555801 4.4945002 141 125 112
2.1665499 -0.158968 4.4805698 234 227 220
-0.419608 0.66310501 3.9333799 29 30 32
-0.41558599 0.65893501 3.9367299 57 57 59
-0.41016999 0.65669399 3.93821 181 181 184
-0.41194001 0.65589797 3.9359701 117 117 120
-0.41204599 0.65182197 3.9342501 92 91 94
-0.40266001 0.647219 3.9377999 228 227 230
-0.0447652 0.341041 4.0786901 98 89 80
-0.031074701 0.32641599 4.0839701 128 119 109
-0.029247301 0.33162099 4.0861101 175 166 153
-0.029781001 0.33298799 4.0851402 174 165 152
-0.023390399 0.33203101 4.0848999 185 175 162
-0.026917201 0.32816201 4.0839801 165 156 144
-0.018229 0.334299 4.0865998 185 175 162
-0.0130871 0.32830101 4.0896001 186 176 163
0.0079718502 0.336137 4.0845098 185 174 159
0.013333 0.33924499 4.0855498 180 168 154
0.0214797 0.343463 4.0889101 182 169 155
0.0247159 0.33931899 4.0859599 183 171 158
0.0304862 0.33914399 4.0869699 183 171 158
0.036379199 0.33895001 4.0876799 176 164 150
0.042200301 0.33860299 4.0887899 170 158 145
0.0478926 0.33786801 4.09129 170 158 144
0.0535088 0.33887899 4.0939202 188 176 162
0.064759597 0.33511201 4.0908098 167 156 143
0.073543496 0.341396 4.0926399 199 186 170
0.070299402 0.34185001 4.0939498 199 187 171
0.079316497 0.34069499 4.09307 199 186 170
0.0821862 0.34128299 4.0942702 202 189 173
0.082209602 0.34491599 4.0954399 205 191 174
0.087544203 0.33866501 4.0924201 180 168 153
0.087580897 0.344845 4.09554 203 190 173
0.088004097 0.34466001 4.0954599 203 190 173
0.093038797 0.34081301 4.0952001 190 177 161
0.093371503 0.344621 4.0956998 201 187 170
0.093766503 0.34428 4.0957298 201 187 170
0.099108599 0.344217 4.0970402 198 185 167
0.099533498 0.343885 4.0970898 197 184 166
0.104482 0.341306 4.0957999 179 166 150
0.105 0.34101 4.0957098 177 164 148
0.104994 0.34100899 4.0956898 177 164 148
0.110564 0.34345099 4.0975199 185 172 155
0.109936 0.34365401 4.0977802 187 174 157
0.116082 0.34090701 4.09551 168 155 141
0.121606 0.343063 4.0977402 174 162 145
0.120954 0.34334201 4.09796 176 163 146
0.126233 0.34095001 4.09588 169 157 141
0.126922 0.34058401 4.09586 169 156 141
0.13168 0.34349501 4.0979199 172 159 143
0.132267 0.34317499 4.0976501 171 158 142
0.142545 0.34365201 4.0970898 169 157 141
0.14323001 0.34329301 4.0967498 169 157 141
0.148058 0.34582999 4.09935 170 157 142
0.148754 0.34552601 4.09901 169 157 142
0.154285 0.34792 4.1013498 173 160 145
0.159797 0.34568799 4.0992498 170 157 142
0.16530301 0.347826 4.1016898 170 156 141
0.170679 0.344809 4.1011701 169 156 141
0.17626899 0.34746701 4.1023202 173 159 145
0.17632601 0.34724799 4.1020699 173 159 145
0.181832 0.34984201 4.1040401 172 158 143
0.18178099 0.35001001 4.10425 172 158 143
0.18719099 0.34631899 4.1048002 170 157 141
0.19283 0.35028899 4.1038299 171 158 143
0.192884 0.35014701 4.1036901 171 158 143
0.206533 0.34321201 4.1061702 170 157 141
0.211798 0.33971599 4.1076002 168 155 140
0.214837 0.33460301 4.1080298 167 154 139
0.217503 0.33970201 4.1085701 169 156 140
0.225244 0.33520499 4.11027 165 152 138
0.231737 0.348874 4.1048002 168 156 141
0.23734599 0.35642001 4.1023002 170 157 142
0.236369 0.33800301 4.1086502 166 153 140
0.241864 0.33633 4.1139102 167 155 141
0.24745999 0.33871499 4.1153302 170 157 143
0.258571 0.338052 4.1122499 163 150 137
0.39994401 0.48980099 4.0776701 168 163 162
0.406194 0.493251 4.0790501 34 31 31
0.458031 0.50925899 4.07827 187 182 185
0.47248599 0.49183899 4.0859499 184 177 181
0.477795 0.49461901 4.08604 173 162 166
2.15767 -0.19949 4.4969902 150 135 121
2.16203 -0.172653 4.48947 218 207 196
2.164 -0.18880799 4.49684 186 174 161
2.1626599 -0.163443 4.4877 214 203 192
2.16395 -0.15325999 4.4860201 219 211 201
-0.412646 0.66316301 3.9394 144 144 146
-0.417983 0.66524202 3.9395001 46 46 48
-0.407572 0.66118097 3.9412799 225 224 228
-0.40495601 0.65546203 3.9400499 227 227 230
-0.26035199 0.63660502 3.9642301 219 219 223
-0.048243001 0.34578401 4.0851202 100 91 81
-0.039658099 0.339248 4.08567 144 134 123
-0.034536999 0.33477801 4.0869398 168 159 146
-0.032650501 0.337773 4.0863199 178 169 155
-0.029724101 0.34265 4.0873899 184 173 159
-0.029216601 0.33676299 4.08953 183 173 159
-0.0270113 0.33724299 4.0864501 183 173 159
-0.024610201 0.34049401 4.0915499 183 173 157
-0.0134319 0.33465701 4.0888801 185 175 162
-0.0112228 0.34099001 4.0919199 186 176 161
0.0046880501 0.34673801 4.0900998 188 177 163
0.00262797 0.333287 4.0944099 188 177 163
0.010772 0.35176501 4.0917501 183 170 155
0.0268736 0.35199699 4.0920401 181 168 153
0.034095801 0.348842 4.0907302 185 172 156
0.032589398 0.351908 4.0922198 185 172 155
0.039907299 0.34913099 4.09128 188 176 160
0.038374901 0.351733 4.0920901 189 176 160
0.0446814 0.34241 4.0933099 190 178 163
0.043033101 0.34447899 4.0945401 192 179 164
0.0454343 0.351356 4.0935798 200 187 171
0.048077501 0.34085 4.09551 194 181 166
0.05119 0.351329 4.0940399 206 193 177
0.054166101 0.347114 4.0964198 206 192 177
0.059546899 0.34367099 4.0960898 202 189 174
0.059488099 0.34825 4.0960498 207 194 178
0.064904101 0.34500599 4.0983 200 187 171
0.070275702 0.34634 4.0989799 202 188 172
0.070315197 0.34198099 4.09693 200 188 171
0.075807698 0.34386599 4.0985298 204 191 174
0.0757825 0.34382501 4.0965099 203 190 173
0.081291601 0.346156 4.0987601 204 190 173
0.086832702 0.34858 4.0996499 202 188 169
0.090833597 0.34908399 4.0976801 202 188 170
0.099150501 0.34943199 4.1002898 201 188 169
0.095960699 0.34828299 4.1003098 201 187 169
0.0995932 0.34911999 4.10039 201 188 169
0.0963284 0.347835 4.1006799 201 187 169
0.104505 0.34643999 4.0992599 201 187 169
0.10503 0.34611201 4.09935 200 187 169
0.105161 0.35181999 4.1015 200 187 168
0.10462 0.35195801 4.1017799 201 187 168
0.109943 0.34868199 4.1015401 201 187 168
0.116092 0.34570101 4.0996399 191 178 160
0.115448 0.34581399 4.10005 193 180 162
0.11618 0.351019 4.1026902 199 186 166
0.121017 0.348241 4.1015902 198 185 165
0.121686 0.348263 4.1010799 197 184 165
0.121292 0.353852 4.1029701 197 184 165
0.127152 0.350858 4.10285 200 187 169
0.126615 0.35091901 4.1030302 200 186 169
0.132265 0.348221 4.1012201 194 181 163
0.14253999 0.34805399 4.1017199 181 168 153
0.14322799 0.34764501 4.1014299 178 165 150
0.138262 0.351062 4.1022902 198 184 168
0.14806899 0.35032699 4.1037898 192 179 163
0.153767 0.35386601 4.1054401 202 188 172
0.1543 0.35249501 4.1057 199 185 168
0.15968101 0.35359299 4.1061702 198 184 168
0.159812 0.350263 4.1036 177 163 148
0.165197 0.350934 4.1044898 177 163 147
0.170789 0.34985399 4.1041498 172 158 143
0.17069601 0.353075 4.1069002 186 173 156
0.176313 0.352157 4.1062498 178 164 149
0.181825 0.35478199 4.10814 189 175 160
0.18734799 0.35266501 4.1058698 171 158 143
0.187402 0.35247999 4.1057401 171 158 142
0.192838 0.35474801 4.1082702 175 161 146
0.198367 0.352406 4.1058898 172 159 144
0.19839901 0.35217899 4.1059799 172 159 144
0.203881 0.35463399 4.10817 174 160 146
0.203651 0.348333 4.10778 170 157 142
0.209383 0.35681701 4.1106601 175 162 148
0.21486899 0.35470501 4.1082902 172 159 145
0.214873 0.35444099 4.10851 172 159 145
0.220125 0.35091501 4.1100502 171 158 142
0.220364 0.35657701 4.1106801 174 160 145
0.22037099 0.356558 4.1107001 174 160 145
0.22576199 0.35410199 4.10887 172 159 143
0.225722 0.35406899 4.1089702 172 159 143
0.231585 0.35730901 4.1087098 174 161 146
0.231693 0.35832101 4.1094799 174 161 146
0.23128401 0.35012901 4.1101899 171 159 144
0.236773 0.360174 4.11099 175 162 147
0.237097 0.359705 4.11028 175 162 147
0.24191 0.356886 4.11134 174 162 146
0.252828 0.33903801 4.11832 172 158 144
0.292236 0.36188701 4.1177301 170 158 144
0.29219201 0.36348099 4.1170402 170 158 144
0.29776499 0.36134201 4.1180201 170 157 143
0.30889001 0.366153 4.1188202 170 157 143
0.394382 0.485414 4.08498 182 173 171
0.40068999 0.49502799 4.08354 157 152 151
0.406194 0.49560401 4.0850301 33 31 30
0.411452 0.49612099 4.0815501 26 25 25
0.44566399 0.51245803 4.0830798 125 121 121
0.461631 0.50910097 4.0869002 178 172 173
0.46707299 0.50379997 4.0868902 177 170 172
0.47246 0.498411 4.0868802 176 168 170
2.1553199 -0.18936899 4.50035 148 133 119
2.1570101 -0.17496 4.4942298 150 135 122
2.15731 -0.164681 4.49226 159 145 131
2.1592801 -0.156211 4.4921198 171 158 146
2.1652 -0.142847 4.4844198 227 219 210
-0.422252 0.67332 3.9430301 34 35 38
-0.419025 0.677692 3.94189 58 59 62
-0.41646299 0.67317498 3.94155 93 94 96
-0.411129 0.67313302 3.9428 213 213 216
-0.409531 0.667355 3.9426999 220 221 224
-0.053472001 0.351414 4.0862498 97 90 79
-0.048978001 0.35061899 4.0899 137 128 116
-0.049000502 0.349053 4.08882 121 113 101
-0.043757599 0.344841 4.0896902 157 148 136
-0.043709598 0.35036701 4.0924501 179 169 155
-0.038515799 0.346674 4.0918798 183 172 159
-0.032625802 0.347321 4.0889502 184 173 159
-0.0182359 0.34644601 4.0918398 162 153 139
-0.0143563 0.384949 4.0819602 187 174 158
-0.012168 0.352474 4.0903902 170 159 145
0.00109193 0.35274401 4.0956502 187 176 161
0.0045068501 0.36228299 4.0935402 186 174 158
0.0077713002 0.35775 4.0919499 184 172 157
0.0041619898 0.34711701 4.0950999 187 175 161
0.021500601 0.360948 4.0957799 183 170 154
0.0225296 0.36160699 4.0953398 183 170 154
0.0213688 0.36090499 4.0955601 183 170 154
0.020257499 0.35706201 4.0953302 180 167 152
0.0272341 0.360688 4.0946598 185 172 156
0.0283329 0.36146101 4.0957298 189 176 160
0.034159299 0.361408 4.0963202 201 188 171
0.039973602 0.36135 4.0966201 205 191 174
0.045705602 0.36123601 4.0964499 205 190 174
0.042381201 0.365742 4.0956802 205 191 174
0.10994 0.35337901 4.1047602 200 187 167
0.11543 0.35032299 4.10466 199 186 166
0.115383 0.350613 4.1046 199 186 166
0.132718 0.35345 4.1048799 202 189 172
0.132174 0.35346499 4.1050401 202 189 172
0.138271 0.35603699 4.1059198 204 190 173
0.14810801 0.35536399 4.1080098 204 190 173
0.153699 0.35810399 4.1094699 203 189 171
0.15982901 0.354895 4.1079302 202 188 171
0.165209 0.355921 4.1083899 202 188 171
0.16531099 0.361334 4.1110802 203 190 172
0.17070401 0.35805199 4.1108398 204 190 172
0.170716 0.358006 4.1107798 204 190 172
0.176268 0.36059701 4.1125002 204 191 172
0.17621499 0.35537401 4.1090798 197 184 167
0.176283 0.36056101 4.1124601 204 191 172
0.176218 0.35537899 4.10918 198 184 167
0.18187401 0.36377299 4.1116099 205 192 173
0.18185 0.36373001 4.1118999 205 192 173
0.18766201 0.36366501 4.1121502 204 191 173
0.192872 0.35933 4.1123199 202 188 172
0.19833601 0.356861 4.1105099 184 171 156
0.198386 0.361568 4.11415 205 192 174
0.20368899 0.35933399 4.11236 196 183 166
0.208937 0.361709 4.11446 201 188 170
0.209444 0.36140299 4.1143999 200 187 169
0.214883 0.35898399 4.1128101 181 168 152
0.220394 0.36125699 4.1146302 192 179 162
0.22596499 0.364077 4.1160002 202 189 173
0.22518 0.36499399 4.1153498 204 191 174
0.23158 0.36228001 4.1130199 179 166 150
0.231463 0.36169299 4.11308 178 165 150
0.23704299 0.36428601 4.1147299 177 165 149
0.242957 0.364364 4.11482 175 163 147
0.24886 0.36391401 4.11625 176 164 148
0.25464401 0.36389101 4.1162701 177 164 149
0.260501 0.36433101 4.11587 176 162 148
0.26504099 0.36679801 4.1178899 177 163 149
0.27052701 0.36901 4.1196799 177 163 150
0.27055201 0.370076 4.1188598 177 163 150
0.27595901 0.36619699 4.1182799 175 161 147
0.281398 0.36797601 4.1208701 174 161 146
0.28140199 0.368025 4.12082 174 161 146
0.28679699 0.36495501 4.1194401 171 158 145
0.28680101 0.36495501 4.11941 171 158 145
0.286836 0.36522001 4.1186099 171 158 144
0.292261 0.36697099 4.1209798 171 158 145
0.297712 0.368534 4.1225801 175 162 147
0.30336699 0.36816001 4.1209102 170 158 143
0.303498 0.36317801 4.12186 170 157 142
0.308869 0.37010801 4.1233602 173 160 146
0.314125 0.371445 4.1240301 174 161 147
0.320182 0.37137499 4.1248398 172 159 145
0.328044 0.36816499 4.1231699 171 158 144
0.33387601 0.37648299 4.1234698 171 158 143
0.38865 0.47756901 4.0961699 159 149 141
0.395042 0.48743799 4.0886002 183 174 171
0.41125599 0.49808499 4.0883899 26 24 24
0.43603799 0.50494099 4.0892301 24 21 23
0.43485099 0.50702798 4.0877199 24 22 23
0.439897 0.50919801 4.0905299 36 32 33
0.44927001 0.51725298 4.08956 81 73 71
0.45098299 0.51181799 4.0872898 158 153 154
0.456119 0.51106501 4.09167 151 144 145
2.1492801 -0.18865 4.5045099 137 121 108
2.15345 -0.18065099 4.5042 144 128 114
2.1554301 -0.170522 4.50424 147 131 118
2.15503 -0.14689 4.4945402 147 133 120
2.15358 -0.143135 4.4896002 148 134 121
2.16045 -0.14587501 4.4902501 182 170 158
2.1547899 -0.133893 4.48946 151 136 124
2.15639 -0.135841 4.4911499 155 140 128
2.15205 -0.0947432 4.4776301 149 135 123
-0.42761099 0.683011 3.94486 36 35 39
-0.42183599 0.68225902 3.9417801 40 40 44
-0.42149401 0.69220197 3.94188 58 58 62
-0.415005 0.68459201 3.9446399 190 190 193
-0.416408 0.68221003 3.94245 130 130 133
-0.41369 0.67779201 3.9435 190 190 193
-0.40776199 0.67713702 3.94555 226 226 229
-0.40929499 0.68300903 3.9461701 226 226 229
-0.26955301 0.67023402 3.9648099 220 220 224
-0.25513899 0.65524 3.97335 211 210 215
-0.12237 0.41332501 4.06914 149 137 125
-0.059512999 0.36203101 4.0911999 108 99 87
-0.054274 0.35622799 4.09095 121 112 101
-0.054366399 0.35815799 4.0946102 153 143 130
-0.048999202 0.35439301 4.0928001 170 160 147
-0.042226199 0.35713699 4.0949101 182 171 154
-0.038417902 0.35237801 4.0938101 183 172 157
-0.0258529 0.383302 4.0871902 182 170 152
0.0113562 0.371418 4.0963302 184 172 156
0.0165544 0.36786199 4.0960202 182 170 154
0.0202771 0.37043899 4.0985899 190 177 161
0.020775201 0.37108701 4.09865 191 179 163
0.0188083 0.366317 4.0963001 183 170 154
0.016915901 0.36169499 4.09694 182 170 154
0.0259207 0.37032101 4.0987601 198 185 169
0.026396999 0.37051201 4.0987701 199 186 169
0.024511401 0.3662 4.09724 190 177 160
0.0235398 0.36550501 4.0964499 187 174 157
0.0316175 0.37023899 4.0990701 203 190 173
0.030313499 0.366074 4.0978899 200 187 171
0.034324601 0.37459499 4.0976801 203 190 173
0.037367601 0.37009901 4.0978298 204 191 173
0.192941 0.364209 4.1157498 204 191 172
0.203924 0.364059 4.1159801 205 193 173
0.20909099 0.36781001 4.1153898 206 192 172
0.20968799 0.368406 4.11622 206 192 172
0.20958801 0.36739501 4.1156902 205 192 172
0.214285 0.364131 4.1163502 203 190 170
0.219643 0.36651 4.1182599 206 193 173
0.22513001 0.369625 4.1195002 207 193 175
0.23157001 0.36721 4.1175199 203 190 173
0.237431 0.37253001 4.11831 204 191 173
0.243072 0.371968 4.1206298 197 185 166
0.24862701 0.37475601 4.1224999 201 188 170
0.24857099 0.36991099 4.1188598 178 165 149
0.254154 0.37225699 4.1205201 182 168 153
0.25414899 0.372269 4.1206002 182 169 153
0.259635 0.374419 4.1230102 190 176 161
0.259635 0.37442699 4.1230602 190 177 161
0.259556 0.369544 4.1195502 176 162 148
0.27053899 0.37369901 4.1237702 188 174 158
0.270558 0.373851 4.12391 188 175 159
0.27056199 0.37380701 4.1236901 188 175 159
0.275976 0.370913 4.1223202 177 164 149
0.28141201 0.372704 4.12497 189 175 159
0.28680801 0.36953199 4.1237202 179 165 151
0.29222301 0.37106499 4.1264901 195 181 166
0.29767999 0.37265 4.1284399 202 189 172
0.30329001 0.37142101 4.1261301 196 183 166
0.30326101 0.37067899 4.12498 191 178 162
0.30881199 0.37355199 4.12852 201 188 171
0.30856401 0.37277201 4.1272502 197 184 168
0.31438401 0.37235501 4.1248999 178 165 150
0.314522 0.372794 4.1261101 186 172 157
0.325591 0.37910599 4.1290002 180 168 152
0.33151701 0.38005599 4.12712 173 161 145
0.328354 0.376589 4.1243501 173 161 146
0.33734599 0.381185 4.1245098 173 161 145
0.349556 0.38160899 4.1276302 171 159 146
0.354754 0.37604201 4.12848 141 129 117
0.377601 0.427968 4.1159301 138 126 114
0.39603499 0.50217199 4.0911298 181 172 166
0.43044201 0.50231099 4.09515 22 19 21
0.54396099 0.390614 4.1468501 91 64 58
0.55007398 0.399979 4.1464601 104 70 66
2.1388099 -0.25196299 4.5362201 146 131 116
2.13884 -0.25205001 4.5362802 146 131 116
2.1470499 -0.19757099 4.5181699 128 112 99
2.1470301 -0.197585 4.5174499 129 112 100
2.1480401 -0.195894 4.5177999 129 113 100
2.1472199 -0.19535699 4.51652 129 112 100
2.1610601 -0.147182 4.5028701 155 141 129
2.1554899 -0.110212 4.4874701 148 134 122
2.1552601 -0.089827701 4.4780598 151 137 125
2.1559501 -0.090567797 4.4793901 151 137 125
-0.43135601 0.69233298 3.94504 38 38 40
-0.42596999 0.70242298 3.9444499 51 51 53
-0.428262 0.69807601 3.94525 45 45 47
-0.41846901 0.69654799 3.9460001 165 165 167
-0.41649801 0.69052702 3.94469 176 176 179
-0.41161299 0.68858498 3.9477301 226 226 229
-0.40984201 0.69984603 3.94539 226 226 229
-0.40839601 0.69249398 3.94858 226 226 230
-0.26683301 0.67698598 3.9676199 218 218 223
-0.263881 0.67056501 3.9686899 216 217 222
-0.25683099 0.67484802 3.96716 209 208 212
-0.257507 0.66225398 3.97171 211 211 216
-0.254197 0.66841799 3.97173 204 204 207
-0.252799 0.65987402 3.9783399 202 201 205
-0.24099299 0.64753598 3.98224 178 174 175
-0.122675 0.414399 4.0754299 169 156 142
-0.069227599 0.374735 4.0924802 110 101 90
-0.064635403 0.368155 4.0914898 103 94 84
-0.0595451 0.36415601 4.09338 130 121 109
-0.055163201 0.36314601 4.0981302 177 167 152
-0.045481499 0.362593 4.0954599 181 170 154
-0.048981801 0.359678 4.0966902 180 169 154
-0.0493652 0.36983901 4.0969 180 168 152
-0.035639498 0.38786101 4.0926099 181 169 151
-0.0300755 0.39019901 4.0935402 181 169 150
-0.0152225 0.387335 4.0927401 185 173 156
-0.010361 0.38698 4.0942898 188 176 159
-0.0098955696 0.38299999 4.0933099 189 177 160
0.00049389002 0.37901801 4.0981698 189 176 160
0.0112944 0.376243 4.1002302 187 175 159
0.0058684698 0.373631 4.0981202 186 175 158
0.0170401 0.37521201 4.10074 193 181 164
0.0169471 0.37584201 4.1009498 193 181 165
0.0198498 0.37973601 4.1024599 200 187 170
0.0230684 0.37531599 4.0998502 198 186 170
0.025650401 0.38034499 4.10075 201 188 171
0.053881701 0.377303 4.10217 203 190 172
0.22649799 0.37632701 4.1236401 206 192 174
0.23185401 0.374138 4.1215 207 194 175
0.237203 0.37702999 4.1228399 206 192 174
0.243117 0.37738499 4.1241498 205 191 173
0.248665 0.38000801 4.1257601 204 190 173
0.25415599 0.37722701 4.1245098 202 189 172
0.25963801 0.379354 4.1270499 204 191 174
0.265093 0.376421 4.12535 199 186 169
0.26505899 0.376127 4.12609 200 187 169
0.270551 0.37841499 4.12783 205 192 174
0.265176 0.381946 4.1282001 205 192 174
0.27598801 0.37560901 4.12639 201 187 170
0.27592301 0.380238 4.12919 206 192 173
0.27607301 0.37538299 4.1265402 200 187 170
0.28142601 0.37738901 4.12883 203 189 172
0.281533 0.37706199 4.12884 203 189 172
0.28128499 0.38134399 4.1294398 204 190 172
0.28677601 0.37963501 4.12851 204 190 172
0.29224399 0.37634301 4.1276398 203 189 172
0.297721 0.378337 4.1302199 203 190 172
0.303251 0.37565699 4.1306 204 190 172
0.30321401 0.37536001 4.1288199 203 190 172
0.30308601 0.37951899 4.13199 203 189 170
0.308768 0.37760401 4.1342702 204 190 172
0.31438601 0.37664801 4.1297598 204 190 175
0.31442699 0.38235801 4.1322899 205 192 174
0.314217 0.381311 4.1315498 205 191 175
0.320104 0.38220701 4.1306 206 192 175
0.319796 0.38031501 4.12995 205 191 174
0.325811 0.38115701 4.1298399 187 175 158
0.32922 0.38679099 4.1310802 192 180 164
0.33499399 0.38692901 4.1303701 174 162 146
0.340774 0.38724601 4.1294599 176 163 148
0.346203 0.38403401 4.1313 174 162 148
0.35215199 0.38551399 4.1306601 174 161 148
0.360517 0.377722 4.1357198 135 123 111
0.35785899 0.38077399 4.1324501 132 120 108
0.36265799 0.38332701 4.1354198 136 124 111
0.37757501 0.444704 4.1128998 142 131 118
0.37176299 0.416637 4.1277299 140 128 114
0.38265499 0.45273 4.1129899 140 129 118
0.39560801 0.50261199 4.09622 179 169 162
0.407666 0.50467998 4.1002798 29 26 26
0.413104 0.500332 4.10251 23 20 21
0.42840001 0.50412202 4.1017399 31 27 29
0.43216601 0.51011997 4.1010098 45 40 40
0.54448903 0.39484301 4.1537299 101 80 73
-0.42948499 0.70767599 3.9467499 52 51 53
-0.43167099 0.70333701 3.94717 47 46 48
-0.42403099 0.70723999 3.9468601 91 90 92
-0.42077899 0.70237797 3.9468999 143 143 145
-0.41559801 0.70083702 3.9486599 224 224 227
-0.41552201 0.70222598 3.9487 225 225 228
-0.26672301 0.684358 3.97053 215 215 219
-0.256771 0.67561102 3.9759099 204 202 206
-0.247951 0.67166698 3.97821 185 182 183
-0.178353 0.409805 4.0760002 190 176 159
-0.128976 0.41275299 4.0784101 180 167 152
-0.123622 0.41411 4.0815401 178 165 150
-0.117482 0.41641101 4.0815701 166 153 138
-0.115084 0.41726199 4.0756998 153 141 127
-0.113619 0.41608599 4.07932 148 136 123
-0.108206 0.414882 4.0802898 133 122 109
-0.064157397 0.37337199 4.0977602 161 152 138
-0.059649698 0.37459099 4.0997901 180 171 155
-0.053786501 0.37512299 4.09971 181 169 153
-0.040677901 0.396391 4.0931802 185 173 154
-0.0404828 0.40210199 4.0946298 189 176 157
-0.035414699 0.39326599 4.0932202 182 170 151
-0.035336401 0.39859301 4.09553 188 176 157
-0.0299029 0.39543501 4.0949502 183 171 153
-0.0247874 0.392591 4.0948501 182 170 151
-0.0170584 0.396617 4.0991602 187 174 156
-0.018831899 0.393031 4.09481 184 172 153
-0.0133415 0.39219499 4.09798 186 174 156
-0.0050238799 0.38627899 4.1005602 189 176 159
0.0057050302 0.38585901 4.1033101 195 182 165
0.0113566 0.38550299 4.1037998 199 186 169
0.0084624998 0.38036999 4.1026802 191 178 161
0.0170667 0.385438 4.1037002 201 188 172
0.0143567 0.390845 4.1044898 203 190 173
0.0217195 0.401535 4.09692 203 189 172
0.053973101 0.38259599 4.1064901 204 191 173
0.0688136 0.38793001 4.1088901 204 191 173
0.254152 0.38244 4.1269698 203 190 173
0.26509401 0.38018501 4.1304598 205 192 174
0.285393 0.39214301 4.1325202 203 190 170
0.32072899 0.39158401 4.1328101 205 193 175
0.32651401 0.39138901 4.1331 206 194 177
0.33228999 0.391543 4.13238 192 180 164
0.33230001 0.39145699 4.1325102 192 180 164
0.34142199 0.395917 4.1343598 175 163 148
0.338348 0.40045801 4.1355801 188 175 161
0.347197 0.395917 4.1349902 177 164 151
0.34979901 0.401182 4.1370401 179 167 153
0.353376 0.39974701 4.1350002 174 161 148
0.35615501 0.38879299 4.1364002 156 144 131
0.35969099 0.40508899 4.13451 153 140 127
0.362546 0.38887799 4.1373901 135 123 110
0.37208799 0.42561701 4.1293201 140 128 113
0.39534 0.50481403 4.1007299 173 162 154
0.38649699 0.46966401 4.11727 145 134 123
0.41780701 0.50012499 4.1097002 27 24 26
0.43762901 0.51265502 4.10356 78 71 68
0.44316 0.51639998 4.1049299 97 88 83
0.54342598 0.39571899 4.15764 118 101 93
0.552993 0.401629 4.15766 108 78 73
2.1478901 -0.196328 4.5293002 125 108 95
2.1575301 -0.19105799 4.5272899 131 114 101
2.1572299 -0.190255 4.5261998 132 115 102
2.1594999 -0.181418 4.52561 135 119 106
2.1597099 -0.182804 4.5267401 134 118 105
2.1619799 -0.147718 4.51616 144 129 117
2.1619799 -0.147718 4.51616 144 129 117
2.1533799 -0.098906197 4.5005298 133 118 107
-0.43292201 0.71288198 3.95069 51 52 51
-0.42715999 0.712237 3.9484401 68 67 69
-0.42977801 0.717502 3.9507699 63 63 64
-0.42212999 0.71202898 3.9493201 178 177 180
-0.42421201 0.71746898 3.95082 172 172 174
-0.41676801 0.71185303 3.9507 226 226 229
-0.41884699 0.71740597 3.9523301 227 227 230
-0.41348401 0.707026 3.9512999 226 226 229
-0.267997 0.695714 3.9754701 208 209 213
-0.26470599 0.68948102 3.9753699 208 208 211
-0.25905299 0.69221199 3.97826 194 192 194
-0.254904 0.68622798 3.97791 190 186 189
-0.25176299 0.67858702 3.9785099 188 185 187
-0.244425 0.66539103 3.98736 171 166 166
-0.241835 0.65609598 3.9872301 172 168 169
-0.184221 0.40894499 4.0823798 204 190 171
-0.170875 0.41928399 4.0805302 185 172 154
-0.172178 0.41041601 4.0811501 181 168 151
-0.12936001 0.415158 4.0836701 183 169 154
-0.115754 0.41698301 4.0847702 168 155 140
-0.119315 0.41927201 4.0865402 177 163 148
-0.110115 0.41690999 4.0856299 150 138 124
-0.111903 0.41615501 4.08251 148 136 122
-0.104717 0.418488 4.0881701 143 131 118
-0.101318 0.41476899 4.08639 128 117 104
-0.074167401 0.38522801 4.1006799 143 133 120
-0.068982601 0.37936699 4.1006799 161 152 138
-0.063971803 0.37922201 4.1026201 183 173 158
-0.063988999 0.38504401 4.1032 183 171 157
-0.063150503 0.39190701 4.1015701 184 170 156
-0.058097702 0.38053101 4.1006198 182 172 155
-0.051495802 0.405689 4.0977001 185 172 156
-0.048193 0.40227401 4.09445 188 175 157
-0.041737199 0.406095 4.09799 188 176 158
-0.035297502 0.40207601 4.0998302 190 178 160
-0.033248499 0.39982 4.0976701 189 177 159
-0.0265754 0.40328699 4.1002998 192 179 161
-0.022760199 0.397248 4.0984502 187 175 156
-0.0165828 0.40345201 4.1019201 194 182 164
-0.0085305898 0.39108199 4.1023798 187 174 157
-0.0054938602 0.410216 4.1017699 206 193 175
0.00291495 0.39119801 4.10432 197 184 168
0.0118985 0.39998499 4.1038499 204 191 173
0.0090670502 0.40538701 4.1027002 205 192 175
0.016552299 0.40915701 4.10463 208 194 178
0.0376909 0.402771 4.1079602 203 189 172
0.0325455 0.396056 4.1087699 201 187 170
0.043021102 0.400509 4.1087499 202 188 171
0.037712 0.39779001 4.1073198 202 188 171
0.054538399 0.400493 4.1088901 205 190 175
0.063396603 0.40491 4.1111999 202 189 170
0.0715487 0.39345801 4.1100101 202 189 171
0.28014699 0.39633501 4.1354198 206 193 174
0.28933299 0.41468301 4.1306601 208 195 176
0.28644401 0.41373301 4.1289902 209 196 176
0.29120001 0.40554801 4.12956 206 193 174
0.293697 0.39931899 4.1331701 205 191 173
0.29745901 0.41157001 4.1315098 206 193 173
0.30538601 0.411594 4.1350298 206 193 173
0.32093501 0.39911199 4.13798 204 192 175
0.326812 0.40066099 4.1362901 205 193 177
0.332625 0.40094 4.13555 206 194 178
0.332367 0.40666699 4.1379199 206 193 178
0.34088001 0.40646499 4.1370401 191 178 163
0.34660301 0.40570199 4.1382399 182 169 155
0.35244399 0.40611699 4.13907 182 169 156
0.35788399 0.414101 4.1335802 177 165 151
0.381466 0.45473999 4.1244102 141 130 117
0.39428499 0.50331199 4.10885 164 152 142
0.395899 0.512582 4.1075401 163 151 140
0.437594 0.514341 4.1102901 98 90 84
0.54135102 0.400509 4.1609602 137 124 114
0.547158 0.40055501 4.1587701 120 103 95
0.55610001 0.40635201 4.1589699 105 81 75
0.55303001 0.40976599 4.1613002 135 114 105
0.56307501 0.41114399 4.15833 115 80 75
0.55920601 0.411459 4.1602802 115 87 81
0.56064802 0.405543 4.16011 113 76 73
0.56585997 0.416199 4.1602101 116 82 76
0.56480402 0.39251199 4.1642799 115 64 63
2.1535399 -0.196155 4.5355501 124 108 95
2.1552 -0.18542001 4.53301 124 108 96
2.15486 -0.18580399 4.5327902 124 108 96
2.15751 -0.180141 4.5342202 125 110 97
2.1568699 -0.16254 4.5276999 128 113 100
2.15676 -0.146818 4.5227098 130 115 103
2.1586101 -0.088951901 4.4997902 136 122 110
2.16501 -0.082562998 4.5008502 139 125 114
-0.43615901 0.72715801 3.9527299 53 52 54
-0.43564001 0.71771401 3.95274 52 52 51
-0.42701399 0.72210699 3.9516599 140 140 142
-0.42152101 0.72189701 3.9523201 224 223 226
-0.41924599 0.72664702 3.9554 228 228 231
-0.41644999 0.72176498 3.9528799 227 226 230
-0.26427701 0.69331801 3.98209 200 199 202
-0.251371 0.67973101 3.98474 177 173 175
-0.190404 0.413221 4.0866599 205 191 171
-0.184168 0.412817 4.0834799 204 190 171
-0.187545 0.40842 4.08356 205 191 172
-0.16258 0.42414501 4.0858698 180 166 150
-0.15645 0.42913699 4.0857201 177 162 145
-0.124628 0.42229199 4.0875401 181 167 149
-0.110288 0.42038 4.09059 167 154 140
-0.098412 0.42030001 4.0935702 142 130 117
-0.085035801 0.40002 4.1017599 135 124 111
-0.079338498 0.391101 4.1016898 134 124 111
-0.075377002 0.39318201 4.1058002 177 166 152
-0.075037099 0.392755 4.10636 178 167 153
-0.069325402 0.38337401 4.1044898 179 168 154
-0.069723703 0.38428 4.1047502 180 169 155
-0.0699182 0.38848501 4.1068902 181 169 156
-0.070195302 0.38979301 4.1054201 180 168 155
-0.069802299 0.396153 4.1057901 180 167 153
-0.069561802 0.39432299 4.1062698 180 167 153
-0.0596251 0.410824 4.0987601 180 167 151
-0.051715702 0.41755599 4.1005301 184 170 155
-0.049491599 0.40940699 4.1014099 185 172 156
-0.0393744 0.41380501 4.0987101 191 177 160
-0.034180801 0.414841 4.1025 191 177 160
-0.030525699 0.413443 4.1037302 190 176 159
-0.0325954 0.40912899 4.1002102 189 176 159
-0.0265819 0.408779 4.1043301 190 176 159
-0.0208961 0.408692 4.10537 196 182 165
-0.0223455 0.40395799 4.1042099 191 178 160
-0.00300219 0.41459799 4.1055498 212 199 182
0.000158126 0.409991 4.1038198 208 195 177
0.0058909399 0.410079 4.10432 211 198 181
0.0112653 0.411681 4.1071801 212 199 182
0.0165431 0.41448501 4.1080499 207 194 177
