ply
format ascii 1.0
comment PCL generated
element vertex 1157
property float x
property float y
property float z
property uchar red
property uchar green
property uchar blue
element face 0
element camera 0
property float view_px
property float view_py
property float view_pz
property float x_axisx
property float x_axisy
property float x_axisz
property float y_axisx
property float y_axisy
property float y_axisz
property float z_axisx
property float z_axisy
property float z_axisz
property float focal
property float scalex
property float scaley
property float centerx
property float centery
property int viewportx
property int viewporty
property float k1
property float k2
end_header
0.87805802 1.0342799 2.7382901 161 151 146
0.89349502 1.03011 2.7429399 166 156 153
0.89324898 1.0282 2.7493501 191 181 177
0.899701 1.02672 2.7474 198 189 186
0.90345299 1.02507 2.75018 204 195 193
0.91258901 1.023 2.74944 206 197 195
0.92665601 1.02038 2.7579601 209 200 197
0.83011299 1.04998 2.6913099 207 197 193
0.86717999 1.03988 2.72647 194 184 180
0.872329 1.0384001 2.72791 190 180 176
0.871099 1.03669 2.7352099 184 173 168
0.87705201 1.03619 2.7250199 186 175 171
0.88235199 1.0361 2.7221601 190 180 175
0.88064599 1.03399 2.7337799 162 152 147
0.88491398 1.03373 2.7258401 169 159 154
0.89834201 1.03118 2.74084 162 152 147
0.90382898 1.02731 2.7445099 196 188 184
0.90814698 1.0286601 2.74382 194 185 182
0.90824699 1.02618 2.74842 203 193 191
0.91201401 1.02765 2.7453101 200 191 188
0.92273998 1.02229 2.7516201 209 200 197
0.92669803 1.02222 2.74808 208 199 196
0.93478101 1.01952 2.7511499 210 202 199
0.962951 1.01243 2.72596 209 199 197
0.96534598 1.01099 2.7381599 209 200 197
0.85984802 1.04295 2.7249 199 189 185
0.86399299 1.04274 2.72506 199 189 186
0.87042803 1.04184 2.72665 199 188 185
0.87532002 1.03993 2.72352 198 187 184
0.88435 1.03667 2.72475 188 178 173
0.89003998 1.03421 2.72632 168 158 154
0.903835 1.03062 2.74089 165 155 152
0.92306501 1.02625 2.7479701 204 194 191
0.956824 1.01694 2.7322199 207 197 195
0.96170199 1.01539 2.7200601 205 196 192
0.96448702 1.0129499 2.73105 208 198 196
0.85645401 1.04663 2.72211 206 196 193
0.86745697 1.04416 2.72416 203 193 190
0.872742 1.0441099 2.7218201 207 197 194
0.87889498 1.04004 2.7270401 199 189 185
0.88297999 1.04008 2.7268801 198 188 184
0.88779497 1.0379601 2.7260799 186 176 172
0.90818799 1.03148 2.74031 163 153 150
0.91209298 1.0306 2.7421401 186 176 173
0.92421699 1.02731 2.7391801 199 189 185
0.94646001 1.02194 2.73792 207 198 194
0.96638298 1.01676 2.7314701 204 195 193
0.96898198 1.0141799 2.7381301 208 199 196
0.86121601 1.04831 2.72806 206 196 193
0.86606997 1.04638 2.7248001 206 196 193
0.871378 1.04735 2.7204499 209 199 196
0.87776703 1.0436 2.7228701 208 198 195
0.88139302 1.04346 2.72348 209 198 195
0.88294202 1.04309 2.7230699 208 198 195
0.88211501 1.04352 2.7217901 209 199 196
0.88719797 1.04115 2.7247901 201 191 187
0.88853502 1.04193 2.7149401 208 198 195
0.89456701 1.0403 2.71857 201 191 188
0.89552099 1.03789 2.7282 177 168 163
0.90072602 1.03767 2.73191 170 159 155
0.90446699 1.0356801 2.72926 159 149 145
0.91207099 1.03328 2.7381599 154 144 141
0.91590202 1.03221 2.7394199 167 156 152
0.92088598 1.03187 2.7423201 183 173 170
0.92554897 1.0298001 2.7383101 196 186 183
0.93092197 1.0296 2.73649 196 187 183
0.949238 1.0237401 2.7348101 205 196 192
0.95488298 1.02209 2.73192 206 196 193
0.95660102 1.02119 2.72949 205 195 192
0.966474 1.0186599 2.7267399 203 194 190
0.97065097 1.01674 2.7332201 205 197 194
0.97878402 1.01487 2.73966 208 198 197
-0.0303945 1.30641 2.2351401 221 211 209
0.85955602 1.05321 2.7306499 210 200 196
0.86907399 1.0506999 2.7184501 212 202 199
0.87969297 1.0468 2.7218299 209 199 196
0.88217598 1.04584 2.72351 210 200 197
0.88470298 1.04478 2.7237 210 200 197
0.89241302 1.04238 2.7116399 209 199 197
0.89486003 1.04116 2.70397 210 200 197
0.90147102 1.04012 2.71157 202 192 188
0.90075201 1.0403 2.7274401 194 183 179
0.90461498 1.03871 2.72596 184 173 170
0.92820299 1.03318 2.7360101 172 162 158
0.94686902 1.02764 2.7355499 203 193 189
0.95925301 1.0231301 2.7264199 203 193 190
0.96883798 1.0217201 2.7367101 200 191 188
0.86868501 1.05132 2.7263999 211 201 198
0.87352198 1.05214 2.7230599 212 203 199
0.89785999 1.04283 2.71877 208 198 195
0.900738 1.04313 2.7055099 210 200 197
0.90574199 1.04028 2.7085199 202 193 189
0.93310499 1.03316 2.73421 173 163 159
0.93758899 1.03365 2.73399 172 163 158
0.93981898 1.03123 2.73788 194 185 180
0.94476902 1.03151 2.7363 190 180 175
0.951029 1.02774 2.734 201 191 188
0.957039 1.0274 2.7281001 200 190 187
0.95559198 1.02803 2.7334299 202 192 189
0.95822001 1.02615 2.7325499 201 191 188
-0.033932 1.31185 2.23822 223 213 210
0.91098601 1.04259 2.7071199 207 197 194
0.94208699 1.03387 2.7326 162 152 147
0.94912702 1.03197 2.7358799 190 180 176
0.96898597 1.0248899 2.7337899 202 193 190
0.90217602 1.0475 2.70521 212 203 200
0.94628102 1.03395 2.73104 168 159 154
0.95080203 1.0348001 2.7318201 168 158 154
0.95371097 1.03272 2.7365401 189 179 175
0.96023703 1.03247 2.7371299 192 183 180
0.95549601 1.0355 2.7325399 158 148 144
0.95854902 1.03518 2.73561 175 165 162
0.96658701 1.0325201 2.73578 195 185 182
0.97070497 1.03185 2.7402101 199 190 186
0.96483803 1.03601 2.7383699 179 168 165
0.97529 1.03236 2.74102 198 190 185
0.97325802 1.03607 2.7407601 187 178 174
0.98334002 1.03228 2.73561 191 183 178
0.97787303 1.03575 2.73949 184 175 170
0.99700302 1.03219 2.7315199 191 181 178
0.98166198 1.0381 2.74312 183 174 168
0.98578101 1.03657 2.73613 180 171 166
0.990291 1.03668 2.7351899 181 171 167
1.00125 1.03167 2.72874 190 181 176
0.99486202 1.03643 2.73298 180 170 167
0.99927002 1.03592 2.73037 181 171 167
0.94681901 1.05313 2.7351501 204 194 191
1.00344 1.03597 2.72946 181 171 167
0.95405102 1.05344 2.73733 198 189 185
1.00835 1.03757 2.7332001 179 169 164
1.0130301 1.03807 2.7318201 178 167 164
0.958139 1.0556099 2.73335 206 196 192
0.95940298 1.05576 2.7305801 207 197 193
0.96400398 1.05468 2.72177 209 199 196
0.97347403 1.0539401 2.7202499 205 195 191
0.97862703 1.05293 2.7399099 173 162 158
0.973499 1.05715 2.7170899 211 201 198
0.97525698 1.05594 2.71593 210 201 197
0.98409301 1.05331 2.7351401 180 170 165
0.97714698 1.0574501 2.71188 211 203 199
0.98382902 1.05565 2.7304001 200 190 185
0.98887002 1.0551 2.72368 204 194 191
0.98612702 1.06006 2.7139499 213 203 201
0.99926102 1.05554 2.7031701 211 201 198
0.99924099 1.0563101 2.7044101 211 202 198
1.00905 1.05475 2.7301099 194 184 180
1.00989 1.0546401 2.74123 172 162 157
1.01364 1.05312 2.7322099 179 169 164
1.00436 1.05811 2.7065201 211 202 199
1.0043 1.0581501 2.70643 211 202 199
1.00828 1.05632 2.7191 205 195 191
1.01359 1.05575 2.72733 197 188 183
1.01276 1.0573699 2.7181799 206 196 193
0.649023 1.18332 2.46 210 202 198
0.662512 1.18045 2.4635401 213 204 201
0.66569 1.18063 2.46087 213 203 200
0.64701903 1.18765 2.4630301 210 201 198
0.65171701 1.1883 2.4601901 209 200 196
0.65565199 1.18845 2.4579599 209 199 196
0.64966398 1.19197 2.4616899 204 195 192
0.65861499 1.1896 2.4572799 209 199 197
0.66592997 1.18695 2.4528899 211 202 198
0.66269499 1.1873 2.45611 209 199 196
0.65443403 1.1933 2.46048 200 190 187
0.66275799 1.19117 2.44982 196 187 183
0.669572 1.19119 2.4502201 199 189 186
0.66953802 1.19091 2.4495499 198 188 185
0.66959703 1.1914001 2.4507 198 188 184
0.67219698 1.19029 2.4497001 199 190 186
0.652174 1.1979001 2.45364 195 186 182
0.652174 1.1979001 2.45364 195 186 182
0.652174 1.1979001 2.45364 195 186 182
0.668787 1.1927 2.44751 187 177 174
0.676395 1.19012 2.4488001 201 192 187
0.68039501 1.1906 2.44855 197 188 184
0.67440301 1.19481 2.45136 172 163 158
0.686023 1.19145 2.44997 202 193 188
0.69165498 1.19144 2.44946 207 197 195
0.69863898 1.18879 2.44942 213 204 201
0.68349099 1.1963 2.4527099 181 171 167
0.70206201 1.1891201 2.44801 212 204 201
0.69463903 1.19601 2.4509301 193 184 180
0.69612902 1.19363 2.4523001 205 196 192
0.70190102 1.19373 2.45173 206 197 194
0.70010501 1.1961 2.45031 196 187 184
0.72081101 1.1901 2.4466801 210 201 199
0.70442897 1.19854 2.4477601 189 178 175
0.705127 1.19856 2.4539199 199 189 186
0.70770299 1.2007999 2.4503801 189 178 175
0.71487498 1.19734 2.45263 205 196 192
0.71951199 1.19701 2.4519401 206 197 193
0.72255099 1.19558 2.4496701 207 198 195
0.72959203 1.19296 2.44291 209 200 197
0.73515397 1.19279 2.4449501 210 202 199
0.74008501 1.1905299 2.44122 209 200 197
0.746158 1.18909 2.4407899 211 201 199
0.75248599 1.18573 2.4398999 214 204 201
0.71068102 1.20116 2.44854 188 177 173
0.71365303 1.20065 2.4561801 197 187 183
0.750422 1.18946 2.4405501 212 202 201
0.69359702 1.20943 2.4546399 190 181 176
0.721286 1.20147 2.45522 198 188 185
0.72553599 1.1993001 2.4484501 199 190 187
0.74813801 1.1920201 2.4384401 210 200 198
0.69165701 1.21192 2.4386201 210 201 198
0.73233199 1.19971 2.4499099 204 195 192
0.73759598 1.198 2.4483399 208 199 196
0.74338597 1.19724 2.4477401 209 199 197
0.73027599 1.2044899 2.4541399 195 186 182
0.73540801 1.2025599 2.4500301 198 188 185
0.75119698 1.19622 2.4438801 210 200 197
0.75493801 1.19438 2.4412999 209 200 197
0.72477603 1.20714 2.42802 187 176 172
0.75755697 1.19749 2.4447701 207 198 195
0.75755697 1.19749 2.4447701 207 198 195
0.71988499 1.21073 2.4205 204 194 190
0.72883499 1.20683 2.428 182 172 168
0.73108703 1.2079999 2.45383 190 180 177
0.741804 1.20497 2.4548199 198 188 185
0.74694502 1.20384 2.4539101 203 192 190
0.72377199 1.21074 2.41888 202 192 189
0.72414798 1.2102 2.42729 196 186 182
0.72681099 1.20992 2.4270699 196 185 182
0.73081601 1.20977 2.42502 196 185 182
0.73160398 1.20785 2.4240501 189 178 174
0.73542303 1.2088799 2.4547901 188 177 174
0.73822498 1.20727 2.4518399 192 182 178
0.72680002 1.21091 2.4050701 209 200 197
0.72719902 1.21062 2.41471 205 195 191
0.731296 1.21079 2.4118299 205 195 191
0.73498201 1.20927 2.4207499 198 188 184
0.752698 1.2048399 2.45153 199 189 186
0.75685698 1.2033499 2.4500599 202 192 190
0.75091499 1.21027 2.45911 192 182 179
0.758403 1.20638 2.4463999 194 184 182
0.77775902 1.1991 2.4260399 204 195 192
0.80004001 1.1938699 2.45172 212 202 200
0.80719501 1.19104 2.4419899 212 203 200
0.78027302 1.20059 2.4238701 204 194 192
0.78355598 1.20035 2.42697 205 195 193
0.80379599 1.1931601 2.4484999 212 202 200
0.81342697 1.19074 2.4354701 210 200 198
0.73956299 1.21513 2.4270501 202 191 187
0.74398702 1.21536 2.4298601 195 185 181
0.748164 1.21363 2.4310601 183 172 168
0.77636099 1.20419 2.4260001 197 187 183
0.80504799 1.1968 2.4454701 208 198 196
0.80973101 1.1939 2.4349799 209 200 197
0.81688201 1.1912301 2.43221 209 199 198
0.82416803 1.18929 2.4333401 212 203 201
0.74396902 1.217 2.4247601 204 194 190
0.780545 1.2047 2.4241099 197 186 184
0.783526 1.20305 2.42396 200 189 187
0.78872502 1.20214 2.42716 204 193 191
0.800641 1.20006 2.4333301 207 197 195
0.820943 1.19297 2.43326 209 200 198
0.82357198 1.19144 2.4270401 211 201 200
0.74870199 1.21654 2.42802 198 187 183
0.753106 1.21621 2.43207 187 177 173
0.75539702 1.21583 2.42696 191 180 176
0.76476401 1.21061 2.4174099 181 171 167
0.76953101 1.21085 2.4165001 180 170 164
0.76964498 1.21071 2.4163499 179 169 164
0.77849603 1.20654 2.4205699 175 165 161
0.78444099 1.2061501 2.4212799 187 177 173
0.788688 1.20522 2.4238901 199 188 186
0.79757398 1.20312 2.43014 205 196 193
0.82036901 1.19514 2.4270201 207 199 196
0.75593197 1.2181799 2.4240201 202 192 187
0.75911897 1.21557 2.4194901 199 189 185
0.76286399 1.21532 2.4200599 196 186 182
0.775814 1.2104599 2.42026 170 160 154
0.78059202 1.20951 2.4187801 167 157 153
0.786502 1.20818 2.4228899 176 166 162
0.79289699 1.20603 2.4321699 203 193 190
0.79606497 1.20541 2.4267399 203 193 189
0.80305099 1.2021 2.4242401 205 195 191
0.82020402 1.1963 2.4145401 208 199 196
0.774167 1.21237 2.4173601 181 171 165
0.79243702 1.20723 2.42453 193 183 180
0.79748398 1.20727 2.4220099 191 181 177
0.80001998 1.20576 2.4264801 202 193 189
0.826855 1.19661 2.41745 209 201 198
0.76177198 1.22024 2.42256 206 197 193
0.76523399 1.21808 2.41869 205 195 192
0.77273899 1.21691 2.4212899 195 185 180
0.78468502 1.21313 2.41819 175 164 161
0.788333 1.2104501 2.41908 167 157 152
0.79595 1.20802 2.4191501 175 165 160
0.81650198 1.20347 2.4201701 203 193 190
0.82221299 1.19998 2.41432 205 196 194
0.76350701 1.22141 2.4172599 211 201 199
0.76957899 1.21973 2.4145899 211 201 198
0.77012801 1.21886 2.4177999 207 198 194
0.78939903 1.2129101 2.41661 176 166 161
0.81259102 1.20669 2.4216499 197 187 184
0.82249302 1.20184 2.41837 205 195 193
0.84926802 1.19296 2.4096999 212 202 199
0.84448802 1.19698 2.43294 213 203 202
0.771644 1.22161 2.41559 212 202 199
0.775029 1.21928 2.41752 208 198 194
0.78250301 1.21726 2.41957 197 186 183
0.78726399 1.21733 2.4186699 196 185 182
0.794159 1.2132 2.41624 175 164 159
0.79846102 1.21298 2.4151299 177 167 161
0.81665599 1.20727 2.4224899 198 187 185
0.84801501 1.19684 2.43558 213 204 203
0.78019702 1.2208 2.4197099 208 198 194
0.78462499 1.21933 2.41521 208 198 194
0.79197901 1.21731 2.4175601 197 186 183
0.79621297 1.21525 2.41184 199 188 185
0.80241799 1.21245 2.4138401 178 169 163
0.82096899 1.20726 2.4223399 199 188 186
0.82476801 1.20583 2.4186499 200 189 187
0.82931399 1.20586 2.4184401 202 193 189
0.83966798 1.20301 2.4279201 213 202 200
0.84501201 1.20002 2.4198999 212 201 199
0.84814698 1.1987799 2.4221101 212 202 199
0.789581 1.22084 2.4129901 212 201 198
0.80024397 1.21553 2.4122901 198 188 184
0.80432802 1.2154599 2.4119401 198 189 184
0.84694302 1.20235 2.4154699 207 197 193
0.78980398 1.22145 2.4189501 208 198 194
0.82704997 1.20968 2.4186599 189 178 174
0.83160901 1.20983 2.41857 189 179 175
0.83543402 1.2082601 2.4235401 202 192 189
0.84089702 1.20956 2.4263999 204 194 191
0.792665 1.22524 2.41853 214 204 201
0.83768898 1.2113 2.42167 190 179 175
0.84640503 1.20972 2.4251001 203 193 191
0.84379202 1.21271 2.4240501 191 182 178
0.84419 1.21356 2.4261899 191 182 177
0.85206997 1.20996 2.4233899 205 194 192
0.079296403 -0.49383399 2.3357601 171 26 43
-0.0508992 -0.39304599 2.31917 170 156 132
-0.0347201 -0.39453 2.3192799 166 108 100
-0.034231499 -0.39943701 2.3227201 170 143 123
-0.041683901 -0.39419201 2.32162 175 143 125
-0.0319428 -0.396144 2.3224101 162 104 95
-0.045558199 -0.39028701 2.32127 173 123 110
-0.041730899 -0.39024299 2.32057 154 82 76
-0.059841499 -0.38401401 2.32075 166 132 116
-0.052960102 -0.380097 2.31654 171 121 106
-0.043420698 -0.386971 2.3215799 151 56 58
-0.034132399 -0.38866699 2.32709 149 30 41
-0.057533599 -0.37694299 2.3162401 170 143 123
-0.043526899 -0.37991801 2.3184199 153 30 40
-0.059810501 -0.374845 2.3184299 169 143 125
-0.0767878 -0.35626 2.3338399 164 147 132
-0.0664884 -0.354862 2.3280799 148 38 44
-0.082311898 -0.35238701 2.32991 164 132 120
-0.0787443 -0.352759 2.3336 164 128 116
-0.074913502 -0.35274401 2.33305 162 103 97
-0.068136901 -0.35271299 2.3329799 150 38 44
-0.081198201 -0.34897399 2.33022 165 132 121
-0.075467899 -0.349069 2.33266 156 97 90
-0.072929896 -0.35053599 2.33529 145 59 60
-0.079957597 -0.34582001 2.3318901 167 124 112
-0.076634802 -0.34619999 2.33463 154 85 80
-0.078150503 -0.34353599 2.33829 150 79 74
-0.074313603 -0.34332499 2.33534 147 37 44
-0.086379901 -0.341838 2.3448801 168 151 129
-0.0799926 -0.34062901 2.3399 150 80 74
-0.0763468 -0.339555 2.3365099 144 37 43
-0.085129201 -0.33737999 2.3401501 171 140 121
-0.081223302 -0.33747599 2.3413701 151 74 69
-0.078088 -0.336584 2.3392501 146 39 45
-0.086842701 -0.334057 2.3390999 167 137 118
-0.08382 -0.33011499 2.33448 159 95 87
-0.085056797 -0.327095 2.33603 154 88 81
-0.081616104 -0.32705599 2.33428 138 39 43
-0.087937698 -0.32508799 2.34531 153 95 85
0.35122901 -0.34868199 2.3074901 178 152 106
0.36288801 -0.31967899 2.29969 129 109 70
0.36288801 -0.31967899 2.29969 129 109 70
0.36329299 -0.316587 2.30375 128 108 70
0.36704701 -0.316365 2.30088 122 103 65
0.73870802 -0.410862 2.4342999 162 153 137
0.64798802 -0.407352 2.4786601 218 171 11
0.648808 -0.400998 2.4653399 211 162 8
0.323111 -0.28565601 2.2999101 163 139 93
0.68914503 -0.36968499 2.4219699 202 157 7
0.325183 -0.26893499 2.29966 150 127 87
0.685368 -0.35972399 2.4226501 177 134 8
0.68897599 -0.35971799 2.42255 176 132 8
0.71008903 -0.36437801 2.42817 177 128 6
0.74827999 -0.33875999 2.3631101 212 171 12
0.765284 -0.34092399 2.3590901 216 175 16
0.69191498 -0.356924 2.4235499 168 125 8
0.708336 -0.361325 2.42892 168 119 6
0.31101599 -0.26064599 2.3120401 133 110 70
0.31289101 -0.25752199 2.3118701 136 113 72
0.73720503 -0.32608199 2.3741901 180 140 9
0.31542701 -0.256493 2.31285 133 110 69
0.73245001 -0.327333 2.37959 181 142 11
0.734815 -0.32487199 2.3755701 174 133 11
0.73622298 -0.32107401 2.3680201 173 132 12
0.31028101 -0.25261199 2.3154199 141 119 76
0.74585003 -0.31684601 2.3694699 159 121 9
0.533126 -0.33618999 2.48469 66 63 57
0.53065097 -0.330066 2.47366 65 60 55
0.534958 -0.330755 2.4700799 60 57 52
0.344879 -0.244914 2.3236899 115 97 60
0.53412098 -0.32549101 2.4647999 66 60 54
0.49912599 -0.33802301 2.50951 18 11 12
0.52429098 -0.326763 2.4862299 54 48 43
0.53168797 -0.32054201 2.4654 59 52 48
0.62673301 -0.296397 2.3944299 234 209 196
0.62268901 -0.29529801 2.39783 223 208 195
0.62990701 -0.29450899 2.3919899 237 210 197
0.62495399 -0.292651 2.39661 210 195 180
0.79658401 -0.30892199 2.41364 155 122 9
0.80510497 -0.31255901 2.41573 156 123 17
0.806831 -0.31203601 2.41274 165 134 35
0.48257101 -0.243737 2.3463399 234 223 203
0.48043799 -0.240393 2.345 225 214 193
0.47739699 -0.23448101 2.34569 172 157 131
0.48096299 -0.23433 2.3454299 174 160 137
0.48576301 -0.23706201 2.34567 217 206 184
0.192789 -0.186599 2.3093901 29 60 29
0.77134299 -0.253764 2.38657 179 143 29
0.71007699 -0.200013 2.31634 106 106 88
0.71383101 -0.201702 2.3135099 62 59 54
0.71077901 -0.196036 2.3166399 86 85 72
0.2445 -0.170893 2.3626399 96 74 47
0.70688599 -0.19404601 2.32212 106 96 70
0.70948601 -0.196208 2.31918 102 101 82
0.71242601 -0.192331 2.3164001 33 31 26
0.24471501 -0.167723 2.3645201 81 60 36
0.70855701 -0.19017801 2.3208201 86 70 58
0.71144003 -0.189327 2.3178 38 33 27
0.710527 -0.186406 2.32023 62 44 39
0.710262 -0.186353 2.32005 65 45 40
0.68385601 -0.167105 2.41769 128 84 9
0.69364601 -0.158244 2.4033599 116 71 9
0.25455099 -0.227955 2.69333 153 145 126
0.568847 -0.145688 2.40942 162 119 16
0.572712 -0.14618 2.4133101 189 143 17
0.61666399 -0.173757 2.4710901 211 165 15
0.256125 -0.221003 2.68819 191 181 156
0.26073599 -0.224168 2.6929801 138 134 115
0.26287401 -0.217786 2.68663 185 177 152
0.267001 -0.21994901 2.68803 149 145 127
0.26813799 -0.216051 2.68361 181 176 153
0.27361199 -0.21335199 2.6773601 188 184 161
0.27909499 -0.208598 2.6768701 201 199 173
0.27750999 -0.2095 2.6751599 201 198 172
0.56198299 -0.131862 2.4100201 200 158 10
0.27835599 -0.205219 2.6754799 204 204 175
0.59845299 -0.103242 2.3836601 192 153 9
0.60034102 -0.100178 2.38849 189 150 8
0.36414701 -0.16998599 2.6391301 204 192 166
0.40142801 -0.16436 2.6401999 209 197 171
0.40524399 -0.162705 2.6386399 206 193 167
0.41464499 -0.16746899 2.65042 210 198 172
0.416603 -0.16398799 2.64747 198 180 137
0.77964699 -0.131997 2.4960499 148 115 24
0.77629203 -0.116079 2.49511 148 115 22
0.64646 -0.039066002 2.3861899 108 107 103
0.30810401 -0.117774 2.6921799 79 58 14
0.66756999 -0.0318758 2.38153 77 76 72
0.32006899 -0.099517196 2.73876 81 58 15
0.73584002 -0.0301922 2.4758601 67 62 55
0.67248797 0.00728615 2.39224 86 83 79
0.57748502 0.031320699 2.4103601 141 109 14
0.71912998 0.0087700197 2.49525 38 33 25
-0.35626599 0.024346801 2.6832299 121 116 103
0.735838 0.0124987 2.48913 157 141 111
0.42313901 -0.0116452 2.66677 15 12 6
0.65552402 0.0514552 2.4144101 138 108 24
0.41617101 -0.026777999 2.73351 92 70 30
0.65605903 0.054933399 2.4070899 139 109 22
0.379024 -0.0131241 2.73999 139 109 12
0.41416499 0.0133652 2.65503 70 57 19
0.41634399 0.0087225698 2.66065 26 17 4
0.56228399 0.0643728 2.4451101 146 115 27
0.56228602 0.064374499 2.4453299 146 115 27
0.39115599 -0.00326027 2.73246 17 13 8
0.411116 0.0206063 2.6486499 87 73 15
0.59187299 0.080610402 2.46874 126 95 6
0.59544802 0.080496103 2.47102 125 94 5
0.52679801 0.092596203 2.45733 188 150 10
-0.73851401 0.16074 2.4967501 181 97 39
0.19827799 0.107887 2.4814501 19 16 11
-0.73694599 0.16357 2.4972999 202 95 20
-0.72053802 0.163526 2.48979 229 113 7
0.52309698 0.098436497 2.4542999 193 153 11
-0.74844599 0.166318 2.4965 175 147 126
0.35347 0.063996904 2.63238 53 50 41
-0.74679399 0.16928899 2.49665 180 122 89
-0.71897203 0.17140099 2.48627 232 115 11
-0.71263802 0.170314 2.4866199 229 119 15
-0.701141 0.17019001 2.4891801 198 81 11
-0.46099001 0.121598 2.6072099 137 135 127
0.46368 0.085984498 2.53812 212 170 10
-0.70197898 0.173581 2.48755 223 110 27
-0.69842601 0.173554 2.48908 195 76 9
-0.57752001 0.13901301 2.58762 216 165 6
-0.54044598 0.127188 2.6159301 71 58 28
-0.53702998 0.12639 2.6182699 57 48 30
-0.53405499 0.12983499 2.61501 74 56 25
-0.529468 0.129788 2.61379 51 40 21
-0.516747 0.126564 2.61818 56 53 45
-0.49853 0.128351 2.61097 93 90 82
-0.494955 0.128824 2.6099701 123 121 112
-0.46915099 0.123712 2.61239 135 135 126
-0.46130201 0.125038 2.60515 131 129 122
-0.651797 0.150272 2.57236 158 146 130
-0.542705 0.130814 2.6145501 199 172 73
-0.52071899 0.132497 2.61095 33 26 14
-0.503573 0.131653 2.6124499 31 29 22
-0.49857301 0.133173 2.6073101 60 58 50
0.30723399 0.072704099 2.6466701 10 10 8
-0.57386601 0.14595599 2.58566 213 160 7
-0.56761098 0.14763901 2.5837801 216 165 8
-0.53204697 0.134536 2.61323 194 167 68
-0.52407902 0.13684499 2.6106701 140 117 50
-0.51607901 0.134601 2.6084199 43 38 24
-0.50393599 0.136526 2.6105299 25 23 15
0.68299001 0.088107497 2.5336201 148 117 36
0.69935697 0.084920503 2.5341301 150 123 55
-0.69464701 0.18418799 2.4820499 224 105 13
-0.69212902 0.18757901 2.4790499 225 106 11
-0.69101799 0.184247 2.48297 202 81 5
-0.68756998 0.184342 2.48441 192 72 6
-0.57421499 0.1507 2.58811 211 157 8
-0.56818199 0.151889 2.5817599 211 158 9
-0.51353198 0.13991299 2.6061499 78 64 27
-0.50968498 0.13982099 2.6031401 65 57 36
-0.50564802 0.140122 2.60708 39 36 25
0.36594999 0.081391603 2.62942 93 89 81
-0.68759298 0.19018701 2.4796901 215 94 13
-0.55043799 0.15671401 2.575 206 153 7
-0.50509697 0.146741 2.6006999 113 93 33
-0.47172201 0.14408199 2.6046 84 82 76
0.46060801 0.104625 2.54055 210 168 9
0.479195 0.104603 2.54548 195 149 11
-0.70039201 0.19345 2.4799099 221 98 4
-0.684237 0.193233 2.47752 199 79 11
-0.49891701 0.14991499 2.5999401 93 77 35
-0.46382499 0.145438 2.60865 99 92 76
0.40197599 0.088927902 2.6348 144 115 7
0.52361101 0.128749 2.46421 149 116 26
-0.75153399 0.193602 2.49968 163 132 111
-0.74734199 0.19358701 2.4983699 138 78 49
-0.74250698 0.19349401 2.49561 141 55 16
-0.70414001 0.196155 2.4779301 219 97 6
-0.68612897 0.19724201 2.4806299 212 91 12
-0.54319102 0.162405 2.57335 201 149 8
-0.46382901 0.148972 2.60603 99 96 92
0.669478 0.103372 2.5390699 137 103 13
-0.74937898 0.19724301 2.4990499 164 129 108
-0.70690399 0.20166899 2.47613 208 89 8
-0.70593601 0.199284 2.48001 215 94 6
-0.52531201 0.165135 2.5708899 210 161 7
0.40268901 0.093973599 2.64043 144 115 7
-0.569987 0.165115 2.5984499 203 151 9
0.60830402 0.120592 2.51263 143 111 14
0.61217898 0.120662 2.51278 142 110 15
0.61690003 0.120434 2.51298 140 108 14
-0.52439499 0.17268001 2.5694101 206 154 8
-0.51518601 0.173059 2.5676501 207 159 4
-0.51716101 0.176433 2.5668099 204 152 8
-0.51367003 0.176579 2.5678999 204 155 5
-0.56739599 0.17424899 2.59605 191 139 6
-0.48425099 0.17035399 2.5983701 190 158 35
-0.47865599 0.173012 2.5947299 150 125 34
-0.73243499 0.24773601 2.3789999 239 225 205
0.44853899 0.140264 2.5403199 187 147 6
-0.63684398 0.247063 2.36799 159 121 72
0.59062999 0.140654 2.5131099 145 112 25
0.59436798 0.140707 2.51297 145 112 26
-0.74648499 0.253793 2.37392 213 199 177
-0.40933099 0.164313 2.6687801 176 136 8
-0.41175401 0.167172 2.6669099 166 129 8
0.60030901 0.14887699 2.52479 148 117 28
0.62080598 0.146651 2.5376799 144 112 25
-0.40984601 0.17041799 2.66712 166 130 9
0.62962401 0.14586399 2.5418 144 113 24
0.63708001 0.14594799 2.54319 144 112 24
-0.45168701 0.19604801 2.5964701 15 15 11
0.35294199 0.142249 2.6456599 22 18 9
0.24145 0.14991 2.6760399 51 38 17
0.23822001 0.156708 2.67313 54 38 16
0.23976099 0.153321 2.6745901 53 38 16
0.239932 0.15763 2.67752 57 41 15
0.49055001 0.175189 2.5620501 103 69 15
-0.52738398 0.22187001 2.59533 193 143 5
-0.440907 0.214699 2.60302 13 13 10
0.238391 0.16096599 2.67606 59 42 15
-0.44114399 0.218399 2.59869 15 14 12
0.49333999 0.188417 2.55724 145 112 25
-0.43789399 0.230184 2.60167 17 15 12
-0.76350498 0.29744601 2.4194801 139 111 51
0.54728401 0.196877 2.5755799 143 111 22
-0.53311402 0.246666 2.5929101 201 153 5
-0.529486 0.24666999 2.59442 227 183 18
-0.57283199 0.25862899 2.5717001 127 94 22
-0.518381 0.24854399 2.5971899 220 175 15
-0.43492201 0.24462 2.6026101 8 6 6
-0.43453199 0.24209601 2.6067901 7 6 7
0.54790199 0.201281 2.57776 147 116 30
-0.74421501 0.306254 2.42646 144 110 48
-0.57919103 0.26086399 2.57234 98 66 19
-0.43069899 0.244542 2.6106901 7 6 5
-0.387851 0.223626 2.7037201 186 151 13
-0.52657902 0.258448 2.59375 243 202 18
-0.50787902 0.25767601 2.59884 199 154 19
-0.431474 0.248181 2.6111701 13 10 6
-0.38346601 0.223626 2.70485 180 144 17
0.617751 0.190547 2.64131 159 139 108
0.62390798 0.194077 2.63942 153 143 130
-0.610439 0.27727699 2.5483501 103 61 5
-0.38744 0.230929 2.6944699 130 96 4
-0.38452199 0.22977901 2.70013 126 91 3
-0.577631 0.27244899 2.57076 131 94 5
-0.43446401 0.26291701 2.6089301 28 22 11
-0.431339 0.26267499 2.61026 27 22 14
-0.52063501 0.27669501 2.58711 231 189 16
-0.42691001 0.268177 2.6097 27 22 14
-0.52071398 0.280525 2.58516 231 189 17
-0.49154699 0.27860001 2.59376 208 162 8
-0.493249 0.28152999 2.5940499 227 183 18
-0.62874699 0.31510401 2.4895101 150 83 7
-0.475036 0.29341799 2.59602 190 142 9
0.405536 0.228275 2.71684 45 35 11
-0.47382501 0.29861501 2.5969801 190 142 5
-0.47154301 0.30136999 2.5947599 194 146 6
-0.41827399 0.28083599 2.68643 29 23 9
-0.68013102 0.361056 2.3910699 142 106 17
-0.559937 0.32598501 2.5490899 196 156 23
-0.58661199 0.357977 2.48896 200 130 17
-0.54735798 0.342213 2.5536499 123 83 9
-0.60933 0.39225101 2.38447 143 121 83
-0.44545501 0.33868301 2.6552501 81 76 66
-0.56694198 0.38048401 2.4857299 180 117 8
-0.56342697 0.386372 2.4861801 181 118 7
-0.472532 0.35217601 2.66328 42 35 23
-0.472325 0.35210401 2.6660299 42 34 23
-0.472325 0.35210401 2.6660299 42 34 23
-0.57060999 0.39545399 2.4878399 230 157 12
-0.45674199 0.355555 2.6657901 92 83 71
-0.61418998 0.41978601 2.3906801 144 111 19
-0.45676899 0.35993201 2.6714101 92 83 69
-0.456458 0.35924801 2.6724401 91 82 67
-0.40118599 0.35729599 2.681 141 128 112
-0.49694401 0.369589 2.6761701 116 103 84
-0.46681699 0.36471301 2.6786499 142 130 116
-0.48852301 0.373236 2.6605599 143 131 115
-0.46410501 0.36863601 2.6798799 143 131 117
-0.458987 0.36841199 2.6805501 142 130 116
-0.48298299 0.37398699 2.6891699 142 131 116
-0.459039 0.37434599 2.69242 143 131 116
-0.57335597 0.42185801 2.48525 147 117 52
-0.564762 0.44014099 2.49037 145 134 120
0.42643699 0.34653401 3.04193 141 103 8
-0.0901784 0.42189601 2.94331 101 72 15
-0.29351199 0.421258 3.0599699 120 85 7
0.47306499 0.40826899 2.9978499 151 115 11
0.484321 0.408788 2.99686 155 118 14
-0.30743799 0.42438099 3.06288 119 85 4
0.43788201 0.40950701 3.0133801 140 103 10
0.45033401 0.41339001 3.0018301 148 112 11
0.468826 0.41293901 3.00124 149 113 12
0.47865799 0.41094401 2.9994199 150 114 12
-0.229187 0.42872199 3.0342801 145 101 10
0.48460099 0.413692 3.00249 151 114 14
-0.191109 0.454833 3.0158999 195 146 19
0.383488 0.446318 2.9699299 141 105 11
0.45452601 0.445981 2.9867301 112 75 6
0.43773901 0.45549899 2.9373 120 80 3
0.43409899 0.45410699 2.9338701 119 80 4
0.436299 0.45833799 2.9366701 142 100 10
0.0927191 0.491476 2.8106301 64 67 29
0.472065 0.48025799 2.9605801 143 104 6
0.48307201 0.48326901 2.9574001 153 116 9
0.32304999 0.49029401 2.95281 116 79 5
0.472049 0.48397201 2.9569499 148 109 7
-0.142268 0.49575001 3.0258999 152 115 6
0.80292797 0.38007599 3.9407001 180 166 142
0.79873502 0.38137501 3.9304399 172 158 133
0.75379002 0.42759299 3.8187799 140 127 105
0.75916803 0.43072599 3.8210399 146 133 107
-0.353342 0.54245901 3.1029999 140 113 35
-0.34873801 0.54252702 3.1008699 139 110 28
-0.350802 0.54699898 3.1009099 141 113 38
-0.346093 0.54701 3.09847 139 111 34
0.31542501 0.54859197 2.9505799 126 94 4
-0.35181999 0.55084199 3.09712 156 131 67
0.96136397 0.46304601 3.7342701 186 175 168
0.97120398 0.46158299 3.7405 180 169 162
-0.35886201 0.55197901 3.1072299 150 123 54
-0.227704 0.55887002 3.05091 171 136 7
0.95818299 0.46488899 3.7674699 184 174 166
0.96150202 0.467015 3.7393601 190 179 172
0.97133797 0.467298 3.7367599 190 179 172
0.977175 0.465588 3.74037 187 176 169
-0.233998 0.56292099 3.05474 170 136 8
-0.22769301 0.56331199 3.04476 167 133 8
0.94983399 0.46941099 3.73682 186 175 168
0.95016998 0.469493 3.7379401 189 177 171
0.94960803 0.51071399 3.6305699 201 191 185
0.94418401 0.510517 3.62941 201 191 184
0.95722997 0.51071298 3.6347301 203 192 185
0.96286798 0.51080602 3.6343901 203 192 185
0.94298899 0.515589 3.6322801 196 185 179
0.95229 0.51139802 3.63357 200 189 183
0.95036298 0.51426703 3.62448 198 187 181
0.95531303 0.51429099 3.6257901 198 188 181
0.96016198 0.51429802 3.6273401 200 189 182
0.97971803 0.51187199 3.62851 204 193 185
0.98659402 0.51302201 3.62784 202 192 184
1.01315 0.51582098 3.6266699 206 195 187
0.947878 0.51894403 3.6259401 191 180 174
0.95325702 0.518466 3.6245899 191 181 174
1.01436 0.52050799 3.6247399 197 186 179
1.02609 0.51880002 3.6442001 204 193 186
1.03505 0.51795799 3.6521499 204 194 187
1.04537 0.518592 3.6459 203 192 186
1.04952 0.51820397 3.64204 204 194 187
1.05597 0.51422799 3.6552 205 194 187
0.942074 0.52837801 3.6141601 198 187 180
0.51231998 0.59306598 2.9739499 160 127 23
1.07732 0.52894002 3.65084 193 182 175
0.49551401 0.60439998 2.9687901 157 125 24
-0.098172396 0.59966803 3.1626401 97 59 4
-0.117648 0.60373503 3.14643 92 54 4
1.06452 0.54755402 3.6317301 167 156 148
1.07394 0.54705697 3.62344 187 177 169
-0.075966403 0.619609 3.12005 113 78 6
0.42960101 0.62368399 2.9761 136 105 8
1.08104 0.56793201 3.5636899 178 168 161
0.42822599 0.62903398 2.98067 133 103 7
0.58851099 0.62509298 3.14748 150 133 102
-0.42213401 0.64595199 3.2231901 135 118 94
0.49760401 0.64404601 3.0850201 156 124 21
0.46320701 0.65364897 3.02999 151 119 17
0.46813801 0.65248603 3.0283699 152 120 17
-0.40534699 0.65409797 3.22349 140 104 8
0.46808299 0.65865999 3.0357599 155 122 11
-0.41025901 0.66302699 3.2247701 140 104 10
-0.192754 0.69001901 3.08728 223 176 9
-0.19482499 0.69351298 3.0873301 219 173 8
0.34009299 0.70136797 3.0311 102 69 3
-0.110383 0.70745301 3.1479299 186 142 14
-0.358715 0.71175998 3.14624 122 89 7
-0.131283 0.71258098 3.1380701 218 169 17
-0.40377101 0.71588701 3.14906 142 125 99
-0.31448701 0.720191 3.12691 224 196 139
-0.137142 0.71719497 3.1322401 224 174 9
-0.40796399 0.72101098 3.14201 143 127 102
-0.40227801 0.72710401 3.13221 138 122 97
-0.206296 0.73627698 3.08571 228 179 12
-0.34576699 0.74076903 3.1173201 140 123 97
-0.20491 0.74027199 3.07881 229 180 11
-0.17781299 0.740143 3.0833199 220 172 13
-0.142388 0.73861301 3.0968599 138 103 8
-0.35149801 0.74379301 3.1166201 136 119 92
0.46113199 0.74532998 3.0450101 149 115 8
-0.212272 0.75409001 3.07479 205 162 18
-0.279966 0.75927901 3.08529 194 173 142
-0.25057599 0.771658 3.05003 213 198 171
-0.27987701 0.77477998 3.07846 199 184 159
-0.32905099 0.78144801 3.09009 207 192 171
-0.36591399 0.78311998 3.09326 82 71 61
-0.369995 0.78871399 3.0971501 86 75 66
0.34738499 0.79184198 3.0028701 147 128 95
0.33508 0.79401398 3.01424 131 103 41
0.33704501 0.79745501 3.0125501 138 114 71
0.34797701 0.804591 2.98839 146 130 101
0.51060098 0.80790299 3.0195301 189 174 151
0.50463003 0.81195301 3.01981 197 182 159
0.510158 0.812388 3.01617 184 168 146
0.50406998 0.81484699 3.01547 190 173 152
-0.423924 0.8161 3.1458001 113 101 90
-0.22181401 0.82863098 3.09846 91 79 66
0.325526 0.83647603 3.01015 121 105 75
0.32363299 0.84087503 3.01281 116 99 68
-0.35106799 0.85215902 3.0343599 186 173 165
-0.346746 0.85228401 3.0332899 185 173 163
-0.155719 0.853504 3.0940499 180 165 154
0.32934299 0.85863203 2.9951601 84 70 53
-0.34391901 0.88555598 3.0046101 183 170 162
-0.138879 0.88925701 2.9865401 179 166 157
0.40359101 0.892946 2.9825201 129 118 109
0.32793799 0.89521199 2.97328 116 103 88
-0.36548901 0.89697498 2.9833901 147 135 127
-0.19681001 0.89626497 2.98085 180 167 159
-0.17716201 0.89670497 2.9794199 176 163 154
-0.088042296 0.89738101 2.9679101 168 155 146
-0.116406 0.90328902 2.96035 145 133 123
-0.13612001 0.907139 2.9528601 165 152 142
-0.141094 0.90991902 2.95152 174 161 152
-0.131038 0.90859097 2.9502201 167 154 145
-0.112093 0.90972602 2.95313 147 135 125
-0.112157 0.90868801 2.9514799 147 135 125
-0.000698157 0.91101903 2.94804 168 156 147
-0.148206 0.91401303 2.9445601 175 162 153
-0.14381 0.91248298 2.9500101 175 162 154
-0.153621 0.91626298 2.94083 161 148 140
-0.137656 0.91640401 2.9389 173 160 151
-0.075600199 0.91695702 2.93944 174 161 152
-0.050634701 0.918208 2.9336801 179 166 157
0.154438 0.91957301 2.9306099 146 133 116
0.110004 0.92266899 2.92695 151 138 124
0.15545499 0.92202997 2.9223001 177 165 150
0.15768801 0.92321301 2.9154501 194 182 169
-0.160739 0.92449301 2.9311299 160 147 139
0.121662 0.92545301 2.91956 177 165 152
0.199624 0.928496 2.9172201 199 187 177
-0.14392699 0.92750502 2.9228799 157 144 135
-0.083437301 0.93010801 2.9098599 171 160 152
-0.57693899 0.932172 2.9537499 134 123 114
-0.41719201 0.94547403 2.9249001 194 182 177
-0.41736799 0.94560403 2.9252801 194 182 177
-0.41736799 0.94560403 2.9252801 194 182 177
-0.306624 0.94888198 2.85497 199 187 181
-0.0326824 0.95384097 2.86237 183 170 163
-0.26590899 0.95390999 2.8527501 204 192 186
-0.194855 0.95761102 2.8719599 201 190 183
-0.089778103 0.956043 2.8657801 200 190 182
-0.179957 0.95981199 2.8589499 201 189 183
0.0113845 0.96086001 2.8566401 179 168 160
-0.32034501 0.963938 2.86145 205 193 189
-0.31858999 0.965545 2.86307 205 193 188
0.14036 0.98123002 2.8150301 211 200 192
0.262438 0.99951702 2.75946 206 195 192
0.25938201 1.00096 2.7607801 208 197 193
0.26034001 1.00304 2.75879 209 198 195
0.26298901 1.00208 2.7568901 208 197 193
0.27500501 1.00279 2.7583599 204 193 189
0.27771199 1.00501 2.7539899 206 196 192
0.25758201 1.01153 2.7609799 212 201 198
0.78964102 1.0345401 2.7457099 206 196 192
0.86305398 1.0512201 2.72574 213 202 200
-0.69552898 1.14197 2.5451801 215 205 204
-0.68788397 1.14265 2.5455699 216 207 205
-0.68732798 1.14306 2.55002 217 207 206
-0.68360603 1.14352 2.5427101 215 206 204
-0.67934197 1.14884 2.53757 206 196 194
-0.70362902 1.15272 2.52583 215 205 203
-0.703426 1.1555099 2.5213399 218 208 206
-0.69894302 1.15323 2.5224199 215 205 204
-0.70120698 1.1583 2.5236101 219 208 207
-0.70285499 1.15909 2.52145 219 209 208
-0.57485902 1.17249 2.4839001 222 212 211
-0.525747 1.17343 2.4876299 214 204 204
-0.52127898 1.17285 2.48823 217 208 206
-0.57783198 1.1735899 2.4812901 224 214 213
-0.575176 1.17573 2.4813001 224 215 213
-0.57248199 1.17486 2.48439 223 213 212
-0.56698197 1.17422 2.4802001 223 213 212
-0.528157 1.17677 2.4855499 198 188 188
-0.50562698 1.17749 2.4771199 208 198 197
-0.57106203 1.17843 2.4881799 224 214 213
-0.42991501 1.18275 2.4582701 223 214 213
-0.43871099 1.18468 2.46134 222 214 212
-0.43358999 1.18455 2.45748 223 214 213
-0.42983201 1.1859699 2.4558301 223 214 213
-0.42210701 1.1844 2.4525299 223 214 212
-0.41149801 1.18668 2.45298 223 214 212
-0.41489401 1.18805 2.4512601 223 215 213
-0.50078702 1.19639 2.4488399 224 215 214
-0.42519099 1.21285 2.4105799 223 214 213
-0.42436299 1.2138 2.40292 220 211 210
-0.42109999 1.21596 2.4020901 220 211 210
-0.44185799 1.22666 2.3770101 216 207 205
-0.447382 1.22962 2.37798 218 209 207
-0.43523499 1.22893 2.3745899 214 205 202
-0.293854 1.23304 2.3593099 224 215 213
-0.28964901 1.23487 2.3577299 223 215 214
-0.33164999 1.2369699 2.35305 223 214 213
-0.29531601 1.23789 2.35183 203 194 193
-0.29465601 1.23992 2.34693 191 182 180
-0.39268401 1.2403001 2.3573401 215 206 204
-0.318149 1.24134 2.3470299 222 213 211
-0.312249 1.24062 2.3485799 219 210 208
-0.30822301 1.2411799 2.3431499 221 213 210
-0.30282101 1.2402101 2.3394699 221 211 210
-0.31720999 1.2452101 2.3490901 223 215 213
-0.31485099 1.24568 2.34867 223 214 213
-0.395558 1.24465 2.3531499 207 197 196
-0.29069301 1.2463599 2.3363299 222 213 212
-0.290149 1.24629 2.3311901 223 214 212
-0.28554299 1.2468801 2.33441 222 213 211
-0.286569 1.2469701 2.3291199 223 214 213
-0.267198 1.24793 2.3375399 221 211 210
-0.26245901 1.24709 2.33301 220 210 209
-0.39029101 1.24936 2.3391299 223 214 213
-0.38647199 1.2496901 2.3367701 223 214 213
-0.38126999 1.2487299 2.34128 219 210 209
-0.28329501 1.25218 2.3341 223 212 211
-0.273195 1.25319 2.3282101 222 213 212
-0.391114 1.2512 2.3356299 226 216 215
-0.26957101 1.25332 2.3187201 222 212 211
-0.35874501 1.26186 2.32266 225 216 215
-0.32776999 1.26825 2.3164699 222 212 211
-0.295203 1.28172 2.29335 226 216 215
-0.129931 1.42514 2.00208 215 206 204
-0.135445 1.42406 1.98848 205 195 193
-0.123357 1.4307899 2.01141 217 208 206
-0.119199 1.43181 2.02106 220 212 211
-0.14029901 1.42377 1.98439 202 192 189
-0.133278 1.42565 1.9918801 206 197 194
-0.128776 1.4272 1.99538 208 199 196
-0.124872 1.4313999 2.0036099 209 200 198
-0.120725 1.43314 2.00897 212 203 200
-0.137725 1.42668 1.98659 201 191 188
-0.12538999 1.4322799 1.99813 203 192 190
-0.129527 1.43015 1.99263 200 190 187
-0.119342 1.43498 2.01261 212 203 200
-0.58198601 -1.1068701 2.88818 168 159 145
-0.603073 -1.08283 2.88445 169 160 146
-0.603688 -1.07544 2.8774099 170 161 147
0.081238501 -0.51953799 2.3388 164 152 137
0.083712399 -0.51537001 2.3369999 167 153 138
0.70529401 -0.42149699 2.4350901 222 211 187
0.68001097 -0.41608399 2.4165399 215 200 176
0.68201399 -0.41266599 2.4142599 214 199 177
0.68510699 -0.41233301 2.4105899 220 206 183
0.68680602 -0.413331 2.4102001 231 219 195
0.70393503 -0.417274 2.4331 228 215 190
0.68203598 -0.41025901 2.4133501 213 198 176
0.68533701 -0.408472 2.4133401 211 198 174
0.68865401 -0.40991199 2.4094999 225 212 189
0.688263 -0.405985 2.4116299 213 199 176
0.72645903 -0.40918201 2.4395599 197 174 97
0.617257 -0.41712901 2.48052 125 92 23
0.61334801 -0.41666999 2.4870801 150 113 30
0.621328 -0.41475999 2.4816401 195 158 32
0.67911398 -0.39537299 2.4012599 209 195 168
0.77064002 -0.382512 2.37082 201 186 164
0.61833203 -0.410348 2.48245 215 176 25
0.62249398 -0.41045099 2.4817801 221 182 16
0.62543899 -0.40688601 2.48086 217 176 11
0.77033699 -0.37905401 2.37133 203 185 154
0.77426398 -0.38031101 2.37289 193 174 135
0.64295399 -0.39789701 2.4602001 206 158 6
0.78653401 -0.37149501 2.3830099 222 189 62
0.67671698 -0.380963 2.42732 220 180 17
0.78917599 -0.36674899 2.3853099 226 191 48
0.79238701 -0.36676601 2.38592 212 182 68
0.79069799 -0.36391899 2.38555 227 190 44
0.79825598 -0.36272401 2.3861699 183 163 105
-0.041992899 -0.382644 2.3162501 150 21 32
0.76733398 -0.35184899 2.3584099 203 164 19
0.51241797 -0.393861 2.53197 140 140 113
0.52349597 -0.391368 2.5353999 104 95 79
0.51867503 -0.39000601 2.52876 115 107 91
0.53204501 -0.39186099 2.5385799 127 117 99
0.549218 -0.392243 2.5395999 161 149 127
0.554052 -0.39120099 2.53688 161 149 128
0.49838701 -0.38674599 2.5274401 162 151 129
0.50404698 -0.38931501 2.5290201 163 151 128
0.50938201 -0.38796401 2.52442 159 148 129
0.513731 -0.38943201 2.52756 147 137 118
0.513735 -0.38527799 2.52335 43 38 29
0.537696 -0.38634601 2.53918 68 56 42
0.53337002 -0.38570201 2.5358701 48 44 38
0.54140401 -0.38550401 2.5348799 82 71 56
0.53888798 -0.38869101 2.5361099 113 97 78
0.54421598 -0.38908499 2.53771 154 143 123
0.54926002 -0.38865799 2.54111 157 144 120
0.55378598 -0.38796699 2.53427 158 145 120
0.55808002 -0.38755101 2.5311999 160 147 128
0.56059301 -0.385573 2.53128 159 147 128
-0.063832603 -0.369569 2.3234401 166 132 117
0.49335 -0.38323101 2.52808 163 152 131
0.49393499 -0.38031399 2.5213699 162 150 131
0.49507099 -0.38512501 2.5285599 140 141 118
0.498384 -0.38245699 2.5225999 139 141 120
0.50419301 -0.383385 2.5221701 124 128 110
0.50421399 -0.37919199 2.5172601 47 48 39
0.50810897 -0.38158 2.52175 35 37 30
0.515118 -0.37977701 2.5229001 30 29 26
0.52444702 -0.38508901 2.53685 38 35 33
0.53953397 -0.38267601 2.5376599 55 48 39
0.544411 -0.38179201 2.53652 60 52 42
0.54424697 -0.38568401 2.53881 102 88 71
0.55043298 -0.38382599 2.5345199 138 129 114
0.55011898 -0.37989101 2.53174 72 65 53
0.55588698 -0.382065 2.5311699 153 142 119
0.55627 -0.37864399 2.5273399 117 109 92
0.56060201 -0.38093799 2.5281601 158 147 128
0.56070203 -0.38067001 2.5280001 161 150 130
0.56449401 -0.37915599 2.5213399 158 147 127
0.57574201 -0.38225701 2.5425799 156 145 126
0.57994598 -0.382184 2.5440099 156 145 127
0.57537401 -0.37781301 2.52213 157 146 128
0.58560401 -0.38163999 2.53789 157 146 129
0.58613801 -0.37957001 2.53702 147 138 123
0.58930397 -0.38176 2.5393801 158 146 129
0.64331901 -0.366732 2.48348 160 115 15
0.49061599 -0.37929001 2.5232 163 151 131
0.494589 -0.37641901 2.5172701 139 140 121
0.49839899 -0.37825501 2.5179801 129 130 113
0.50812399 -0.37744901 2.5172801 30 29 25
0.50932401 -0.37755999 2.51476 30 29 26
0.50920701 -0.374035 2.51794 30 29 27
0.50932997 -0.373272 2.5095501 30 29 26
0.52865303 -0.378539 2.5341899 34 32 29
0.53566903 -0.37820601 2.53544 38 35 33
0.54039001 -0.377074 2.53286 41 39 36
0.54141599 -0.377031 2.5321901 42 40 37
0.549312 -0.376223 2.53181 48 44 40
0.55883199 -0.37069499 2.49896 79 75 68
0.56367701 -0.374733 2.51388 147 139 123
0.57880902 -0.37324899 2.52932 92 85 71
0.58269697 -0.374634 2.5313599 67 63 52
0.58752298 -0.37584701 2.53739 44 39 30
0.63301802 -0.366997 2.4886 160 118 18
0.64252901 -0.36405399 2.4876599 160 116 10
0.50351101 -0.370446 2.51477 30 29 27
0.521945 -0.37419 2.5264299 29 29 25
0.52806097 -0.373218 2.5241499 30 29 27
0.52776402 -0.37034899 2.5239201 29 28 26
0.53464001 -0.37331301 2.5281601 33 32 30
0.531102 -0.37159801 2.52156 31 29 27
0.534455 -0.372823 2.5202999 32 31 29
0.53578901 -0.370242 2.5211999 31 30 28
0.53972697 -0.37197 2.5211501 36 35 32
0.54666001 -0.36884201 2.5065999 35 34 31
0.54227901 -0.366907 2.50492 34 33 31
0.54697597 -0.36552399 2.5025301 33 32 30
0.55065298 -0.36360499 2.49681 36 34 31
0.55065501 -0.36708999 2.5009301 36 35 31
0.55464202 -0.365343 2.49529 39 37 33
0.55502701 -0.365614 2.4976201 39 37 33
0.497657 -0.36740199 2.5165801 31 29 27
0.50179303 -0.367329 2.51317 30 29 27
0.53228199 -0.36895999 2.52178 30 29 27
0.54102999 -0.36211401 2.49686 31 30 29
0.54685998 -0.36196399 2.4980099 36 35 32
0.55505502 -0.36223 2.4944699 35 34 30
0.55558598 -0.35927901 2.4935901 35 34 31
0.55846697 -0.360493 2.4921701 37 36 32
0.56180501 -0.35932899 2.4949501 40 38 33
0.56800699 -0.35597101 2.4831901 44 43 36
0.57714301 -0.35810599 2.4956801 60 57 50
0.57203299 -0.352909 2.46981 51 48 39
0.70142198 -0.338963 2.4268701 146 96 12
0.745188 -0.32684401 2.3650801 183 143 6
0.54097497 -0.35781199 2.49156 30 29 27
0.54093301 -0.353443 2.4860699 29 28 26
0.546772 -0.35640201 2.4879799 34 33 30
0.55671602 -0.348432 2.4644699 32 32 27
0.56368798 -0.349318 2.4659801 39 38 32
0.56552798 -0.34988701 2.4711699 44 43 37
0.565696 -0.35251701 2.47054 40 38 33
0.569076 -0.35156399 2.4654701 43 40 34
-0.068336897 -0.34847501 2.3317299 148 26 34
0.542503 -0.35008499 2.48615 29 28 26
0.54788297 -0.34602001 2.46789 29 28 26
0.55433398 -0.345456 2.46525 32 31 27
0.56575799 -0.346459 2.4693601 158 156 146
0.56988901 -0.346982 2.4689701 206 203 192
0.569938 -0.34299099 2.46474 240 235 223
0.57392102 -0.34610501 2.4703901 237 233 220
0.58686697 -0.349834 2.4885199 211 200 188
0.54984599 -0.343256 2.4667001 31 30 28
0.54541802 -0.339766 2.4582701 30 29 27
0.55552399 -0.34092101 2.4670801 81 78 71
0.553514 -0.343236 2.46679 32 30 27
0.557706 -0.34064701 2.4670801 166 164 154
0.56424898 -0.33954 2.464 239 234 222
0.56124502 -0.342446 2.46731 207 204 194
0.57412398 -0.34202901 2.46523 240 233 220
0.35897899 -0.31467399 2.3034999 131 110 70
0.54509097 -0.33711201 2.46786 31 29 27
0.54961801 -0.336813 2.46574 45 43 38
0.55035001 -0.33776301 2.4620399 48 46 41
0.55561 -0.33715901 2.4649 216 212 201
0.55984902 -0.336292 2.4624901 240 234 221
0.51844102 -0.33639601 2.4854 25 21 21
0.55517399 -0.33265299 2.46399 236 230 218
0.55904502 -0.33195901 2.4637401 237 230 217
0.55915999 -0.32688299 2.45085 236 228 215
0.53884703 -0.32907599 2.46591 28 25 23
0.54381001 -0.32912099 2.4627199 37 34 30
0.551395 -0.324882 2.4579999 227 219 209
0.55511999 -0.32725301 2.4551599 234 226 214
0.56768799 -0.32151499 2.43857 237 229 216
0.57919902 -0.32000399 2.44173 238 232 218
0.59578902 -0.31699499 2.42908 241 234 219
0.82388699 -0.307284 2.4272699 163 152 137
-0.088352703 -0.33081999 2.33799 167 146 123
0.55569297 -0.32292899 2.4530201 228 220 208
0.57842398 -0.31738901 2.43606 237 230 216
0.589118 -0.31268501 2.4284201 197 174 166
0.59146798 -0.31349301 2.4310501 221 206 195
0.59911901 -0.31342 2.42679 241 234 218
0.60411501 -0.31051201 2.4214399 242 233 219
0.75674701 -0.29848099 2.38938 156 120 10
-0.082385801 -0.32389501 2.33462 133 28 33
0.36047301 -0.301166 2.3121099 123 103 64
0.53854001 -0.31920201 2.46226 40 34 30
0.54200399 -0.318863 2.46313 174 168 160
0.56956702 -0.311887 2.4387 228 217 207
0.58303702 -0.31403601 2.4367199 240 225 215
0.58297402 -0.31218299 2.43433 218 193 186
0.58756602 -0.30858499 2.42963 153 91 91
0.59145099 -0.30958599 2.4277201 121 84 78
0.59540701 -0.30785701 2.4249799 177 146 138
0.59998697 -0.307677 2.42168 229 210 201
0.60412598 -0.306321 2.4191 234 220 208
0.60825598 -0.30489299 2.4166601 242 232 218
0.75538802 -0.29767501 2.40821 158 122 7
0.328511 -0.29411399 2.29371 164 139 93
0.356453 -0.29425001 2.3083301 124 104 64
0.534742 -0.31710199 2.4656 19 12 11
0.53769898 -0.31490001 2.46312 65 58 53
0.57162702 -0.30827501 2.43806 229 219 208
0.58356398 -0.30808401 2.43294 136 77 76
0.589894 -0.30545199 2.4286699 119 45 43
0.59376001 -0.30519399 2.4247 108 51 45
0.59999502 -0.303469 2.41921 127 72 67
0.604141 -0.30219799 2.41694 139 114 103
0.60866398 -0.30222401 2.4158199 236 227 212
0.612674 -0.30200499 2.4128201 241 234 220
0.61658901 -0.30138999 2.4073999 241 233 219
0.61775303 -0.300008 2.4031501 241 233 219
0.75498998 -0.29318699 2.41272 166 128 7
0.751643 -0.29304299 2.40909 167 129 9
0.75254399 -0.29515699 2.4098201 163 126 9
0.75921601 -0.296453 2.41272 158 123 7
0.76344401 -0.29488999 2.4059 157 122 8
0.76644999 -0.29253301 2.40306 157 123 9
0.76992202 -0.28999099 2.39591 156 122 6
0.82062501 -0.29773 2.4354 165 151 130
0.82321399 -0.294689 2.4372201 164 152 136
0.355735 -0.288847 2.31183 124 104 65
0.53774399 -0.31064799 2.4634199 120 112 104
0.56780398 -0.30534801 2.43979 200 191 182
0.57186598 -0.304021 2.4361501 210 199 189
0.58758199 -0.30173299 2.42819 203 105 101
0.59142798 -0.30137199 2.4233201 201 110 108
0.59544998 -0.30127099 2.4212501 204 113 108
0.605838 -0.29865199 2.4144399 157 140 124
0.74350703 -0.29163599 2.4200699 173 130 8
0.74608999 -0.291922 2.41483 172 130 7
0.74939501 -0.29011899 2.41223 175 134 9
0.74828202 -0.29031301 2.41082 170 130 9
0.752648 -0.28821501 2.40589 174 134 9
0.75822401 -0.29138601 2.4105899 166 129 7
0.75569099 -0.287958 2.40628 172 133 8
0.75975198 -0.28787199 2.4088099 166 129 7
0.76347297 -0.28999001 2.4058599 165 128 7
0.76651102 -0.287725 2.4031999 163 127 7
0.823219 -0.29113099 2.43964 163 152 135
0.35178399 -0.286024 2.3083501 127 107 67
0.58528697 -0.29805499 2.4282401 128 62 56
0.58912998 -0.298053 2.4243901 152 78 73
0.59070402 -0.29416001 2.42185 85 33 29
0.59485 -0.29475701 2.4186699 151 70 66
0.603526 -0.29519999 2.4144101 98 65 45
0.60750699 -0.29509899 2.41225 132 127 96
0.60946602 -0.29187801 2.4109001 168 176 118
