# .PCD v0.7 - Point Cloud Data file format
VERSION 0.7
FIELDS x y z rgb
SIZE 4 4 4 4
TYPE F F F U
COUNT 1 1 1 1
WIDTH 1233
HEIGHT 1
VIEWPOINT 0 0 0 1 0 0 0
POINTS 1233
DATA ascii
-0.0547201 0.165022 2.5260201 2565930
-0.046800401 0.164171 2.52933 3223859
-0.043630902 0.164295 2.52863 8355712
-0.0413072 0.163323 2.5276301 13816531
-0.0210544 0.16411699 2.5381899 15000292
-0.0174476 0.16406199 2.5371301 12829380
-0.0100975 0.164013 2.5369899 5657944
-0.0064884699 0.164022 2.53739 12434622
-0.00285218 0.16401599 2.53795 14934756
0.0060764998 0.16106001 2.5423999 14605791
0.0060163802 0.16108 2.54232 14605791
0.0097124502 0.161025 2.5423801 10526626
0.0187394 0.16189501 2.54076 14342362
0.0223708 0.161975 2.5415499 14737119
-0.33637801 0.179436 2.4640501 14343134
-0.33567601 0.17849 2.4684 14408926
-0.318854 0.178984 2.46911 5329493
-0.31384099 0.178838 2.46873 11974586
-0.29647401 0.17927399 2.47666 14606563
-0.292373 0.176571 2.4762101 10198174
-0.289489 0.176826 2.4761901 5855836
-0.28950599 0.17675599 2.4761801 5790300
-0.28669199 0.17704099 2.4775701 2237477
-0.275051 0.17609 2.4791601 8948106
-0.26443401 0.17609601 2.4809301 5461079
-0.26049599 0.175929 2.4797201 12171965
-0.25750199 0.175965 2.47839 14408926
-0.254949 0.176208 2.4783199 14474976
-0.172986 0.17377 2.5000701 14606561
-0.169459 0.17377099 2.50088 14672098
-0.165865 0.173761 2.5016 14277340
-0.16200399 0.17377201 2.5027299 8158335
-0.160207 0.170711 2.50365 3289653
-0.156679 0.172775 2.50437 8487300
-0.15311199 0.1728 2.50406 14606049
-0.149497 0.17278001 2.50226 14737892
-0.063411303 0.168093 2.5255599 14737633
-0.059895299 0.16809 2.5255599 10658467
-0.0563205 0.16809 2.52562 3158066
-0.056288298 0.168091 2.52564 3158065
-0.052694201 0.16814201 2.5265 2697773
-0.0527323 0.168146 2.52653 2697773
-0.044530801 0.16790199 2.5283101 5329234
-0.041864902 0.166813 2.5271299 12105657
-0.01925 0.167145 2.53688 14934756
-0.0156579 0.167128 2.5366001 12500416
-0.0120738 0.167128 2.53654 4078912
-0.0045319898 0.167162 2.53771 13750482
0.0042522098 0.164037 2.5404899 14934756
0.00754963 0.16420899 2.54108 13026759
0.0078562396 0.16412701 2.5417199 12829380
0.0168746 0.16502599 2.5399599 12236986
0.017284401 0.164905 2.5406799 13092295
0.020462399 0.165052 2.5410199 14737120
-0.33535001 0.181832 2.46963 14408926
-0.31997201 0.18184701 2.4684801 2961202
-0.31715199 0.18205699 2.46874 5987423
-0.312264 0.18189 2.46841 13224909
-0.30895099 0.18197 2.4686 14606306
-0.29528299 0.182436 2.4763899 14540513
-0.290696 0.179602 2.47614 10461346
-0.29233101 0.182632 2.4765999 14145754
-0.28762501 0.17975 2.47615 5592664
-0.287781 0.17982399 2.47598 4408390
-0.28466001 0.179979 2.47738 2368807
-0.26272601 0.17913 2.48032 7171696
-0.259186 0.17895199 2.4790599 13158859
-0.256163 0.178974 2.47772 14343134
-0.25428 0.17948601 2.4790101 14540512
-0.17107899 0.176833 2.49999 14540512
-0.167531 0.176835 2.5008299 14672099
-0.164038 0.176835 2.5016301 13750996
-0.16052601 0.176836 2.50244 5526615
-0.158492 0.17377201 2.5035 3618618
-0.15498599 0.17595699 2.5042 10592676
-0.151366 0.176038 2.50296 14671842
-0.065173 0.17114 2.52492 14737634
-0.066124998 0.17110801 2.52337 14737633
-0.062919803 0.171097 2.5237899 14145496
-0.058109999 0.171119 2.5248599 6776681
-0.058377799 0.17112701 2.5247099 7303025
-0.058077 0.17111699 2.5248599 6710887
-0.054496098 0.171119 2.52495 2697515
-0.0544586 0.171115 2.52494 2631979
-0.046250802 0.170937 2.52806 3223602
-0.042507801 0.17029899 2.5266299 10263709
-0.017456399 0.170196 2.5361199 14803171
-0.0138223 0.17019901 2.53614 9210766
-0.0072800401 0.170211 2.5362201 8881801
-0.0038137501 0.17020699 2.5364299 13947605
0.0057453299 0.167284 2.5406201 14605792
0.0096561899 0.16719399 2.5411401 10263454
0.0189103 0.168001 2.5390501 14737119
0.0187597 0.16817901 2.5402801 14539741
0.022519199 0.168135 2.5402501 14868705
-0.33548999 0.18493199 2.46805 14343133
-0.31848899 0.184866 2.4679401 3553082
-0.313705 0.18474901 2.4672301 10724519
-0.309982 0.184668 2.4665799 14277597
-0.30765101 0.185027 2.46733 14211805
-0.29060799 0.185721 2.47645 14145754
-0.288986 0.18267 2.4760301 10987690
-0.26444399 0.18216 2.4801099 3487288
-0.26116699 0.18225101 2.4798901 8421763
-0.25765401 0.181933 2.4781201 13750997
-0.253755 0.181582 2.4746499 14474720
-0.25242901 0.180461 2.4756701 14540255
-0.16904899 0.179902 2.50003 14803683
-0.165452 0.179906 2.5009201 14737635
-0.162191 0.179914 2.50173 12303293
-0.153124 0.179332 2.5035999 13027017
-0.14956599 0.179359 2.50266 14869221
-0.149561 0.179345 2.50333 14869221
-0.147848 0.17605001 2.5018599 14737635
-0.064598702 0.174192 2.5229399 14803426
-0.058813401 0.17464601 2.52458 8947849
-0.058813699 0.17465299 2.52458 8947849
-0.059927002 0.174229 2.5239699 10987176
-0.054695901 0.173731 2.5246501 2631722
-0.043163098 0.173953 2.52671 7894905
-0.0405492 0.172663 2.5253 13487054
-0.0383882 0.171409 2.52525 14276827
-0.0194194 0.173292 2.5355201 14605791
-0.015786299 0.17333101 2.5354199 14079448
-0.0120341 0.17326599 2.53562 6710632
-0.0018756 0.173345 2.5366499 14737377
0.0040002302 0.17026 2.5384901 14934756
0.0075774398 0.17037 2.54037 13092553
0.0114213 0.170221 2.5397301 5591894
0.0169673 0.17121699 2.5393 12697537
0.0205695 0.171221 2.53933 14671326
-0.31509301 0.187575 2.4671299 7303283
-0.31200299 0.18756001 2.4655399 12895688
-0.31189501 0.187565 2.4658501 13093067
-0.30866501 0.187666 2.46594 14080219
-0.291255 0.188393 2.47487 14277340
-0.28712901 0.185735 2.4758699 11645620
-0.283972 0.185912 2.47627 6579559
-0.262741 0.185192 2.4799399 4079425
-0.25883499 0.184779 2.4781201 10987690
-0.256118 0.184917 2.47721 14014169
-0.25278801 0.184651 2.4721899 14343133
-0.25167799 0.18370999 2.4737599 14474719
-0.167207 0.18296701 2.49999 14935270
-0.163846 0.182983 2.5009201 14803684
-0.15994801 0.182982 2.5018699 8158591
-0.154938 0.182445 2.5036099 5592408
-0.15128399 0.182679 2.50368 14079705
-0.15134799 0.182496 2.50367 14079448
-0.14772099 0.18247899 2.50296 14935014
-0.061615702 0.17733 2.52321 13619152
-0.059190501 0.178232 2.5241499 10395295
-0.059208401 0.17822599 2.5241201 10395295
-0.056457099 0.17681099 2.52388 3552823
-0.056456398 0.176827 2.5239 3552824
-0.046349101 0.178206 2.5271299 3289395
-0.043319099 0.177349 2.5256701 7368561
-0.0406885 0.17607 2.5246799 12763586
-0.037239999 0.174989 2.5246601 14276569
-0.017646899 0.176431 2.5354099 14605792
-0.0140155 0.176385 2.53455 13289932
-0.0104272 0.17639901 2.53492 6579045
-0.0033400999 0.17644399 2.5359199 12434623
0.000366163 0.17645 2.53666 15132136
0.0057675298 0.173354 2.53827 14408412
0.0074692001 0.176314 2.53808 13750225
0.0093979696 0.173443 2.5399101 10855334
0.018765399 0.174261 2.53845 14737119
-0.312543 0.190872 2.4650099 12435393
-0.316479 0.19034199 2.4665899 5066577
-0.309659 0.19051699 2.4639201 14145754
-0.312332 0.19076601 2.4649899 12698565
-0.28568399 0.188961 2.4755001 13487824
-0.26212201 0.190478 2.4793701 3289909
-0.25877801 0.18831401 2.4781499 9539988
-0.257615 0.18792599 2.47809 11316656
-0.25414699 0.18864401 2.47457 14145499
-0.25306901 0.187721 2.4762101 14343134
-0.165264 0.18603501 2.50002 14869476
-0.16160899 0.186041 2.5009201 13553616
-0.15306599 0.185757 2.5034499 7960956
-0.14940301 0.185892 2.5037899 14671842
-0.149508 0.185765 2.50348 14606049
-0.147636 0.182697 2.5027101 14869478
-0.14768399 0.182643 2.5030999 14869478
-0.149372 0.186066 2.5042 14540256
-0.063400403 0.180631 2.5252099 14935012
-0.059657801 0.181826 2.5237701 12303036
-0.059691802 0.181798 2.52372 12303293
-0.0569074 0.18043999 2.5231199 5263441
-0.0569048 0.180439 2.5231299 5263441
-0.056906901 0.180537 2.5230999 5263442
-0.053674299 0.180576 2.5234399 2697771
-0.0536642 0.18057799 2.5234699 2697515
-0.0503546 0.18122201 2.52508 2697515
-0.044550899 0.180884 2.5266199 4144704
-0.0385396 0.178427 2.5241899 14079190
-0.015783001 0.179442 2.5338399 15066343
-0.0121907 0.179436 2.5339301 11908278
-0.0051800399 0.179527 2.5346501 8750214
-0.0050394302 0.17948601 2.53421 9605523
-0.00141548 0.179525 2.5354199 14408412
0.00402126 0.176397 2.53655 14934500
0.016524401 0.177683 2.5376301 13158344
0.0172558 0.177204 2.5373299 14013652
0.020552101 0.177334 2.5369201 14868705
-0.31806299 0.193207 2.4658201 2040100
-0.313793 0.194094 2.4648199 11053484
-0.309331 0.193644 2.4642701 13553875
-0.31107599 0.19423001 2.4639001 13356238
-0.307511 0.194346 2.46664 13817045
-0.285707 0.19509199 2.4749801 14343134
-0.28391001 0.192029 2.47528 13685460
-0.28059101 0.19212499 2.47574 8224384
-0.26050201 0.193582 2.47894 3553081
-0.25847101 0.191863 2.4781499 8092798
-0.25551799 0.19266 2.47698 12171965
-0.253795 0.19145501 2.47719 13882583
-0.250765 0.191512 2.47615 14408926
-0.16690899 0.189072 2.49893 15066599
-0.15552901 0.188906 2.5016999 3224116
-0.15118399 0.18896399 2.50353 9671574
-0.14579 0.185794 2.5032899 14737635
-0.147595 0.188952 2.50333 14737891
-0.060337301 0.18554901 2.5248599 13290187
-0.060374498 0.18550999 2.5248699 13355724
-0.055488098 0.18360899 2.5225201 3223859
-0.055485401 0.183615 2.5225599 3223859
-0.0465925 0.18392199 2.5258501 2368550
-0.043374099 0.184002 2.52509 5592406
-0.039861601 0.181927 2.5246 13421516
-0.036849599 0.18113101 2.5232201 14276825
-0.0103041 0.18247899 2.5332201 10395039
-0.00307904 0.18260799 2.53424 11842485
0.00054680998 0.182642 2.5353701 14276826
0.0059976601 0.17952099 2.5365901 15000292
0.00769046 0.182716 2.53771 13618639
0.018912699 0.180401 2.5365 14868962
0.018300399 0.18077201 2.53738 14802912
-0.31568801 0.197037 2.4651699 7171953
-0.31834501 0.196266 2.4651301 3553339
-0.30876499 0.196695 2.46 13356495
-0.283925 0.198174 2.4747 14277341
-0.27889499 0.195208 2.4754701 8422019
-0.27371299 0.19515499 2.4723101 3882302
-0.26036799 0.197005 2.4788499 2631979
-0.25832301 0.195426 2.4782 6316386
-0.255898 0.19354101 2.4765501 11185069
-0.25302699 0.194425 2.47543 13882583
-0.24943499 0.19464999 2.47753 14474720
-0.164765 0.19212499 2.4988501 15066598
-0.160751 0.19213 2.4999399 14474463
-0.15732799 0.191971 2.5007601 6908267
-0.153659 0.19197001 2.5016 2763309
-0.149388 0.192046 2.5032699 11908536
-0.14581101 0.192036 2.5028 14803428
-0.144025 0.188949 2.50296 14737892
-0.112497 0.189679 2.5086701 14935012
-0.096479803 0.188337 2.5165601 14868963
-0.080593802 0.19046 2.5238299 14671840
-0.0630721 0.186886 2.5258701 14671840
-0.0581664 0.187727 2.5221801 8750213
-0.058203399 0.187695 2.5221801 8816007
-0.053823199 0.18673301 2.5218599 2697515
-0.0441886 0.18761501 2.5249701 4013374
-0.041848999 0.18495999 2.52372 9342349
-0.038278401 0.18488801 2.52176 13947603
-0.0135664 0.185489 2.53197 14276825
-0.00110616 0.18563101 2.5329399 12434365
0.0024365799 0.185721 2.53477 14737121
0.0060292198 0.185721 2.53545 14210776
0.0166684 0.183727 2.53619 13223880
0.0205203 0.18359099 2.53544 14934754
-0.32037601 0.199946 2.46681 1776671
-0.31750301 0.20000499 2.4654701 3619132
-0.315164 0.20028301 2.46523 6842988
-0.31441501 0.200078 2.4648199 8224641
-0.312107 0.20032901 2.46422 10330017
-0.309955 0.200716 2.4646499 12040635
-0.306853 0.200858 2.4646599 13882583
-0.28221399 0.201286 2.4745901 14343133
-0.28034601 0.198171 2.47474 13619410
-0.27541 0.197698 2.4737 5592920
-0.27309501 0.199224 2.4732599 3158322
-0.26094699 0.198771 2.47861 1974049
-0.258533 0.199073 2.4786999 3618874
-0.25552499 0.199121 2.47751 8948107
-0.25063699 0.19621 2.4741299 14277341
-0.245225 0.197464 2.4795599 14672098
-0.16627499 0.195177 2.49792 15000806
-0.162875 0.195172 2.4986 14671841
-0.159127 0.19517399 2.4995301 12895430
-0.155443 0.195031 2.5006399 3684410
-0.15179101 0.19503801 2.50156 3684668
-0.14766601 0.19516499 2.5030301 12698308
-0.147708 0.19506399 2.5026901 12369344
-0.143034 0.191962 2.5007 14869478
-0.117316 0.19142599 2.50758 14869219
-0.114962 0.192681 2.5079 14540511
-0.112508 0.193334 2.5102501 13750995
-0.102008 0.191498 2.5153 13882325
-0.095623799 0.19133 2.51531 14540255
-0.098092601 0.191588 2.5178699 14342876
-0.090927102 0.193019 2.51566 13948118
-0.083454199 0.191613 2.5258701 14737634
-0.075606301 0.193463 2.52935 14671840
-0.060881499 0.189211 2.5243199 14211033
-0.060937598 0.189151 2.52424 14211289
-0.0587143 0.19147199 2.5227201 10987176
-0.045860399 0.190668 2.52459 2894893
-0.042547099 0.188648 2.5244701 7236718
-0.039711699 0.18724699 2.5218599 13618894
-0.042726502 0.19079199 2.5244601 6710630
-0.038812101 0.18857799 2.52177 14408154
-0.0154176 0.18846001 2.53039 14803169
-0.0117676 0.188596 2.5318 13355980
-0.0081940005 0.18858901 2.5323901 8158077
0.0096418904 0.185785 2.5369799 11973815
0.0183936 0.18682 2.5357001 14539997
0.0216706 0.18704601 2.53578 14868705
-0.31673101 0.20324001 2.4660499 2369064
-0.312951 0.203113 2.46455 7435125
-0.31004199 0.203214 2.4636099 10987691
-0.28020099 0.20428801 2.4739101 14343390
-0.27865699 0.201305 2.4747 13685203
-0.27488601 0.20122901 2.4739001 7961212
-0.27242899 0.20269699 2.47316 5461078
-0.27003399 0.202996 2.47316 2566185
-0.259662 0.20184501 2.4783599 2039842
-0.255061 0.20261499 2.4772301 7698041
-0.25164601 0.198863 2.4727001 13356238
-0.25040099 0.199743 2.47598 14145755
-0.18649299 0.200703 2.4986999 15066856
-0.182808 0.200707 2.49845 15066855
-0.164453 0.198226 2.4976799 15000805
-0.16682699 0.19827899 2.4979401 14935269
-0.160961 0.19822501 2.49845 13684946
-0.157363 0.19823 2.49933 9605780
-0.153869 0.19823 2.5001199 2368550
-0.149313 0.198221 2.5020399 7303282
-0.14598 0.19831701 2.50228 13882583
-0.14435001 0.195143 2.50172 14869478
-0.142893 0.195208 2.50245 14869478
-0.130458 0.19674399 2.5055001 14935013
-0.127111 0.196918 2.5064001 14935013
-0.124119 0.197281 2.5069001 14671842
-0.120811 0.19473501 2.5067599 14606049
-0.11828 0.195161 2.5072401 14014168
-0.10342 0.194925 2.51542 7368817
-0.098654203 0.195085 2.5132101 7763832
-0.094031297 0.194601 2.5137899 10461088
-0.081270903 0.194042 2.52438 14277082
-0.064379103 0.19265801 2.52351 14737633
-0.061209001 0.19275901 2.52316 14408668
-0.057987001 0.192746 2.5213301 9013642
-0.056396998 0.19354001 2.5207601 5394771
-0.055101998 0.191471 2.5211201 2894637
-0.053253699 0.19367699 2.5208299 2960687
-0.0478516 0.19445799 2.52335 2763308
-0.040158901 0.190625 2.52214 13224137
-0.039116699 0.192312 2.52179 14605790
-0.036520898 0.19069199 2.5202799 14737376
-0.037831701 0.192674 2.5200701 14868962
-0.0135636 0.191788 2.53213 14868962
-0.0099882502 0.191742 2.53215 12697793
0.0165132 0.189918 2.5353501 12434365
-0.31742501 0.206011 2.4660599 1776670
-0.314477 0.20613299 2.4658 3487545
-0.31525099 0.20638201 2.46629 2631979
-0.31132901 0.206135 2.46438 8224385
-0.31123 0.206131 2.4644101 8421764
-0.308395 0.206264 2.4635401 13224909
-0.308415 0.206182 2.46294 13093323
-0.30531901 0.206332 2.4628201 14408927
-0.27417901 0.20468201 2.4737101 9606037
-0.27191499 0.206589 2.4726701 6184800
-0.25742799 0.20596001 2.4779799 2369064
-0.249736 0.201939 2.4730201 13882583
-0.249273 0.202925 2.4763501 14014169
-0.248 0.20522 2.4760699 14014425
-0.17743801 0.20273601 2.5019 15001063
-0.17600299 0.20280699 2.50407 15001063
-0.165012 0.20133799 2.4978199 14935013
-0.159299 0.20130999 2.4985099 14540255
-0.155514 0.2013 2.49931 6250337
-0.152007 0.2013 2.5001099 2039587
-0.14765 0.20134 2.5015299 8619142
-0.14434101 0.201455 2.5012901 14803427
-0.14112701 0.198263 2.5021 14935270
-0.14251301 0.19831 2.50124 14935271
-0.14284 0.201314 2.5015399 14935013
-0.13900299 0.198211 2.5012 14869477
-0.129363 0.1999 2.50525 14935269
-0.126329 0.20015199 2.5053899 14540255
-0.122686 0.20031101 2.5048001 11382191
-0.121152 0.198194 2.5051899 12434879
-0.115971 0.198504 2.5037701 4671305
-0.113605 0.199356 2.5041101 2829100
-0.097380303 0.198469 2.5149701 3224115
-0.094324902 0.19885001 2.5173099 3158321
-0.090898 0.197108 2.5183301 6447715
-0.086816996 0.199149 2.5193801 4342339
-0.084036402 0.199642 2.5209799 4934476
-0.080117904 0.196986 2.5209799 10395295
-0.068205699 0.196806 2.52191 14606048
-0.062888898 0.195747 2.5220301 14737376
-0.058547601 0.196362 2.52192 11447984
-0.054979902 0.19672699 2.5204899 3289652
-0.055031698 0.19673701 2.5204501 3355445
-0.044293899 0.19442999 2.5234001 4473926
-0.046069201 0.197605 2.5241399 2895151
-0.040428501 0.194362 2.52214 13224137
-0.035615299 0.19501001 2.5208099 15000547
-0.036900502 0.194571 2.52055 15000547
-0.0117629 0.194866 2.5316801 14803169
0.0210681 0.191503 2.53298 15000547
0.0183517 0.19303399 2.5353999 14737119
-0.346883 0.20986401 2.4552801 1842464
-0.34421501 0.21021201 2.4572401 1776927
-0.33739901 0.210306 2.4593401 2105635
-0.33242199 0.21022999 2.45788 2303014
-0.32962301 0.21071 2.4605801 2171428
-0.32493499 0.211106 2.46299 2303014
-0.31568599 0.20895299 2.4651999 2434600
-0.314091 0.209602 2.4656799 3224373
-0.309677 0.20908201 2.4633801 11514291
-0.30987599 0.20913 2.4635201 11053740
-0.30867001 0.209591 2.4626701 12961481
-0.30377999 0.209622 2.4616899 14409183
-0.27415001 0.20817199 2.4735799 11250862
-0.27069101 0.209639 2.47205 4539976
-0.26940799 0.20682199 2.4722199 2368806
-0.25869301 0.20881 2.47772 1776927
-0.254944 0.206203 2.4775 5724250
-0.25609499 0.20905 2.47753 2829358
-0.250673 0.20578501 2.4751401 12369344
-0.249185 0.207882 2.4712601 12435393
-0.18103001 0.204364 2.5007 14145754
-0.182816 0.206319 2.5044501 10263967
-0.172342 0.204539 2.5025599 14935270
-0.16887499 0.204345 2.4978199 14935270
-0.170708 0.20444 2.5002899 15001063
-0.160258 0.20438699 2.49809 14343132
-0.161745 0.20448899 2.4994099 14869476
-0.163627 0.204523 2.49984 14869477
-0.15735599 0.204356 2.4982901 13027016
-0.157286 0.204363 2.49839 12961224
-0.15393101 0.204356 2.4990399 4408133
-0.146266 0.20460001 2.5013399 10658468
-0.14080299 0.20145699 2.5004001 14869221
-0.141268 0.204335 2.50103 14935013
-0.139101 0.201323 2.5019901 14869221
-0.138982 0.20132899 2.5021801 14803685
-0.13547 0.201326 2.5022399 14869477
-0.127951 0.203025 2.5039899 13816532
-0.124807 0.203225 2.50386 10066331
-0.119549 0.201322 2.5030701 3750203
-0.116001 0.201565 2.50035 2039585
-0.080670297 0.20181599 2.5147099 3224114
-0.080990799 0.19976901 2.5200901 5790042
-0.070008501 0.199793 2.52033 14211546
-0.062530003 0.199788 2.5207601 14606047
-0.059160899 0.19991601 2.5209999 12369085
-0.055741601 0.199931 2.5197999 4868684
-0.043579999 0.19980299 2.5234101 5855578
-0.040804699 0.19809601 2.5222199 12566463
-0.038173199 0.196501 2.5204 14868961
-0.036059 0.198801 2.5192299 14934756
-0.0143487 0.19794001 2.53283 14934755
-0.010022 0.198035 2.5321901 14868962
-0.0064465599 0.198073 2.5321 10987176
0.0169369 0.19533999 2.5341899 13881810
0.0205182 0.195187 2.53227 15066084
-0.36288199 0.215905 2.4500101 1842720
-0.35949901 0.21608999 2.45187 1908257
-0.35651401 0.216353 2.4532399 1908514
-0.354224 0.213173 2.4533501 1974050
-0.34907201 0.213008 2.45491 1908257
-0.34246999 0.213238 2.4570501 5592664
-0.33896199 0.21325099 2.4579501 6908781
-0.33371001 0.212869 2.45509 8684935
-0.33284801 0.21283799 2.4562199 8092798
-0.32527199 0.214505 2.4651999 8092542
-0.321435 0.214505 2.4660699 6119008
-0.31493601 0.214589 2.4649899 6974574
-0.316596 0.21398 2.46347 5658457
-0.313593 0.213066 2.4655199 5856093
-0.30934399 0.212565 2.4632599 13422032
-0.30950099 0.21246199 2.4628 13224653
-0.30306301 0.21303999 2.4616899 14474976
-0.274459 0.21171699 2.4737101 12698308
-0.27205399 0.210245 2.4725599 7566454
-0.27009201 0.21245299 2.47159 5000783
-0.26821801 0.20992801 2.4719901 1974049
-0.26831999 0.20993599 2.47191 2039842
-0.25726399 0.211805 2.47703 1842463
-0.253481 0.20923799 2.4767699 6382180
-0.25039199 0.209324 2.47509 11514036
-0.167281 0.20742799 2.4971299 14869477
-0.168521 0.20753901 2.5002799 14869477
-0.169989 0.20764799 2.50299 14606049
-0.170534 0.207583 2.5016999 14540512
-0.171148 0.209197 2.5029399 12106171
-0.158595 0.20741899 2.4976001 13750995
-0.155742 0.20740999 2.4980299 10987690
-0.15545499 0.207399 2.4980199 10198174
-0.152079 0.20741899 2.49897 2565930
-0.14819001 0.20761099 2.5000501 5395285
-0.14432199 0.20778801 2.50106 12763844
-0.142648 0.20464 2.5006599 14934757
-0.139474 0.207381 2.50085 14869221
-0.139148 0.20475399 2.50125 14869221
-0.131699 0.204505 2.50369 14803427
-0.12986299 0.20609801 2.5043001 13816788
-0.123415 0.20606799 2.5019901 2894894
-0.119926 0.206117 2.5013499 2105633
-0.115818 0.205911 2.5030401 2105634
-0.106932 0.20483901 2.5060599 1842462
-0.100835 0.205616 2.50966 4210753
-0.077996098 0.20231199 2.5167799 3618873
-0.0753529 0.202806 2.5187299 5197904
-0.0682225 0.202915 2.52 13487567
-0.064636499 0.20292901 2.5198801 14540255
-0.061055101 0.202979 2.52016 14277339
-0.057672702 0.203079 2.51964 9211022
-0.054199699 0.20314901 2.5192499 3158323
-0.0543417 0.20316599 2.5192299 3223859
-0.0472284 0.20334999 2.52231 3026737
-0.043717802 0.203484 2.5230701 5000269
-0.045290101 0.202897 2.5232201 3684409
-0.041157801 0.20182 2.5221801 11513776
-0.011904 0.201198 2.5325699 15000549
-0.0083093103 0.201195 2.5321 14539742
0.0187279 0.198486 2.53477 15000291
-0.36355999 0.21907701 2.44997 1842464
-0.36106899 0.21912 2.4509699 1842464
-0.36050099 0.21904901 2.44996 1776927
-0.35293701 0.21637399 2.4535301 1842464
-0.34726599 0.21599901 2.4540901 6448231
-0.343862 0.216097 2.45524 10922154
-0.34044099 0.21614601 2.45631 12237757
-0.33590499 0.216115 2.45678 12369344
-0.33305499 0.216674 2.4596 13487824
-0.326417 0.217388 2.46369 12829895
-0.32355201 0.21779899 2.4665101 12500929
-0.318106 0.21799 2.46521 12172221
-0.31437901 0.218024 2.46439 12040636
-0.31213501 0.216085 2.46316 11974843
-0.30995601 0.216123 2.4635201 13619668
-0.30905101 0.216015 2.46295 14211804
-0.30390099 0.215767 2.4602201 14474720
-0.274367 0.215248 2.47365 13619154
-0.271909 0.213458 2.47207 8487556
-0.26865301 0.21555801 2.4712601 4342597
-0.26693499 0.21301401 2.4716599 1974306
-0.267066 0.213028 2.47159 2105635
-0.254944 0.215681 2.47715 1842463
-0.253553 0.21277 2.4767699 4342597
-0.25052601 0.212979 2.47563 9145487
-0.24795 0.21463899 2.4741099 11382705
-0.165571 0.21069901 2.50085 14079704
-0.156813 0.210476 2.4974201 12698051
-0.156371 0.210476 2.4975801 12171707
-0.152804 0.21047901 2.4981401 5197649
-0.15319499 0.21048 2.4981 6250337
-0.14528 0.21039499 2.4997301 8553350
-0.146111 0.210824 2.5001099 7237489
-0.141628 0.2104 2.4999001 14803684
-0.133597 0.20835499 2.50161 14737891
-0.131402 0.208975 2.5035 14408926
-0.12835599 0.209117 2.50282 11448240
-0.125048 0.20913699 2.50156 3289651
-0.121506 0.20916 2.5007901 2105377
-0.110951 0.20937601 2.5054901 1974048
-0.112258 0.20592999 2.50353 1973792
-0.108956 0.20798001 2.5060501 2039841
-0.105451 0.208018 2.5060301 3355700
-0.102349 0.208424 2.5077 6776937
-0.099018402 0.20859601 2.50876 10790310
-0.096006401 0.20893 2.5106599 12040121
-0.094273597 0.20599499 2.5120201 7566453
-0.091595598 0.20651101 2.5148301 8092797
-0.087954603 0.206524 2.51511 4408132
-0.073595598 0.205964 2.5191 3750459
-0.0700166 0.206003 2.5195999 8355969
-0.067045502 0.205899 2.51826 12698051
-0.062914602 0.206017 2.5194199 14408925
-0.059321102 0.20604099 2.5193701 12434879
-0.056191299 0.206203 2.5184801 5066320
-0.0526287 0.206275 2.51897 2500137
-0.041302301 0.205522 2.5220799 9934743
-0.0364796 0.202797 2.5201099 14934756
-0.0101334 0.20430499 2.5318899 15000549
-0.0065331501 0.204263 2.5309501 13816019
-0.0058075502 0.204464 2.53157 13092553
0.0174927 0.20094299 2.5332301 14408410
0.020988399 0.200872 2.5309601 14934498
-0.36360899 0.22221699 2.4509499 1711134
-0.35653999 0.222321 2.4512601 6250595
-0.352963 0.222335 2.45155 12961481
-0.351125 0.21935999 2.4526701 9803417
-0.345034 0.21884 2.45278 14277341
-0.342085 0.21911 2.4549999 14343391
-0.33725199 0.22113401 2.45874 14343391
-0.33393899 0.219375 2.4586699 14277341
-0.33089 0.21995801 2.46141 14277341
-0.31915599 0.22079299 2.4651899 14146011
-0.311809 0.21968301 2.46315 14145755
-0.31158301 0.21915901 2.4632699 14080219
-0.302984 0.21905699 2.4595201 14277341
-0.295957 0.21633001 2.4593 14343134
-0.29572701 0.21601599 2.4568901 14343134
-0.271557 0.216997 2.47207 8882314
-0.252327 0.21589699 2.47668 4013632
-0.250545 0.21663301 2.47613 6447974
-0.25364399 0.218797 2.47702 1842463
-0.245554 0.216416 2.4728601 13158859
-0.181566 0.215543 2.4956801 13487565
-0.165898 0.21397699 2.4985499 9540244
-0.164387 0.21246 2.49825 13685203
-0.158454 0.213497 2.4964199 14409182
-0.15112799 0.213506 2.4977601 3750461
-0.151427 0.213506 2.49772 4474184
-0.144152 0.21386801 2.4999001 10000795
-0.14349499 0.213441 2.49932 11579827
-0.12992699 0.212008 2.5021 12040121
-0.13269199 0.21175 2.5019701 14277083
-0.126525 0.21261901 2.50102 4145218
-0.123222 0.212165 2.5002301 1974048
-0.11944 0.212153 2.50067 1974047
-0.112833 0.21206599 2.5027399 2237220
-0.107269 0.211096 2.5049801 4868940
-0.10371 0.21109501 2.5052299 10395552
-0.104164 0.21125001 2.5055599 9803158
-0.100641 0.211454 2.5070701 13421773
-0.097837798 0.21191999 2.5095899 14145752
-0.085358202 0.209493 2.5143399 6645094
-0.0718005 0.209077 2.51896 2895150
-0.068209998 0.20909201 2.51916 7039853
-0.065182202 0.209032 2.51823 11579570
-0.057646099 0.209141 2.51842 8816264
-0.054140199 0.20920099 2.5181401 2368807
-0.045817699 0.2101 2.52178 2368550
-0.041579999 0.20916501 2.5218699 7829368
-0.043962002 0.20703401 2.5225101 3553080
-0.0385837 0.20807999 2.5202999 14342875
-0.035924099 0.20652699 2.51842 14868963
-0.035452999 0.20664901 2.51916 14868963
-0.0120727 0.20750999 2.5319099 14934756
-0.00766826 0.20765799 2.53211 14802914
-0.0041042501 0.207647 2.5311501 11052970
0.0190247 0.204151 2.5320201 15066084
-0.361855 0.225236 2.45 1710878
-0.35621601 0.224225 2.44995 12106429
-0.3583 0.225292 2.45016 9343122
-0.35147899 0.224829 2.4475801 14145755
-0.34937301 0.22237299 2.4516201 14343134
-0.34551999 0.222316 2.45119 14343134
-0.29639301 0.21949799 2.45895 12566723
-0.29339901 0.220468 2.4604199 11250607
-0.291466 0.220707 2.45507 7632248
-0.29007199 0.219154 2.45456 10329761
-0.251151 0.22015899 2.4763501 2631979
-0.25103199 0.21901099 2.47648 3618874
-0.248703 0.2186 2.4760499 7763833
-0.249098 0.21911301 2.4762499 6645352
-0.245482 0.218775 2.4764099 11777206
-0.245675 0.219576 2.4763899 10592932
-0.242101 0.21960799 2.4769399 12501186
-0.238429 0.219607 2.47767 14211547
-0.23465601 0.219598 2.47807 14474719
-0.229487 0.219916 2.4818599 14606305
-0.17975099 0.218867 2.4951701 14935013
-0.178121 0.217278 2.4948201 13487823
-0.14707799 0.21684 2.4981101 2303015
-0.14249 0.21688101 2.49933 11711413
-0.141609 0.21648601 2.49898 13553617
-0.137895 0.21649501 2.4993 14671842
-0.134664 0.214735 2.5007501 14737635
-0.128461 0.215065 2.5002799 5855836
-0.124872 0.215637 2.4991701 1974048
-0.116145 0.21402 2.5005801 2697770
-0.110817 0.212672 2.5037 3487030
-0.105182 0.21397699 2.5037799 13290444
-0.104163 0.214509 2.5028601 14408668
-0.099241398 0.214642 2.5072 14671840
-0.091811202 0.21629199 2.5179701 14803426
-0.089741297 0.21592499 2.51566 14737633
-0.086614802 0.21245401 2.5138199 12895429
-0.086875603 0.212551 2.51407 13158602
-0.086471297 0.215681 2.5163701 14671840
-0.083241902 0.212791 2.5151701 11053226
-0.079235896 0.213047 2.5160201 7171439
-0.071187101 0.212098 2.5170801 1842462
-0.066877499 0.212171 2.51826 5329491
-0.063379899 0.212162 2.51775 10790054
-0.059536599 0.21224999 2.5181401 13882325
-0.055967599 0.212231 2.51735 4408133
-0.056014702 0.212265 2.5173299 4474182
-0.052415401 0.212299 2.5177901 2171429
-0.042488899 0.21267 2.5217099 5197648
-0.0394978 0.211601 2.52033 13158344
-0.0392313 0.212705 2.5204201 13421516
-0.036496799 0.210602 2.5192599 14934499
-0.036366601 0.21026599 2.5186801 14868963
-0.0095442096 0.21079899 2.5318601 14934756
-0.00596203 0.21079101 2.5311699 14474205
0.016978901 0.20768701 2.5327899 13816017
0.020576701 0.20748401 2.53056 15000291
-0.363729 0.228247 2.44909 1776927
-0.36013299 0.22826099 2.4489901 10263968
-0.35486501 0.227139 2.4486401 14145755
-0.29649699 0.2226 2.4567101 6316132
-0.180832 0.22095001 2.4965501 14935269
-0.18258099 0.221532 2.5023799 14935269
-0.176347 0.220525 2.49387 14935269
-0.169935 0.220431 2.4944799 11908790
-0.148781 0.219863 2.49737 2631980
-0.145206 0.21986599 2.4978001 3882303
-0.141078 0.219899 2.49863 12763844
-0.135858 0.217352 2.4977801 14474463
-0.134075 0.21816 2.4995301 13750740
-0.130376 0.218114 2.4995699 5790043
-0.12661099 0.218793 2.49947 1973792
-0.123071 0.218785 2.49839 4473925
-0.119467 0.21542101 2.4988301 2895149
-0.116152 0.217308 2.49862 9342864
-0.1128 0.215864 2.4998901 9013899
-0.111617 0.21631999 2.5018799 10329759
-0.108405 0.218026 2.5011699 14672097
-0.091309004 0.219447 2.51685 14869475
-0.084956497 0.21601599 2.5164299 14671584
-0.087320201 0.21899 2.51843 14803426
-0.081073299 0.21602499 2.5158 13750739
-0.077240802 0.21608301 2.5154099 10592931
-0.070098497 0.21610101 2.5160401 1842462
-0.062516198 0.21600699 2.5162699 9935001
-0.0544356 0.21547399 2.5167601 2368807
-0.044413202 0.215703 2.5210199 2565929
-0.041178301 0.215808 2.52054 8355712
-0.034630898 0.21323501 2.51792 14934499
-0.0078249499 0.213912 2.5311301 15000549
0.0188135 0.21073601 2.5322101 14803168
-0.356426 0.23008899 2.44855 14014426
-0.35155299 0.23134699 2.44923 14277341
-0.35359299 0.23039401 2.44959 14080219
-0.34981701 0.228341 2.44961 14211804
-0.178912 0.223636 2.49493 14869476
-0.175467 0.22363 2.4949999 14869476
-0.171572 0.22343101 2.4930799 14803683
-0.173272 0.223545 2.4941001 14935269
-0.167988 0.22343101 2.49384 13948374
-0.164545 0.223425 2.4945099 10395552
-0.146293 0.22292501 2.4976499 1776670
-0.143445 0.222885 2.49739 5329749
-0.139483 0.22292601 2.4980099 13882581
-0.135649 0.220947 2.4974501 12763844
-0.131909 0.220966 2.49791 4210754
-0.124784 0.221902 2.49826 5592663
-0.119588 0.21888199 2.4988401 9145485
-0.116158 0.220594 2.49663 14145752
-0.107277 0.221312 2.50137 14803683
-0.104582 0.21803901 2.5011201 14803426
-0.085092001 0.218642 2.51419 14737633
-0.082165301 0.218995 2.51563 14671840
-0.078994296 0.21938001 2.5165801 14474461
-0.074737102 0.21917 2.5154901 12632514
-0.071123302 0.219173 2.5157399 7961211
-0.068394303 0.219127 2.51542 3487287
-0.060848501 0.219064 2.51601 8816263
-0.0560432 0.21856201 2.5165999 5066319
-0.046345402 0.218712 2.5197001 2171428
-0.042086199 0.219349 2.51999 6184543
-0.037870999 0.21583 2.51912 14803169
-0.039838102 0.218998 2.5193501 12171705
-0.035987299 0.217053 2.51792 14934756
-0.0061164498 0.216993 2.53 14934756
-0.00252034 0.21698201 2.5297699 12566208
0.0173406 0.213623 2.53087 14079189
-0.35791901 0.232853 2.44698 14211805
-0.348194 0.23194399 2.45239 14343390
-0.171289 0.226546 2.49349 14803683
-0.166133 0.226439 2.4932599 14803427
-0.158667 0.226465 2.49474 7500660
-0.143829 0.225988 2.49788 2895408
-0.13762 0.22593901 2.4974699 11184812
-0.134139 0.225934 2.4974999 3223859
-0.12625 0.22314399 2.49857 2631978
-0.121418 0.22178499 2.49701 11842741
-0.123252 0.224231 2.4974799 11448240
-0.119547 0.222102 2.49611 13948117
-0.083055504 0.221582 2.51301 14803426
-0.079367198 0.221752 2.5128 14737633
-0.079150103 0.22183201 2.5139101 14672097
-0.076681301 0.22230101 2.51565 14671841
-0.073136903 0.22222 2.51509 14145497
-0.065970398 0.222201 2.5153799 3289651
-0.059353899 0.22211701 2.51566 6052958
-0.046943899 0.222698 2.51862 2105635
-0.040201701 0.22194301 2.5183101 11645362
-0.0363505 0.21889 2.5167501 15000549
-0.0341538 0.219621 2.5160899 15000548
-0.0079253502 0.220025 2.5292699 14868963
-0.0043360898 0.220038 2.52929 14737377
-0.000741661 0.22003999 2.5292201 10395039
0.019161699 0.216662 2.5302899 14934498
0.018684199 0.21729299 2.5310099 14605532
0.0226955 0.216732 2.5299001 15000290
-0.356273 0.23587 2.4461801 14277598
-0.34628901 0.23469301 2.45065 14474976
-0.166711 0.229516 2.49314 14935269
-0.158562 0.22958399 2.49508 13553616
-0.15240701 0.22968499 2.49529 5066062
-0.14862099 0.229702 2.4958999 2105634
-0.142646 0.228967 2.4974799 3947838
-0.13887 0.22897901 2.49718 9408657
-0.134854 0.22900601 2.4970901 2171427
-0.131377 0.229003 2.4974799 2105377
-0.130637 0.225933 2.4978299 2039584
-0.125678 0.227479 2.4991 7434610
-0.120271 0.225329 2.4969001 14606047
-0.123392 0.225281 2.4980199 11974583
-0.118539 0.225583 2.4953301 14737890
-0.081668802 0.225122 2.51354 14869220
-0.078096397 0.225117 2.5138099 14869219
-0.075103298 0.225456 2.51559 14803426
-0.071987897 0.225679 2.5155301 14671840
-0.067637697 0.225262 2.51422 11514033
-0.057500899 0.225196 2.5156901 3553080
-0.054836001 0.225145 2.5151601 2368807
-0.0432753 0.222762 2.5196199 3881789
-0.045217201 0.22582801 2.5188501 2302757
-0.041255999 0.22540399 2.51805 9079435
-0.038357001 0.22214501 2.5180199 14671839
-0.037363999 0.222478 2.51616 15000549
-0.0061478801 0.22308999 2.5286801 15000549
-0.00175629 0.223102 2.5290101 13421517
0.020537499 0.219611 2.52721 15000290
0.020858601 0.2199 2.52966 15000290
-0.34406 0.238061 2.4509699 14409184
-0.16270299 0.232658 2.4946401 14869733
-0.159161 0.232658 2.49511 14935269
-0.153234 0.232537 2.4949701 10856103
-0.15007199 0.23275401 2.4955201 6250849
-0.140902 0.232052 2.4967501 5526613
-0.133092 0.23205499 2.49701 2039584
-0.122224 0.229274 2.49774 14408925
-0.122762 0.228837 2.4981201 14211545
-0.118802 0.22924501 2.49544 14737890
-0.116202 0.227607 2.4936199 14803683
-0.065597102 0.22831 2.5138099 11250861
-0.062871099 0.228257 2.5142701 6250593
-0.059519399 0.22824401 2.51476 2500392
-0.058798801 0.22827899 2.5144 2302757
-0.056086801 0.228236 2.5141301 2303270
-0.0470437 0.22881299 2.5176799 2105635
-0.042849701 0.228705 2.5178599 5000269
-0.036808498 0.22527801 2.51653 15131878
-0.0036307201 0.226246 2.52877 14934499
-4.77535e-05 0.22626001 2.5285201 11974071
0.0189083 0.22303499 2.52964 14539996
0.0225843 0.22309899 2.53036 15000290
-0.34527001 0.241134 2.45083 14409183
-0.34175199 0.241294 2.4509399 14343391
-0.338278 0.241502 2.4514799 14277598
-0.331453 0.24151 2.4519401 4671563
-0.15701 0.235686 2.4948399 14803940
-0.155155 0.235728 2.49544 14803683
-0.151454 0.23566499 2.4946799 12566721
-0.149739 0.234203 2.4949601 7764088
-0.14066499 0.235007 2.4948001 3026736
-0.12754001 0.23233201 2.4986501 5000269
-0.127527 0.23270699 2.49861 5066062
-0.124019 0.232353 2.49821 12895686
-0.124561 0.231921 2.49774 12171963
-0.120719 0.23256899 2.49546 14672097
-0.11732 0.232576 2.4935501 14803683
-0.076259397 0.230629 2.5109799 14935012
-0.073627599 0.23120899 2.51387 14869220
-0.070321903 0.23119099 2.51368 14803426
-0.063685 0.23134001 2.5132899 11513776
-0.060164601 0.231336 2.51372 4671561
-0.060927399 0.23130301 2.5137999 6250336
-0.056685001 0.231327 2.5141101 2105891
-0.0569636 0.23131301 2.5139101 2171427
-0.048445299 0.231648 2.51671 2105635
-0.045807101 0.229513 2.5181999 2171428
-0.043986499 0.232196 2.5179601 3223858
-0.040992599 0.231272 2.51634 10329502
-0.037811998 0.231488 2.5169499 14803426
-0.0054637501 0.22926299 2.52771 14802913
-0.00189045 0.229349 2.52824 14473948
0.00164474 0.229386 2.5276201 9276302
0.00161434 0.229406 2.5276301 9342096
0.0171763 0.22611301 2.52895 12697792
0.020741999 0.226143 2.5298901 15000290
-0.34363899 0.244537 2.4517 14474720
-0.34009501 0.244517 2.45104 13882583
-0.34040901 0.244526 2.45067 14079962
-0.336505 0.244551 2.4507699 6513510
-0.33312801 0.244543 2.4512701 2236965
-0.150218 0.238952 2.4949501 13948375
-0.149762 0.238895 2.4946499 13487823
-0.153429 0.238904 2.4960401 14672097
-0.14788 0.237252 2.49419 8553348
-0.147127 0.23622701 2.4942801 6250593
-0.14407299 0.236261 2.49279 2434856
-0.13101301 0.238249 2.4979501 2434342
-0.12771299 0.23835599 2.4976201 5921628
-0.125717 0.23531701 2.4978299 10132124
-0.122282 0.236081 2.49594 14672097
-0.119925 0.235625 2.49546 14737890
-0.119402 0.236412 2.49633 14737634
-0.113066 0.236147 2.4941199 15000805
-0.069727801 0.234447 2.5158 14803427
-0.067733198 0.23435 2.51367 14803426
-0.0618622 0.234357 2.51264 10526881
-0.062445499 0.234345 2.51263 11645363
-0.058297802 0.234356 2.5131099 3487288
-0.053385802 0.23421 2.5127299 2105635
-0.039701201 0.23443601 2.5155301 13553359
-0.00375468 0.23247001 2.52794 14934499
-0.00023084899 0.232565 2.52788 13750225
-0.000256411 0.232512 2.5274601 13684176
0.0032459099 0.232512 2.5260999 6579045
0.0189941 0.229261 2.5293 14342361
-0.338572 0.24751601 2.4498601 4342341
-0.33126801 0.24758101 2.4512701 2105379
-0.326047 0.247484 2.4521999 5790043
-0.15074199 0.242861 2.49632 14540512
-0.145382 0.239189 2.4930401 5724250
-0.147828 0.24095701 2.4944999 12303549
-0.1445 0.241506 2.4926 5592663
-0.132938 0.241257 2.4977601 2105634
-0.129778 0.241385 2.4974799 3618872
-0.124269 0.23916 2.4957299 14211547
-0.124344 0.23835599 2.49617 14079704
-0.119402 0.239096 2.4958899 14737634
-0.1155 0.237029 2.4937699 14869476
-0.112394 0.239996 2.4953599 15001061
-0.069551699 0.23741899 2.5134301 14803684
-0.066049002 0.237443 2.51279 14803426
-0.064072303 0.237372 2.5114601 14474462
-0.060122501 0.23739401 2.5120299 9013899
-0.055328902 0.23738 2.5123999 2039841
-0.047582 0.23832101 2.5150499 2039841
-0.045582499 0.23536 2.5165 2237220
-0.0424578 0.235044 2.5164499 6579300
-0.042045798 0.235392 2.5158 7960953
-0.037990302 0.237543 2.5153301 14934754
-0.0022227401 0.235635 2.5272999 15000291
0.00124052 0.235725 2.52648 12500159
0.0211675 0.232696 2.53124 14671068
0.0207671 0.23234899 2.5291901 14737118
-0.34017301 0.25054801 2.44926 3553081
-0.33697399 0.25052601 2.4495699 2171428
-0.336595 0.25055501 2.4498 2236965
-0.333408 0.250534 2.4503 2039585
-0.32710701 0.25049999 2.45155 10000794
-0.150598 0.246591 2.4967799 14737891
-0.147857 0.24455699 2.49453 13948375
-0.145319 0.24277601 2.49299 8487812
-0.142976 0.244619 2.49207 4737611
-0.13165499 0.24426 2.4960799 2829357
-0.12587599 0.242034 2.49455 12764100
-0.122768 0.24225 2.49441 14672097
-0.115963 0.24237099 2.4942801 14869476
-0.113168 0.242614 2.4939101 15000806
-0.067903802 0.24055199 2.5127299 14869220
-0.064332403 0.24053501 2.5118201 14803426
-0.061473001 0.24042401 2.5114 13158602
-0.057016902 0.240401 2.5113599 4013631
-0.053197101 0.24041 2.5121901 2039841
-0.043761 0.23863199 2.5153201 5066318
-0.0440831 0.238479 2.51566 4145216
-0.00109983 0.238848 2.52637 14934498
0.0031804601 0.239106 2.52421 8355457
0.00538183 0.236157 2.52562 5131856
0.017318301 0.235882 2.5274899 12434362
0.0243543 0.235395 2.52685 14868704
0.0229678 0.23563901 2.5294299 14868704
0.0225718 0.235504 2.52965 14868448
-0.342022 0.253512 2.44822 3553081
-0.33878899 0.25348699 2.44841 1974049
-0.33187899 0.25348899 2.4496601 5197905
-0.32853901 0.25347701 2.4503901 12829636
-0.150979 0.24679001 2.49384 14737891
-0.145137 0.246391 2.4930301 10790311
-0.147627 0.248117 2.49437 14474719
-0.142207 0.246226 2.4917901 4342597
-0.13941 0.246518 2.4918599 2105635
-0.127468 0.245414 2.4948001 9869208
-0.125184 0.245177 2.49471 13553360
-0.124894 0.245408 2.49456 13750739
-0.121512 0.245488 2.4939699 14737890
-0.119295 0.24607 2.4952199 14803427
-0.11237 0.24615601 2.49401 15000805
-0.066225097 0.24366599 2.5118699 14869220
-0.062019698 0.24356499 2.51104 14606047
-0.058345001 0.243452 2.5104499 8421506
-0.054836102 0.24344701 2.51103 2105634
-0.045298401 0.241882 2.5145299 3224114
-0.0421721 0.241421 2.51366 9803414
-0.039038099 0.241414 2.51349 14869218
-0.00326961 0.24186601 2.52544 14868705
2.15377e-05 0.241941 2.5243399 13881810
0.00463943 0.239407 2.52442 5789530
0.015645999 0.23913001 2.5281701 6579043
0.0193014 0.238655 2.5277901 12828865
0.022887001 0.23869701 2.52776 14868704
-0.32993701 0.256432 2.4491 14211547
-0.32655999 0.25645 2.4500201 14672098
-0.15032201 0.249769 2.49242 14803683
-0.145071 0.249933 2.4928899 12764100
-0.140626 0.24945199 2.4914501 3684666
-0.131827 0.24878 2.4949 2237220
-0.12857001 0.24896599 2.4951799 5461076
-0.124226 0.24862599 2.49523 12829637
-0.120306 0.248752 2.4939001 14672097
-0.117777 0.24929 2.4951301 14803427
-0.112435 0.248301 2.48963 14935013
-0.063615397 0.24649499 2.5086901 14869476
-0.060044799 0.24649601 2.5093999 12435135
-0.056111801 0.24654999 2.51015 3947838
-0.0472911 0.24481 2.5128701 2434599
-0.043719899 0.244902 2.5125799 7566196
-0.041035101 0.244441 2.5121701 13553358
-0.0374723 0.24448501 2.5111799 14803169
-0.00057904999 0.245506 2.5234101 13421515
-0.0027733699 0.24324401 2.5251999 14868705
0.0065964302 0.242477 2.52404 3882046
0.0046606502 0.242274 2.52333 4539462
0.0175617 0.24225201 2.5276999 7565938
0.0210409 0.241836 2.52794 13684430
0.024628401 0.24173 2.5263801 14934496
-0.331085 0.259426 2.4481299 14672355
-0.327521 0.25942901 2.44873 14672098
-0.32458401 0.259397 2.4494901 14672355
-0.32128501 0.25938401 2.4502201 14672355
-0.15186 0.25292799 2.49282 14737891
-0.1486 0.252902 2.4922199 14672097
-0.14282 0.25277501 2.49225 10329759
-0.136452 0.25295699 2.4931099 1842719
-0.125999 0.251719 2.4949801 7039853
-0.121989 0.251973 2.4952199 12566465
-0.118449 0.251948 2.4939001 14540255
-0.115897 0.25248599 2.49491 14803427
-0.116057 0.25255299 2.49545 14803427
-0.113075 0.252911 2.4958501 14869219
-0.108897 0.24929 2.49123 15066598
-0.065310098 0.249568 2.50793 14935269
-0.061771799 0.249569 2.5086 14079960
-0.0578072 0.24956501 2.50914 7960955
-0.054258801 0.249571 2.50962 2303013
-0.0490008 0.247614 2.5109301 2303013
-0.042686298 0.24802899 2.5109601 12763843
-0.039497402 0.24809299 2.5094299 14868961
-0.039770201 0.247622 2.5114 14868961
-0.037261602 0.248742 2.5106201 14737632
-0.00630514 0.248464 2.5206101 14934753
-0.0022979099 0.248495 2.52162 14671326
0.00125598 0.248486 2.52213 10394781
0.0029184599 0.245289 2.5216 6907752
0.0048599201 0.24545699 2.52249 4407875
0.0136141 0.24809501 2.52528 2763563
0.0157366 0.24536701 2.5275199 3815994
0.0190295 0.245528 2.5274799 8420990
0.022627 0.244974 2.52666 14342360
0.0261421 0.245024 2.52599 14803168
-0.33271599 0.26236701 2.4468999 14672098
-0.32904899 0.26233399 2.4472101 14737891
-0.32947901 0.26234201 2.44717 14737891
-0.32732201 0.26217401 2.4461501 14672355
-0.326085 0.262371 2.4482601 14738147
-0.146754 0.25609201 2.49242 14606048
-0.14156801 0.25593001 2.49189 10461345
-0.143721 0.256037 2.4923401 13750739
-0.137612 0.25574401 2.4913499 4013631
-0.133918 0.25619701 2.49401 3882044
-0.120853 0.255481 2.4949901 11184812
-0.121053 0.25560501 2.4950099 11908535
-0.117275 0.255474 2.49523 14342876
-0.117438 0.255584 2.4951501 14211290
-0.117539 0.255557 2.49512 14145753
-0.114144 0.25574401 2.49489 14737634
-0.111408 0.25631499 2.49686 14803427
-0.105943 0.25314099 2.4970901 15000806
-0.067607097 0.25262201 2.50702 14935269
-0.063550599 0.25265899 2.5079801 14935269
-0.059907801 0.25262001 2.5083799 12763843
-0.0563384 0.25262299 2.5088999 5000526
-0.052547898 0.25264201 2.5097899 1974048
-0.048020002 0.25085199 2.5107701 3487544
-0.044748601 0.251019 2.51056 9671828
-0.0075787902 0.251609 2.5204899 15000290
-0.0039903098 0.25161201 2.5211301 15000547
0.000485711 0.25166899 2.52177 12631743
0.00305264 0.248541 2.5218101 6052699
0.0152946 0.251315 2.5259199 2697513
0.0241668 0.24807601 2.5250599 14802911
0.0206066 0.248779 2.52669 10131608
-0.147205 0.25914299 2.49124 14540511
-0.14321101 0.25916201 2.4920599 14408925
-0.139862 0.25913 2.4923501 12435135
-0.13561501 0.25920799 2.4932301 9277071
-0.131972 0.25915599 2.4932599 8882313
-0.128207 0.25905001 2.49353 5790042
-0.119182 0.258663 2.49472 10066330
-0.115511 0.25858101 2.4952099 13750995
-0.112075 0.258899 2.4949999 14672097
-0.108883 0.259242 2.4962101 14803427
-0.106374 0.255476 2.49312 15000805
-0.066406503 0.25567099 2.50667 14935269
-0.062045999 0.25573 2.5077901 14803426
-0.054951701 0.25568399 2.50858 4079424
-0.046645299 0.25411001 2.5106101 5527126
-0.043342698 0.25410199 2.50896 13290187
-0.040562999 0.252891 2.50756 14737632
-0.0041971798 0.254868 2.5226099 14934754
-0.00074659497 0.254875 2.5223501 15000547
0.0025454301 0.25485 2.52198 10329245
0.0048203398 0.25171599 2.52231 4276289
0.0076686698 0.251816 2.5228 2763307
0.0079947403 0.25181201 2.5232501 2829100
0.018667299 0.251546 2.5265601 4605253
0.025846601 0.25123999 2.52509 14934753
-0.141849 0.26236099 2.49277 14474461
-0.138658 0.26269099 2.49493 14277338
-0.126243 0.262059 2.49299 6381922
-0.117226 0.26167801 2.49488 8947849
-0.113682 0.26173401 2.4953201 12829636
-0.109889 0.26163799 2.49506 14606048
-0.106643 0.26185599 2.4956501 14803683
-0.066923797 0.25885499 2.5074401 14935268
-0.062902898 0.25890401 2.5085001 14869219
-0.056107201 0.258856 2.5083499 9408400
-0.047436099 0.25935501 2.5076301 5526869
-0.048160501 0.25696999 2.5094199 4144961
-0.0441604 0.25775099 2.50912 12369084
-0.00266973 0.25803199 2.52231 14934755
0.00100823 0.258035 2.52227 14671839
0.0038988199 0.25800401 2.5213001 10131866
0.0059584598 0.25490299 2.5220399 3750202
0.00630221 0.254857 2.5220101 3421237
0.017266201 0.25490001 2.52565 2960685
0.0203654 0.25428399 2.5250001 7894902
0.0239424 0.25447601 2.5262101 14079188
0.0275212 0.25424501 2.5232501 14934754
-0.135217 0.26506099 2.48963 14408925
-0.13126799 0.26508799 2.4911599 14343132
-0.127858 0.26508 2.4917901 11842998
-0.124414 0.26514101 2.4928 5987421
-0.115256 0.26473999 2.4946201 7500403
-0.107972 0.264734 2.4946499 14606048
-0.10488 0.26502001 2.49523 14869476
-0.104444 0.26503199 2.4953301 14869476
-0.061453901 0.26181501 2.5072801 14869219
-0.0638633 0.2622 2.50967 14869219
-0.060546 0.26216701 2.5095 14803426
-0.0544306 0.26205799 2.5090401 10855846
-0.0576488 0.262099 2.50911 14408668
-0.0505419 0.26187301 2.5082901 5658456
-0.044171199 0.26107299 2.5075901 13487566
-0.040851299 0.259303 2.5074799 14606046
-0.0043672202 0.26119 2.5223501 14934754
-0.000741645 0.26118901 2.52226 14934755
0.0054660202 0.261098 2.52126 10526624
0.0076439101 0.25801501 2.5216501 3552823
0.0112705 0.25815901 2.5229001 3026479
0.0151958 0.257783 2.5234001 2763563
0.0161607 0.260306 2.5223801 3487030
0.0220415 0.25730199 2.5232999 12171447
0.018963 0.257658 2.5242901 5131853
0.0252901 0.25732601 2.52163 14934754
-0.140865 0.268365 2.48947 14803427
-0.136867 0.26808301 2.4888201 14737890
-0.12936901 0.268123 2.4909301 14474461
-0.12239 0.26815999 2.49246 4803147
-0.118883 0.268159 2.4931901 1973791
-0.113488 0.26784 2.4946001 5855579
-0.109708 0.26785299 2.49475 11513776
-0.105654 0.26824501 2.49632 14606048
-0.100927 0.265048 2.49508 14869476
-0.065616399 0.26645401 2.50317 14935012
-0.059698299 0.26492599 2.5072601 14803426
-0.052344099 0.264889 2.5075099 11448239
-0.0485125 0.264763 2.50701 11250860
-0.044170901 0.26428601 2.5051799 14606046
-0.040706798 0.26280901 2.5065 14671582
-0.039453398 0.26239401 2.5067 14606047
0.00107751 0.264337 2.5220201 14934754
0.00457863 0.26431701 2.5217199 14342874
0.0107451 0.26316199 2.52195 4079166
0.018004799 0.263221 2.52104 7763317
0.0199428 0.260346 2.52265 8421503
0.0231898 0.260427 2.5215199 14474202
-0.134505 0.27116001 2.4890699 14803426
-0.131163 0.27114001 2.4897101 14803683
-0.127717 0.271135 2.4904201 13948373
-0.124442 0.27115801 2.4913599 10527138
-0.120514 0.27119201 2.49212 4013631
-0.120499 0.27118501 2.4921 4013630
-0.11137 0.270906 2.4945199 5460821
-0.107862 0.27096099 2.49437 10987432
-0.107284 0.27127701 2.4955299 11316397
-0.103689 0.27128401 2.49613 14606047
-0.103775 0.27127701 2.4962499 14540511
-0.100117 0.27128899 2.4967999 14869476
-0.100358 0.27126899 2.49686 14869476
-0.0632824 0.26717401 2.50476 14869219
-0.060384098 0.26734301 2.50401 14868963
-0.057941802 0.268042 2.5072501 14869219
-0.054160301 0.26791301 2.5067699 14474460
-0.049057599 0.26840901 2.5060699 13750737
-0.045467801 0.265912 2.5057001 14342874
-0.040740501 0.266251 2.5055499 14671839
0.0025788201 0.26744899 2.52141 14934754
0.0100879 0.266922 2.5217199 9934486
0.0146026 0.264714 2.51982 5000011
0.0220304 0.26464701 2.51841 14737374
0.022452099 0.265827 2.5207701 14671838
-0.133413 0.274142 2.48826 14737633
-0.12597799 0.27416301 2.4900701 13422029
-0.122533 0.27418599 2.49103 8882312
-0.119064 0.27418199 2.49175 3750458
-0.112778 0.27377799 2.4932499 2566185
-0.109446 0.273992 2.4942 5066319
-0.109553 0.27399001 2.4942501 4934476
-0.102586 0.274268 2.49529 14211546
-0.102638 0.27426401 2.49541 14145753
-0.095936902 0.27424601 2.4962201 14803684
-0.0633462 0.27113199 2.50666 14869219
-0.057806801 0.269941 2.50176 14803426
