ply
format ascii 1.0
comment PCL generated
element vertex 1138
property float x
property float y
property float z
property uchar red
property uchar green
property uchar blue
element face 0
element camera 0
property float view_px
property float view_py
property float view_pz
property float x_axisx
property float x_axisy
property float x_axisz
property float y_axisx
property float y_axisy
property float y_axisz
property float z_axisx
property float z_axisy
property float z_axisz
property float focal
property float scalex
property float scaley
property float centerx
property float centery
property int viewportx
property int viewporty
property float k1
property float k2
end_header
0.0882921 0.197871 6.7321501 28 28 30
0.117578 0.18923099 6.7339802 99 99 101
0.127552 0.18923301 6.7328401 211 211 213
0.137437 0.189245 6.7318501 223 223 225
0.147361 0.18925899 6.73067 223 223 225
0.157681 0.189596 6.7410998 223 223 224
0.17460901 0.193354 6.74122 224 224 226
0.184095 0.19341099 6.7404099 215 215 217
0.197855 0.185223 6.7422299 30 30 32
0.21518999 0.191083 6.74335 130 130 131
0.22618499 0.184985 6.7432199 220 220 221
0.242872 0.185865 6.7466898 226 227 226
0.445039 0.173622 6.7836399 227 226 228
0.44897199 0.18190201 6.7835798 229 228 229
0.45665199 0.173153 6.7837601 229 228 229
0.61216402 0.175063 6.8150201 228 227 229
-0.70215499 0.23348901 6.5942898 111 112 114
-0.61670297 0.23160399 6.6066899 99 99 101
-0.60031199 0.231488 6.6142998 216 215 217
-0.58868098 0.231543 6.6226101 217 217 219
-0.57938498 0.231534 6.62609 219 218 220
-0.56948799 0.231519 6.6303401 221 220 222
-0.558936 0.23120899 6.62678 222 221 223
-0.550295 0.233457 6.61762 217 216 218
-0.54196399 0.233299 6.6128101 217 217 219
-0.49578199 0.224613 6.61938 225 225 226
-0.486947 0.224593 6.6238098 173 173 175
-0.458065 0.224545 6.6307802 153 153 155
-0.44911 0.22453301 6.6347299 222 223 225
-0.334142 0.225264 6.6543999 216 215 216
-0.319875 0.217132 6.6542501 133 133 134
-0.32279399 0.21608301 6.6546302 190 190 191
-0.31045899 0.217283 6.6556301 29 30 30
-0.310307 0.217325 6.6550798 29 30 30
-0.29348901 0.217334 6.6603098 32 32 33
-0.29334801 0.217296 6.6603298 33 32 33
-0.28427199 0.217371 6.6580901 192 191 193
-0.284141 0.217337 6.6579499 195 194 195
-0.274858 0.21730299 6.6550999 220 219 221
-0.235137 0.218403 6.6719899 221 221 223
-0.22592001 0.218403 6.6767402 222 222 223
-0.188059 0.21251801 6.6798 221 221 223
-0.178607 0.21253601 6.6784902 221 221 223
-0.169111 0.212588 6.6774201 136 137 138
-0.169117 0.21258301 6.6773701 136 137 138
-0.159659 0.21256299 6.6758099 34 35 36
-0.141166 0.213267 6.6853299 39 40 41
-0.132394 0.213806 6.6870198 49 50 50
-0.122363 0.213462 6.6872401 80 81 81
-0.113779 0.213815 6.6873798 194 195 195
-0.099173203 0.21238101 6.6873899 46 47 48
-0.0665856 0.20453399 6.69554 189 189 190
-0.0571553 0.204546 6.6958699 225 225 227
-0.00301907 0.20819101 6.7150402 226 226 228
0.0111482 0.20876899 6.7113199 224 223 225
0.020974301 0.208699 6.7115102 205 205 207
0.0304492 0.208722 6.71276 79 78 80
0.035028402 0.200627 6.7143798 39 39 41
0.048979599 0.20636401 6.7128201 193 193 196
0.0444769 0.200637 6.7135701 138 139 141
0.058416098 0.206356 6.7122502 172 172 174
0.0679252 0.20651101 6.7160802 99 100 101
0.078093499 0.20651001 6.72016 85 85 86
0.088290997 0.20648 6.7234001 138 138 140
0.098843597 0.202941 6.7290201 138 138 140
0.109794 0.203982 6.7223001 218 218 220
0.108113 0.19773 6.73069 134 134 135
0.117733 0.200946 6.7251201 222 222 223
0.137619 0.204689 6.7346702 224 223 225
0.169534 0.20141999 6.7323399 225 225 226
0.179196 0.20149601 6.7396898 225 226 227
0.179143 0.201557 6.7379298 225 226 227
0.188656 0.201592 6.7389302 190 191 192
0.20267799 0.193371 6.7414799 29 29 31
0.221411 0.19312599 6.74261 210 210 211
0.230931 0.193122 6.74401 222 222 222
0.44551399 0.18128 6.7751002 228 228 229
-0.61173701 0.23980901 6.60711 172 172 174
-0.60528398 0.239815 6.6100202 214 214 216
-0.591317 0.239788 6.6174202 217 216 218
-0.58271003 0.23976199 6.6202302 219 218 220
-0.57254702 0.23984 6.6245999 197 196 198
-0.53492802 0.23300201 6.6061702 221 220 222
-0.49862701 0.23333301 6.6179299 225 225 226
-0.483486 0.232549 6.6196899 141 142 143
-0.491171 0.23273399 6.6216502 218 218 220
-0.46140501 0.233145 6.62885 87 87 89
-0.45234999 0.23328499 6.6313601 209 209 211
-0.444076 0.233181 6.6340199 225 225 227
-0.33901501 0.233364 6.6534901 219 218 219
-0.32472399 0.22516599 6.6528401 184 184 185
-0.32958901 0.23323201 6.6517 211 211 212
-0.31484401 0.225382 6.6537499 30 30 31
-0.31472501 0.22552399 6.6539898 30 30 31
-0.305776 0.224943 6.6522999 30 30 31
-0.305747 0.225022 6.6522999 30 30 31
-0.28941599 0.225352 6.6572399 132 132 133
-0.28932399 0.225346 6.6571798 134 134 135
-0.28004399 0.22533099 6.6544299 221 220 222
-0.27115801 0.225532 6.65308 219 218 220
-0.22036199 0.227488 6.67975 221 221 222
-0.183477 0.22081301 6.6788001 222 222 224
-0.174119 0.220671 6.67629 206 206 208
-0.164652 0.220727 6.6749802 58 58 60
-0.164653 0.220726 6.6749701 58 58 60
-0.16457 0.220635 6.6746898 56 57 58
-0.15520599 0.22075699 6.6735201 35 35 37
-0.15519901 0.22078399 6.6736398 35 35 37
-0.155057 0.22070301 6.67419 35 36 37
-0.145028 0.22172 6.6810799 35 36 37
-0.136868 0.221628 6.68191 47 48 49
-0.127726 0.22185899 6.6860099 38 39 39
-0.118411 0.221789 6.6853399 153 154 154
-0.102326 0.22119001 6.6843901 70 71 71
-0.094025902 0.221067 6.68607 38 39 40
-0.084492303 0.220366 6.6902299 33 34 36
-0.074718699 0.221597 6.6932602 54 55 55
-0.0521328 0.212727 6.69557 225 225 226
-0.0076099099 0.21609101 6.7107401 227 227 229
0.0064600399 0.216749 6.7104802 223 222 224
0.0161827 0.216681 6.7097001 222 222 224
0.0160468 0.216902 6.7104402 223 222 224
0.00709459 0.21658701 6.71066 223 222 223
0.025614601 0.21671399 6.7101798 140 139 141
0.035354801 0.21680599 6.7111201 34 33 36
0.044211201 0.21438 6.7112799 129 129 132
0.098814897 0.21149801 6.71875 222 222 224
0.117773 0.21007399 6.7200699 223 223 224
0.12753101 0.204364 6.7266998 223 223 224
0.183938 0.209646 6.7367201 225 225 226
0.193414 0.20963401 6.7372899 138 139 140
0.20739999 0.201409 6.73985 33 32 34
0.21694601 0.20143101 6.7412801 147 147 149
0.22640499 0.20136701 6.7421198 219 219 221
0.44064599 0.189362 6.77074 229 228 229
0.43845001 0.19814099 6.7758999 229 228 229
0.443813 0.19054 6.7787399 229 228 230
0.60504597 0.187492 6.8207698 228 227 228
0.61525398 0.18539099 6.8151698 227 226 228
0.63593203 0.182477 6.7912998 226 225 227
0.65342802 0.18472201 6.7997499 225 224 226
-0.59264398 0.24821199 6.6145201 217 217 219
-0.58480299 0.248169 6.6155901 195 194 197
-0.57611698 0.24814101 6.6185398 99 98 101
-0.57557499 0.248137 6.6185799 94 93 96
-0.57551998 0.248162 6.6191602 95 95 97
-0.571567 0.248016 6.6141901 63 63 65
-0.56522799 0.247613 6.6071901 56 56 58
-0.53367901 0.24941 6.6100702 191 190 192
-0.52893299 0.241253 6.6101098 220 220 222
-0.52386999 0.249478 6.61303 221 221 223
-0.49554399 0.241294 6.61691 224 224 226
-0.48727399 0.24066 6.6192799 202 203 204
-0.48586699 0.241357 6.6194701 192 192 193
-0.47927001 0.240512 6.6181798 91 92 93
-0.47977 0.24045999 6.6191201 102 102 103
-0.45674199 0.242007 6.6266298 149 149 151
-0.44729701 0.242024 6.6320701 224 224 225
-0.438941 0.241941 6.6352501 224 224 226
-0.43974301 0.241826 6.63133 224 224 226
-0.343766 0.241394 6.6522799 222 221 222
-0.33448699 0.24126799 6.6503201 223 223 224
-0.324085 0.241273 6.6494999 70 70 71
-0.31936499 0.23329 6.6511202 41 41 42
-0.320122 0.233211 6.6507902 48 48 49
-0.31915599 0.233556 6.6517801 39 39 40
-0.31002501 0.233503 6.6540499 31 31 32
-0.30987799 0.23364399 6.65415 31 31 32
-0.29454401 0.23331399 6.65626 71 71 72
-0.294462 0.233334 6.6563501 73 73 74
-0.28524601 0.233334 6.6536298 218 217 219
-0.27620301 0.233348 6.6508799 214 213 215
-0.26677099 0.23408 6.6553202 221 220 221
-0.220961 0.236269 6.6736498 220 220 221
-0.201693 0.231728 6.6719298 219 218 219
-0.17901801 0.22884899 6.6759901 222 222 224
-0.169624 0.228898 6.6744499 157 157 159
-0.169624 0.228903 6.67448 157 158 159
-0.169549 0.228778 6.6744599 156 156 158
-0.160201 0.228889 6.6726999 32 32 34
-0.16020299 0.228908 6.67275 32 32 34
-0.160267 0.228808 6.67238 32 32 34
-0.150823 0.22891 6.6711302 33 34 36
-0.123164 0.229747 6.6837802 68 69 69
-0.107109 0.22909699 6.6855898 161 163 162
-0.098081999 0.228926 6.6856999 67 69 69
-0.088624999 0.22892199 6.6876502 32 33 35
-0.079289302 0.229911 6.6893802 39 39 41
-0.0699334 0.23001499 6.69207 67 67 68
-0.070029102 0.229619 6.69206 67 67 69
-0.065344997 0.221598 6.6933198 146 146 148
-0.055869602 0.221999 6.6933198 225 225 226
-0.055987701 0.22164799 6.6946902 225 225 226
-0.046479698 0.221955 6.6928201 224 224 225
-0.0241886 0.224796 6.7006798 227 226 228
-0.0130748 0.2245 6.7054601 227 227 229
0.00165813 0.22501101 6.71071 225 224 226
0.00187184 0.224631 6.7048998 224 224 225
0.0110456 0.224913 6.7088099 223 223 224
0.0109819 0.224971 6.7105298 223 223 224
0.0206805 0.225125 6.7091899 203 202 204
0.029374501 0.224847 6.7092299 74 73 76
0.0486442 0.222158 6.71065 188 188 191
0.048849698 0.22244599 6.7102098 192 191 194
0.058063701 0.222018 6.7104402 213 213 215
0.059592701 0.221698 6.70889 214 213 215
0.074490398 0.21514399 6.7144499 209 209 210
0.074500397 0.215158 6.71452 209 209 210
0.084630497 0.21512 6.7175498 211 211 212
0.084689498 0.21510699 6.7171898 211 211 212
0.088285901 0.21507999 6.7143998 216 216 217
0.099087 0.22042499 6.72298 220 220 222
0.109833 0.212442 6.7135801 223 222 224
0.121067 0.21231601 6.7051501 224 224 225
0.136306 0.217223 6.7090802 226 225 227
0.179583 0.218059 6.7372499 226 226 227
0.188784 0.217774 6.7357302 218 219 220
0.202981 0.209727 6.7387099 29 29 31
0.21233501 0.20958801 6.7389398 62 62 64
0.233897 0.21304999 6.74158 223 222 224
0.44281301 0.198099 6.77249 229 228 230
0.57221901 0.19953901 6.8105202 229 229 229
0.57172298 0.200743 6.8312001 229 229 230
0.61054999 0.195474 6.8081999 226 225 226
0.621041 0.193919 6.80551 224 223 225
0.63296503 0.191412 6.79707 225 224 226
0.65699798 0.193472 6.8028898 224 222 224
-0.59571302 0.25648201 6.6101398 210 209 212
-0.59540099 0.25633299 6.6103401 210 209 212
-0.57946497 0.25650901 6.6118102 33 32 35
-0.58710998 0.256459 6.61236 126 126 129
-0.57034302 0.25643101 6.6150098 31 31 33
-0.51912701 0.25747901 6.6129599 219 219 221
-0.490677 0.249286 6.6169 222 223 224
-0.497015 0.249641 6.62255 223 224 225
-0.489214 0.249724 6.61763 221 221 222
-0.48249599 0.24902999 6.6188998 174 175 176
-0.481419 0.24954601 6.6176 159 160 161
-0.45184299 0.25013 6.6265001 202 201 203
-0.443396 0.25065801 6.63059 223 223 225
-0.44190001 0.25036401 6.6334901 224 223 225
-0.43429101 0.25033301 6.6299801 224 225 226
-0.433213 0.248937 6.62677 225 225 227
-0.34892201 0.249044 6.6477799 224 223 224
-0.33937299 0.24927799 6.6488299 226 225 226
-0.324615 0.241615 6.6494699 78 78 79
-0.32880801 0.249217 6.6476698 107 107 108
-0.31536299 0.241667 6.65165 30 30 32
-0.31927201 0.249532 6.6498499 28 28 29
-0.29975101 0.241302 6.6552701 38 38 40
-0.29051501 0.24132299 6.65275 194 193 195
-0.28130099 0.241309 6.64993 216 215 217
-0.26265699 0.24227899 6.6532302 222 221 222
-0.221182 0.245092 6.6725702 220 220 221
-0.211476 0.238452 6.6749501 219 219 220
-0.18385699 0.237076 6.6761398 216 216 218
-0.137343 0.23761301 6.6807499 37 38 39
-0.12787101 0.237717 6.6821399 35 37 37
-0.118467 0.237754 6.6824298 159 160 160
-0.102367 0.237075 6.6835899 127 128 128
-0.092937201 0.23706301 6.6844501 59 60 61
-0.083501101 0.237142 6.68853 32 32 34
-0.0751362 0.237505 6.6896901 41 42 43
-0.074721299 0.23790801 6.6898599 42 42 44
-0.065226398 0.23806401 6.6909199 105 104 106
-0.0605416 0.230022 6.69204 196 195 197
-0.065381102 0.23807099 6.6919398 101 100 102
-0.057346001 0.236912 6.69065 213 213 214
-0.047959901 0.23691 6.6916299 225 225 225
-0.0300819 0.232761 6.69768 226 225 227
-0.017649701 0.232815 6.7017202 228 227 229
0.00573707 0.23286299 6.7008801 224 223 225
0.0155723 0.23300999 6.7069898 221 221 223
0.0154967 0.233007 6.7069998 221 221 223
0.0249044 0.232987 6.7069302 143 143 145
0.034363002 0.23296601 6.7079201 32 32 34
0.044090498 0.23118401 6.7088599 114 114 116
0.044477601 0.23084401 6.7084799 123 122 125
0.053937498 0.230819 6.7114701 215 215 217
0.054045301 0.2309 6.7102199 217 216 218
0.063456997 0.230721 6.7096801 220 220 222
0.070762299 0.223654 6.7080302 224 223 225
0.070840999 0.223821 6.7107 224 224 225
0.0809213 0.223675 6.7124 224 223 225
0.094461299 0.228461 6.7106199 224 224 226
0.207422 0.217456 6.73456 31 31 32
0.22812 0.221129 6.73841 219 218 220
0.237519 0.2212 6.7386899 224 223 225
0.55251801 0.215663 6.8247499 229 228 229
0.57217002 0.20976301 6.8252301 228 228 229
0.58264297 0.205485 6.8081298 227 226 227
0.59531599 0.208276 6.7976699 222 221 223
0.60767299 0.200665 6.8038998 225 224 225
0.61675 0.20114399 6.7915101 222 221 223
0.62919402 0.200192 6.79633 222 221 223
0.64122897 0.200718 6.8070002 223 221 223
0.65131497 0.20047501 6.80509 223 221 222
-0.590065 0.26467499 6.60886 66 67 69
-0.59199899 0.26493099 6.6052899 81 81 83
-0.58309102 0.26484099 6.60431 27 27 30
-0.57295001 0.26493201 6.60673 31 31 33
-0.52446198 0.265394 6.60989 203 203 204
-0.51362503 0.265636 6.6160598 221 221 223
-0.49511799 0.25726601 6.6149998 222 223 224
-0.49288699 0.25829899 6.6133099 223 223 224
-0.48682201 0.257144 6.61411 216 217 218
-0.48509899 0.25812 6.61447 208 209 210
-0.47953701 0.256807 6.61409 142 142 143
-0.47628301 0.258091 6.618 105 106 107
-0.453942 0.25890201 6.6268101 148 147 149
-0.44805101 0.25770101 6.6217799 219 218 220
-0.35372201 0.25719899 6.64679 224 224 225
-0.34285501 0.25710499 6.6452699 225 225 226
-0.34423599 0.25724599 6.6470599 226 225 227
-0.33346 0.25715801 6.6458201 138 138 139
-0.32400501 0.25736099 6.6474099 29 29 30
-0.324009 0.257355 6.64744 29 29 30
-0.32419401 0.257797 6.6476102 29 29 30
-0.31976801 0.249742 6.6497002 28 28 29
-0.31065601 0.249461 6.6494999 30 30 31
-0.2958 0.249275 6.6516399 145 145 146
-0.28656599 0.249293 6.6490998 223 223 225
-0.27696401 0.249787 6.65028 219 218 220
-0.26745999 0.250101 6.6514802 221 220 222
-0.248272 0.25086501 6.65836 222 221 223
-0.239042 0.251003 6.66118 221 220 222
-0.230083 0.251551 6.67206 221 220 222
-0.178728 0.245194 6.6749401 220 220 222
-0.16983899 0.245184 6.6729002 188 188 190
-0.162232 0.245147 6.67345 58 58 60
-0.152137 0.24516401 6.6749301 31 32 33
-0.13246 0.245735 6.6803098 37 38 39
-0.123079 0.245691 6.6806202 77 78 78
-0.106883 0.24516401 6.6825399 213 214 214
-0.097451098 0.245152 6.6834202 104 105 106
-0.087814502 0.245285 6.6853099 45 46 47
-0.078464396 0.24532899 6.6869798 32 33 35
-0.069936603 0.246058 6.6888399 63 63 65
-0.060524501 0.24607199 6.6896601 167 167 169
-0.052499998 0.24498101 6.6901398 225 225 226
-0.043117099 0.245023 6.6922102 224 224 225
-0.0262809 0.240688 6.6944399 226 226 227
-0.0083191302 0.24080899 6.6983099 228 228 230
0.00142655 0.240897 6.7017298 225 225 227
0.0108719 0.24102201 6.70503 223 223 224
0.0202627 0.241015 6.7049499 200 200 202
0.040628701 0.239834 6.7062802 63 63 65
0.0505975 0.24026699 6.7072001 201 200 202
0.050078299 0.239861 6.7091298 195 195 197
0.059422199 0.23973 6.7107201 222 222 223
0.068875201 0.239675 6.71349 223 222 224
0.078302599 0.239556 6.7128601 225 224 226
0.102657 0.230461 6.70366 225 225 226
0.184663 0.229241 6.7352901 225 226 227
0.194074 0.22925299 6.7343998 203 204 205
0.204008 0.229087 6.7350602 43 43 44
0.213662 0.229045 6.73563 36 36 37
0.23271 0.229294 6.7372499 220 219 221
0.24560501 0.22992501 6.7360401 226 225 227
0.47317001 0.215628 6.7634001 230 229 230
0.48410401 0.21568599 6.7677002 230 229 231
0.56145197 0.215607 6.8195701 228 228 229
0.57435298 0.21658 6.8115101 226 226 227
0.58256698 0.214864 6.7994599 224 224 225
0.60528898 0.208884 6.79738 220 219 221
0.61303502 0.21029601 6.8032799 219 217 219
0.65435803 0.20829301 6.7989402 221 218 219
-0.59243202 0.27262899 6.60811 35 36 38
-0.52928102 0.27324799 6.6101899 92 92 93
-0.49047801 0.265755 6.61306 222 223 224
-0.49206299 0.27361399 6.6163201 221 221 222
-0.48107699 0.26592001 6.6165099 188 189 190
-0.44704899 0.26701599 6.6208401 218 217 219
-0.433218 0.262793 6.6203198 224 224 226
-0.35710099 0.264691 6.6410799 224 224 225
-0.34753999 0.26510099 6.6438098 226 226 227
-0.349022 0.26518801 6.6452098 225 225 226
-0.33812901 0.26509199 6.64395 164 164 165
-0.319181 0.265351 6.6467099 31 31 33
-0.31917199 0.26536599 6.64675 31 31 33
-0.306205 0.26494801 6.6476898 61 61 63
-0.301045 0.257229 6.6506 94 94 96
-0.29132 0.257296 6.6486101 221 221 222
-0.28204 0.25744301 6.64711 219 219 220
-0.26260099 0.25872099 6.6533699 221 220 222
-0.253454 0.25891799 6.6568198 224 223 225
-0.24383 0.25896001 6.6565199 225 224 226
-0.22555301 0.259606 6.66856 225 225 226
-0.21657801 0.25465 6.6705098 221 221 222
-0.207928 0.25469801 6.6670198 220 220 221
-0.20002601 0.252051 6.65909 223 223 224
-0.17644 0.25326201 6.6698599 224 224 226
-0.173044 0.25358599 6.6719799 218 219 220
-0.156772 0.25317001 6.6736698 30 31 33
-0.13728499 0.25373 6.6778102 35 37 38
-0.127948 0.25388399 6.6805301 35 36 37
-0.118308 0.25369999 6.6793098 156 157 158
-0.101869 0.25322101 6.6813598 195 195 196
-0.092522502 0.25324601 6.6830702 108 109 110
-0.083226703 0.253277 6.6852102 37 37 39
-0.065163903 0.254087 6.6880002 114 113 115
-0.055764601 0.25326201 6.6876998 216 215 217
-0.057051498 0.25305301 6.6889601 205 205 206
-0.0557671 0.25408 6.6883001 215 214 216
-0.022621701 0.248825 6.6914401 226 226 227
-0.0133683 0.248806 6.6943102 228 227 229
-0.00326502 0.24886601 6.6967802 228 227 229
0.0061671599 0.248872 6.6975698 222 222 223
0.0155768 0.249038 6.7033801 220 220 222
0.0249737 0.249071 6.7042799 149 149 151
0.036175199 0.24803799 6.7047501 29 29 31
0.045598801 0.248006 6.7056599 131 130 132
0.0549943 0.24795599 6.70717 220 219 221
0.055337999 0.248293 6.7056799 220 220 221
0.06476 0.2484 6.7085099 224 223 225
0.113865 0.238766 6.7101798 226 226 227
0.179331 0.23709901 6.72822 226 226 228
0.18918701 0.237323 6.7333999 224 224 226
0.1992 0.237505 6.7333002 173 173 175
0.218648 0.23722 6.7344599 61 60 62
0.22810701 0.23725399 6.73522 186 185 187
0.245333 0.238334 6.7387199 225 224 226
0.25406399 0.237202 6.72893 227 226 227
0.436349 0.23332199 6.7762699 228 227 228
0.44916299 0.22463401 6.7642798 229 228 229
0.45831999 0.22360501 6.7606001 230 229 230
0.477173 0.224695 6.7688198 228 227 229
0.54917198 0.22633 6.7943902 228 227 228
0.55991697 0.225933 6.7950501 226 226 227
0.578269 0.223445 6.7978702 224 224 224
0.58881903 0.224199 6.7999802 223 222 223
0.60079002 0.217594 6.7989202 220 219 221
0.64461303 0.215232 6.8041902 187 185 187
0.65980202 0.21717601 6.80369 182 180 181
-0.58865303 0.28082901 6.6055102 28 30 32
-0.52463299 0.28181401 6.6103702 103 104 105
-0.485796 0.273875 6.6131201 219 220 221
-0.47585499 0.27398399 6.6170502 150 150 151
-0.445714 0.27602601 6.61865 219 219 221
-0.45303401 0.27271301 6.6255102 126 126 127
-0.43967301 0.27054399 6.6154599 222 222 224
-0.42778799 0.27090299 6.62045 225 225 226
-0.36315301 0.27283001 6.6409302 225 226 226
-0.35383701 0.272888 6.6416898 225 225 226
-0.35225201 0.27311701 6.6424999 225 225 226
-0.34281501 0.273029 6.6420398 184 184 185
-0.31880301 0.27200201 6.6434798 29 29 31
-0.311189 0.272926 6.6466198 39 39 41
-0.310745 0.27293199 6.6466899 42 42 43
-0.30157799 0.27298 6.6447401 197 197 199
-0.296491 0.26499799 6.64573 211 211 212
-0.287054 0.265457 6.64677 217 217 219
-0.26743701 0.266994 6.6570001 221 221 223
-0.25797799 0.266826 6.6519399 226 226 227
-0.24891999 0.26689899 6.6523299 227 227 228
-0.23965 0.26738101 6.6608901 228 228 229
-0.216519 0.26355901 6.66327 226 226 228
-0.207488 0.26389199 6.6683002 224 225 226
-0.199205 0.26403499 6.6669402 224 225 226
-0.177959 0.260984 6.6715202 227 227 229
-0.168571 0.26095301 6.6708999 185 185 187
-0.168386 0.26143301 6.6700401 180 181 182
-0.16144601 0.26121101 6.67172 59 60 61
-0.15231299 0.261206 6.6725998 34 35 36
-0.135235 0.261581 6.6792402 37 38 39
-0.125708 0.26130101 6.6779599 43 44 44
-0.116125 0.26160201 6.6783099 184 184 185
-0.106372 0.26138601 6.6809301 225 225 226
-0.097041398 0.26133299 6.68121 197 197 198
-0.087742701 0.26134601 6.6828499 111 112 113
-0.078446403 0.26137599 6.6849799 33 33 35
-0.0603934 0.26210701 6.6870198 173 173 174
-0.0521001 0.26113501 6.6881599 223 223 224
-0.0514866 0.261511 6.68574 224 224 226
-0.042070799 0.261585 6.6879702 224 224 226
-0.042678598 0.261094 6.6905799 225 224 226
-0.0061150598 0.25711 6.69765 228 227 229
0.00171975 0.25724 6.7004099 222 222 224
0.011111 0.257218 6.7016001 220 219 221
0.029806601 0.25713399 6.7037401 74 74 76
0.050647601 0.25639299 6.70541 196 195 197
0.060049601 0.25632 6.7042398 224 223 225
0.0695934 0.256614 6.7116499 225 224 226
0.17475 0.245336 6.7260599 225 225 227
0.184195 0.24533901 6.7277999 225 225 227
0.19442201 0.245506 6.7300901 216 216 218
0.20384701 0.24555799 6.73139 142 142 143
0.203872 0.24557699 6.7315302 142 142 143
0.213598 0.24557801 6.7340498 31 31 32
0.223487 0.24532799 6.7332201 71 70 72
0.24186 0.24556699 6.7332501 224 223 225
0.25076699 0.245432 6.7312598 225 224 226
0.25822201 0.24524499 6.7265801 226 225 227
0.270455 0.24548399 6.7316799 227 226 228
0.42672199 0.23734 6.7729802 227 227 228
0.42622399 0.236995 6.7725101 227 227 228
0.44231001 0.233455 6.7628298 228 227 228
0.452546 0.233252 6.7653298 227 226 227
0.47007301 0.233256 6.7658501 227 226 228
0.55023497 0.23540001 6.7969899 227 226 227
0.56953597 0.231721 6.7915001 225 224 225
0.588916 0.233363 6.7950902 199 199 200
0.60814899 0.22769 6.7953801 107 106 108
0.62103099 0.22975101 6.7962198 37 37 39
0.64061898 0.223978 6.79775 47 46 48
0.66443402 0.225467 6.8038998 79 78 79
0.67453402 0.22595499 6.8044901 142 141 142
-0.59456003 0.28873199 6.59974 28 30 31
-0.519853 0.290346 6.6100101 118 119 120
-0.49029899 0.28166401 6.6095901 219 220 221
-0.48096201 0.28201801 6.6135802 208 209 210
-0.44474399 0.285404 6.6185899 217 216 218
-0.43819401 0.28131101 6.6227999 222 222 223
-0.424072 0.278896 6.6161499 225 225 226
-0.36589399 0.28073701 6.6383901 226 226 227
-0.357039 0.28098699 6.6402502 225 225 226
-0.34749499 0.28099099 6.64044 189 189 190
-0.33811501 0.28100601 6.6405802 42 42 43
-0.328563 0.28145 6.6436901 33 33 34
-0.31616801 0.280884 6.645 31 31 32
-0.306813 0.28092501 6.6433902 178 178 179
-0.29875901 0.28130299 6.6431198 223 223 224
-0.29240301 0.27303499 6.6428599 217 217 219
-0.212751 0.27181301 6.6654701 226 227 228
-0.18252 0.268758 6.6656199 227 227 228
-0.17344999 0.26945001 6.66887 223 224 225
-0.15679701 0.26888299 6.6683698 30 31 32
-0.16409799 0.26956499 6.6674399 102 103 105
-0.130735 0.26962501 6.6770301 39 40 41
-0.121354 0.26958901 6.6756501 82 82 83
-0.121265 0.269474 6.6757998 83 84 84
-0.111675 0.26978701 6.6762099 222 222 223
-0.092274398 0.269465 6.6819501 201 201 202
-0.0844744 0.269824 6.6820502 122 122 124
-0.082962498 0.26942399 6.6823602 97 98 99
-0.073621698 0.26941001 6.68398 32 32 34
-0.064833403 0.27009001 6.6842098 104 104 106
-0.055478401 0.27015901 6.6859899 213 213 215
-0.0466979 0.26959199 6.6862001 223 223 225
-0.0467836 0.26962399 6.68855 223 223 225
-0.0229058 0.26517999 6.6904502 225 225 226
-0.0132118 0.265223 6.6936102 225 225 226
0.0062337602 0.26486599 6.6967402 221 221 222
0.0159775 0.265288 6.7000999 215 215 216
0.015614 0.264871 6.7000198 216 215 217
0.0253732 0.26532501 6.70121 128 128 130
0.034771401 0.265284 6.7021699 32 31 34
0.046006199 0.264415 6.7028198 135 134 137
0.0554373 0.264393 6.7031698 219 218 220
0.064886399 0.26448101 6.7058101 224 223 225
0.17034499 0.25348899 6.7276402 225 225 226
0.18000001 0.253566 6.7295399 226 226 228
0.18967301 0.25356501 6.7287502 209 209 211
0.19923399 0.253741 6.7294598 101 101 103
0.19920801 0.25357699 6.7285099 102 102 103
0.199081 0.253589 6.72896 104 104 105
0.19925299 0.253791 6.7294698 101 101 102
0.21893901 0.25331399 6.7321701 30 30 31
0.22807699 0.25346899 6.7325602 63 62 64
0.237344 0.253544 6.7323599 181 180 182
0.24663199 0.25358999 6.7319298 223 223 224
0.25598401 0.25359899 6.73142 224 224 226
0.41592401 0.24651401 6.77215 227 226 228
0.41617 0.24742 6.77456 227 226 228
0.42705899 0.24668901 6.77144 227 226 227
0.42704701 0.246935 6.7708302 227 226 227
0.42644501 0.246491 6.76824 227 226 227
0.43644601 0.24252699 6.7711601 227 226 227
0.455919 0.24175701 6.7646298 202 201 202
0.465471 0.24173699 6.7658501 201 200 201
0.47562 0.24218699 6.7704802 218 217 218
0.494973 0.242221 6.7701101 228 228 229
0.55975097 0.23931099 6.77806 225 223 225
0.58540398 0.240813 6.7919202 183 182 184
0.594607 0.240178 6.7888098 63 63 65
0.64506501 0.233017 6.8018899 30 31 32
0.65969598 0.23391099 6.8050299 30 30 30
0.669285 0.234071 6.8031602 37 37 37
0.679537 0.234661 6.8044701 114 113 115
0.68905801 0.234625 6.8042002 201 199 201
0.69870299 0.23468199 6.8043799 220 218 220
0.70888102 0.23469099 6.8046598 223 221 222
-0.48547801 0.29012799 6.6104498 218 219 220
-0.47718 0.29001099 6.6111498 197 198 199
-0.44481301 0.294469 6.6164899 207 207 209
-0.437677 0.29132801 6.6224799 221 221 222
-0.419808 0.28721601 6.61798 224 225 226
-0.42448401 0.295439 6.62216 224 225 226
-0.369663 0.28822601 6.6341701 226 226 227
-0.36164001 0.28888601 6.6382399 226 226 227
-0.35216099 0.28891999 6.6385398 195 195 196
-0.34276301 0.288964 6.63901 45 45 46
-0.34258699 0.288829 6.6381502 42 42 43
-0.33323601 0.28942901 6.6421599 32 32 33
-0.33420601 0.289336 6.6410599 32 32 33
-0.32127199 0.28861701 6.6419902 31 31 32
-0.32138801 0.288598 6.6419702 31 31 32
-0.312381 0.288914 6.6419301 143 143 144
-0.303891 0.28940001 6.6420298 224 224 226
-0.29489601 0.28966001 6.6427102 219 219 221
-0.28934699 0.28156501 6.6426802 217 218 220
-0.27948999 0.28118899 6.6379299 214 215 217
-0.26953399 0.28048599 6.6303501 224 225 227
-0.209674 0.27989301 6.6605501 227 228 229
-0.18271101 0.28533399 6.6644602 226 227 227
-0.178149 0.277455 6.6683998 227 228 228
-0.16875499 0.277408 6.6674399 198 198 200
-0.159789 0.277738 6.6651402 45 45 47
-0.161348 0.276651 6.66364 56 56 58
-0.15054999 0.27775401 6.66292 33 34 36
-0.151877 0.27685499 6.6668601 32 33 36
-0.126258 0.27761301 6.6744599 36 37 38
-0.11685 0.277621 6.6733899 168 168 169
-0.106736 0.27811 6.6763401 226 226 227
-0.097365603 0.27796099 6.6774802 224 224 225
-0.088290103 0.27795401 6.6806898 203 203 205
-0.079164296 0.27794701 6.6820598 84 84 86
-0.060123399 0.27810299 6.6832199 159 159 161
-0.0507406 0.27816501 6.6847301 225 225 226
-0.050767399 0.27817899 6.6851101 224 224 226
-0.0413718 0.278074 6.6830201 224 223 225
-0.020646401 0.27319399 6.6858301 225 225 226
-0.0097203096 0.273386 6.69174 225 225 226
0.0113291 0.273415 6.6986499 224 223 225
0.020709099 0.273334 6.6993599 190 189 191
0.0301091 0.27339 6.70086 62 62 64
0.04143 0.27247101 6.7007799 68 67 69
0.0508673 0.27247199 6.7016602 198 197 199
0.1848 0.261576 6.7270498 214 214 215
0.194665 0.26194799 6.72789 77 77 78
0.203859 0.26169699 6.7285099 31 31 32
0.20391899 0.26168701 6.7283802 31 31 32
0.21348 0.261684 6.7292399 33 33 34
0.21371301 0.26169699 6.72931 33 33 34
0.232713 0.26158699 6.73175 48 48 49
0.241979 0.26164699 6.7313399 153 153 154
0.25146699 0.26156101 6.73032 219 219 220
0.29952601 0.26175201 6.7442198 226 225 227
0.374042 0.26073799 6.7588501 225 224 226
0.42535299 0.25612199 6.77105 217 216 218
0.427499 0.25523901 6.7669902 206 205 206
0.45117101 0.25051901 6.7660699 105 104 105
0.460823 0.25022501 6.7660699 98 97 98
0.480286 0.250462 6.7707801 211 210 211
0.49055201 0.25047401 6.7714601 228 227 228
0.54912102 0.243598 6.7751098 226 225 227
0.59068102 0.24902 6.78864 61 61 63
0.60339803 0.23989999 6.7795 31 31 33
0.61388201 0.240317 6.7881398 30 32 33
0.643435 0.242182 6.7996702 30 31 32
0.65405297 0.24217799 6.8031201 32 32 33
0.66529 0.243009 6.80792 32 32 33
0.674887 0.243028 6.8046098 42 42 43
0.69373298 0.242824 6.80305 208 206 207
0.70306402 0.24269199 6.8014698 221 219 219
-0.48147199 0.29807299 6.60778 220 221 222
-0.443432 0.303729 6.6150498 206 206 208
-0.43748599 0.298502 6.61338 221 221 223
-0.43333101 0.29960701 6.6203899 222 222 224
-0.37529299 0.29642299 6.6366701 225 225 226
-0.36671299 0.297034 6.6374898 225 225 226
-0.35663 0.296754 6.6361599 197 197 198
-0.34709099 0.29674801 6.6364899 38 38 39
-0.33867899 0.29721299 6.63939 31 31 32
-0.33857 0.29718101 6.63941 31 31 32
-0.33883399 0.29727101 6.6392102 31 31 32
-0.32653901 0.296289 6.6395102 29 29 30
-0.32641399 0.29631701 6.6395798 29 29 30
-0.318535 0.29706299 6.6407299 97 97 98
-0.31868199 0.29705101 6.6407599 94 94 95
-0.30869499 0.296958 6.6385798 220 220 222
-0.299263 0.29689801 6.6363201 222 222 224
-0.268125 0.29009199 6.6304202 222 223 224
-0.173444 0.28534499 6.66571 226 226 228
-0.17336699 0.28540799 6.6665401 226 226 227
-0.178453 0.29268101 6.6598802 227 228 229
-0.16475999 0.28583401 6.6647501 141 141 143
-0.15574799 0.28545201 6.6598001 29 29 32
-0.15577 0.285411 6.6595602 29 29 32
-0.155525 0.28583801 6.66222 29 29 32
-0.13102999 0.28577501 6.6743302 42 43 44
-0.122022 0.28590399 6.6735201 63 64 64
-0.112047 0.28558701 6.67136 221 221 222
-0.074115999 0.2861 6.6813402 61 61 63
-0.064760096 0.28609201 6.6814599 64 65 67
-0.055405501 0.28609201 6.6817498 205 205 206
-0.046021398 0.286019 6.6802902 224 224 225
0.00719338 0.28168899 6.69595 222 222 224
0.0163566 0.28164199 6.6964998 217 217 218
0.036888398 0.28051201 6.6982198 31 31 33
0.046387699 0.280577 6.7000499 138 138 140
0.0558125 0.28053501 6.7001801 217 217 218
0.064656697 0.27954501 6.7006402 223 222 224
0.16578899 0.27772799 6.7235999 225 224 225
0.17525201 0.27765599 6.72328 226 225 226
0.179996 0.26960799 6.72505 221 221 222
0.256163 0.269696 6.73036 216 216 217
0.26936001 0.26622999 6.7288699 224 224 226
0.279998 0.26770601 6.7381802 226 226 227
0.290483 0.268998 6.7431002 225 225 227
0.29981601 0.270913 6.7427702 226 225 227
0.30939299 0.270982 6.7425499 227 226 228
0.37550101 0.27002501 6.7697701 226 225 226
0.38921499 0.261659 6.7664399 225 224 226
0.402493 0.26291099 6.7671399 224 223 225
0.41427299 0.264633 6.7587099 171 170 171
0.446722 0.25935501 6.76442 34 33 34
0.455708 0.258928 6.75775 38 37 38
0.48676699 0.26229599 6.7723899 212 211 211
0.494396 0.26194501 6.7717199 226 225 225
0.49580601 0.26228499 6.7722402 227 226 226
0.54427803 0.25205901 6.77391 226 225 227
0.57604599 0.25709799 6.7896199 217 215 216
0.58544099 0.257094 6.7870698 118 118 120
0.59468901 0.25687599 6.78371 31 32 34
0.67009503 0.25127101 6.8045001 33 33 35
0.67956603 0.25126401 6.8034301 54 54 55
0.68894398 0.25107101 6.80268 151 150 151
0.69848198 0.25107899 6.8020701 219 217 218
0.70753098 0.25076601 6.7990098 222 219 220
-0.477054 0.306021 6.6072898 219 219 220
-0.472094 0.31410199 6.6077499 199 199 200
-0.43544999 0.308485 6.6201801 223 222 224
-0.43002099 0.30698699 6.61974 223 223 225
-0.380207 0.30436 6.6344099 224 224 226
-0.37121499 0.30466899 6.6346898 226 226 227
-0.36171299 0.30471399 6.6338301 196 196 197
-0.351623 0.30460599 6.6341 37 37 38
-0.343196 0.30509001 6.63726 32 32 33
-0.34328899 0.30513501 6.6372099 32 32 33
-0.33326799 0.30501899 6.6368599 29 29 30
-0.333186 0.30497 6.63691 29 29 30
-0.31433201 0.30520299 6.6378398 216 216 218
-0.314318 0.305134 6.6381302 216 216 218
-0.30438501 0.30494899 6.6359501 218 218 220
-0.27825099 0.29919699 6.6424098 212 212 214
-0.267124 0.29971099 6.63029 222 222 223
-0.18298601 0.300686 6.6582198 227 228 229
-0.173443 0.30127001 6.6627498 228 228 230
-0.16879299 0.29327399 6.664 211 210 213
-0.15947001 0.293246 6.6638899 58 58 60
-0.14918201 0.29208899 6.66189 33 34 36
-0.150179 0.29315901 6.6636801 32 33 35
-0.15131 0.294058 6.6600099 32 32 35
-0.135988 0.29364499 6.6721501 41 42 43
-0.13610899 0.29387701 6.6722999 41 42 43
-0.126544 0.29375499 6.6718998 41 42 43
-0.126752 0.29387701 6.6721001 41 42 43
-0.12639201 0.29372901 6.6724701 42 42 43
-0.116998 0.293744 6.6709199 155 156 157
-0.107245 0.29434499 6.6732302 226 227 228
-0.098448701 0.29351401 6.6719899 223 223 224
-0.098083802 0.29458001 6.6740699 223 223 224
-0.088612802 0.29498199 6.67909 222 222 223
-0.079272598 0.294956 6.6789999 173 174 175
-0.069901802 0.294956 6.6799598 44 45 47
-0.060044602 0.294099 6.6803899 109 110 111
-0.050675701 0.29402399 6.6788602 223 223 225
-0.050698299 0.29407799 6.6801801 223 223 225
-0.0412554 0.29409 6.6805701 223 222 224
-0.0163732 0.28940299 6.6807599 225 224 226
-0.0069527999 0.289404 6.6844201 222 222 223
0.00249449 0.28934899 6.6869402 220 219 221
0.0212829 0.289776 6.6958499 178 177 179
0.0303846 0.28962699 6.6974301 46 46 48
0.041841902 0.28862399 6.6974201 65 65 67
0.051281299 0.288643 6.6989002 188 188 190
0.059997201 0.287568 6.6990199 222 221 223
0.070431702 0.28857401 6.69525 223 223 224
0.17049301 0.28566399 6.7210999 227 226 227
0.18015499 0.28590101 6.7231002 179 177 179
0.18479 0.27764699 6.7231798 146 145 146
0.194474 0.27780101 6.7239399 34 34 35
0.202783 0.277684 6.72751 32 32 33
0.21258301 0.27772501 6.72616 30 31 32
0.23173299 0.27779901 6.72861 32 33 34
0.24190301 0.27781099 6.7279501 27 28 29
0.251472 0.27782601 6.7289 103 104 104
0.26111901 0.277852 6.7300801 201 202 203
0.270666 0.27785301 6.7308602 215 216 217
0.280007 0.277403 6.7323098 218 218 219
0.319056 0.271018 6.7406902 227 227 228
0.34971499 0.27332699 6.7579799 227 226 228
0.361054 0.27576301 6.7554498 226 226 227
0.375112 0.27744299 6.7550602 197 196 198
0.389644 0.27034301 6.7605 216 216 217
0.402632 0.27105099 6.7578001 156 156 157
0.43248501 0.26824701 6.7614198 35 34 35
0.44234201 0.26823899 6.7637901 33 33 34
0.455441 0.26916501 6.7624102 36 36 36
0.47198299 0.270722 6.76934 137 137 137
0.48116401 0.270621 6.7694802 186 185 185
0.489822 0.27059799 6.7696099 223 222 221
0.56116903 0.26748499 6.7860999 223 222 223
0.57105702 0.26775801 6.7870402 221 220 221
0.58049297 0.26770899 6.78545 163 162 163
0.684183 0.25953099 6.8019099 81 80 81
0.703206 0.25932199 6.8008199 223 222 222
-0.431315 0.31564301 6.6220999 223 223 225
-0.39504099 0.31847799 6.62358 226 225 226
-0.384684 0.312199 6.6320601 226 224 226
-0.38905701 0.32016701 6.6317301 226 224 226
-0.390241 0.32062301 6.6328902 226 224 226
-0.37614301 0.31266001 6.6330299 227 226 227
-0.36692801 0.312796 6.63238 200 200 201
-0.35775501 0.31301299 6.63241 51 51 52
-0.34814301 0.31315601 6.6358099 32 32 33
-0.33776501 0.312998 6.6356902 29 29 30
-0.33770499 0.31295699 6.6358199 29 29 30
-0.328942 0.3132 6.6377401 64 64 66
-0.32884401 0.31314 6.6377301 65 65 67
-0.31949201 0.31321499 6.63623 211 211 213
-0.31940299 0.31316999 6.6364999 211 211 213
-0.30998001 0.313225 6.6345901 218 218 220
-0.309908 0.31320301 6.6352701 218 218 220
-0.27335 0.30482799 6.6354299 221 221 222
-0.26645899 0.30925301 6.6297402 222 222 223
-0.24916101 0.31141999 6.6399698 224 224 226
-0.178069 0.30919099 6.6605802 227 228 229
-0.164077 0.301236 6.6623998 158 158 160
-0.164142 0.3012 6.6623602 159 159 161
-0.168722 0.309237 6.6612701 222 222 223
-0.146946 0.302407 6.6589799 33 34 36
-0.131302 0.301936 6.6719198 43 44 44
-0.13145 0.30188301 6.6709499 43 44 44
-0.121938 0.30187401 6.6703601 65 66 67
-0.122091 0.301851 6.6700501 65 65 66
-0.112574 0.30180201 6.6687799 214 214 215
-0.102792 0.30245399 6.6717 227 227 228
-0.093030699 0.30307201 6.6761498 224 224 226
-0.084584899 0.30303499 6.6764798 221 221 222
-0.075272702 0.30303299 6.6779599 134 134 136
-0.064953901 0.302237 6.6789999 38 39 41
-0.055627201 0.302239 6.6788301 154 154 156
-0.046180401 0.302154 6.6774998 226 226 228
-0.036860298 0.30227801 6.6787 226 225 227
-0.0110194 0.29809901 6.6837101 226 226 227
-0.00228228 0.29744899 6.6883101 224 223 225
0.0071344599 0.29772499 6.6935701 222 221 223
0.016548799 0.297766 6.6940699 208 208 209
0.0259888 0.29781601 6.6950102 99 99 101
0.0470603 0.297041 6.6960602 136 136 138
0.056111 0.296529 6.6972799 209 208 210
0.056514099 0.296949 6.69699 211 210 212
0.065956399 0.29699999 6.7009401 224 223 225
0.16552 0.294918 6.7198601 227 226 228
0.17524099 0.29384199 6.72087 203 202 204
0.184745 0.29379901 6.72012 48 47 48
0.189601 0.285786 6.7218399 38 37 39
0.19974101 0.28643301 6.7258401 34 33 34
0.217485 0.28586999 6.7265201 35 36 37
0.22702301 0.285853 6.72649 130 130 131
0.256448 0.285932 6.72788 51 51 52
0.28492799 0.285824 6.7269201 101 102 103
0.294447 0.285772 6.7290902 139 140 141
0.31333399 0.27906999 6.7355299 226 226 227
0.32797799 0.28573501 6.7397199 179 179 180
0.349911 0.28161901 6.7512102 215 215 216
0.36149299 0.28363001 6.7488999 157 157 158
0.388533 0.278905 6.7471299 84 84 85
0.402991 0.27922601 6.7486 33 33 34
0.42796299 0.27658299 6.7609401 35 34 35
0.46621701 0.27884501 6.76688 97 97 97
0.47694501 0.278878 6.7683802 179 178 177
0.497316 0.27944899 6.7687302 228 226 225
0.58505601 0.27586001 6.7832999 105 106 108
0.58992702 0.267652 6.7838702 45 45 47
0.59868503 0.267115 6.7786798 31 31 33
0.66953701 0.267571 6.8023901 33 33 35
0.678976 0.26757401 6.8002 44 44 45
0.68877202 0.267793 6.8001599 131 131 131
0.68886799 0.26788101 6.80018 133 132 132
0.69848698 0.267941 6.7996202 211 209 209
-0.42690301 0.32337999 6.6209202 224 223 225
-0.39398 0.32833499 6.6321101 224 224 225
-0.40087101 0.32845199 6.6364698 224 223 225
-0.38615501 0.328913 6.6321502 224 223 224
-0.381093 0.32069999 6.6318102 226 225 226
-0.36244899 0.32100099 6.6311998 46 46 47
-0.36297199 0.321134 6.6311898 49 49 50
-0.35429999 0.32160401 6.63448 32 32 33
-0.32443699 0.32120201 6.6346002 208 208 210
-0.324049 0.32102799 6.63415 210 210 212
-0.315631 0.32149801 6.6343198 218 218 220
-0.27040899 0.31473801 6.6406298 221 221 222
-0.26321501 0.31933799 6.6364698 223 223 224
-0.252891 0.319502 6.6406498 225 225 226
-0.173366 0.31714901 6.6593599 228 228 230
-0.17340399 0.317148 6.65905 228 228 230
-0.16405401 0.31718099 6.6597199 175 175 176
-0.159483 0.309165 6.6610298 81 82 83
-0.159422 0.30919001 6.6610098 80 80 82
-0.150161 0.30914801 6.6610999 31 32 34
-0.150097 0.309181 6.6611099 31 32 34
-0.136382 0.309697 6.6686401 37 39 40
-0.126876 0.30987701 6.6690402 43 44 45
-0.126818 0.30994001 6.6694899 42 43 45
-0.117446 0.30991399 6.66819 150 151 152
-0.107554 0.31023401 6.6687198 228 228 230
-0.088434301 0.31113601 6.6749802 226 226 228
-0.0877662 0.311171 6.6753998 226 227 228
-0.079742298 0.31110901 6.6755199 216 217 218
-0.079944499 0.31110099 6.6755199 217 217 219
-0.068784498 0.31127399 6.6778898 86 86 88
-0.060349401 0.310274 6.67803 57 57 59
-0.050989799 0.31024599 6.6771202 201 201 203
-0.041658401 0.31016499 6.67416 227 227 229
-0.0070479298 0.30551699 6.6848998 227 227 228
0.0023636899 0.30552199 6.6869302 225 224 226
0.0117818 0.305747 6.6922998 222 221 223
0.0219582 0.30576301 6.6932302 153 153 154
0.0305211 0.30553201 6.69452 43 43 45
0.031384401 0.305783 6.6947598 38 38 40
0.043426499 0.30551299 6.6944098 77 77 79
0.0522664 0.30545199 6.6961699 181 181 183
0.0616761 0.30542099 6.6983299 222 221 223
0.071064599 0.30527601 6.6982598 224 223 225
0.160585 0.30153999 6.7186098 225 224 226
0.17020699 0.301707 6.7184801 221 220 222
0.170266 0.3017 6.7181702 221 220 222
0.179848 0.30175799 6.71802 81 80 82
0.194662 0.29421601 6.7224898 34 34 35
0.21304999 0.294182 6.7252798 35 36 37
0.22267801 0.29417601 6.72475 159 160 161
0.232207 0.29402599 6.7235599 204 205 206
0.25193101 0.29417101 6.72645 41 41 42
0.26141199 0.294146 6.7273598 32 32 33
0.27107599 0.29420999 6.7279501 34 35 36
0.28074101 0.294323 6.7308102 34 35 36
0.29944199 0.29408199 6.73105 31 31 32
0.30910599 0.29412201 6.7321501 32 33 34
0.32822499 0.29406199 6.7335 32 33 34
0.339959 0.289929 6.7385502 83 83 85
0.361761 0.29091299 6.73596 29 29 30
0.37514701 0.284953 6.7417598 48 49 49
0.38927501 0.28693801 6.7452002 31 31 32
0.41874701 0.289244 6.7442498 32 33 32
0.440202 0.289792 6.7607498 47 47 48
0.460273 0.286109 6.7590699 87 87 86
0.481648 0.28786001 6.7677698 225 223 223
0.48181599 0.28712201 6.7674799 225 223 223
0.49292099 0.287963 6.7685499 230 227 227
0.67396301 0.275859 6.8000898 35 36 36
-0.411847 0.33668101 6.6284099 223 223 224
-0.40045401 0.33678499 6.63065 223 222 224
-0.39128199 0.33697501 6.63063 222 221 222
-0.37639701 0.32901099 6.6303301 160 160 161
-0.376836 0.32906601 6.6301699 165 164 165
-0.38147399 0.337053 6.6294298 122 122 123
-0.367129 0.32904801 6.63059 34 34 35
-0.36758301 0.32910001 6.63026 36 36 37
-0.34876001 0.32934099 6.6332302 29 29 30
-0.33957401 0.32927299 6.6354399 85 85 86
-0.33022299 0.32927999 6.6363902 210 210 211
-0.27296999 0.32329601 6.6363702 223 223 225
-0.258324 0.32738 6.6364799 224 224 226
-0.17804299 0.32505101 6.6570301 226 226 228
-0.178056 0.32499 6.6570501 226 226 228
-0.15935799 0.32508799 6.6581402 94 94 95
-0.150328 0.32453799 6.6550598 33 33 35
-0.146562 0.31697401 6.6575098 33 34 36
-0.1223 0.317994 6.66748 65 65 67
-0.112587 0.317855 6.6655302 215 216 217
-0.103053 0.318472 6.66715 225 225 227
-0.082694396 0.319242 6.6754298 226 227 228
-0.082744204 0.31923801 6.6756001 226 227 228
-0.0745029 0.31919301 6.67518 199 199 201
-0.0733997 0.319253 6.6760898 190 190 192
-0.074753404 0.319181 6.6750398 201 201 203
-0.064078599 0.31927699 6.6769199 58 58 60
-0.046536699 0.318297 6.6749301 223 222 224
-0.037159801 0.318268 6.6731801 225 225 226
-0.0280891 0.318432 6.6729698 225 224 226
-0.0020067201 0.31389201 6.6884999 223 222 224
0.0072113201 0.31379199 6.69068 222 222 223
0.0170369 0.31378499 6.6916399 200 199 201
0.0260795 0.31367499 6.6922302 86 85 87
0.035436101 0.31358901 6.6919999 28 28 30
0.0479801 0.313611 6.6936402 133 133 135
0.0573713 0.313788 6.6951699 215 214 216
0.0665491 0.31417501 6.69767 225 224 226
0.066607103 0.31403199 6.6956401 225 224 226
0.15559 0.309542 6.71731 224 223 224
0.16516601 0.309661 6.7168198 225 225 226
0.17496599 0.30973601 6.7161598 124 123 125
0.19303501 0.30952299 6.72083 34 34 35
0.203299 0.310197 6.7237401 30 30 31
0.217779 0.30215201 6.72293 128 129 130
0.23748 0.30230799 6.72297 220 221 222
0.24691799 0.30230701 6.7243099 196 196 197
0.26611599 0.302331 6.7238698 31 32 33
0.28575701 0.302342 6.7259202 32 33 34
0.294682 0.30212799 6.72859 32 33 34
0.31400499 0.30221701 6.73103 31 32 32
0.323827 0.30236799 6.7343898 31 31 32
0.34069401 0.298682 6.7410798 28 29 30
0.41408899 0.29762399 6.7528601 36 37 37
0.416742 0.29511601 6.7564101 34 34 34
0.44036299 0.29833701 6.7536001 87 87 86
0.45061699 0.29225901 6.7578402 90 90 90
0.45114899 0.29213199 6.7589102 91 90 90
0.46142101 0.29525501 6.75734 168 167 167
0.47704899 0.296487 6.7655301 226 224 224
0.48802501 0.29622999 6.76719 228 226 226
0.58483303 0.29221401 6.7810898 154 154 156
0.58960998 0.283997 6.7813301 53 54 56
0.59883702 0.28382501 6.77915 25 26 28
0.66908598 0.28424501 6.8007002 29 30 31
0.69228399 0.28033799 6.7973599 180 179 179
0.70191997 0.28039101 6.7982602 217 216 217
-0.409215 0.344659 6.6236701 223 223 224
-0.40702099 0.34482801 6.6268401 223 223 224
-0.39613801 0.34489799 6.62853 206 207 207
-0.385997 0.34494999 6.6280198 68 68 69
-0.37637001 0.34485999 6.6276102 30 30 31
-0.37202299 0.337044 6.6293402 29 29 30
-0.37128699 0.33686501 6.6289401 28 28 29
-0.36277899 0.33708301 6.6294498 31 31 32
-0.361972 0.33687699 6.6290698 31 31 32
-0.35291499 0.33775699 6.6313701 28 28 29
-0.34369299 0.33765 6.6329002 135 135 136
-0.33473301 0.33718699 6.6340699 218 218 219
-0.32539299 0.337185 6.6348901 220 221 222
-0.325389 0.33719701 6.6347699 220 221 222
-0.316127 0.33731601 6.6375899 221 222 223
-0.278139 0.331328 6.6353302 225 225 227
-0.271092 0.33098 6.6286602 224 225 226
-0.173352 0.33299699 6.6554799 227 227 228
-0.17336699 0.33292401 6.6554098 227 227 228
-0.16395099 0.33304101 6.6563301 192 192 193
-0.163945 0.333067 6.6563001 192 192 193
-0.163928 0.33314201 6.6563802 192 192 193
-0.15462001 0.33303401 6.6568198 45 45 46
-0.145257 0.333004 6.6573501 33 34 36
-0.137371 0.324498 6.6576099 35 36 38
-0.117784 0.32601899 6.6655002 128 129 130
-0.117649 0.32598799 6.6654701 131 132 133
-0.108301 0.32597601 6.6630702 227 227 229
-0.087319098 0.32703799 6.6704102 225 225 227
-0.087264903 0.327052 6.6703701 225 225 227
-0.077449702 0.32710201 6.6710601 221 222 223
-0.068316698 0.327075 6.67067 137 138 140
-0.0606388 0.32638699 6.6757202 43 43 45
-0.051305 0.32637 6.6746802 130 130 132
-0.0419567 0.32664099 6.6736999 222 221 223
-0.032845799 0.32664701 6.67097 224 223 225
-0.0060732001 0.32198399 6.6960802 223 222 224
0.0025994801 0.32191399 6.69031 223 222 223
0.0119886 0.321794 6.6891298 221 220 222
0.0123528 0.32177201 6.6898899 220 219 221
0.0217259 0.321854 6.69031 149 148 150
0.030956101 0.321805 6.6918998 37 37 39
0.040306401 0.321688 6.6911101 46 46 49
0.052383501 0.321796 6.69173 191 190 192
0.061011001 0.32206601 6.6940098 223 223 224
0.061773501 0.32212901 6.6952801 224 223 224
0.061800402 0.32207 6.6950698 224 223 225
0.0712201 0.322267 6.6975999 224 222 224
0.071199201 0.322124 6.6953502 224 222 224
0.19729801 0.31737199 6.71666 32 32 34
0.212846 0.31010801 6.7209101 92 92 93
0.222436 0.31013 6.7207699 219 219 220
0.222789 0.31043899 6.7209201 220 220 221
0.232914 0.31056201 6.72225 222 222 223
0.252049 0.31052601 6.7247 218 218 219
0.261448 0.31052399 6.7249899 137 137 138
0.27611801 0.31413099 6.7247701 30 31 31
0.35211 0.30249399 6.7386198 30 31 32
0.394822 0.30923 6.7511501 34 35 35
0.40528199 0.301994 6.75666 31 32 32
0.40520099 0.30250499 6.7558599 32 33 33
0.417308 0.30376601 6.7536101 66 66 66
0.429627 0.30484399 6.7505798 148 148 148
0.45126301 0.30064899 6.75104 181 180 179
0.46154401 0.303745 6.7509699 226 224 223
0.59424299 0.29217401 6.77983 37 38 40
0.66282701 0.291778 6.7951002 31 31 33
0.69730997 0.28876701 6.7976499 213 211 212
0.70676798 0.28864399 6.7969699 222 219 221
-0.41319701 0.35272399 6.6198101 225 224 225
-0.401647 0.35279 6.62533 177 177 178
-0.39058599 0.35278901 6.6257801 36 36 36
-0.38206801 0.35328799 6.6283202 31 31 32
-0.37186101 0.35287201 6.6258602 31 32 33
-0.36770099 0.34497699 6.6265898 31 31 33
-0.356677 0.34558499 6.6289601 33 33 34
-0.338808 0.34561199 6.63205 218 219 220
-0.32995799 0.34505099 6.6324801 220 221 222
-0.32039601 0.344861 6.6292901 220 221 222
-0.177954 0.34104601 6.6550298 225 225 227
-0.177964 0.34107 6.6547799 225 225 227
-0.16863801 0.340987 6.6546102 226 226 227
-0.16862699 0.34105 6.6546102 226 226 227
-0.15912101 0.34108901 6.6553402 123 123 124
-0.15914901 0.34105 6.6552501 123 123 125
-0.149819 0.34094501 6.6551399 32 33 34
-0.15003701 0.340626 6.6528702 32 33 34
-0.15001699 0.34066701 6.6529698 32 33 34
-0.15229 0.341104 6.6519198 36 36 37
-0.146166 0.333157 6.6551499 33 34 36
-0.13210601 0.33385101 6.6643 38 39 41
-0.122577 0.334126 6.66503 50 50 52
-0.113243 0.334097 6.6630001 200 200 202
-0.104077 0.334086 6.6604199 226 226 228
-0.0823588 0.33523399 6.6705799 225 225 227
-0.072758399 0.33509901 6.6700001 211 212 213
-0.063533202 0.33508199 6.66997 92 92 94
-0.053881299 0.335127 6.6718998 63 63 64
-0.0469933 0.33491701 6.6749001 165 165 166
-0.0376959 0.334916 6.6726599 223 223 224
-0.028582299 0.334887 6.6692801 222 222 223
0.0074802199 0.329923 6.6884298 226 225 227
0.016872499 0.32986999 6.6887298 205 203 205
0.0265281 0.329972 6.6897101 77 76 77
0.035892799 0.32982799 6.6888199 31 31 33
0.047364 0.329927 6.6902299 143 143 145
0.056737199 0.32998699 6.6891999 218 216 218
0.056532301 0.33021599 6.6909399 217 216 218
0.20324899 0.325753 6.71732 41 41 42
0.227156 0.318207 6.7189202 224 223 225
0.23817299 0.31886601 6.7281899 221 221 222
0.247379 0.318638 6.7238002 222 222 223
0.27164701 0.32240301 6.7242098 126 127 127
0.28113401 0.32235301 6.7245698 120 120 121
0.28568301 0.31416899 6.7268801 28 28 29
0.295252 0.31420901 6.7287698 29 29 30
0.30730999 0.313162 6.7227898 32 32 33
0.30656001 0.31308001 6.7214699 32 32 33
0.31631899 0.313061 6.72368 32 32 33
0.33339101 0.32038999 6.7424202 32 33 34
0.34361699 0.31639999 6.7458701 32 33 34
0.35227299 0.311304 6.7339602 32 33 34
0.37342101 0.312002 6.7487001 34 34 35
0.38429299 0.31523499 6.74614 33 33 34
0.40538701 0.31073999 6.7488999 72 72 72
0.429804 0.313476 6.7435198 216 215 215
0.471313 0.30913699 6.7519302 227 224 224
0.58466798 0.30859599 6.77881 219 219 220
