ply                 
format ascii 1.0    
element vertex 282
property float x    
property float y    
property float z    
property uchar red  
property uchar green
property uchar blue 
end_header          
0.521962 -0.598384 4.61577 98 100 95 
-0.0229796 -0.469395 4.22634 17 13 0 
0.316697 -0.208369 4.9053 35 16 0 
-0.164086 -0.577245 4.16667 157 185 160 
-0.17193 -0.575535 4.18991 31 53 32 
-0.0190395 -0.478625 4.23599 40 37 4 
0.00251194 -0.47222 4.22984 68 62 30 
0.61787 -0.947715 4.59653 255 245 110 
-0.531563 -0.922815 4.43681 49 32 4 
0.789407 -0.724276 4.63689 255 210 29 
0.626367 -0.72099 4.74329 183 150 69 
-0.374332 -0.596201 4.24002 120 114 100 
-0.484676 -0.618452 4.35677 34 69 29 
-0.163959 -0.577294 4.16749 157 185 160 
-0.371174 -0.593588 4.23872 109 113 96 
-0.0808402 -0.575312 4.1974 95 112 93 
-0.171931 -0.575533 4.189 31 53 32 
-0.433306 -0.570491 4.28048 0 53 17 
-0.00137079 -0.4627 4.21055 49 36 2 
0.472184 -0.330878 4.7778 61 10 0 
0.269362 -0.240733 4.88708 16 18 7 
0.408629 -0.0920246 4.9744 116 96 45 
-0.901922 -0.0396752 4.80609 29 13 0 
0.596489 -0.887839 4.56995 121 43 5 
0.78186 -0.710659 4.62095 163 89 0 
0.580672 -0.739609 4.79271 225 173 38 
-0.371586 -0.594876 4.23755 117 118 102 
0.513617 -0.595903 4.61444 42 47 41 
-0.181274 -0.507186 4.21023 0 18 9 
-0.00166304 -0.463207 4.20259 69 54 21 
-0.162591 -0.377002 3.96711 120 99 56 
0.272832 -0.313021 4.90466 27 25 26 
0.279263 -0.304887 4.90183 132 133 128 
0.277933 -0.247895 4.8961 99 99 91 
-0.776701 -0.259092 4.84311 130 130 120 
-0.910984 -0.095728 4.70755 112 104 91 
-0.94122 -0.0202642 4.68204 103 103 77 
-0.891609 0.120662 4.73019 37 19 0 
0.140109 0.431709 5.46037 112 63 0 
0.79085 -0.953313 4.66147 124 51 0 
-0.141503 -0.564117 4.16893 39 79 55 
-0.382398 -0.571665 4.25228 63 25 22 
0.354595 -0.406817 4.99587 31 13 0 
0.345208 -0.394534 4.98813 175 155 66 
-0.773227 -0.105724 4.97481 99 76 26 
-0.904598 -0.0378424 4.81523 31 14 4 
0.140605 0.434661 5.47014 112 63 0 
0.191147 0.894578 5.56297 159 112 0 
0.484422 0.98678 5.56198 205 190 183 
0.350823 1.00131 5.51554 207 194 178 
-0.282649 -0.711752 4.18055 37 146 91 
0.480249 -0.550463 4.60151 71 67 66 
-0.103249 -0.492416 4.20682 35 48 41 
0.505715 -0.527085 4.59888 93 94 89 
0.491688 -0.50161 4.63143 11 5 15 
0.711206 -0.441064 4.61143 21 12 13 
-0.781462 -0.207391 4.86406 90 86 83 
0.268387 -0.119403 5.03641 100 67 14 
-0.891028 0.359576 5.60424 231 187 64 
-1.0335 0.2496 4.63533 190 150 18 
0.147003 0.544823 5.48844 51 16 0 
-0.863253 0.796526 5.63482 229 187 7 
0.189415 0.82485 5.58977 226 179 13 
0.253285 0.850757 5.61048 174 121 5 
0.187004 0.878391 5.54039 157 106 1 
0.224024 0.944499 5.55064 168 122 0 
-0.657539 0.973224 5.54864 202 184 160 
-1.0031 1.03508 5.6364 86 68 54 
-0.87304 1.05556 5.60439 73 54 47 
-0.540212 -0.925168 4.48589 97 67 41 
0.187363 -0.663407 5.02281 255 245 233 
0.124107 -0.327147 4.84939 102 102 104 
0.144564 0.51555 5.38969 35 9 0 
-0.545187 -0.942564 4.50372 66 38 27 
-0.188938 -0.588425 4.24893 67 99 78 
0.0286997 -0.48149 4.27319 153 123 73 
0.484849 -0.563209 4.60496 185 185 187 
0.183269 -0.672946 4.99491 129 125 114 
0.509741 -0.526252 4.64866 61 55 57 
0.468124 -0.326717 4.77562 163 113 16 
-0.890516 0.109249 4.72175 146 124 64 
-0.89718 0.204379 4.78843 38 34 23 
0.136104 0.453066 5.41632 116 73 5 
0.838846 -1.0363 4.67545 40 33 14 
-0.391931 -0.636013 4.27802 25 61 35 
0.343193 -0.392066 4.95315 157 134 54 
0.466105 -0.324008 4.82041 106 49 0 
0.43363 -0.182643 4.7714 50 21 13 
0.0534207 -0.0592173 4.69848 7 7 5 
-0.886028 0.119222 4.71632 29 12 0 
-0.881308 0.322258 5.54417 173 127 7 
-0.958823 0.409896 5.59115 124 67 0 
0.138477 0.420438 5.38927 114 61 0 
0.266238 0.826158 5.49118 255 252 190 
0.18888 0.861775 5.43945 167 116 0 
0.835872 -1.03281 4.66393 39 36 27 
-0.291722 -0.729252 4.24388 58 134 85 
-0.08725 -0.579959 4.24574 132 139 121 
-0.099716 -0.568998 4.21963 47 82 60 
0.429942 -0.372505 4.81798 226 184 48 
0.342914 -0.392476 4.95906 150 128 55 
-0.819346 -0.255429 4.81592 179 177 180 
0.456892 -0.204326 4.74988 216 171 16 
0.439891 -0.197663 4.77573 85 29 0 
-0.942155 -0.0553018 4.68415 87 86 82 
-0.916185 -0.0155373 4.72981 72 67 63 
-0.902283 0.137524 4.68103 143 95 0 
0.435065 0.228519 5.58529 159 117 9 
-0.96059 0.263077 4.86563 216 205 183 
0.40083 0.2849 5.54555 149 109 0 
-0.883637 0.323527 5.55451 168 124 3 
0.146968 0.520509 5.40226 39 15 3 
0.146308 0.539373 5.41404 38 12 0 
0.448734 0.751998 5.60406 168 110 3 
0.182259 0.792061 5.47438 220 175 11 
0.588196 0.971282 5.50577 138 115 97 
0.339127 0.954354 5.36198 174 158 143 
-0.677171 0.963349 5.35992 224 212 198 
0.42491 1.00191 5.43922 83 63 54 
-78.1552 71.4638 -198.417 21 22 24 
-75.1795 62.4615 -202.49 215 205 193 
-39.2277 31.0324 -100.481 41 37 38 
-72.2726 50.7211 -176.099 81 70 64 
0.574486 -0.353741 4.62804 230 183 17 
0.537452 -0.341394 4.61523 135 87 5 
-613242 288908 -1.347e+06 36 32 31 
0.314463 -0.226516 4.91531 151 127 53 
-0.824336 -0.159866 4.86617 11 9 10 
0.0276906 -0.0120911 4.778 45 27 13 
-0.941904 -0.0134136 4.71825 20 16 30 
-0.876522 0.351903 5.54815 240 196 71 
-0.553154 0.446075 5.41737 102 56 0 
0.248308 0.814397 5.47213 175 114 0 
0.183488 0.851292 5.44081 163 113 2 
0.257812 0.861941 5.45074 170 105 1 
0.472876 0.893427 5.54892 194 145 27 
-0.846036 0.960946 5.39142 183 169 156 
0.443261 0.953975 5.3891 223 207 194 
0.58744 0.969964 5.50137 135 112 94 
-0.960018 0.989883 5.49093 100 81 67 
0.227357 1.00512 5.44877 69 42 23 
0.602849 -0.897175 4.59977 142 70 0 
-0.125186 -0.536029 4.20157 153 130 122 
0.244289 -0.92937 5.50315 91 67 29 
0.0185324 -0.449005 4.2169 240 221 178 
-0.830339 -0.160686 4.85764 33 21 7 
0.138048 0.421755 5.42687 114 61 0 
0.137791 0.451178 5.45013 110 65 0 
0.267112 0.833654 5.54152 255 252 190 
-0.0853383 -0.568996 4.21632 132 139 121 
-0.567397 0.528611 5.44899 24 5 0 
0.147468 0.543935 5.48367 38 12 0 
-0.962733 0.71545 5.69949 221 173 39 
-0.0857528 -0.568791 4.22343 136 139 120 
0.430066 -0.363299 4.80827 231 189 43 
-0.820884 -0.159008 4.8593 11 9 10 
-0.135058 -0.550192 4.24277 188 162 147 
0.491614 -0.574543 4.64377 181 181 183 
0.184301 -0.678448 5.01003 174 169 163 
0.26245 0.859736 5.36631 195 153 19 
0.0461868 -0.666457 4.36023 211 147 99 
-0.12831 -0.540398 4.22916 183 169 156 
-0.421417 -0.016635 4.77548 126 102 74 
0.189127 0.851387 5.3785 173 121 0 
0.819629 -0.860728 4.77057 199 135 0 
-0.101294 -0.576718 4.24057 15 71 46 
0.468422 -0.327749 4.78135 160 100 40 
-0.819458 -0.298453 4.84601 118 105 70 
0.261945 -0.227802 4.90155 32 20 20 
-0.889463 0.141142 4.64063 127 73 0 
-0.889698 0.336624 5.48668 178 130 4 
-0.14577 -0.57979 4.23243 34 74 48 
0.457107 -0.158936 4.77811 90 37 3 
0.383811 -0.0500028 4.95724 109 104 100 
0.147701 0.539072 5.37152 39 4 0 
0.187575 0.846653 5.34775 175 117 7 
0.329542 0.972449 5.29346 67 44 30 
0.0361229 -0.670444 4.34605 38 69 25 
0.73195 -0.545216 4.59434 31 26 30 
0.733848 -0.474845 4.57516 90 86 77 
0.543461 -0.350537 4.65563 149 102 14 
0.0556691 0.344027 5.32662 98 54 5 
0.418493 0.983367 5.34739 69 52 44 
0.6719 -0.591175 4.6064 142 91 0 
-0.149035 -0.574694 4.221 67 96 74 
0.488711 -0.566116 4.62384 189 188 193 
0.473623 -0.330401 4.77683 90 32 0 
-0.936759 -0.0200558 4.6752 120 114 98 
-0.100202 -0.571239 4.23164 15 71 46 
0.444489 -0.17151 4.78154 214 166 56 
-0.893055 0.202815 4.77145 28 23 17 
-0.857812 0.34771 5.48902 240 200 43 
-0.546603 0.447013 5.3646 115 63 5 
-0.147503 -0.528749 4.23597 69 39 31 
0.541458 -0.343093 4.63873 149 102 14 
-49.5585 45.3295 -125.39 28 29 24 
-95.7845 67.2487 -233.77 70 60 50 
-100.547 69.1621 -248.913 220 210 198 
-0.562678 0.591896 5.43538 87 50 0 
0.0978063 0.835795 5.49471 229 180 15 
0.488774 -0.559035 4.61383 181 181 183 
0.803897 -0.958823 4.71109 136 47 15 
-0.865132 -0.252922 4.82066 195 195 187 
-0.981853 -0.0543354 4.67025 144 139 117 
-0.155322 -0.501267 4.20964 107 121 104 
-0.525365 -0.598524 4.33837 83 63 26 
-0.865535 -0.25193 4.83098 178 179 174 
-0.937192 -0.0196352 4.67585 101 99 76 
-0.387199 -0.59276 4.25239 58 25 18 
-0.298853 -0.634974 4.16545 47 187 114 
-0.325224 -0.39601 3.86955 190 170 135 
-0.110361 -0.346858 4.02019 232 212 159 
-0.149055 -0.500433 4.22077 106 116 105 
-1.20271 -0.0662458 4.7887 155 156 160 
-1.03595 -0.0681863 4.64906 250 226 100 
0.290207 1.0082 6.00398 170 124 2 
0.676627 -0.510446 4.58115 68 73 67 
0.689602 -0.500358 4.59096 251 255 251 
-0.993346 -0.255776 5.0574 199 177 65 
0.498591 -0.531255 4.66784 96 95 93 
-0.528329 0.0777926 5.43221 76 31 0 
0.197732 0.95731 5.78784 159 112 0 
0.192702 0.946376 5.79161 157 106 1 
0.271768 0.953999 5.78973 154 96 0 
0.231698 1.00394 5.74765 168 122 0 
0.111859 0.653954 5.65678 72 37 5 
0.521777 -0.549144 4.71093 112 112 110 
0.103475 0.576681 5.57974 33 17 0 
-0.610191 0.594632 5.60843 54 23 0 
-0.344842 -0.291085 4.18451 41 12 0 
-0.378455 -0.123725 4.30112 104 76 36 
-0.266428 -0.0845618 4.29817 98 73 33 
0.779171 -0.428896 4.82085 67 55 31 
0.469038 -0.318727 4.89329 172 129 35 
0.298377 -0.188865 4.97199 61 40 0 
-0.379199 -0.11425 4.30612 94 66 26 
-0.140429 -0.0692662 4.27922 56 31 0 
-0.140243 -0.0604962 4.28662 78 53 12 
0.382768 -0.0244144 5.04445 45 39 39 
0.367144 -0.0237535 5.04826 43 42 40 
-0.270466 -0.0447337 4.34306 44 26 16 
0.477238 -0.328645 4.90215 77 33 0 
-0.196207 -0.232476 4.32616 105 73 58 
0.517974 -0.564905 4.78117 88 87 83 
0.62386 -0.473605 4.76908 83 63 10 
0.74429 -0.458908 4.76872 33 30 21 
0.0273388 0.564172 5.24293 56 25 0 
0.0131366 0.609791 5.20314 64 38 1 
0.10971 0.827856 5.25236 187 129 6 
0.130956 0.903561 5.22807 231 203 155 
0.731001 -0.669198 4.78099 194 131 2 
0.557706 -0.615607 4.7838 36 27 28 
0.539589 -0.576784 4.74661 142 136 136 
0.506459 -0.556425 4.75731 80 79 75 
0.749244 -0.492199 4.78408 120 117 112 
0.46184 -0.325791 4.88975 80 31 1 
0.0216849 0.632556 5.26593 60 33 3 
0.114105 0.834748 5.26004 183 123 9 
0.24302 0.892961 5.29509 231 208 166 
0.128165 0.879655 5.24542 178 118 8 
0.0540961 0.869972 5.21931 165 112 10 
0.346011 0.966808 5.28823 153 138 119 
0.708012 -0.464671 4.60109 25 22 17 
0.161806 -0.68778 5.07674 172 164 145 
-0.347217 0.0511567 4.99659 124 98 61 
-0.0986546 -0.641475 4.34736 107 120 103 
0.674524 -0.604854 4.63096 152 104 0 
0.623928 -0.137089 4.89853 65 11 0 
0.165812 -0.685635 5.07021 171 160 142 
-0.189605 -0.0551871 4.74522 88 83 77 
0.415758 -0.0520693 4.97705 19 15 4 
0.232019 -0.749897 4.36758 46 28 6 
-0.168951 -0.0410348 4.75909 13 12 7 
0.146386 0.507946 5.3712 86 54 0 
0.597655 -0.474169 4.6339 24 16 0 
0.624297 -0.456539 4.60024 227 197 67 
0.409435 -0.0971145 4.96182 134 110 36 
0.263235 0.219968 5.53937 196 153 12 
-0.319755 -0.461995 4.03868 113 88 47 
-0.184091 -0.0144574 4.78066 73 64 57 
0.262305 0.216311 5.56717 209 169 11 
-0.142287 0.0059667 4.78965 54 41 25 
