ply                 
format ascii 1.0    
element vertex 583
property float x    
property float y    
property float z    
property uchar red  
property uchar green
property uchar blue 
end_header          
0.443414 -0.442681 4.92367 98 100 95 
-0.0296099 -0.306854 4.48812 17 13 0 
0.223762 -0.0568135 5.16945 35 16 0 
-0.16141 -0.407951 4.41523 157 185 160 
-0.171621 -0.405789 4.43635 31 53 32 
-0.0272388 -0.315794 4.49783 40 37 4 
-0.00561248 -0.310281 4.49452 68 62 30 
0.52725 -0.783326 4.91939 255 245 110 
-0.555379 -0.728026 4.62819 49 32 4 
0.693653 -0.57178 4.97667 255 210 29 
0.524562 -0.562576 5.05773 183 150 69 
-0.372503 -0.419373 4.45962 120 114 100 
-0.492598 -0.436312 4.55718 34 69 29 
-0.161385 -0.407991 4.41603 157 185 160 
-0.369243 -0.416949 4.45876 109 113 96 
-0.0849672 -0.408102 4.45445 95 112 93 
-0.171516 -0.405799 4.43549 31 53 32 
-0.433071 -0.392307 4.49076 0 53 17 
-0.00678215 -0.301173 4.47566 49 36 2 
0.384275 -0.180905 5.06863 61 10 0 
0.179613 -0.0868858 5.14692 16 18 7 
0.307063 0.0535048 5.24438 116 96 45 
-0.92718 0.139937 4.92889 29 13 0 
0.511736 -0.72521 4.89132 121 43 5 
0.688752 -0.558606 4.9606 163 89 0 
0.474264 -0.578619 5.09906 225 173 38 
-0.369541 -0.418199 4.45761 117 118 102 
0.435642 -0.44006 4.9214 42 47 41 
-0.180948 -0.339093 4.45407 0 18 9 
-0.00613823 -0.301747 4.46807 69 54 21 
-0.130546 -0.216251 4.22407 120 99 56 
0.178689 -0.156576 5.16461 27 25 26 
0.185429 -0.148939 5.16263 132 133 128 
0.186539 -0.0939492 5.15653 99 99 91 
-0.817909 -0.0751539 4.98042 130 130 120 
-0.926335 0.0851064 4.835 112 104 91 
-0.950187 0.158643 4.80668 103 103 77 
-0.903841 0.293788 4.85698 37 19 0 
0.00850131 0.569849 5.66451 112 63 0 
0.685191 -0.792845 5.00176 124 51 0 
-0.139583 -0.395858 4.42001 39 79 55 
-0.380955 -0.395244 4.47016 63 25 22 
0.243374 -0.248435 5.26126 31 13 0 
0.235671 -0.236401 5.25273 175 155 66 
-0.825074 0.0741218 5.1042 99 76 26 
-0.930728 0.14187 4.9372 31 14 4 
0.00791529 0.572748 5.67372 112 63 0 
0.0591339 1.01333 5.76029 159 112 0 
0.341672 1.09293 5.79173 205 190 183 
0.220229 1.11052 5.7324 207 194 178 
-0.280904 -0.534597 4.41483 37 146 91 
0.40654 -0.395332 4.9048 71 67 66 
-0.105133 -0.32707 4.46011 35 48 41 
0.431984 -0.373493 4.90515 93 94 89 
0.415391 -0.348082 4.93407 11 5 15 
0.630147 -0.296076 4.9407 21 12 13 
-0.823341 -0.0248829 4.99932 90 86 83 
0.164618 0.0317386 5.2866 100 67 14 
-0.995162 0.531287 5.67897 231 187 64 
-1.02514 0.421562 4.74899 190 150 18 
0.0151997 0.678546 5.69021 51 16 0 
-0.95859 0.950584 5.70615 229 187 7 
0.0522236 0.946731 5.78636 226 179 13 
0.11149 0.969821 5.81285 174 121 5 
0.0573496 0.997794 5.73882 157 106 1 
0.0934539 1.06011 5.7517 168 122 0 
-0.746765 1.1136 5.64684 202 184 160 
-1.08471 1.18353 5.68808 86 68 54 
-0.956256 1.19918 5.67292 73 54 47 
-0.569336 -0.729223 4.67315 97 67 41 
0.071945 -0.491659 5.27354 255 245 233 
0.0419844 -0.166682 5.09764 102 102 104 
0.0220863 0.652695 5.6124 35 9 0 
-0.57675 -0.745704 4.68974 66 38 27 
-0.194201 -0.416354 4.48606 67 99 78 
0.0147839 -0.319007 4.53473 153 123 73 
0.410141 -0.407624 4.90789 185 185 187 
0.0710711 -0.501044 5.24635 129 125 114 
0.429887 -0.372179 4.95254 61 55 57 
0.380735 -0.176872 5.06805 163 113 16 
-0.903041 0.282872 4.85111 146 124 64 
-0.91458 0.375702 4.91364 38 34 23 
0.00892699 0.592832 5.63737 116 73 5 
0.727065 -0.874055 5.02057 40 33 14 
-0.393763 -0.456229 4.48994 25 61 35 
0.237769 -0.234627 5.22372 157 134 54 
0.373526 -0.173737 5.11073 106 49 0 
0.352442 -0.0366962 5.05895 50 21 13 
0.00018765 0.0927327 4.94278 7 7 5 
-0.89779 0.292328 4.84638 29 12 0 
-0.986229 0.496969 5.63944 173 127 7 
-1.0636 0.584391 5.67463 124 67 0 
0.0134646 0.560954 5.61196 114 61 0 
0.135899 0.950347 5.72188 255 252 190 
0.0689619 0.98645 5.66278 167 116 0 
0.725694 -0.870718 5.00915 39 36 27 
-0.296325 -0.549528 4.46974 58 134 85 
-0.0960478 -0.411116 4.49513 132 139 121 
-0.104557 -0.400436 4.46854 47 82 60 
0.337696 -0.219592 5.10438 226 184 48 
0.236783 -0.234954 5.22936 150 128 55 
-0.856837 -0.0706896 4.95226 179 177 180 
0.376676 -0.0585374 5.04124 216 171 16 
0.357482 -0.0513457 5.06394 85 29 0 
-0.952968 0.124913 4.80995 87 86 82 
-0.932337 0.163074 4.85659 72 67 63 
-0.90862 0.310122 4.81048 143 95 0 
0.268768 0.368985 5.83667 159 117 9 
-0.982899 0.435055 4.97968 216 205 183 
0.242361 0.424045 5.79409 149 109 0 
-0.989662 0.498369 5.64907 168 124 3 
0.0230369 0.657547 5.6247 39 15 3 
0.021558 0.675916 5.63578 38 12 0 
0.295203 0.874611 5.85243 168 110 3 
0.0563574 0.919654 5.69602 220 175 11 
0.447186 1.0814 5.7731 138 115 97 
0.225054 1.07074 5.60569 174 158 143 
-0.749127 1.10875 5.48246 224 212 198 
0.29949 1.115 5.68959 83 63 54 
-48.9409 69.8466 -201.004 21 22 24 
-45.7022 60.7686 -203.871 215 205 193 
-24.2243 30.2438 -100.996 41 37 38 
-46.3945 49.5414 -177.952 81 70 64 
0.499565 -0.207545 4.93944 230 183 17 
0.465949 -0.194685 4.92265 135 87 5 
-493563 333668 -1.61166e+06 36 32 31 
0.219656 -0.0742048 5.18296 151 127 53 
-0.864808 0.0223357 4.99925 11 9 10 
-0.0325947 0.139833 5.01563 45 27 13 
-0.955565 0.165745 4.84241 20 16 30 
-0.981227 0.525527 5.64362 240 196 71 
-0.652542 0.605905 5.55616 102 56 0 
0.120632 0.939305 5.70156 175 114 0 
0.0633152 0.976494 5.66352 163 113 2 
0.133719 0.98474 5.68182 170 105 1 
0.329146 1.00997 5.80135 194 145 27 
-0.914962 1.11163 5.49255 183 169 156 
0.321648 1.06765 5.64411 223 207 194 
0.446947 1.0801 5.76881 135 112 94 
-1.03534 1.14391 5.57415 100 81 67 
0.10902 1.1239 5.67517 69 42 23 
0.513908 -0.733929 4.91961 142 70 0 
-0.126502 -0.368858 4.45037 153 130 122 
0.0620304 -0.742986 5.73517 91 67 29 
0.0122401 -0.288609 4.48169 240 221 178 
-0.868703 0.0218417 4.98871 33 21 7 
0.00970851 0.56223 5.63976 114 61 0 
0.00759813 0.590827 5.66149 110 65 0 
0.132018 0.956289 5.75882 255 252 190 
-0.0909762 -0.401712 4.46944 132 139 121 
-0.664917 0.685752 5.57619 24 5 0 
0.0156895 0.680256 5.69341 38 12 0 
-1.06666 0.879532 5.76515 221 173 39 
-0.0922078 -0.401416 4.47616 136 139 120 
0.339346 -0.210569 5.09389 231 189 43 
-0.859786 0.0232108 4.99141 11 9 10 
-0.139512 -0.379335 4.48158 188 162 147 
0.411701 -0.416798 4.94072 181 181 183 
0.0709139 -0.504159 5.25404 174 169 163 
0.14872 0.980513 5.595 195 153 19 
0.0165199 -0.495433 4.61631 211 147 99 
-0.131148 -0.370233 4.46934 183 169 156 
-0.461365 0.148881 4.95369 126 102 74 
0.0768494 0.974686 5.59793 173 121 0 
0.702042 -0.70083 5.10285 199 135 0 
-0.107717 -0.405904 4.48368 15 71 46 
0.380393 -0.176712 5.06815 160 100 40 
-0.858648 -0.110587 4.97432 118 105 70 
0.171398 -0.0731178 5.15758 32 20 20 
-0.888581 0.313113 4.76759 127 73 0 
-0.983468 0.510275 5.57475 178 130 4 
-0.149391 -0.407654 4.47054 34 74 48 
0.374942 -0.0136147 5.06281 90 37 3 
0.286652 0.0954288 5.22451 109 104 100 
0.0287698 0.674606 5.58832 39 4 0 
0.0788817 0.969862 5.56843 175 117 7 
0.224949 1.08656 5.53271 67 44 30 
0.00846264 -0.499131 4.60156 38 69 25 
0.648523 -0.396003 4.92233 31 26 30 
0.654718 -0.328402 4.90388 90 86 77 
0.466542 -0.202177 4.95719 149 102 14 
-0.0597345 0.488681 5.53559 98 54 5 
0.303977 1.09506 5.59471 69 52 44 
0.588245 -0.439558 4.92899 142 91 0 
-0.15169 -0.40404 4.46129 67 96 74 
0.411411 -0.409935 4.92352 189 188 193 
0.38567 -0.1804 5.06684 90 32 0 
-0.944252 0.158595 4.79846 120 114 98 
-0.106082 -0.402002 4.47733 15 71 46 
0.361902 -0.0261219 5.06695 214 166 56 
-0.90735 0.373514 4.89462 28 23 17 
-0.954731 0.519661 5.58459 240 200 43 
-0.638847 0.605366 5.50229 115 63 5 
-0.150664 -0.359594 4.47557 69 39 31 
0.466774 -0.196018 4.9429 149 102 14 
-32.1981 46.1933 -132.262 28 29 24 
-67.1739 71.5476 -257.779 70 60 50 
-70.5435 73.9839 -275.923 220 210 198 
-0.658384 0.746418 5.56717 87 50 0 
-0.0254284 0.963504 5.70123 229 180 15 
0.412745 -0.403769 4.91507 181 181 183 
0.691148 -0.797575 5.0479 136 47 15 
-0.900105 -0.0666935 4.94762 195 195 187 
-0.988811 0.12668 4.7893 144 139 117 
-0.155637 -0.334136 4.45612 107 121 104 
-0.529629 -0.416223 4.53631 83 63 26 
-0.901808 -0.0656298 4.9588 178 179 174 
-0.946005 0.159271 4.80197 101 99 76 
-0.386569 -0.415668 4.47085 58 25 18 
-0.29268 -0.460189 4.39888 47 187 114 
-0.276327 -0.231033 4.11224 190 170 135 
-0.0854955 -0.187997 4.27961 232 212 159 
-0.150915 -0.33342 4.46713 106 116 105 
-1.21438 0.12288 4.87726 155 156 160 
-1.03924 0.115046 4.76571 250 226 100 
0.105171 1.12097 6.18139 170 124 2 
0.590405 -0.361673 4.88199 68 73 67 
0.601835 -0.352239 4.89246 251 255 251 
-1.04891 -0.0634472 5.15198 199 177 65 
0.410769 -0.375691 4.94586 96 95 93 
-0.637164 0.247437 5.55455 76 31 0 
0.0410012 1.07425 5.96992 159 112 0 
0.0354381 1.06398 5.97316 157 106 1 
0.111228 1.06889 5.98022 154 96 0 
0.0794894 1.11757 5.9352 168 122 0 
-0.0355072 0.783691 5.83267 72 37 5 
0.427041 -0.392951 4.98866 112 112 110 
-0.0369851 0.708975 5.75908 33 17 0 
-0.719741 0.747894 5.70805 54 23 0 
-0.329425 -0.124584 4.38216 41 12 0 
-0.369679 0.0379111 4.48814 104 76 36 
-0.261609 0.0720416 4.4981 98 73 33 
0.663389 -0.28425 5.12293 67 55 31 
0.362973 -0.168493 5.15495 172 129 35 
0.195369 -0.0379962 5.20924 61 40 0 
-0.370672 0.0470598 4.49275 94 66 26 
-0.139136 0.0827306 4.49463 56 31 0 
-0.13954 0.0912017 4.50165 78 53 12 
0.272551 0.117982 5.28734 45 39 39 
0.257248 0.119123 5.28916 43 42 40 
-0.269394 0.110775 4.54019 44 26 16 
0.36947 -0.178168 5.16447 77 33 0 
-0.2026 -0.0714748 4.53421 105 73 58 
0.414912 -0.407283 5.05554 88 87 83 
0.519941 -0.322975 5.05557 83 63 10 
0.635176 -0.312507 5.06922 33 30 21 
-0.070603 0.695576 5.43265 56 25 0 
-0.0781372 0.739344 5.39266 64 38 1 
0.0151061 0.946553 5.45057 187 129 6 
0.0405458 1.0184 5.42961 231 203 155 
0.614775 -0.51384 5.08131 194 131 2 
0.450933 -0.457123 5.06317 36 27 28 
0.439095 -0.419666 5.02512 142 136 136 
0.406925 -0.399025 5.03129 80 79 75 
0.637142 -0.344457 5.08479 120 117 112 
0.356305 -0.175089 5.15077 80 31 1 
-0.0765028 0.761679 5.4538 60 33 3 
0.0186312 0.95314 5.45844 183 123 9 
0.139391 1.00572 5.50709 231 208 166 
0.0351346 0.995714 5.44598 178 118 8 
-0.0327965 0.988278 5.41226 165 112 10 
0.240771 1.0736 5.51245 153 138 119 
0.627233 -0.317415 4.9251 25 22 17 
0.0408364 -0.512655 5.31691 172 164 145 
-0.41508 0.214191 5.17457 124 98 61 
-0.119859 -0.467394 4.58658 107 120 103 
0.587463 -0.451428 4.95058 152 104 0 
0.520917 0.0038685 5.19795 65 11 0 
0.0455172 -0.51076 5.31111 171 160 142 
-0.23719 0.104649 4.95321 88 83 77 
0.31476 0.0925994 5.24775 19 15 4 
0.191059 -0.581227 4.64622 46 28 6 
-0.218654 0.117847 4.96888 13 12 7 
0.0262922 0.644506 5.58975 86 54 0 
0.517398 -0.323122 4.94338 24 16 0 
0.547444 -0.30719 4.91421 227 197 67 
0.309194 0.0491707 5.23268 134 110 36 
0.109524 0.364911 5.76675 196 153 12 
-0.289233 -0.290856 4.26337 113 88 47 
-0.234946 0.144131 4.98757 73 64 57 
0.105198 0.361679 5.79332 209 169 11 
-0.195288 0.162766 5.00093 54 41 25 
-0.957541 0.160091 4.80243 40 33 23 
-0.921937 0.168086 4.82869 64 58 58 
-3.57955 0.411677 8.86097 240 215 112 
-0.84695 0.253734 4.72294 43 20 0 
-0.989976 0.127824 4.7957 141 136 107 
-0.9626 0.158391 4.80867 40 33 23 
-0.998009 0.128694 4.81145 122 121 103 
-0.954696 0.124432 4.81346 87 86 82 
-0.957141 0.125028 4.81747 67 67 65 
-0.98918 0.127452 4.7966 131 128 111 
-0.946302 0.160176 4.80342 93 91 76 
-0.770623 -0.0956199 3.53101 72 61 33 
-1.13816 0.0995584 4.05572 150 119 36 
-1.11163 0.0918366 4.28458 40 41 33 
-1.10074 0.109038 4.28344 85 86 78 
-1.59182 0.403529 4.44214 64 54 42 
-1.19562 0.291108 4.2422 12 9 4 
-1.59061 0.491902 4.47049 109 99 89 
-1.63792 0.580091 4.50008 163 159 148 
-0.941244 0.289595 4.68511 206 168 43 
-1.66465 0.814849 4.59969 157 153 142 
-2.1821 1.33566 4.18164 146 209 178 
-1.99624 1.15991 4.50455 96 67 37 
-2.14088 1.27515 4.6963 87 56 28 
-0.712263 0.271684 4.64589 75 56 23 
-0.820768 0.0517832 4.4513 36 27 10 
-1.17856 0.344745 4.35315 77 68 59 
-1.12561 0.331251 4.40944 212 180 57 
-1.07304 0.297759 4.54533 125 86 0 
-1.72331 0.831742 4.5646 42 104 81 
-1.71028 0.861414 4.64396 197 190 180 
-2.09366 1.33712 3.84943 155 162 144 
-0.750581 0.355465 4.54592 29 19 17 
-0.79347 -0.100547 3.56289 77 62 29 
-1.10551 0.000919108 3.98578 62 47 16 
-1.0102 0.0191046 3.9804 255 252 171 
-1.23141 0.147103 4.18406 174 134 46 
-0.995628 0.0290806 4.19787 41 35 23 
-1.11854 0.103655 4.30304 0 0 0 
-1.23009 0.245158 4.10461 17 0 0 
-1.17816 0.192439 4.26226 159 128 20 
-1.58721 0.402617 4.39734 61 54 44 
-1.27538 0.305694 4.1684 28 10 0 
-1.59754 0.478294 4.42691 160 156 144 
-1.07894 0.178988 4.39269 158 132 45 
-1.00181 0.134177 4.39781 151 111 0 
-1.10362 0.194988 4.42147 151 122 28 
-1.60173 0.47823 4.48024 149 139 129 
-0.819479 0.0733575 4.26479 114 113 118 
-1.61638 0.499824 4.45616 100 96 85 
-0.765695 0.03483 4.33664 65 52 18 
-1.14869 0.330669 4.15067 27 6 0 
-1.07522 0.196935 4.44253 221 178 47 
-1.15121 0.310468 4.29584 92 94 89 
-1.13788 0.316142 4.28272 22 21 16 
-1.0697 0.365626 4.20274 125 109 86 
-0.975432 0.255454 4.48181 77 35 0 
-1.08467 0.318709 4.52973 210 169 45 
-0.948595 0.215788 4.58053 158 101 0 
-2.36105 1.34162 3.91899 109 149 125 
-0.825911 0.142692 4.59059 72 65 49 
-1.02694 0.319281 4.45002 86 38 0 
-0.840102 0.149015 4.66849 17 13 10 
-2.14727 1.30466 3.79815 192 173 156 
-2.25641 1.32249 4.02662 50 93 76 
-0.897722 0.262844 4.58969 124 77 0 
-1.71939 0.857208 4.67339 115 111 100 
-1.64056 0.824813 4.62202 127 117 107 
-1.57161 0.814829 4.48736 186 182 171 
-1.65748 0.846775 4.59872 147 140 130 
-1.62628 0.862287 4.49483 84 89 82 
-1.67707 0.873322 4.63591 137 128 121 
-1.64865 0.878179 4.57178 177 175 163 
-1.2115 0.724545 4.24649 29 12 0 
-0.75178 0.35769 4.53712 98 88 86 
-0.751208 0.372337 4.6316 173 161 147 
-1.00386 -0.0117295 4.01149 218 188 98 
-1.04203 0.0360512 4.22685 59 47 5 
-1.14133 0.104083 4.21024 158 107 0 
-0.981158 0.0760916 4.1113 25 25 17 
-1.28272 0.286666 4.1699 30 14 0 
-1.56712 0.387106 4.41093 22 12 2 
-1.12771 0.139185 4.3981 67 66 64 
-0.986832 0.103494 4.31017 143 124 48 
-1.22125 0.317442 4.15046 34 0 0 
-1.20553 0.329553 4.24233 98 88 76 
-1.1782 0.379655 4.1101 75 42 0 
-0.920022 0.152276 4.42854 134 74 2 
-1.10054 0.31297 4.34496 175 143 42 
-0.911722 0.217792 4.43876 200 154 56 
-1.0555 0.296897 4.50384 204 169 39 
-2.24769 1.28914 3.99269 23 56 45 
-1.25797 0.58859 4.24844 67 51 15 
-2.27168 1.26629 4.56333 144 114 80 
-2.18468 1.35707 4.14152 44 68 52 
-2.23246 1.26579 4.70654 185 152 107 
-0.78176 0.330945 4.69101 17 12 16 
-0.777499 0.340382 4.65671 14 13 8 
-0.609439 -0.18254 3.42223 146 141 135 
-0.912655 -0.0528885 3.71198 69 54 23 
-1.05419 0.0608246 4.01882 255 255 205 
-0.997102 0.0995286 4.15713 82 84 73 
-1.10582 0.162803 4.18551 207 173 49 
-1.10925 0.106498 4.35981 37 35 38 
-1.05907 0.122865 4.41079 102 74 11 
-0.991693 0.128339 4.30827 145 123 37 
-1.23651 0.299179 4.32748 103 107 108 
-1.11599 0.239307 4.40032 182 148 38 
-1.03998 0.322225 3.98613 15 9 11 
-1.06961 0.20255 4.44098 142 94 9 
-1.23171 0.283881 4.55136 202 169 40 
-0.763014 0.10049 4.47584 52 52 54 
-0.808938 0.122832 4.6422 55 54 50 
-0.743276 0.136678 4.511 82 78 69 
-0.903059 0.387003 4.03856 95 75 40 
-2.15726 1.14826 4.49062 255 255 248 
-2.18597 1.33017 4.04336 0 36 18 
-1.01191 0.272431 5.01898 155 124 34 
-0.926284 0.303414 4.672 228 186 14 
-0.915793 0.252279 4.84105 152 125 22 
-1.94586 1.06415 4.51841 39 126 92 
-0.776268 0.251643 4.5956 156 134 51 
-0.871066 0.293989 4.80597 211 178 49 
-0.679891 0.231835 4.59913 97 65 4 
-1.54264 0.912785 4.43452 24 31 24 
-0.76279 0.335661 4.70734 51 44 52 
-0.537214 -0.200275 3.34936 146 130 130 
-0.638703 -0.141422 3.42602 247 255 232 
-1.10183 0.104028 4.22637 224 192 23 
-1.06533 0.111268 4.16358 150 100 5 
-1.10467 0.158213 4.18316 204 172 27 
-1.10707 0.189267 4.16013 182 153 13 
-0.950499 0.104909 4.21635 102 86 71 
-1.19369 0.317711 4.12747 22 4 4 
-1.05358 0.160263 4.38179 92 65 10 
-1.21926 0.29924 4.31362 120 125 121 
-1.28046 0.331118 4.43887 100 98 99 
-1.02387 0.298673 4.1632 6 8 3 
-0.863324 0.0834392 4.72368 115 102 83 
-0.90348 0.34031 4.03458 212 197 190 
-2.6175 1.44305 4.1957 3 2 0 
-1.08577 0.320539 4.62944 210 169 29 
-0.773959 0.138201 4.58258 83 75 73 
-0.832725 0.130009 4.75715 52 34 22 
-2.3605 1.36051 4.1128 6 82 54 
-0.7613 0.121899 4.67589 226 194 31 
-2.14824 1.28523 3.95081 0 5 0 
-2.08914 1.30272 3.78802 205 189 166 
-2.23712 1.36917 3.93192 4 6 1 
-0.8702 0.287633 4.63665 111 73 2 
-2.29403 1.40403 4.19984 43 72 52 
-0.798235 0.241081 4.63229 6 2 3 
-1.68566 0.881334 4.61554 200 198 186 
-2.23945 1.34041 4.80421 129 108 77 
-0.967777 0.116031 4.74841 35 35 25 
-0.0166381 -0.363817 2.73239 68 64 61 
-1.35195 0.160035 4.31491 160 121 56 
-1.21767 0.354913 4.40253 81 74 66 
-0.93028 0.30468 4.6951 225 185 28 
-1.08302 0.59412 3.97311 167 163 154 
-1.13442 0.200531 4.46289 153 125 28 
-1.16964 0.258205 4.43488 145 125 26 
-1.08994 0.590909 3.96961 191 187 178 
-1.24896 0.185246 4.35864 200 169 52 
-1.21866 0.336349 4.38314 8 9 4 
-1.54886 0.697009 3.5183 63 30 0 
-1.54381 0.696388 3.52527 178 143 111 
-0.947608 0.163916 4.80969 73 65 63 
-1.03651 0.3029 4.53437 173 138 20 
-1.09505 0.597501 3.97023 87 83 74 
-1.09459 0.62488 3.97156 183 181 169 
-1.05207 0.667043 3.97343 74 68 54 
-1.1359 0.15404 4.59196 166 133 2 
-1.59624 0.687027 3.52535 220 197 153 
-1.24703 0.341466 4.35702 111 108 99 
-1.17292 0.331273 4.44035 173 143 29 
-0.918364 0.140765 4.84521 46 48 47 
-1.08679 0.583779 3.98023 66 59 49 
-1.09308 0.603555 3.97112 202 198 189 
-1.25023 0.146129 4.39667 200 170 50 
-1.27466 0.30821 4.34787 7 7 7 
-0.946467 0.158166 4.7818 14 4 0 
-1.04372 0.265512 4.59696 70 28 3 
-0.910924 0.131047 4.92735 231 199 52 
-0.901243 0.13799 4.92049 120 82 1 
-1.29143 0.123217 4.39474 158 108 0 
-1.2556 0.150701 4.39207 205 172 9 
-1.03997 0.257137 4.62288 89 44 3 
-0.913443 0.142887 4.91309 34 18 5 
-1.05764 0.655347 3.97601 203 193 192 
-1.54904 0.315096 3.7746 63 64 66 
-1.26511 0.295835 4.0187 180 181 175 
-1.41188 0.506355 3.64906 85 170 137 
-1.22256 0.323418 4.02401 66 60 48 
-1.20828 0.31903 4.0434 48 37 19 
-1.16366 0.253337 4.42546 150 129 46 
-1.08888 0.174078 4.67851 127 74 0 
-1.24116 0.337649 4.35101 104 101 92 
-1.21589 0.377619 4.01379 190 188 176 
-1.18616 0.371737 4.04498 98 88 78 
-1.18395 0.384681 4.04241 38 25 16 
-1.04275 0.291159 4.5004 109 67 0 
-1.16333 0.438033 4.04335 123 115 104 
-1.15938 0.450287 4.04004 29 19 10 
-0.951697 0.292424 4.70179 202 163 36 
-0.932326 0.306092 4.6996 225 185 28 
-1.12712 0.571394 4.01371 160 155 149 
-1.10969 0.57984 4.03322 62 52 40 
-1.10215 0.588044 4.03147 145 135 126 
-1.11743 0.614616 4.00628 192 188 179 
-1.10498 0.626562 4.01299 89 85 76 
-1.08995 0.621374 4.02806 81 72 65 
-1.14065 0.739697 3.74135 102 78 44 
-1.07834 0.689624 4.00919 76 70 58 
-1.06555 0.685418 4.02443 56 47 40 
-1.11322 0.757095 3.99778 112 120 107 
-1.25847 0.294391 4.01256 170 171 163 
-1.22623 0.31406 4.02027 206 196 195 
-1.133 0.199833 4.46023 153 125 28 
-1.10472 0.204386 4.48452 206 170 20 
-1.19937 0.389714 4.02382 35 28 20 
-1.15107 0.33711 4.44133 203 169 61 
-1.06622 0.685886 4.02509 64 54 45 
-1.02449 0.828331 3.57265 51 35 10 
-1.37825 0.170766 4.05951 36 111 80 
-1.3458 0.158841 4.30802 161 123 52 
-1.26657 0.218553 4.02953 212 203 194 
-1.25865 0.22434 4.03034 92 80 64 
-1.19183 0.11821 4.39944 99 101 98 
-1.25926 0.20472 4.3583 163 139 39 
-1.13005 0.199256 4.45669 152 123 19 
-1.21761 0.381494 4.01524 110 108 96 
-1.21032 0.379392 4.02752 143 140 125 
-0.939843 0.159599 4.792 73 65 63 
-0.963545 0.278099 4.69908 98 50 0 
-0.887154 0.364027 4.88912 1 0 0 
-0.874902 0.364631 4.91827 27 28 23 
-1.11178 0.616322 4.01019 129 125 116 
-1.15391 0.739059 3.74788 186 158 121 
-1.06421 0.696452 4.02423 70 57 38 
-1.26086 0.238181 4.0297 133 129 118 
-0.980921 0.126612 4.78244 130 126 115 
-1.18227 0.383711 4.03408 59 46 38 
-1.16905 0.329025 4.43362 173 143 29 
-1.05337 0.311144 4.48412 200 166 42 
-0.877793 0.29592 4.81777 204 174 40 
-1.11292 0.605414 4.01706 66 59 49 
-1.09256 0.610339 4.0325 116 107 100 
-1.44443 0.0900082 4.04875 1 65 39 
-1.39758 0.172415 3.85668 7 102 70 
-1.28481 0.117876 4.38063 171 121 0 
-1.2465 0.181724 4.35405 195 165 19 
-1.22914 0.315681 4.03318 80 68 54 
-1.11118 0.195831 4.48464 205 173 13 
-1.19349 0.387681 4.0228 58 49 42 
-1.04234 0.293087 4.48643 195 160 30 
-0.940279 0.307245 4.69554 221 184 8 
-1.62307 0.35586 3.6742 52 125 95 
-1.27477 0.11674 4.36928 158 108 0 
-1.23823 0.117264 4.39383 220 189 10 
-1.27476 0.21949 4.04655 66 57 48 
-1.24953 0.148299 4.3815 205 172 9 
-0.937351 0.165805 4.79237 10 5 11 
-0.909289 0.140661 4.90197 34 18 5 
-1.0233 0.305708 4.53557 205 169 11 
-1.08915 0.683873 4.02068 203 193 192 
-1.71654 0.443367 3.55682 102 78 68 
-1.66773 0.437428 3.59608 48 103 74 
-1.99587 -0.292235 4.49486 175 128 86 
-1.75599 0.355527 3.66632 255 255 232 
-1.27931 0.313459 4.38184 82 84 79 
-1.61798 0.701963 3.54001 213 184 144 
-1.53631 1.08822 3.71328 112 95 69 
-1.69562 0.405754 3.55846 26 9 0 
-1.26132 0.139224 4.43165 200 173 24 
-1.25546 0.135536 4.90139 45 46 41 
-1.02334 0.110644 4.85791 98 100 97 
-1.60827 0.705824 3.53341 23 0 0 
-1.57317 0.716155 3.54664 169 136 101 
-1.86375 -0.134269 4.62391 133 122 90 
-1.82342 -0.134486 4.59893 72 56 22 
-1.28525 0.118115 4.38157 160 114 2 
-1.36587 0.365649 3.72319 180 117 74 
-1.84255 -0.17519 4.62429 170 152 102 
-1.83821 -0.126087 4.61583 76 61 32 
-1.57821 0.0237734 4.17056 0 65 41 
-1.38636 0.136256 3.91717 0 36 22 
-1.36443 0.157207 4.04857 19 40 25 
-1.26379 0.218557 4.34454 163 132 7 
-0.942285 0.147641 4.88221 65 63 64 
-1.38252 0.159714 4.06513 33 123 87 
-1.3625 0.359075 3.71685 172 127 86 
-1.85228 -0.0955723 4.65118 92 74 34 
-1.85788 -0.121129 4.64833 72 56 22 
-1.56692 0.347369 3.7168 26 100 75 
-1.22096 0.310798 4.02259 67 52 45 
-1.37057 0.161962 4.05874 19 40 25 
-1.88928 0.12398 3.82858 116 102 76 
-1.58611 0.723442 3.54425 67 33 5 
-1.84147 -0.142149 4.59101 133 122 90 
-1.82023 -0.182711 4.59102 170 152 102 
