ply                 
format ascii 1.0    
element vertex 588
property float x    
property float y    
property float z    
property uchar red  
property uchar green
property uchar blue 
end_header          
0.443647 -0.442789 4.92338 98 100 95 
-0.0293859 -0.306992 4.48785 17 13 0 
0.224013 -0.0569209 5.16915 35 16 0 
-0.161184 -0.408089 4.41498 157 185 160 
-0.171394 -0.405927 4.4361 31 53 32 
-0.0270144 -0.31593 4.49757 40 37 4 
-0.00538903 -0.310418 4.49426 68 62 30 
0.527482 -0.783423 4.91912 255 245 110 
-0.555128 -0.728146 4.62798 49 32 4 
0.693882 -0.571879 4.97637 255 210 29 
0.524801 -0.562673 5.05744 183 150 69 
-0.372267 -0.41951 4.45938 120 114 100 
-0.492353 -0.436445 4.55694 34 69 29 
-0.16116 -0.408129 4.41577 157 185 160 
-0.369007 -0.417086 4.45852 109 113 96 
-0.0847422 -0.408238 4.45419 95 112 93 
-0.171288 -0.405936 4.43524 31 53 32 
-0.432832 -0.392444 4.49052 0 53 17 
-0.00655971 -0.30131 4.4754 49 36 2 
0.384516 -0.181013 5.06832 61 10 0 
0.179864 -0.0869938 5.14663 16 18 7 
0.307315 0.0533993 5.24407 116 96 45 
-0.926911 0.139803 4.92865 29 13 0 
0.511967 -0.725309 4.89105 121 43 5 
0.688981 -0.558706 4.9603 163 89 0 
0.474508 -0.578713 5.09877 225 173 38 
-0.369306 -0.418336 4.45737 117 118 102 
0.435875 -0.440168 4.9211 42 47 41 
-0.18072 -0.339231 4.45382 0 18 9 
-0.0059162 -0.301885 4.4678 69 54 21 
-0.130332 -0.216406 4.22382 120 99 56 
0.178942 -0.156681 5.16432 27 25 26 
0.185681 -0.149044 5.16234 132 133 128 
0.18679 -0.0940565 5.15623 99 99 91 
-0.81764 -0.0752782 4.98018 130 130 120 
-0.926069 0.0849687 4.83475 112 104 91 
-0.949922 0.158501 4.80644 103 103 77 
-0.903577 0.293646 4.85672 37 19 0 
0.00877928 0.569755 5.66418 112 63 0 
0.685424 -0.792936 5.00148 124 51 0 
-0.139358 -0.395996 4.41976 39 79 55 
-0.380719 -0.395382 4.46992 63 25 22 
0.24363 -0.248533 5.26097 31 13 0 
0.235927 -0.236499 5.25243 175 155 66 
-0.8248 0.0740002 5.10395 99 76 26 
-0.930458 0.141736 4.93696 31 14 4 
0.00819374 0.572654 5.6734 112 63 0 
0.0594128 1.01324 5.75994 159 112 0 
0.341948 1.09283 5.79137 205 190 183 
0.220503 1.11042 5.73204 207 194 178 
-0.280673 -0.534731 4.4146 37 146 91 
0.406773 -0.395442 4.90451 71 67 66 
-0.104908 -0.327208 4.45985 35 48 41 
0.432216 -0.373603 4.90486 93 94 89 
0.415625 -0.348192 4.93377 11 5 15 
0.630374 -0.296186 4.94039 21 12 13 
-0.82307 -0.0250077 4.99907 90 86 83 
0.164876 0.031635 5.28629 100 67 14 
-0.994865 0.531188 5.67871 231 187 64 
-1.02488 0.421408 4.74874 190 150 18 
0.0154781 0.678451 5.68988 51 16 0 
-0.958296 0.95048 5.70586 229 187 7 
0.0525045 0.946639 5.78602 226 179 13 
0.111771 0.96973 5.8125 174 121 5 
0.0576275 0.997698 5.73848 157 106 1 
0.0937314 1.06001 5.75135 168 122 0 
-0.746479 1.11349 5.64653 202 184 160 
-1.08442 1.18343 5.68779 86 68 54 
-0.955966 1.19907 5.67262 73 54 47 
-0.569087 -0.729345 4.67295 97 67 41 
0.072208 -0.491751 5.27327 255 245 233 
0.0422356 -0.166792 5.09737 102 102 104 
0.0223621 0.652593 5.61205 35 9 0 
-0.5765 -0.745824 4.68954 66 38 27 
-0.193976 -0.416493 4.48584 67 99 78 
0.0150053 -0.319144 4.53449 153 123 73 
0.410374 -0.407736 4.90761 185 185 187 
0.0713326 -0.501138 5.24608 129 125 114 
0.430122 -0.372289 4.95226 61 55 57 
0.380977 -0.176981 5.06776 163 113 16 
-0.902785 0.282732 4.85088 146 124 64 
-0.914321 0.375563 4.91339 38 34 23 
0.00920481 0.592733 5.63704 116 73 5 
0.7273 -0.874145 5.0203 40 33 14 
-0.393533 -0.456367 4.48972 25 61 35 
0.238023 -0.234727 5.22344 157 134 54 
0.37377 -0.173844 5.11044 106 49 0 
0.352683 -0.0368092 5.05865 50 21 13 
0.000429303 0.0926079 4.9425 7 7 5 
-0.897535 0.292187 4.84615 29 12 0 
-0.985928 0.496866 5.63916 173 127 7 
-1.0633 0.584288 5.67435 124 67 0 
0.0137411 0.560855 5.61162 114 61 0 
0.136177 0.950244 5.7215 255 252 190 
0.0692378 0.986342 5.66241 167 116 0 
0.725928 -0.870809 5.00888 39 36 27 
-0.296097 -0.549664 4.46952 58 134 85 
-0.0958251 -0.411254 4.49489 132 139 121 
-0.104336 -0.400575 4.46831 47 82 60 
0.337941 -0.219698 5.10409 226 184 48 
0.237037 -0.235054 5.22907 150 128 55 
-0.856574 -0.070816 4.95203 179 177 180 
0.376916 -0.0586507 5.04095 216 171 16 
0.357723 -0.0514582 5.06365 85 29 0 
-0.952712 0.124774 4.80972 87 86 82 
-0.932079 0.162936 4.85636 72 67 63 
-0.908366 0.309978 4.81024 143 95 0 
0.269052 0.368904 5.83632 159 117 9 
-0.982635 0.434918 4.97944 216 205 183 
0.242643 0.42396 5.79374 149 109 0 
-0.989361 0.498267 5.64879 168 124 3 
0.0233134 0.657446 5.62436 39 15 3 
0.021835 0.675815 5.63543 38 12 0 
0.295484 0.874518 5.85205 168 110 3 
0.0566358 0.919549 5.69565 220 175 11 
0.447457 1.08129 5.77269 138 115 97 
0.225322 1.07063 5.6053 174 158 143 
-0.74884 1.10862 5.48213 224 212 198 
0.299761 1.11489 5.68919 83 63 54 
-48.9525 69.8343 -201.001 21 22 24 
-45.7111 60.7525 -203.854 215 205 193 
-24.2288 30.2359 -100.988 41 37 38 
-46.4011 49.5269 -177.934 81 70 64 
0.499797 -0.207659 4.93915 230 183 17 
0.466181 -0.194801 4.92237 135 87 5 
-493718 333618 -1.61182e+06 36 32 31 
0.219907 -0.0743112 5.18267 151 127 53 
-0.864543 0.0222096 4.99902 11 9 10 
-0.0323485 0.139711 5.01535 45 27 13 
-0.955308 0.165607 4.84218 20 16 30 
-0.980927 0.525424 5.64334 240 196 71 
-0.652254 0.605798 5.55586 102 56 0 
0.120909 0.939201 5.70119 175 114 0 
0.0635914 0.976385 5.66315 163 113 2 
0.133995 0.984633 5.68144 170 105 1 
0.329422 1.00987 5.80095 194 145 27 
-0.914671 1.1115 5.49223 183 169 156 
0.321916 1.06754 5.64372 223 207 194 
0.447218 1.08 5.7684 135 112 94 
-1.03505 1.14378 5.57384 100 81 67 
0.109295 1.12379 5.67478 69 42 23 
0.514142 -0.734028 4.91934 142 70 0 
-0.126278 -0.368995 4.45013 153 130 122 
0.0623206 -0.74305 5.73491 91 67 29 
0.0124609 -0.288746 4.48144 240 221 178 
-0.868435 0.0217161 4.98847 33 21 7 
0.0099856 0.562133 5.63944 114 61 0 
0.00787624 0.59073 5.66116 110 65 0 
0.132296 0.95619 5.75846 255 252 190 
-0.0907521 -0.401847 4.46919 132 139 121 
-0.664629 0.685645 5.57589 24 5 0 
0.0159686 0.680159 5.69307 38 12 0 
-1.06636 0.879428 5.76486 221 173 39 
-0.0919833 -0.40155 4.47592 136 139 120 
0.339591 -0.210675 5.09359 231 189 43 
-0.859518 0.0230854 4.99117 11 9 10 
-0.139289 -0.379475 4.48135 188 162 147 
0.411936 -0.41691 4.94045 181 181 183 
0.0711772 -0.50425 5.25377 174 169 163 
0.14899 0.9804 5.59462 195 153 19 
0.0167473 -0.495561 4.61608 211 147 99 
-0.130927 -0.370374 4.46911 183 169 156 
-0.461111 0.148752 4.95343 126 102 74 
0.0771224 0.974573 5.59755 173 121 0 
0.702283 -0.700924 5.10258 199 135 0 
-0.107495 -0.406043 4.48345 15 71 46 
0.380635 -0.176822 5.06786 160 100 40 
-0.858376 -0.110709 4.97408 118 105 70 
0.171649 -0.0732257 5.1573 32 20 20 
-0.888326 0.312968 4.76734 127 73 0 
-0.98316 0.510168 5.57445 178 130 4 
-0.149168 -0.407794 4.47031 34 74 48 
0.375182 -0.0137284 5.06251 90 37 3 
0.286903 0.0953213 5.2242 109 104 100 
0.0290451 0.674502 5.58797 39 4 0 
0.0791529 0.969748 5.56806 175 117 7 
0.225213 1.08644 5.53232 67 44 30 
0.00868936 -0.499261 4.60133 38 69 25 
0.648752 -0.396115 4.92206 31 26 30 
0.654945 -0.328517 4.9036 90 86 77 
0.466775 -0.202292 4.95691 149 102 14 
-0.0594586 0.488578 5.53525 98 54 5 
0.304242 1.09495 5.59431 69 52 44 
0.588475 -0.439667 4.92871 142 91 0 
-0.151468 -0.40418 4.46106 67 96 74 
0.411645 -0.410047 4.92325 189 188 193 
0.385911 -0.180509 5.06655 90 32 0 
-0.943995 0.158454 4.79823 120 114 98 
-0.10586 -0.402141 4.4771 15 71 46 
0.362142 -0.0262346 5.06666 214 166 56 
-0.907091 0.373373 4.89437 28 23 17 
-0.954429 0.519553 5.5843 240 200 43 
-0.638559 0.605254 5.50198 115 63 5 
-0.150442 -0.359734 4.47534 69 39 31 
0.467006 -0.196133 4.94262 149 102 14 
-32.2196 46.2048 -132.317 28 29 24 
-67.2497 71.597 -258.009 70 60 50 
-70.629 74.0404 -276.191 220 210 198 
-0.658092 0.746306 5.56685 87 50 0 
-0.0251469 0.963396 5.70086 229 180 15 
0.412979 -0.403878 4.9148 181 181 183 
0.691386 -0.797666 5.04763 136 47 15 
-0.899837 -0.0668204 4.94739 195 195 187 
-0.988549 0.12654 4.78907 144 139 117 
-0.155411 -0.334276 4.45587 107 121 104 
-0.529386 -0.416358 4.53608 83 63 26 
-0.90154 -0.0657562 4.95857 178 179 174 
-0.945743 0.159129 4.80173 101 99 76 
-0.386333 -0.415805 4.47062 58 25 18 
-0.29245 -0.460327 4.39864 47 187 114 
-0.276113 -0.231194 4.112 190 170 135 
-0.0852814 -0.188149 4.27935 232 212 159 
-0.150689 -0.333559 4.46687 106 116 105 
-1.21411 0.122743 4.87704 155 156 160 
-1.03897 0.114903 4.76548 250 226 100 
0.105472 1.12088 6.18098 170 124 2 
0.590758 -0.361803 4.882 68 73 67 
0.602194 -0.352368 4.89248 251 255 251 
-1.0486 -0.0635741 5.15155 199 177 65 
0.411068 -0.375809 4.94575 96 95 93 
-0.636873 0.247313 5.55412 76 31 0 
0.0412886 1.07418 5.9696 159 112 0 
0.0357262 1.0639 5.97284 157 106 1 
0.111516 1.06881 5.97989 154 96 0 
0.0797725 1.1175 5.9349 168 122 0 
-0.0352144 0.783625 5.83244 72 37 5 
0.427367 -0.393074 4.98862 112 112 110 
-0.0366934 0.708911 5.75887 33 17 0 
-0.719453 0.747795 5.70777 54 23 0 
-0.329257 -0.124754 4.38234 41 12 0 
-0.369513 0.0377699 4.48833 104 76 36 
-0.261425 0.0719122 4.49828 98 73 33 
0.663746 -0.284352 5.12287 67 55 31 
0.363304 -0.168601 5.15494 172 129 35 
0.195682 -0.0380984 5.20925 61 40 0 
-0.370506 0.0469202 4.49294 94 66 26 
-0.138933 0.0826094 4.49478 56 31 0 
-0.139336 0.0910821 4.5018 78 53 12 
0.272869 0.117902 5.28733 45 39 39 
0.257565 0.119042 5.28915 43 42 40 
-0.269208 0.110652 4.54037 44 26 16 
0.369801 -0.178275 5.16446 77 33 0 
-0.202395 -0.0716236 4.53437 105 73 58 
0.415249 -0.407414 5.05552 88 87 83 
0.520285 -0.323093 5.05554 83 63 10 
0.635531 -0.312616 5.06917 33 30 21 
-0.0703341 0.695527 5.43264 56 25 0 
-0.0778752 0.739298 5.39265 64 38 1 
0.0153658 0.946518 5.45051 187 129 6 
0.0408 1.01837 5.42953 231 203 155 
0.615133 -0.513965 5.08125 194 131 2 
0.451274 -0.457255 5.06314 36 27 28 
0.439432 -0.419799 5.0251 142 136 136 
0.407259 -0.399157 5.03127 80 79 75 
0.637497 -0.344567 5.08473 120 117 112 
0.356634 -0.175197 5.15077 80 31 1 
-0.0762363 0.761633 5.45377 60 33 3 
0.0188913 0.953105 5.45837 183 123 9 
0.139657 1.00568 5.50698 231 208 166 
0.0353916 0.995683 5.4459 178 118 8 
-0.0325458 0.988245 5.4122 165 112 10 
0.241037 1.07358 5.51231 153 138 119 
0.627462 -0.317521 4.9248 25 22 17 
0.0411024 -0.512748 5.31664 172 164 145 
-0.414817 0.214071 5.1743 124 98 61 
-0.119626 -0.46752 4.58634 107 120 103 
0.587695 -0.451531 4.95029 152 104 0 
0.52116 0.00376454 5.19763 65 11 0 
0.0457829 -0.510853 5.31085 171 160 142 
-0.236941 0.104523 4.95294 88 83 77 
0.315011 0.0924933 5.24744 19 15 4 
0.191288 -0.581343 4.64596 46 28 6 
-0.218405 0.117722 4.96861 13 12 7 
0.0265625 0.644401 5.58943 86 54 0 
0.517631 -0.323229 4.94309 24 16 0 
0.547674 -0.307298 4.91391 227 197 67 
0.309444 0.0490649 5.23237 134 110 36 
0.109804 0.364821 5.76644 196 153 12 
-0.289013 -0.291002 4.26314 113 88 47 
-0.234696 0.144006 4.9873 73 64 57 
0.10548 0.361591 5.793 209 169 11 
-0.195039 0.162642 5.00066 54 41 25 
-0.957281 0.159951 4.80219 40 33 23 
-0.921677 0.167948 4.82845 64 58 58 
-3.57962 0.411804 8.86174 240 215 112 
-0.846703 0.253593 4.72271 43 20 0 
-0.989719 0.127682 4.79548 141 136 107 
-0.962341 0.158251 4.80844 40 33 23 
-0.997758 0.128553 4.81123 122 121 103 
-0.954444 0.124292 4.81324 87 86 82 
-0.956898 0.12489 4.81727 67 67 65 
-0.988917 0.127311 4.79636 131 128 111 
-0.946041 0.160035 4.80318 93 91 76 
-0.771574 -0.0958493 3.53194 72 61 33 
-1.1385 0.0994343 4.05611 150 119 36 
-1.11172 0.0916994 4.28477 40 41 33 
-1.10083 0.108904 4.28362 85 86 78 
-1.59126 0.403286 4.44158 64 54 42 
-1.19572 0.291005 4.24235 12 9 4 
-1.59001 0.491633 4.46987 109 99 89 
-1.63716 0.579762 4.4993 163 159 148 
-0.941065 0.289468 4.68499 206 168 43 
-1.6637 0.814391 4.59868 157 153 142 
-2.18072 1.33485 4.18055 146 209 178 
-1.99475 1.15911 4.50316 96 67 37 
-2.13866 1.27396 4.69421 87 56 28 
-0.712207 0.271598 4.64603 75 56 23 
-0.820867 0.0516591 4.45164 36 27 10 
-1.17852 0.344626 4.35316 77 68 59 
-1.12555 0.331133 4.40944 212 180 57 
-1.0729 0.297628 4.54525 125 86 0 
-1.72232 0.831265 4.56357 42 104 81 
-1.70918 0.860887 4.64279 197 190 180 
-2.09304 1.33668 3.84892 155 162 144 
-0.750575 0.3554 4.54611 29 19 17 
-0.79438 -0.100778 3.56379 77 62 29 
-1.10591 0.000760439 3.98624 62 47 16 
-1.01065 0.0189601 3.98095 255 252 171 
-1.23152 0.146968 4.18422 174 134 46 
-0.995865 0.0289391 4.19826 41 35 23 
-1.11862 0.10352 4.30322 0 0 0 
-1.23029 0.245055 4.10483 17 0 0 
-1.17825 0.192318 4.26243 159 128 20 
-1.58673 0.402389 4.39687 61 54 44 
-1.27548 0.305585 4.16853 28 10 0 
-1.59698 0.478039 4.42635 160 156 144 
-1.07892 0.17886 4.39276 158 132 45 
-1.00185 0.134053 4.39798 151 111 0 
-1.10359 0.194861 4.42152 151 122 28 
-1.60104 0.477943 4.47954 149 139 129 
-0.819724 0.0732448 4.2653 114 113 118 
-1.61576 0.499551 4.45553 100 96 85 
-0.765906 0.0347067 4.33715 65 52 18 
-1.1489 0.330599 4.15092 27 6 0 
-1.07518 0.19681 4.44259 221 178 47 
-1.15124 0.310361 4.29593 92 94 89 
-1.13794 0.316042 4.28285 22 21 16 
-1.06986 0.365565 4.20299 125 109 86 
-0.975396 0.255344 4.48188 77 35 0 
-1.08454 0.31858 4.52965 210 169 45 
-0.948513 0.21567 4.58056 158 101 0 
-2.3601 1.34104 3.91831 109 149 125 
-0.825888 0.14258 4.59075 72 65 49 
-1.02691 0.319178 4.45009 86 38 0 
-0.840011 0.148897 4.66855 17 13 10 
-2.14687 1.30433 3.79777 192 173 156 
-2.25524 1.32179 4.02575 50 93 76 
-0.897643 0.262736 4.58973 124 77 0 
-1.71819 0.856645 4.67211 115 111 100 
-1.6396 0.824349 4.62098 127 117 107 
-1.57089 0.814455 4.4866 186 182 171 
-1.6565 0.846295 4.59767 147 140 130 
-1.62538 0.861824 4.49389 84 89 82 
-1.67604 0.872812 4.6348 137 128 121 
-1.64774 0.877714 4.57081 177 175 163 
-1.2114 0.724433 4.24638 29 12 0 
-0.751778 0.357626 4.53732 98 88 86 
-0.751128 0.372253 4.63167 173 161 147 
-1.00428 -0.0118875 4.01202 218 188 98 
-1.04222 0.0359084 4.22717 59 47 5 
-1.14148 0.103949 4.21047 158 107 0 
-0.981501 0.0759717 4.11178 25 25 17 
-1.28281 0.286551 4.17 30 14 0 
-1.5666 0.386871 4.41041 22 12 2 
-1.12766 0.139045 4.39813 67 66 64 
-0.986979 0.103373 4.31048 143 124 48 
-1.22144 0.317358 4.15068 34 0 0 
-1.20562 0.329456 4.24247 98 88 76 
-1.17842 0.379597 4.11036 75 42 0 
-0.920103 0.152169 4.42881 134 74 2 
-1.10057 0.312868 4.34506 175 143 42 
-0.911783 0.217697 4.43899 200 154 56 
-1.05541 0.296777 4.50382 204 169 39 
-2.24674 1.28857 3.99197 23 56 45 
-1.2579 0.588475 4.24836 67 51 15 
-2.26933 1.26508 4.56132 144 114 80 
-2.18319 1.35619 4.14037 44 68 52 
-2.23007 1.26456 4.70436 185 152 107 
-0.781646 0.330847 4.69103 17 12 16 
-0.777403 0.34029 4.65676 14 13 8 
-0.610432 -0.182874 3.42325 146 141 135 
-0.913422 -0.0530745 3.71276 69 54 23 
-1.05458 0.060694 4.0193 255 255 205 
-0.9974 0.0994145 4.15758 82 84 73 
-1.10599 0.162687 4.18576 207 173 49 
-1.10927 0.10636 4.35993 37 35 38 
-1.05908 0.122734 4.41091 102 74 11 
-0.991824 0.128222 4.30854 145 123 37 
-1.23647 0.299052 4.32749 103 107 108 
-1.11595 0.239182 4.40035 182 148 38 
-1.04042 0.322213 3.98663 15 9 11 
-1.06959 0.20243 4.44107 142 94 9 
-1.23139 0.283708 4.55104 202 169 40 
-0.763114 0.100384 4.47622 52 52 54 
-0.808882 0.122715 4.64233 55 54 50 
-0.743353 0.136582 4.51135 82 78 69 
-0.903442 0.387027 4.03908 95 75 40 
-2.15555 1.14739 4.48913 255 255 248 
-2.1848 1.32946 4.04247 0 36 18 
-1.01142 0.27225 5.01833 155 124 34 
-0.92613 0.303294 4.67193 228 186 14 
-0.915497 0.252134 4.84075 152 125 22 
-1.94442 1.06341 4.51705 39 126 92 
-0.776251 0.251556 4.59579 156 134 51 
-0.870822 0.293855 4.80575 211 178 49 
-0.679893 0.231756 4.59938 97 65 4 
-1.54198 0.912407 4.43381 24 31 24 
-0.762668 0.335563 4.70734 51 44 52 
-0.538229 -0.200645 3.3504 146 130 130 
-0.639697 -0.141709 3.42702 247 255 232 
-1.10196 0.103896 4.2266 224 192 23 
-1.06559 0.11115 4.16396 150 100 5 
-1.10487 0.1581 4.18345 204 172 27 
-1.10732 0.189168 4.16047 182 153 13 
-0.950731 0.104795 4.21675 102 86 71 
-1.19393 0.317641 4.12775 22 4 4 
-1.05361 0.16014 4.38194 92 65 10 
-1.21921 0.299109 4.3136 120 125 121 
-1.2802 0.330949 4.43861 100 98 99 
-1.02411 0.298612 4.16353 6 8 3 
-0.863188 0.0833103 4.72367 115 102 83 
-0.903884 0.340319 4.03513 212 197 190 
-2.61541 1.44193 4.19429 3 2 0 
-1.08553 0.320391 4.62922 210 169 29 
-0.773974 0.138097 4.58284 83 75 73 
-0.832582 0.129886 4.75713 52 34 22 
-2.3591 1.3597 4.11178 6 82 54 
-0.761243 0.121786 4.67603 226 194 31 
-2.14744 1.28472 3.95018 0 5 0 
-2.08873 1.3024 3.78764 205 189 166 
-2.2361 1.36853 3.93116 4 6 1 
-0.870079 0.287521 4.63663 111 73 2 
-2.29244 1.40309 4.19863 43 72 52 
-0.798167 0.240981 4.63238 6 2 3 
-1.68464 0.880827 4.61445 200 198 186 
-2.23661 1.3389 4.80154 129 108 77 
-0.96756 0.115892 4.74825 35 35 25 
-0.0166137 -0.363984 2.73246 68 64 61 
-1.35177 0.159868 4.31475 160 121 56 
-1.21748 0.354759 4.40235 81 74 66 
-0.930068 0.304546 4.69492 225 185 28 
-1.08284 0.593943 3.97288 167 163 154 
-1.13422 0.200376 4.46272 153 125 28 
-1.16944 0.25805 4.43471 145 125 26 
-1.08976 0.590732 3.96938 191 187 178 
-1.24877 0.185084 4.35847 200 169 52 
-1.21847 0.336193 4.38296 8 9 4 
-1.5487 0.6968 3.51808 63 30 0 
-1.54366 0.696179 3.52505 178 143 111 
-0.947392 0.163784 4.80953 73 65 63 
-1.0363 0.302754 4.53419 173 138 20 
-1.09486 0.597323 3.97 87 83 74 
-1.0944 0.624704 3.97134 183 181 169 
-1.05189 0.666868 3.9732 74 68 54 
-1.1357 0.153892 4.59181 166 133 2 
-1.59609 0.686818 3.52513 220 197 153 
-1.24684 0.341309 4.35684 111 108 99 
-1.17273 0.331121 4.44018 173 143 29 
-0.918145 0.140635 4.84505 46 48 47 
-1.0866 0.583602 3.98 66 59 49 
-1.0929 0.603378 3.97089 202 198 189 
-1.25004 0.145968 4.3965 200 170 50 
-1.27448 0.308051 4.34769 7 7 7 
-0.946252 0.158032 4.78164 14 4 0 
-1.04352 0.265369 4.59679 70 28 3 
-0.910702 0.130921 4.9272 231 199 52 
-0.901021 0.137865 4.92035 120 82 1 
-1.29124 0.123054 4.39458 158 108 0 
-1.25541 0.150539 4.3919 205 172 9 
-1.03976 0.256996 4.62271 89 44 3 
-0.913222 0.142761 4.91295 34 18 5 
-1.05746 0.655172 3.97578 203 193 192 
-1.5489 0.314909 3.77443 63 64 66 
-1.26495 0.295666 4.01853 180 181 175 
-1.41176 0.506176 3.64888 85 170 137 
-1.2224 0.323252 4.02384 66 60 48 
-1.20812 0.318864 4.04323 48 37 19 
-1.16347 0.253185 4.42529 150 129 46 
-1.08867 0.173934 4.67835 127 74 0 
-1.24098 0.337494 4.35084 104 101 92 
-1.21573 0.377455 4.01362 190 188 176 
-1.186 0.371575 4.0448 98 88 78 
-1.18379 0.384518 4.04224 38 25 16 
-1.04256 0.291015 4.50024 109 67 0 
-1.16317 0.437873 4.04318 123 115 104 
-1.15921 0.450128 4.03986 29 19 10 
-0.951485 0.292289 4.70162 202 163 36 
-0.932115 0.305959 4.69943 225 185 28 
-1.12696 0.571239 4.01353 160 155 149 
-1.10953 0.579687 4.03304 62 52 40 
-1.10199 0.587891 4.03129 145 135 126 
-1.11728 0.614463 4.00609 192 188 179 
-1.10482 0.62641 4.0128 89 85 76 
-1.08979 0.621223 4.02788 81 72 65 
-1.14051 0.73954 3.74116 102 78 44 
-1.07818 0.689476 4.009 76 70 58 
-1.06539 0.68527 4.02424 56 47 40 
-1.11306 0.756946 3.99758 112 120 107 
-1.25831 0.294222 4.01239 170 171 163 
-1.22607 0.313892 4.0201 206 196 195 
-1.13281 0.199681 4.46007 153 125 28 
-1.10452 0.204236 4.48436 206 170 20 
-1.19921 0.389551 4.02364 35 28 20 
-1.15088 0.336961 4.44116 203 169 61 
-1.06606 0.685738 4.0249 64 54 45 
-1.02436 0.828177 3.57245 51 35 10 
-1.37809 0.170589 4.05935 36 111 80 
-1.34562 0.158674 4.30786 161 123 52 
-1.26641 0.218381 4.02937 212 203 194 
-1.25849 0.224169 4.03018 92 80 64 
-1.19164 0.118051 4.39928 99 101 98 
-1.25907 0.20456 4.35814 163 139 39 
-1.12985 0.199104 4.45653 152 123 19 
-1.21745 0.38133 4.01507 110 108 96 
-1.21016 0.379228 4.02735 143 140 125 
-0.939624 0.159464 4.79184 73 65 63 
-0.963334 0.277963 4.69891 98 50 0 
-0.88693 0.363903 4.88894 1 0 0 
-0.874676 0.364509 4.91809 27 28 23 
-1.11162 0.61617 4.01 129 125 116 
-1.15377 0.738901 3.74769 186 158 121 
-1.06405 0.696305 4.02404 70 57 38 
-1.2607 0.238009 4.02954 133 129 118 
-0.980702 0.126474 4.78228 130 126 115 
-1.18211 0.383548 4.03391 59 46 38 
-1.16886 0.328875 4.43345 173 143 29 
-1.05317 0.310999 4.48395 200 166 42 
-0.877573 0.295792 4.8176 204 174 40 
-1.11276 0.605261 4.01687 66 59 49 
-1.0924 0.610187 4.03231 116 107 100 
-1.44427 0.0898256 4.04859 1 65 39 
-1.39743 0.17223 3.85652 7 102 70 
-1.28463 0.117713 4.38047 171 121 0 
-1.24632 0.181563 4.35389 195 165 19 
-1.22898 0.315515 4.03301 80 68 54 
-1.11098 0.19568 4.48448 205 173 13 
-1.19333 0.387518 4.02263 58 49 42 
-1.04215 0.292942 4.48626 195 160 30 
-0.940068 0.307111 4.69537 221 184 8 
-1.62294 0.355668 3.67403 52 125 95 
-1.27458 0.116577 4.36912 158 108 0 
-1.23804 0.117102 4.39367 220 189 10 
-1.2746 0.219318 4.04639 66 57 48 
-1.24934 0.148138 4.38134 205 172 9 
-0.937133 0.165671 4.79221 10 5 11 
-0.909062 0.140531 4.90181 34 18 5 
-1.0231 0.305566 4.5354 205 169 11 
-1.08899 0.683724 4.02049 203 193 192 
-1.71639 0.443158 3.55662 102 78 68 
-1.66758 0.437223 3.59589 48 103 74 
-1.99566 -0.292424 4.49472 175 128 86 
-1.75584 0.355321 3.66613 255 255 232 
-1.27911 0.313295 4.38165 82 84 79 
-1.61784 0.701764 3.5398 213 184 144 
-1.53617 1.08804 3.71304 112 95 69 
-1.69548 0.405545 3.55827 26 9 0 
-1.26112 0.139059 4.43147 200 173 24 
-1.25522 0.135392 4.90121 45 46 41 
-1.0231 0.110503 4.85772 98 100 97 
-1.60813 0.705624 3.5332 23 0 0 
-1.57303 0.715957 3.54643 169 136 101 
-1.86354 -0.134445 4.62377 133 122 90 
-1.82321 -0.134663 4.59878 72 56 22 
-1.28504 0.117947 4.38139 160 114 2 
-1.36571 0.365455 3.723 180 117 74 
-1.84234 -0.175367 4.62414 170 152 102 
-1.838 -0.126263 4.61568 76 61 32 
-1.57802 0.023586 4.17039 0 65 41 
-1.38618 0.136064 3.91699 0 36 22 
-1.36424 0.157022 4.04839 19 40 25 
-1.26359 0.21839 4.34436 163 132 7 
-0.942048 0.147503 4.88202 65 63 64 
-1.38234 0.159531 4.06495 33 123 87 
-1.36234 0.358876 3.71664 172 127 86 
-1.85209 -0.0957345 4.65107 92 74 34 
-1.85769 -0.121293 4.64822 72 56 22 
-1.56676 0.347168 3.71661 26 100 75 
-1.22078 0.310617 4.0224 67 52 45 
-1.37038 0.161779 4.05856 19 40 25 
-1.88912 0.123774 3.82841 116 102 76 
-1.58597 0.723255 3.54404 67 33 5 
-1.84125 -0.142328 4.59085 133 122 90 
-1.82001 -0.182891 4.59086 170 152 102 
-1.08461 0.205789 5.39413 124 121 104 
-1.25001 0.208132 4.04945 60 46 35 
-1.18735 0.369697 4.51275 179 148 32 
-1.36967 0.194373 5.25478 174 163 159 
-1.25981 0.209252 4.02369 70 60 51 
