ply                 
format ascii 1.0    
element vertex 202
property float x    
property float y    
property float z    
property uchar red  
property uchar green
property uchar blue 
end_header          
0.508672 -0.630574 4.73402 98 100 95 
-0.0762623 -0.47115 4.32783 17 13 0 
0.309643 -0.215804 5.064 35 16 0 
-0.229872 -0.580263 4.26505 157 185 160 
-0.237596 -0.578742 4.29043 31 53 32 
-0.0721048 -0.481217 4.338 40 37 4 
-0.0492756 -0.474889 4.3309 68 62 30 
0.600518 -1.00375 4.70453 255 245 110 
-0.62365 -0.943691 4.56508 49 32 4 
0.789867 -0.77186 4.74752 255 210 29 
0.620248 -0.766534 4.8681 183 150 69 
-0.451349 -0.596341 4.34988 120 114 100 
-0.56664 -0.619549 4.47939 34 69 29 
-0.22972 -0.580336 4.26593 157 185 160 
-0.447959 -0.593628 4.34843 109 113 96 
-0.141038 -0.581078 4.29611 95 112 93 
-0.237618 -0.578721 4.28945 31 53 32 
-0.512318 -0.568414 4.39577 0 53 17 
-0.0536044 -0.464326 4.31033 49 36 2 
0.468086 -0.34815 4.91772 61 10 0 
0.257785 -0.248706 5.04452 16 18 7 
0.412951 -0.0953411 5.14026 116 96 45 
-0.986896 -0.001471 4.99075 29 13 0 
0.578557 -0.938881 4.67704 121 43 5 
0.781673 -0.756818 4.73054 163 89 0 
0.572739 -0.786304 4.92312 225 173 38 
-0.448455 -0.594956 4.34716 117 118 102 
0.499837 -0.627688 4.73284 42 47 41 
-0.245178 -0.506601 4.31385 0 18 9 
-0.0541242 -0.464695 4.30171 69 54 21 
-0.227466 -0.364744 4.05349 120 99 56 
0.259977 -0.326166 5.0621 27 25 26 
0.266975 -0.317617 5.059 132 133 128 
0.266971 -0.256732 5.05401 99 99 91 
-0.858735 -0.239312 5.02394 130 130 120 
-0.99954 -0.0593905 4.88205 112 104 91 
-1.03009 0.022153 4.85642 103 103 77 
-0.97286 0.170226 4.91083 37 19 0 
0.154114 0.466339 5.69674 112 63 0 
0.786045 -1.01584 4.77023 124 51 0 
-0.205578 -0.567024 4.26711 39 79 55 
-0.458972 -0.570405 4.36376 63 25 22 
0.347169 -0.430128 5.15812 31 13 0 
0.33727 -0.416622 5.1501 175 155 66 
-0.848677 -0.0780622 5.17119 99 76 26 
-0.989563 0.000414971 5.00088 31 14 4 
0.154993 0.46939 5.70763 112 63 0 
0.224995 0.96341 5.82455 159 112 0 
0.543621 1.05568 5.82056 205 190 183 
0.398754 1.07521 5.77252 207 194 178 
-0.358675 -0.719785 4.2813 37 146 91 
0.465253 -0.578261 4.7205 71 67 66 
-0.162292 -0.492978 4.30836 35 48 41 
0.492856 -0.554058 4.71743 93 94 89 
0.479649 -0.527305 4.75377 11 5 15 
0.713905 -0.468458 4.72775 21 12 13 
-0.862054 -0.18444 5.04795 90 86 83 
0.264299 -0.121827 5.21115 100 67 14 
-0.952276 0.415073 5.88055 231 187 64 
-1.12211 0.31272 4.814 190 150 18 
0.165472 0.587623 5.73113 51 16 0 
-0.910709 0.884942 5.92576 229 187 7 
0.221849 0.887808 5.85181 226 179 13 
0.291946 0.913991 5.87429 174 121 5 
0.219447 0.946177 5.79903 157 106 1 
0.261507 1.01669 5.81198 168 122 0 
-0.68651 1.07099 5.83079 202 184 160 
-1.05538 1.14663 5.93856 86 68 54 
-0.915379 1.1655 5.90058 73 54 47 
-0.632851 -0.94844 4.62292 97 67 41 
0.162127 -0.698672 5.18054 255 245 233 
0.0996196 -0.336093 5.00376 102 102 104 
0.157985 0.551971 5.59017 35 9 0 
-0.638162 -0.967095 4.64164 66 38 27 
-0.255883 -0.595881 4.36886 67 99 78 
-0.0206663 -0.488362 4.39116 153 123 73 
0.471127 -0.593162 4.73089 185 185 187 
0.156803 -0.708253 5.15081 129 125 114 
0.499756 -0.555213 4.77737 61 55 57 
0.464126 -0.343711 4.91677 163 113 16 
-0.972088 0.158139 4.90078 146 124 64 
-0.974907 0.258544 4.97331 38 34 23 
0.147945 0.485239 5.61784 116 73 5 
0.836628 -1.10728 4.78823 40 33 14 
-0.472515 -0.641497 4.40392 25 61 35 
0.333758 -0.41285 5.10744 157 134 54 
0.463177 -0.341508 4.96446 106 49 0 
0.431232 -0.189268 4.91553 50 21 13 
0.02788 -0.0463569 4.8496 7 7 5 
-0.967174 0.168729 4.89506 29 12 0 
-0.935835 0.371293 5.77769 173 127 7 
-1.01478 0.465946 5.83086 124 67 0 
0.148904 0.450875 5.58859 114 61 0 
0.298486 0.877584 5.69877 255 252 190 
0.215811 0.918403 5.64621 167 116 0 
0.833268 -1.10329 4.77613 39 36 27 
-0.369218 -0.742833 4.36341 58 134 85 
-0.147482 -0.589573 4.3631 132 139 121 
-0.16111 -0.57714 4.33587 47 82 60 
0.423273 -0.392137 4.96196 226 184 48 
0.333598 -0.413375 5.11371 150 128 55 
-0.903853 -0.233695 4.99295 179 177 180 
0.45487 -0.212636 4.89173 216 171 16 
0.437598 -0.205504 4.91973 85 29 0 
-1.03249 -0.0151017 4.85942 87 86 82 
-1.00262 0.0257986 4.90795 72 67 63 
-0.984864 0.189236 4.85827 143 95 0 
0.46444 0.235293 5.78667 159 117 9 
-1.03888 0.321503 5.05784 216 205 183 
0.428512 0.296913 5.74611 149 109 0 
-0.938022 0.372539 5.78876 168 124 3 
0.160996 0.556979 5.60353 39 15 3 
0.161102 0.576887 5.61632 38 12 0 
0.493584 0.79192 5.81313 168 110 3 
0.207754 0.843855 5.68268 220 175 11 
0.64537 1.02297 5.7076 138 115 97 
0.376256 1.01404 5.56107 174 158 143 
-0.705209 1.05117 5.58529 224 212 198 
0.470756 1.06103 5.64144 83 63 54 
-85.8469 81.0398 -206.427 21 22 24 
-82.4167 70.9608 -209.336 215 205 193 
-43.2616 35.5767 -104.563 41 37 38 
-78.8746 58.0159 -181.598 81 70 64 
0.572935 -0.372936 4.75682 230 183 17 
0.533513 -0.358577 4.74435 135 87 5 
-270420 137923 -561829 36 32 31 
0.306746 -0.235143 5.07073 151 127 53 
-0.905328 -0.132622 5.04812 11 9 10 
0.00376569 0.00322719 4.93549 45 27 13 
-1.03024 0.0289435 4.89635 20 16 30 
-0.92982 0.402671 5.78224 240 196 71 
-0.586146 0.496372 5.63643 102 56 0 
0.278605 0.865869 5.67885 175 114 0 
0.209822 0.907376 5.64767 163 113 2 
0.289466 0.916533 5.65643 170 105 1 
0.521671 0.942608 5.75556 194 145 27 
-0.884252 1.05268 5.62311 183 169 156 
0.487739 1.01038 5.58719 223 207 194 
0.644419 1.02166 5.70293 135 112 94 
-1.00229 1.08494 5.73214 100 81 67 
0.260867 1.06964 5.65673 69 42 23 
0.587112 -0.950311 4.71323 142 70 0 
-0.186912 -0.538302 4.31037 153 130 122 
0.228313 -0.996602 5.69978 91 67 29 
-0.031642 -0.450079 4.32459 240 221 178 
-0.912587 -0.133489 5.04111 33 21 7 
0.149614 0.452042 5.64494 114 61 0 
0.150744 0.483151 5.6709 110 65 0 
0.302103 0.887923 5.77662 255 252 190 
-0.145154 -0.574672 4.3246 132 139 121 
-0.601161 0.585037 5.68895 24 5 0 
0.164513 0.581624 5.70931 38 12 0 
-1.01411 0.792098 5.97566 221 173 39 
-0.145419 -0.574596 4.33223 136 139 120 
0.423326 -0.382096 4.95156 231 189 43 
-0.902429 -0.131987 5.04268 11 9 10 
-0.197643 -0.556605 4.36184 188 162 147 
0.479121 -0.606162 4.77205 181 181 183 
0.158194 -0.713793 5.16476 174 169 163 
0.292029 0.915134 5.5645 195 153 19 
-0.00483464 -0.687184 4.47995 211 147 99 
-0.190541 -0.54616 4.34745 183 169 156 
-0.474521 0.0106711 4.94304 126 102 74 
0.214137 0.908028 5.57919 173 121 0 
0.823759 -0.921754 4.89338 199 135 0 
-0.162463 -0.585732 4.35822 15 71 46 
0.464556 -0.344884 4.92275 160 100 40 
-0.903557 -0.279348 5.02114 118 105 70 
0.250398 -0.234719 5.0566 32 20 20 
-0.971852 0.193526 4.81402 127 73 0 
-0.944538 0.387708 5.71225 178 130 4 
-0.210101 -0.587625 4.35052 34 74 48 
0.457026 -0.164751 4.92256 90 37 3 
0.386367 -0.0495853 5.11568 109 104 100 
0.161413 0.57708 5.5686 39 4 0 
0.211591 0.903566 5.54673 175 117 7 
0.364603 1.0344 5.48723 67 44 30 
-0.0160157 -0.690928 4.46508 38 69 25 
0.734741 -0.580795 4.71464 31 26 30 
0.738223 -0.505607 4.69556 90 86 77 
0.540762 -0.369248 4.78748 149 102 14 
0.0570666 0.372757 5.52054 98 54 5 
0.460784 1.04265 5.54185 69 52 44 
0.669695 -0.628128 4.72778 142 91 0 
-0.213758 -0.58191 4.33857 67 96 74 
0.475699 -0.596739 4.75108 189 188 193 
0.469891 -0.347805 4.91789 90 32 0 
-1.02583 0.022457 4.84942 120 114 98 
-0.161407 -0.579747 4.34878 15 71 46 
0.44332 -0.177859 4.92632 214 166 56 
-0.970871 0.257007 4.95445 28 23 17 
-0.910855 0.398315 5.71614 240 200 43 
-0.580167 0.497755 5.57838 115 63 5 
-0.210514 -0.533308 4.35531 69 39 31 
0.538365 -0.360916 4.76962 149 102 14 
-60.6611 57.2774 -145.493 28 29 24 
-128.573 94.637 -296.988 70 60 50 
-137.006 98.9315 -320.744 220 210 198 
-0.59147 0.6512 5.65593 87 50 0 
0.119524 0.89189 5.70518 229 180 15 
0.47563 -0.587899 4.73839 181 181 183 
0.8028 -1.02399 4.8275 136 47 15 
