ply                 
format ascii 1.0    
element vertex 215
property float x    
property float y    
property float z    
property uchar red  
property uchar green
property uchar blue 
end_header          
0.519331 -0.639356 4.76516 98 100 95 
-0.0765873 -0.476651 4.36039 17 13 0 
0.316535 -0.217148 5.09142 35 16 0 
-0.233797 -0.588009 4.2976 157 185 160 
-0.241612 -0.586389 4.32298 31 53 32 
-0.0723413 -0.486927 4.37057 40 37 4 
-0.0490257 -0.480503 4.36345 68 62 30 
0.612381 -1.01959 4.73553 255 245 110 
-0.633967 -0.956334 4.59345 49 32 4 
0.805513 -0.783626 4.77863 255 210 29 
0.632197 -0.777496 4.89834 183 150 69 
-0.459624 -0.603893 4.38219 120 114 100 
-0.576492 -0.627061 4.51107 34 69 29 
-0.233639 -0.588081 4.29849 157 185 160 
-0.456169 -0.601134 4.38075 109 113 96 
-0.14297 -0.58891 4.32868 95 112 93 
-0.241637 -0.586369 4.322 31 53 32 
-0.521555 -0.575202 4.42801 0 53 17 
-0.0534576 -0.469728 4.34286 49 36 2 
0.477705 -0.351709 4.94686 61 10 0 
0.263889 -0.250459 5.07234 16 18 7 
0.421266 -0.0952061 5.16598 116 96 45 
-0.999229 0.00213052 5.01937 29 13 0 
0.590263 -0.953671 4.70838 121 43 5 
0.797303 -0.768364 4.76181 163 89 0 
0.583585 -0.797307 4.9528 225 173 38 
-0.456682 -0.602491 4.37947 117 118 102 
0.51034 -0.636406 4.76399 42 47 41 
-0.249186 -0.512643 4.34647 0 18 9 
-0.0539999 -0.470113 4.33424 69 54 21 
-0.231609 -0.367797 4.08541 120 99 56 
0.266012 -0.329107 5.09001 27 25 26 
0.27313 -0.320437 5.08691 132 133 128 
0.273196 -0.258626 5.08176 99 99 91 
-0.869258 -0.239493 5.05212 130 130 120 
-1.01315 -0.0563847 4.91182 112 104 91 
-1.04429 0.0265721 4.88638 103 103 77 
-0.985349 0.176676 4.93984 37 19 0 
0.159064 0.470381 5.70985 112 63 0 
0.801113 -1.03193 4.80115 124 51 0 
-0.208952 -0.574512 4.29969 39 79 55 
-0.467308 -0.577382 4.39612 63 25 22 
0.354217 -0.434703 5.18503 31 13 0 
0.344206 -0.420992 5.1771 175 155 66 
-0.857682 -0.0761768 5.19759 99 76 26 
-1.00184 0.00401818 5.02938 31 14 4 
0.15995 0.473385 5.7205 112 63 0 
0.230593 0.968326 5.82837 159 112 0 
0.550825 1.05981 5.82113 205 190 183 
0.405322 1.08019 5.77459 207 194 178 
-0.365464 -0.730244 4.3133 37 146 91 
0.475221 -0.586048 4.7517 71 67 66 
-0.164525 -0.498852 4.34098 35 48 41 
0.50337 -0.561443 4.74858 93 94 89 
0.489832 -0.534121 4.78468 11 5 15 
0.728461 -0.474545 4.75823 21 12 13 
-0.872369 -0.18383 5.07591 90 86 83 
0.270405 -0.121985 5.23646 100 67 14 
-0.955569 0.419154 5.89213 231 187 64 
-1.13742 0.321939 4.84329 190 150 18 
0.170582 0.592156 5.7422 51 16 0 
-0.912007 0.890996 5.93269 229 187 7 
0.227405 0.892385 5.85621 226 179 13 
0.297882 0.918249 5.87747 174 121 5 
0.225025 0.951313 5.80366 157 106 1 
0.267318 1.02167 5.81503 168 122 0 
-0.686374 1.07801 5.83695 202 184 160 
-1.05644 1.15333 5.94258 86 68 54 
-0.915853 1.17235 5.90475 73 54 47 
-0.641445 -0.958625 4.64342 97 67 41 
0.16623 -0.707108 5.20845 255 245 233 
0.103064 -0.338754 5.02961 102 102 104 
0.164043 0.560994 5.62663 35 9 0 
-0.646843 -0.977597 4.66242 66 38 27 
-0.258666 -0.600648 4.38528 67 99 78 
-0.019837 -0.491847 4.40769 153 123 73 
0.479352 -0.59945 4.7516 185 185 187 
0.160785 -0.716763 5.17826 129 125 114 
0.50849 -0.561073 4.79879 61 55 57 
0.472751 -0.346729 4.94068 163 113 16 
-0.983893 0.16424 4.92768 146 124 64 
-0.986549 0.265976 5.00152 38 34 23 
0.153803 0.493243 5.65459 116 73 5 
0.849636 -1.12169 4.80855 40 33 14 
-0.478522 -0.646777 4.42118 25 61 35 
0.340626 -0.417122 5.13435 157 134 54 
0.471845 -0.344592 4.9891 106 49 0 
0.439568 -0.189997 4.93974 50 21 13 
0.0304731 -0.0443821 4.87371 7 7 5 
-0.978897 0.174991 4.92189 29 12 0 
-0.945937 0.3787 5.81853 173 127 7 
-1.02589 0.474747 5.87286 124 67 0 
0.154699 0.458435 5.62482 114 61 0 
0.307136 0.89099 5.73749 255 252 190 
0.223247 0.932627 5.68436 167 116 0 
0.846218 -1.11762 4.79628 39 36 27 
-0.373878 -0.749658 4.37976 58 134 85 
-0.14867 -0.594354 4.37927 132 139 121 
-0.162511 -0.581665 4.35166 47 82 60 
0.4313 -0.395909 4.98655 226 184 48 
0.34047 -0.417669 5.14072 150 128 55 
-0.915077 -0.233647 5.02051 179 177 180 
0.463492 -0.213683 4.9155 216 171 16 
0.446011 -0.206486 4.94396 85 29 0 
-1.04547 -0.0113928 4.88549 87 86 82 
-1.01505 0.0299739 4.93479 72 67 63 
-0.996861 0.195898 4.88459 143 95 0 
0.474769 0.238899 5.82492 159 117 9 
-1.05131 0.329772 5.08758 216 205 183 
0.438353 0.301545 5.78394 149 109 0 
-0.948144 0.379944 5.82977 168 124 3 
0.167119 0.566045 5.64021 39 15 3 
0.167266 0.586218 5.65323 38 12 0 
0.505094 0.803573 5.85306 168 110 3 
0.215016 0.856916 5.72121 220 175 11 
0.659284 1.03804 5.74629 138 115 97 
0.386068 1.02964 5.59792 174 158 143 
-0.711268 1.06874 5.62433 224 212 198 
0.482102 1.07703 5.6795 83 63 54 
-86.8115 82.3723 -208.32 21 22 24 
-83.4229 72.2479 -211.434 215 205 193 
-43.8865 36.3118 -105.872 41 37 38 
-80.0206 59.2473 -183.866 81 70 64 
0.582915 -0.376174 4.77809 230 183 17 
0.542928 -0.361534 4.76551 135 87 5 
-276286 142186 -572774 36 32 31 
0.313399 -0.236713 5.09742 151 127 53 
-0.916378 -0.131192 5.07669 11 9 10 
0.00616394 0.00577667 4.96104 45 27 13 
-1.04309 0.033223 4.92306 20 16 30 
-0.939789 0.410524 5.8232 240 196 71 
-0.591042 0.505457 5.67473 102 56 0 
0.286927 0.879167 5.71726 175 114 0 
0.217158 0.921443 5.68583 163 113 2 
0.297988 0.930609 5.69461 170 105 1 
0.533728 0.956561 5.79497 194 145 27 
-0.892938 1.07044 5.66303 183 169 156 
0.499204 1.02572 5.62425 223 207 194 
0.658312 1.03672 5.74155 135 112 94 
-1.0126 1.10313 5.77403 100 81 67 
0.269172 1.08602 5.69539 69 42 23 
0.597202 -0.964295 4.73827 142 70 0 
-0.189633 -0.545274 4.3343 153 130 122 
0.232882 -1.00673 5.72438 91 67 29 
-0.0314113 -0.455664 4.34868 240 221 178 
-0.923648 -0.132027 5.06938 33 21 7 
0.155348 0.459247 5.66971 114 61 0 
0.156547 0.49064 5.69542 110 65 0 
0.309961 0.898833 5.79747 255 252 190 
-0.147151 -0.582325 4.34854 132 139 121 
-0.603877 0.59466 5.71467 24 5 0 
0.170607 0.590052 5.73308 38 12 0 
-1.0195 0.80345 5.99987 221 173 39 
-0.147406 -0.582231 4.35623 136 139 120 
0.431663 -0.386302 4.9784 231 189 43 
-0.913335 -0.130516 5.07095 11 9 10 
-0.19938 -0.560256 4.37649 188 162 147 
0.48726 -0.612366 4.79231 181 181 183 
0.162149 -0.722759 5.19357 174 169 163 
0.30068 0.929705 5.60364 195 153 19 
-0.00396334 -0.693313 4.4963 211 147 99 
-0.192172 -0.549615 4.36182 183 169 156 
-0.478943 0.0139808 4.96867 126 102 74 
0.221594 0.922569 5.61866 173 121 0 
0.836641 -0.933421 4.91521 199 135 0 
-0.163759 -0.589833 4.37274 15 71 46 
0.47305 -0.347728 4.94587 160 100 40 
-0.914931 -0.280182 5.04964 118 105 70 
0.256184 -0.236124 5.08283 32 20 20 
-0.983173 0.20037 4.83832 127 73 0 
-0.955548 0.39553 5.75492 178 130 4 
-0.212076 -0.591701 4.36506 34 74 48 
0.465634 -0.164989 4.94576 90 37 3 
0.394433 -0.0486154 5.14291 109 104 100 
0.167612 0.586614 5.60677 39 4 0 
0.21896 0.918076 5.58546 175 117 7 
0.374431 1.05083 5.52517 67 44 30 
-0.0153221 -0.697055 4.4812 38 69 25 
0.74633 -0.58665 4.73319 31 26 30 
0.749898 -0.510316 4.71374 90 86 77 
0.550056 -0.372105 4.80785 149 102 14 
0.0613632 0.379429 5.55733 98 54 5 
0.472215 1.05905 5.58103 69 52 44 
0.680515 -0.634974 4.74727 142 91 0 
-0.215851 -0.586266 4.35351 67 96 74 
0.48386 -0.602987 4.77139 189 188 193 
0.47851 -0.350838 4.94123 90 32 0 
-1.03844 0.0266825 4.87489 120 114 98 
-0.162741 -0.584144 4.36376 15 71 46 
0.451779 -0.178441 4.95 214 166 56 
-0.982279 0.264372 4.9818 28 23 17 
-0.921017 0.406427 5.75771 240 200 43 
-0.585222 0.507145 5.61687 115 63 5 
-0.212471 -0.536992 4.3705 69 39 31 
0.547707 -0.363873 4.79022 149 102 14 
-54.1871 51.419 -129.511 28 29 24 
-102.723 76.0818 -236.406 70 60 50 
-107.643 78.2268 -251.066 220 210 198 
-0.596478 0.662805 5.69625 87 50 0 
0.125642 0.906184 5.74618 229 180 15 
0.483905 -0.595797 4.76199 181 181 183 
0.815389 -1.03878 4.85119 136 47 15 
-0.963602 -0.22988 5.02516 195 195 187 
-1.0891 -0.0090383 4.87118 144 139 117 
-0.221156 -0.507267 4.34755 107 121 104 
-0.621687 -0.605014 4.49857 83 63 26 
-0.963504 -0.229039 5.035 178 179 174 
-1.03971 0.0273572 4.87828 101 99 76 
-0.474129 -0.6011 4.40189 58 25 18 
-0.382012 -0.647894 4.30509 47 187 114 
-0.411813 -0.380699 3.99806 190 170 135 
-0.1727 -0.336804 4.14863 232 212 159 
-0.213929 -0.50654 4.3592 106 116 105 
-1.32349 -0.0185702 5.00217 155 156 160 
-1.14898 -0.0217357 4.85262 250 226 100 
