ply                 
format ascii 1.0    
element vertex 221
property float x    
property float y    
property float z    
property uchar red  
property uchar green
property uchar blue 
end_header          
0.519504 -0.639667 4.76553 98 100 95 
-0.0767494 -0.476321 4.36066 17 13 0 
0.31665 -0.217499 5.09244 35 16 0 
-0.234078 -0.587654 4.2977 157 185 160 
-0.241898 -0.586058 4.3231 31 53 32 
-0.0725029 -0.486616 4.37083 40 37 4 
-0.0491712 -0.480184 4.36371 68 62 30 
0.612543 -1.02013 4.73548 255 245 110 
-0.634578 -0.95645 4.59335 49 32 4 
0.80584 -0.784096 4.77886 255 210 29 
0.632412 -0.778056 4.89865 183 150 69 
-0.460053 -0.603596 4.38232 120 114 100 
-0.577003 -0.626892 4.51126 34 69 29 
-0.23392 -0.587727 4.29859 157 185 160 
-0.456595 -0.600834 4.38089 109 113 96 
-0.143194 -0.588605 4.32881 95 112 93 
-0.241923 -0.586038 4.32212 31 53 32 
-0.522019 -0.574923 4.4282 0 53 17 
-0.0536033 -0.46938 4.34312 49 36 2 
0.477901 -0.352023 4.94765 61 10 0 
0.263965 -0.250802 5.07331 16 18 7 
0.421467 -0.0955783 5.16717 116 96 45 
-0.999904 0.0022394 5.02053 29 13 0 
0.590425 -0.954134 4.70838 121 43 5 
0.797629 -0.768806 4.76204 163 89 0 
0.583764 -0.797929 4.95312 225 173 38 
-0.457109 -0.602191 4.37961 117 118 102 
0.510509 -0.636713 4.76436 42 47 41 
-0.249464 -0.51229 4.34669 0 18 9 
-0.0541458 -0.469756 4.3345 69 54 21 
-0.231841 -0.36708 4.08561 120 99 56 
0.266074 -0.329518 5.0909 27 25 26 
0.273198 -0.32084 5.08782 132 133 128 
0.273276 -0.258985 5.08273 99 99 91 
-0.869897 -0.239595 5.05306 130 130 120 
-1.01384 -0.0561967 4.91285 112 104 91 
-1.04499 0.0268451 4.88748 103 103 77 
-0.98598 0.176977 4.94114 37 19 0 
0.15919 0.469842 5.71198 112 63 0 
0.80139 -1.03258 4.80113 124 51 0 
-0.209215 -0.574156 4.29981 39 79 55 
-0.467737 -0.577081 4.39629 63 25 22 
0.354312 -0.435298 5.18588 31 13 0 
0.344298 -0.421568 5.17795 175 155 66 
-0.858286 -0.0763319 5.19879 99 76 26 
-1.00251 0.00411816 5.03055 31 14 4 
0.160077 0.472836 5.72264 112 63 0 
0.230854 0.967964 5.83111 159 112 0 
0.551307 1.05946 5.82398 205 190 183 
0.405717 1.07992 5.77742 207 194 178 
-0.365855 -0.729972 4.31326 37 146 91 
0.475377 -0.586304 4.75211 71 67 66 
-0.164747 -0.4985 4.34121 35 48 41 
0.503549 -0.561685 4.74902 93 94 89 
0.490006 -0.534381 4.78517 11 5 15 
0.728798 -0.474784 4.75878 21 12 13 
-0.873 -0.183922 5.07692 90 86 83 
0.270505 -0.12242 5.23767 100 67 14 
-0.956162 0.418597 5.8943 231 187 64 
-1.13812 0.322462 4.84468 190 150 18 
0.170738 0.591657 5.74449 51 16 0 
-0.912486 0.890687 5.93538 229 187 7 
0.227649 0.891946 5.85889 226 179 13 
0.298176 0.917791 5.88019 174 121 5 
0.225281 0.950967 5.80637 157 106 1 
0.267613 1.02135 5.81782 168 122 0 
-0.686672 1.07787 5.83979 202 184 160 
-1.05696 1.1532 5.94555 86 68 54 
-0.916281 1.17225 5.90773 73 54 47 
-0.642063 -0.958795 4.64335 97 67 41 
0.166155 -0.707865 5.20902 255 245 233 
0.103023 -0.339077 5.03045 102 102 104 
0.164192 0.560599 5.62881 35 9 0 
-0.647468 -0.977797 4.66233 66 38 27 
-0.258967 -0.600388 4.38542 67 99 78 
-0.0199674 -0.491587 4.40796 153 123 73 
0.479507 -0.599714 4.752 185 185 187 
0.160706 -0.717493 5.1788 129 125 114 
0.50867 -0.561369 4.79926 61 55 57 
0.472944 -0.347032 4.94147 163 113 16 
-0.984524 0.164545 4.92895 146 124 64 
-0.987165 0.266268 5.00295 38 34 23 
0.153931 0.492777 5.65672 116 73 5 
0.849928 -1.12242 4.80845 40 33 14 
-0.478971 -0.646544 4.42129 25 61 35 
0.340717 -0.417649 5.13518 157 134 54 
0.472036 -0.344945 4.98992 106 49 0 
0.43977 -0.190194 4.94069 50 21 13 
0.030445 -0.0443411 4.87476 7 7 5 
-0.979523 0.175308 4.92317 29 12 0 
-0.94653 0.378193 5.8206 173 127 7 
-1.02652 0.474259 5.87507 124 67 0 
0.154823 0.457978 5.62689 114 61 0 
0.307435 0.890661 5.74009 255 252 190 
0.223502 0.932397 5.68698 167 116 0 
0.846509 -1.11833 4.79617 39 36 27 
-0.374279 -0.749466 4.37973 58 134 85 
-0.1489 -0.594105 4.37941 132 139 121 
-0.162747 -0.581376 4.3518 47 82 60 
0.431457 -0.396283 4.98731 226 184 48 
0.340561 -0.418203 5.14156 150 128 55 
-0.915741 -0.233703 5.02143 179 177 180 
0.463705 -0.213874 4.91641 216 171 16 
0.446213 -0.206699 4.9449 85 29 0 
-1.04618 -0.0111427 4.88655 87 86 82 
-1.01573 0.0301924 4.93592 72 67 63 
-0.997493 0.19627 4.88587 143 95 0 
0.475049 0.238033 5.8269 159 117 9 
-1.05196 0.330025 5.08913 216 205 183 
0.438623 0.300768 5.78595 149 109 0 
-0.948738 0.379427 5.83185 168 124 3 
0.16727 0.565638 5.64241 39 15 3 
0.167421 0.58581 5.65546 38 12 0 
0.505498 0.80303 5.85566 168 110 3 
0.21525 0.8566 5.72377 220 175 11 
0.659834 1.03773 5.74907 138 115 97 
0.386447 1.02953 5.60059 174 158 143 
-0.71158 1.06883 5.62703 224 212 198 
0.482549 1.07685 5.68228 83 63 54 
-86.7936 82.6165 -208.246 21 22 24 
-83.4124 72.4993 -211.386 215 205 193 
-43.895 36.452 -105.881 41 37 38 
-80.0208 59.4735 -183.846 81 70 64 
0.583177 -0.376345 4.77874 230 183 17 
0.543167 -0.361675 4.76617 135 87 5 
-276239 142839 -572628 36 32 31 
0.313508 -0.237082 5.09842 151 127 53 
-0.917025 -0.131243 5.07775 11 9 10 
0.00612749 0.00576179 4.9622 45 27 13 
-1.04378 0.0334612 4.92419 20 16 30 
-0.940372 0.410032 5.82531 240 196 71 
-0.591383 0.505116 5.67685 102 56 0 
0.28721 0.878856 5.71984 175 114 0 
0.217406 0.921205 5.68844 163 113 2 
0.298289 0.930353 5.69724 170 105 1 
0.534181 0.956171 5.79769 194 145 27 
-0.893366 1.07053 5.66575 183 169 156 
0.499653 1.02556 5.62694 223 207 194 
0.658861 1.03642 5.74432 135 112 94 
-1.0131 1.10314 5.77685 100 81 67 
0.269484 1.08587 5.69818 69 42 23 
0.597365 -0.964798 4.73828 142 70 0 
-0.189879 -0.544939 4.33447 153 130 122 
0.232779 -1.00824 5.72497 91 67 29 
-0.0315407 -0.455317 4.34896 240 221 178 
-0.9243 -0.13207 5.07044 33 21 7 
0.155471 0.458743 5.67181 114 61 0 
0.156676 0.490129 5.69756 110 65 0 
0.310261 0.898446 5.80012 255 252 190 
-0.147378 -0.582037 4.34868 132 139 121 
-0.60421 0.594336 5.71692 24 5 0 
0.170763 0.589562 5.73536 38 12 0 
-1.02006 0.803035 6.00251 221 173 39 
-0.147632 -0.581951 4.35637 136 139 120 
0.431822 -0.386663 4.97917 231 189 43 
-0.913981 -0.130561 5.07201 11 9 10 
-0.199635 -0.559972 4.37667 188 162 147 
0.487417 -0.612683 4.79272 181 181 183 
0.162069 -0.723516 5.19413 174 169 163 
0.300987 0.929547 5.60623 195 153 19 
-0.00412405 -0.693277 4.49643 211 147 99 
-0.192421 -0.54931 4.362 183 169 156 
-0.479286 0.0140522 4.96984 126 102 74 
0.221849 0.922406 5.62126 173 121 0 
0.836956 -0.934137 4.91538 199 135 0 
-0.163998 -0.58957 4.37289 15 71 46 
0.473243 -0.348038 4.94666 160 100 40 
-0.915612 -0.280305 5.05055 118 105 70 
0.256258 -0.236469 5.08382 32 20 20 
-0.983797 0.200791 4.83958 127 73 0 
-0.956156 0.395104 5.75703 178 130 4 
-0.212345 -0.591423 4.36519 34 74 48 
0.465857 -0.165181 4.94673 90 37 3 
0.394628 -0.0489299 5.14415 109 104 100 
0.167769 0.586257 5.609 39 4 0 
0.219213 0.917946 5.58803 175 117 7 
0.374811 1.05082 5.52784 67 44 30 
-0.0154903 -0.697004 4.48131 38 69 25 
0.746656 -0.586934 4.73359 31 26 30 
0.750241 -0.510532 4.7142 90 86 77 
0.550296 -0.372297 4.80852 149 102 14 
0.061415 0.37901 5.55929 98 54 5 
0.472659 1.05897 5.58376 69 52 44 
0.680791 -0.635293 4.74763 142 91 0 
-0.216121 -0.585972 4.35364 67 96 74 
0.484017 -0.603275 4.7718 189 188 193 
0.478707 -0.351145 4.94201 90 32 0 
-1.03913 0.0269666 4.87599 120 114 98 
-0.162977 -0.583869 4.36391 15 71 46 
0.451991 -0.178644 4.95097 214 166 56 
-0.982893 0.264683 4.98322 28 23 17 
-0.921593 0.406001 5.75981 240 200 43 
-0.58556 0.506869 5.61899 115 63 5 
-0.212731 -0.536685 4.3707 69 39 31 
0.547948 -0.364042 4.79089 149 102 14 
-54.1545 51.5524 -129.413 28 29 24 
-102.598 76.2772 -236.089 70 60 50 
-107.502 78.4296 -250.709 220 210 198 
-0.596798 0.662547 5.69858 87 50 0 
0.125829 0.905895 5.74883 229 180 15 
0.484063 -0.596072 4.7624 181 181 183 
0.815672 -1.03949 4.8512 136 47 15 
-0.964299 -0.22993 5.0261 195 195 187 
-1.08983 -0.00876334 4.87224 144 139 117 
-0.221415 -0.506916 4.34777 107 121 104 
-0.622219 -0.604808 4.49877 83 63 26 
-0.964202 -0.229099 5.03594 178 179 174 
-1.0404 0.0276382 4.87938 101 99 76 
-0.474566 -0.600817 4.40203 58 25 18 
-0.382396 -0.647555 4.30512 47 187 114 
-0.412157 -0.379866 3.99816 190 170 135 
-0.172891 -0.336146 4.14889 232 212 159 
-0.214184 -0.506202 4.35943 106 116 105 
-1.32437 -0.0183948 5.00329 155 156 160 
-1.14975 -0.0214386 4.85365 250 226 100 
0.279947 0.865246 5.74043 170 124 2 
0.656368 -0.543875 4.65252 68 73 67 
0.66185 -0.533098 4.64785 251 255 251 
-1.09996 -0.215739 6.38234 199 177 65 
0.55918 -0.576632 4.92266 96 95 93 
-0.480401 0.173873 6.33121 76 31 0 
