ply                 
format ascii 1.0    
element vertex 262
property float x    
property float y    
property float z    
property uchar red  
property uchar green
property uchar blue 
end_header          
0.522746 -0.608893 4.66008 98 100 95 
-0.0243241 -0.473763 4.2651 17 13 0 
0.318331 -0.213317 4.95122 35 16 0 
-0.167481 -0.581245 4.20443 157 185 160 
-0.175464 -0.579432 4.22784 31 53 32 
-0.0204734 -0.483107 4.27486 40 37 4 
0.00135164 -0.476855 4.26873 68 62 30 
0.61623 -0.962235 4.64121 255 245 110 
-0.542497 -0.9262 4.47577 49 32 4 
0.791268 -0.738442 4.68244 255 210 29 
0.62643 -0.733513 4.78918 183 150 69 
-0.380029 -0.598319 4.27765 120 114 100 
-0.491991 -0.619649 4.39504 34 69 29 
-0.167356 -0.581295 4.20526 157 185 160 
-0.376813 -0.595713 4.27636 109 113 96 
-0.0835988 -0.580074 4.23575 95 112 93 
-0.175462 -0.579431 4.22693 31 53 32 
-0.439425 -0.571797 4.31824 0 53 17 
-0.00240273 -0.467225 4.24925 49 36 2 
0.47449 -0.338464 4.82322 61 10 0 
0.270337 -0.245525 4.93268 16 18 7 
0.411933 -0.0967851 5.02121 116 96 45 
-0.909062 -0.0315381 4.8465 29 13 0 
0.59533 -0.901639 4.61429 121 43 5 
0.783844 -0.724642 4.66633 163 89 0 
0.579973 -0.751835 4.83888 225 173 38 
-0.377237 -0.597009 4.27518 117 118 102 
0.514355 -0.606311 4.65871 42 47 41 
-0.184312 -0.510382 4.24828 0 18 9 
-0.00267288 -0.467738 4.24122 69 54 21 
-0.163317 -0.379362 4.00302 120 99 56 
0.27308 -0.318475 4.95047 27 25 26 
0.279656 -0.310332 4.94763 132 133 128 
0.27888 -0.252827 4.94181 99 99 91 
-0.784973 -0.254069 4.88443 130 130 120 
-0.91837 -0.0880538 4.74708 112 104 91 
-0.948056 -0.0116491 4.72119 103 103 77 
-0.896841 0.130074 4.76989 37 19 0 
0.144251 0.434428 5.51026 112 63 0 
0.790444 -0.969503 4.70737 124 51 0 
-0.144583 -0.568216 4.20679 39 79 55 
-0.387977 -0.573484 4.28998 63 25 22 
0.354333 -0.413833 5.04285 31 13 0 
0.345008 -0.401355 5.03499 175 155 66 
-0.780496 -0.0993078 5.01724 99 76 26 
-0.911779 -0.0296585 4.85572 31 14 4 
0.144743 0.437406 5.52012 112 63 0 
0.199787 0.900973 5.61373 159 112 0 
0.496548 0.991186 5.61376 205 190 183 
0.362075 1.0071 5.5664 207 194 178 
-0.288423 -0.715793 4.21806 37 146 91 
0.481175 -0.560159 4.64552 71 67 66 
-0.105447 -0.49623 4.24512 35 48 41 
0.507099 -0.53682 4.64294 93 94 89 
0.493072 -0.510968 4.67571 11 5 15 
0.715179 -0.451997 4.65632 21 12 13 
-0.78936 -0.201855 4.90553 90 86 83 
0.269961 -0.123031 5.08327 100 67 14 
-0.897253 0.371596 5.65163 231 187 64 
-1.03839 0.261453 4.67359 190 150 18 
0.152184 0.548494 5.53855 51 16 0 
-0.865169 0.812177 5.68237 229 187 7 
0.197274 0.83066 5.64079 226 179 13 
0.261882 0.856198 5.66192 174 121 5 
0.195536 0.884669 5.59093 157 106 1 
0.23348 0.951015 5.60138 168 122 0 
-0.655618 0.988425 5.59609 202 184 160 
-1.00398 1.05419 5.68332 86 68 54 
-0.872452 1.07358 5.65149 73 54 47 
-0.551431 -0.928466 4.52525 97 67 41 
0.183068 -0.671072 5.06949 255 245 233 
0.123111 -0.331334 4.89416 102 102 104 
0.149807 0.518909 5.43882 35 9 0 
-0.556681 -0.945957 4.54322 66 38 27 
-0.19297 -0.592251 4.28738 67 99 78 
0.0275199 -0.486441 4.31262 153 123 73 
0.485683 -0.57306 4.64903 185 185 187 
0.17895 -0.680671 5.04133 129 125 114 
0.510988 -0.535992 4.69319 61 55 57 
0.470443 -0.334229 4.82102 163 113 16 
-0.895831 0.118549 4.76142 146 124 64 
-0.901891 0.214621 4.82862 38 34 23 
0.140576 0.45597 5.46569 116 73 5 
0.838008 -1.05366 4.72165 40 33 14 
-0.398314 -0.638301 4.31599 25 61 35 
0.343127 -0.398864 4.99967 157 134 54 
0.468265 -0.331452 4.86619 106 49 0 
0.437038 -0.188555 4.81656 50 21 13 
0.0549219 -0.0604438 4.74153 7 7 5 
-0.891188 0.128565 4.75596 29 12 0 
-0.887554 0.333808 5.591 173 127 7 
-0.96509 0.422988 5.63805 124 67 0 
0.142758 0.423016 5.43843 114 61 0 
0.275147 0.831142 5.54144 255 252 190 
0.197639 0.867783 5.48895 167 116 0 
0.835084 -1.05012 4.71001 39 36 27 
-0.297986 -0.733336 4.28196 58 134 85 
-0.0902919 -0.584684 4.28454 132 139 121 
-0.102666 -0.573522 4.25815 47 82 60 
0.431328 -0.380033 4.86363 226 184 48 
0.34282 -0.399272 5.00563 150 128 55 
-0.827866 -0.249981 4.85686 179 177 180 
0.460377 -0.210663 4.79495 216 171 16 
0.443194 -0.203765 4.82096 85 29 0 
-0.94936 -0.0469836 4.72338 87 86 82 
-0.92295 -0.00709075 4.76952 72 67 63 
-0.90728 0.147164 4.72029 143 95 0 
0.439404 0.226675 5.63738 159 117 9 
-0.965586 0.274487 4.90623 216 205 183 
0.405553 0.283859 5.59713 149 109 0 
-0.889931 0.335116 5.60142 168 124 3 
0.152233 0.523896 5.45151 39 15 3 
0.151704 0.542939 5.46337 38 12 0 
0.458124 0.754648 5.65603 168 110 3 
0.190164 0.79754 5.52421 220 175 11 
0.601268 0.974464 5.55724 138 115 97 
0.35038 0.959692 5.41128 174 158 143 
-0.67478 0.978495 5.40547 224 212 198 
0.437085 1.00688 5.48948 83 63 54 
-77.3645 72.6892 -200.363 21 22 24 
-74.4066 63.5576 -204.375 215 205 193 
-38.867 31.608 -101.469 41 37 38 
-71.6877 51.7122 -177.764 81 70 64 
0.578031 -0.362589 4.67254 230 183 17 
0.540835 -0.349786 4.65948 135 87 5 
-605817 294112 -1.34986e+06 36 32 31 
0.315867 -0.231598 4.96132 151 127 53 
-0.832174 -0.153499 4.90749 11 9 10 
0.0291208 -0.0126114 4.82163 45 27 13 
-0.948833 -0.00470865 4.75776 20 16 30 
-0.882456 0.363672 5.59501 240 196 71 
-0.554842 0.455511 5.46422 102 56 0 
0.257016 0.819438 5.52216 175 114 0 
0.192094 0.857261 5.49031 163 113 2 
0.267137 0.867297 5.50059 170 105 1 
0.484032 0.897055 5.6004 194 145 27 
-0.845277 0.977706 5.43664 183 169 156 
0.455325 0.958327 5.43903 223 207 194 
0.600509 0.973139 5.5528 135 112 94 
-0.960357 1.00804 5.53658 100 81 67 
0.237789 1.01202 5.49839 69 42 23 
0.601548 -0.911102 4.64439 142 70 0 
-0.127975 -0.540019 4.2398 153 130 122 
0.236175 -0.939689 5.55445 91 67 29 
0.0177839 -0.453594 4.25575 240 221 178 
-0.838201 -0.154272 4.89885 33 21 7 
0.142198 0.424372 5.47641 114 61 0 
0.142133 0.454071 5.49987 110 65 0 
0.275915 0.838738 5.59232 255 252 190 
-0.0881469 -0.573649 4.25484 132 139 121 
-0.568548 0.538933 5.49606 24 5 0 
0.152659 0.547574 5.53368 38 12 0 
-0.96653 0.731348 5.74722 221 173 39 
-0.0885895 -0.573435 4.26201 136 139 120 
0.431578 -0.370752 4.85383 231 189 43 
-0.828653 -0.152668 4.90056 11 9 10 
-0.138219 -0.55418 4.28129 188 162 147 
0.492256 -0.584536 4.6882 181 181 183 
0.179885 -0.686233 5.05662 174 169 163 
0.272112 0.865002 5.41557 195 153 19 
0.0430732 -0.673145 4.40053 211 147 99 
-0.131267 -0.544371 4.26758 183 169 156 
-0.42398 -0.0128988 4.81738 126 102 74 
0.198016 0.857287 5.4276 173 121 0 
0.819964 -0.876325 4.8175 199 135 0 
-0.104403 -0.581264 4.27922 15 71 46 
0.470711 -0.335268 4.82679 160 100 40 
-0.828486 -0.293358 4.88718 118 105 70 
0.262924 -0.232399 4.94723 32 20 20 
-0.894134 0.150674 4.6795 127 73 0 
-0.895675 0.34835 5.53298 178 130 4 
-0.14927 -0.583942 4.27084 34 74 48 
0.460922 -0.164856 4.82339 90 37 3 
0.38736 -0.0541644 5.00378 109 104 100 
0.153264 0.542603 5.42057 39 4 0 
0.196519 0.852509 5.39658 175 117 7 
0.341143 0.978027 5.34226 67 44 30 
0.0329351 -0.677079 4.38619 38 69 25 
0.735173 -0.557273 4.63922 31 26 30 
0.737831 -0.486308 4.61984 90 86 77 
0.546657 -0.35904 4.70025 149 102 14 
0.0587201 0.346688 5.37503 98 54 5 
0.430785 0.988221 5.39699 69 52 44 
0.67411 -0.603061 4.65119 142 91 0 
-0.152477 -0.578789 4.25932 67 96 74 
0.489481 -0.576019 4.66809 189 188 193 
0.47595 -0.337997 4.82225 90 32 0 
-0.943533 -0.0114835 4.71432 120 114 98 
-0.10322 -0.575765 4.27023 15 71 46 
0.448059 -0.177421 4.82681 214 166 56 
-0.897674 0.212991 4.81147 28 23 17 
-0.863408 0.359233 5.53545 240 200 43 
-0.548032 0.456369 5.41103 115 63 5 
-0.150547 -0.532448 4.2744 69 39 31 
0.544771 -0.351524 4.68319 149 102 14 
-48.9188 45.9809 -126.273 28 29 24 
-94.5449 68.2244 -234.81 70 60 50 
-99.2113 70.155 -249.922 220 210 198 
-0.563126 0.602727 5.4823 87 50 0 
0.105313 0.842497 5.54446 229 180 15 
0.489649 -0.568882 4.65799 181 181 183 
0.803371 -0.975161 4.75748 136 47 15 
-0.874049 -0.247013 4.86145 195 195 187 
-0.989335 -0.0456369 4.70917 144 139 117 
-0.158075 -0.504662 4.2478 107 121 104 
-0.532787 -0.599172 4.37635 83 63 26 
-0.874485 -0.246001 4.87188 178 179 174 
-0.943969 -0.0110547 4.71497 101 99 76 
-0.393027 -0.594722 4.29011 58 25 18 
-0.303983 -0.638199 4.20275 47 187 114 
-0.327198 -0.397032 3.90402 190 170 135 
-0.110537 -0.349422 4.05676 232 212 159 
-0.151786 -0.503873 4.25905 106 116 105 
-1.21269 -0.0554746 4.82788 155 156 160 
-1.04397 -0.0591023 4.68762 250 226 100 
0.299161 1.01483 6.05876 170 124 2 
0.680235 -0.521735 4.62651 68 73 67 
0.693404 -0.511677 4.63648 251 255 251 
-1.00429 -0.248562 5.09918 199 177 65 
0.499886 -0.540955 4.713 96 95 93 
-0.533432 0.0836677 5.479 76 31 0 
0.206201 0.964345 5.84065 159 112 0 
0.201007 0.953361 5.84443 157 106 1 
0.280858 0.960303 5.84283 154 96 0 
0.241067 1.01106 5.80028 168 122 0 
0.117203 0.659081 5.70844 72 37 5 
0.523044 -0.559226 4.75677 112 112 110 
0.108305 0.581175 5.63079 33 17 0 
-0.611693 0.606037 5.65677 54 23 0 
-0.347177 -0.290908 4.22296 41 12 0 
-0.379938 -0.121601 4.34045 104 76 36 
-0.26648 -0.0831287 4.33782 98 73 33 
0.783552 -0.440268 4.86853 67 55 31 
0.471369 -0.326131 4.94056 172 129 35 
0.300086 -0.193427 5.01933 61 40 0 
-0.380617 -0.112028 4.34549 94 66 26 
-0.139088 -0.0688871 4.31912 56 31 0 
-0.138844 -0.0600332 4.32659 78 53 12 
0.386532 -0.0282263 5.09262 45 39 39 
0.370757 -0.0274102 5.09641 43 42 40 
-0.27034 -0.0428684 4.38309 44 26 16 
0.479516 -0.336213 4.94952 77 33 0 
-0.197104 -0.233082 4.36633 105 73 58 
0.518831 -0.57509 4.82769 88 87 83 
0.626599 -0.483953 4.81583 83 63 10 
0.748268 -0.470255 4.81585 33 30 21 
0.0326687 0.569189 5.29129 56 25 0 
0.0189125 0.615347 5.2511 64 38 1 
0.118224 0.834485 5.30089 187 129 6 
0.14046 0.910666 5.27641 231 203 155 
0.732802 -0.68234 4.82821 194 131 2 
0.558432 -0.62663 4.83048 36 27 28 
0.540661 -0.5873 4.7929 142 136 136 
0.507382 -0.566438 4.80359 80 79 75 
0.75289 -0.503889 4.83136 120 117 112 
0.464052 -0.333194 4.93696 80 31 1 
0.0275206 0.638255 5.31442 60 33 3 
0.122694 0.8414 5.30865 183 123 9 
0.253189 0.898922 5.34437 231 208 166 
0.137356 0.886575 5.29392 178 118 8 
0.0626226 0.877502 5.26736 165 112 10 
0.357823 0.972454 5.33774 153 138 119 
