ply                 
format ascii 1.0    
element vertex 69
property float x    
property float y    
property float z    
property uchar red  
property uchar green
property uchar blue 
end_header          
0.994663 -1.01806 5.78492 98 100 95 
-0.0469166 -0.735643 5.06857 17 13 0 
0.648099 -0.297659 6.43613 35 16 0 
-0.321796 -0.931413 4.95839 157 185 160 
-0.334885 -0.929313 5.00732 31 53 32 
-0.0391576 -0.753757 5.08729 40 37 4 
0.00122787 -0.742033 5.07243 68 62 30 
1.15757 -1.6726 5.70403 255 245 110 
-1.01955 -1.59981 5.57137 49 32 4 
1.4872 -1.26242 5.78548 255 210 29 
1.19171 -1.25732 6.01814 183 150 69 
-0.716379 -0.965489 5.13781 120 114 100 
-0.919192 -1.01152 5.39354 34 69 29 
-0.321499 -0.931563 4.96012 157 185 160 
-0.710326 -0.960518 5.13462 109 113 96 
-0.162165 -0.932052 5.01022 95 112 93 
-0.334952 -0.929256 5.00545 31 53 32 
-0.824564 -0.917202 5.22992 0 53 17 
-0.00707865 -0.722839 5.03452 49 36 2 
0.924533 -0.525379 6.14758 61 10 0 
0.556922 -0.355518 6.40043 16 18 7 
0.83015 -0.0868953 6.5826 116 96 45 
-1.6548 0.0752169 6.39624 29 13 0 
1.11841 -1.55866 5.65752 121 43 5 
1.47273 -1.23588 5.75522 163 89 0 
1.10941 -1.29354 6.12172 225 173 38 
-0.711272 -0.962904 5.1324 117 118 102 
0.979143 -1.01308 5.7834 42 47 41 
-0.34835 -0.800847 5.05343 0 18 9 
-0.00821541 -0.723317 5.01826 69 54 21 
-0.325591 -0.540948 4.56133 120 99 56 
0.56145 -0.492254 6.42683 27 25 26 
0.573634 -0.477072 6.42139 132 133 128 
0.573238 -0.369814 6.41678 99 99 91 
-1.42262 -0.347956 6.44424 130 130 120 
-1.68236 -0.0245267 6.19148 112 104 91 
-1.73892 0.121497 6.14771 103 103 77 
-1.63428 0.383526 6.25054 37 19 0 
0.383972 0.881563 7.67017 112 63 0 
1.48127 -1.69024 5.8119 124 51 0 
-0.278394 -0.90739 4.96076 39 79 55 
-0.729717 -0.919317 5.16481 63 25 22 
0.716269 -0.676178 6.59166 31 13 0 
0.698759 -0.652414 6.57838 175 155 66 
-1.39878 -0.0657629 6.72113 99 76 26 
-1.65912 0.0782292 6.41545 31 14 4 
0.385706 0.886475 7.69028 112 63 0 
0.510104 1.75958 7.96654 159 112 0 
1.0726 1.92923 7.97118 205 190 183 
0.816287 1.96542 7.88723 207 194 178 
-0.551384 -1.18453 4.99981 37 146 91 
0.918067 -0.926279 5.76543 71 67 66 
-0.200568 -0.775272 5.03718 35 48 41 
0.96636 -0.883239 5.75978 93 94 89 
0.943468 -0.83699 5.82974 11 5 15 
1.35427 -0.730237 5.77539 21 12 13 
-1.42762 -0.251087 6.48991 90 86 83 
0.570532 -0.136805 6.71721 100 67 14 
-1.55611 0.780007 8.06112 231 187 64 
-1.90793 0.640773 6.0824 190 150 18 
0.404187 1.0947 7.74687 51 16 0 
-1.48746 1.60868 8.17841 229 187 7 
0.504987 1.62277 8.0049 226 179 13 
0.628709 1.66905 8.04885 174 121 5 
0.499883 1.7301 7.91752 157 106 1 
0.574293 1.85613 7.95091 168 122 0 
-1.0984 1.94569 8.01483 202 184 160 
-1.74784 2.0737 8.23483 86 68 54 
-1.5021 2.10993 8.16182 73 54 47 
