# .PCD v0.7 - Point Cloud Data file format
VERSION 0.7
FIELDS x y z rgb
SIZE 4 4 4 4
TYPE F F F U
COUNT 1 1 1 1
WIDTH 1238
HEIGHT 1
VIEWPOINT 0 0 0 1 0 0 0
POINTS 1238
DATA ascii
-0.00050308002 0.243912 2.37902 2762791
0.00185073 0.24384101 2.3775301 2565668
0.0275972 0.243986 2.37795 2565412
0.031088401 0.244018 2.3785601 2039068
0.037969898 0.244008 2.37975 2499618
0.0426636 0.243737 2.3805201 1973276
0.042739801 0.24379601 2.38064 2039068
0.048934601 0.243651 2.3805699 2434083
0.049539201 0.24382199 2.38094 2434083
0.052596498 0.24372099 2.38096 2763049
0.052562099 0.243781 2.3808 2828585
0.056214198 0.24375799 2.38182 2763048
0.0609775 0.24397001 2.3838601 2894634
0.067741796 0.24399599 2.3850801 1973532
0.071440898 0.244022 2.3858099 2368033
0.074988201 0.244063 2.3863101 2762791
0.081666604 0.24402501 2.3875201 2894377
0.08591 0.244229 2.3886001 2762791
0.085897401 0.244077 2.3885701 2828327
-0.26317599 0.26517701 2.54514 2630949
-0.26478699 0.26343399 2.5469899 2565412
-0.260254 0.26571801 2.5402601 2696997
-0.25887901 0.26399401 2.5349901 2828584
-0.250545 0.26438099 2.5265601 2368035
-0.248823 0.26420501 2.5243101 1841691
-0.24252599 0.263143 2.51617 1381140
-0.240321 0.26151901 2.5143399 1710105
-0.23709001 0.260961 2.5093901 2170656
-0.233358 0.26098701 2.50385 2631207
-0.235249 0.262182 2.5069001 2631207
-0.230782 0.260941 2.50156 3289136
-0.225924 0.260151 2.49702 2960170
-0.22285201 0.25871101 2.49423 2368034
-0.220312 0.25934401 2.49033 2302241
-0.215417 0.25744399 2.4853101 2236190
-0.217512 0.25845799 2.4879701 2630948
-0.21021301 0.25681999 2.4796 2630948
-0.207664 0.25791201 2.4776599 2565155
-0.201988 0.25767899 2.4736199 2170654
-0.196435 0.25642699 2.47047 3157292
-0.193703 0.25635299 2.4683599 2630948
-0.191493 0.25780401 2.4663899 2039068
-0.188015 0.25773901 2.4625199 2104861
-0.185923 0.256111 2.4605899 1973276
-0.183576 0.25702599 2.4583001 2170655
-0.181027 0.25696099 2.45612 2170912
-0.176425 0.25686899 2.4530201 2039327
-0.17866801 0.25526801 2.45473 2236705
-0.174254 0.25463301 2.45105 2236449
-0.17164201 0.25630599 2.4496601 2499877
-0.167712 0.25335699 2.44719 2894635
-0.164597 0.25492901 2.44575 2368035
-0.16206799 0.253544 2.44416 2631207
-0.159464 0.25487199 2.4425399 2499877
-0.15948901 0.25497201 2.4424 2499621
-0.154487 0.253602 2.43999 2170911
-0.151133 0.253793 2.43749 2894634
-0.14696001 0.253618 2.4347301 2894377
-0.143493 0.25232199 2.4330699 2631206
-0.14395501 0.25249201 2.4337699 2763048
-0.135654 0.254044 2.4294801 2039326
-0.134185 0.251243 2.4287901 2565412
-0.13278 0.254049 2.4279799 2631206
-0.12630101 0.251564 2.42453 2499620
-0.129208 0.25161299 2.4260499 2894378
-0.120273 0.251522 2.42205 1973277
-0.123147 0.251652 2.4242201 1973533
-0.117171 0.25151801 2.4209001 1973277
-0.114197 0.25156701 2.41957 2763050
-0.11109 0.25148001 2.41839 2236706
-0.107872 0.25151801 2.4173901 2565670
-0.104788 0.25152299 2.4161699 3355187
-0.101721 0.25154001 2.4149201 2697000
-0.101774 0.25152999 2.41485 2697000
-0.095407397 0.25194201 2.4129 2039326
-0.090420097 0.249181 2.41048 2039326
-0.088870399 0.25200701 2.4100499 2236449
-0.0809744 0.249337 2.4075401 2433828
-0.0785053 0.249364 2.4065599 2104863
-0.078084797 0.249308 2.4064801 2039326
-0.075519599 0.249345 2.40591 2236449
-0.072621897 0.249318 2.4047799 1841947
-0.068792701 0.250357 2.40242 1973532
-0.061958101 0.247106 2.3864501 2959912
-0.0562957 0.248604 2.38397 2828582
-0.053385101 0.24726 2.38324 2302239
-0.050062999 0.247293 2.3828499 2368032
-0.0507042 0.24721 2.3819799 2368032
-0.047612201 0.247209 2.38164 2236703
-0.047085401 0.247299 2.38169 2170910
-0.0380674 0.248372 2.3810699 1841688
-0.034684699 0.24840701 2.3801601 1776152
-0.031931698 0.248358 2.3796599 1973531
-0.0299946 0.245665 2.3798599 2433826
-0.027942 0.248483 2.3800099 2499618
-0.0249287 0.24847899 2.3793299 2236447
-0.0216862 0.24848901 2.3787501 2367775
-0.0094621796 0.246498 2.37852 2104861
0.00116893 0.24663199 2.37866 2368290
0.0069333501 0.245095 2.3771 2697254
0.011365 0.24528401 2.37831 2960426
0.0145954 0.24529 2.3784299 3157805
0.019950001 0.24665201 2.3777001 2828840
0.0269616 0.24681 2.3791001 2368289
0.032618798 0.246728 2.3782599 2762791
0.035847802 0.246742 2.3780501 2960170
0.0392888 0.24676 2.3786299 2894376
0.0471499 0.246314 2.38006 2631461
0.0506755 0.24636699 2.38024 2499875
0.0542804 0.246581 2.38094 2368546
0.062424801 0.24672499 2.3836801 3355184
0.0658013 0.24672499 2.3840401 2894633
0.069349699 0.246751 2.38469 1841945
0.072628602 0.246748 2.3848701 2763047
0.080171198 0.246877 2.3868101 3091756
0.084179498 0.24696501 2.3882301 3025962
-0.262788 0.26812801 2.5429499 3815221
-0.25854599 0.26776901 2.53811 3815478
-0.25344801 0.266682 2.5279 2631206
-0.24988601 0.26717299 2.5244999 2762793
-0.25213799 0.26724601 2.5267799 2894634
-0.243166 0.26631999 2.5160601 2499364
-0.24273799 0.26593301 2.5158601 2499621
-0.240541 0.26476601 2.5139501 2697000
-0.236223 0.265167 2.50648 3289137
-0.23388299 0.264213 2.5043299 3289138
-0.22863001 0.26381001 2.49986 2894378
-0.228894 0.262907 2.4997201 2894378
-0.22610299 0.26289299 2.4979601 2960171
-0.22275101 0.261792 2.4930799 2236704
-0.219808 0.263089 2.4899199 2631205
-0.21604601 0.260629 2.4860001 2170397
-0.21324 0.26000699 2.4792399 2301726
-0.209535 0.259987 2.4788401 2499105
-0.206882 0.26116401 2.47786 2104347
-0.20567 0.2617 2.47686 2038298
-0.203916 0.25944 2.4756401 2038555
-0.201332 0.261026 2.47437 2301983
-0.19933601 0.26128599 2.4710701 2894376
-0.19517601 0.25922099 2.4688699 2170653
-0.191195 0.25973099 2.4651899 2236447
-0.18905701 0.26080099 2.46292 2236447
-0.186482 0.260106 2.4609799 2433827
-0.17354199 0.258001 2.4516101 2170912
-0.171451 0.25961199 2.4498301 2631207
-0.167611 0.25659299 2.44717 2894378
-0.16475999 0.25817201 2.44559 2828585
-0.16174001 0.25684401 2.44398 1973277
-0.15925799 0.25834599 2.4423101 2302241
-0.15657599 0.25590599 2.4414101 2170655
-0.15411 0.25584099 2.4391301 2302498
-0.15213101 0.25788701 2.4380801 2236704
-0.14929201 0.25786299 2.4363201 2170654
-0.143589 0.255824 2.4340899 2565412
-0.139974 0.256928 2.43191 2828585
-0.13713901 0.25691801 2.4302101 2236705
-0.13795801 0.25730199 2.43051 2565413
-0.13357501 0.254419 2.42837 2104862
-0.13504601 0.25728801 2.4290199 1907740
-0.130585 0.25442699 2.4268701 3026221
-0.12777799 0.25442401 2.4252801 2828584
-0.124878 0.25441 2.4237101 2302242
-0.121841 0.25439301 2.42256 1973277
-0.118783 0.25438201 2.42134 1973277
-0.11564 0.25438499 2.42027 2368036
-0.112637 0.25436199 2.41891 2302499
-0.109509 0.254365 2.4177599 1973277
-0.106404 0.25437301 2.41658 2960172
-0.103358 0.254372 2.4153099 3026222
-0.100307 0.25437799 2.4140401 2170913
-0.096759498 0.25469401 2.41342 1841691
-0.094176002 0.25461301 2.41208 1776155
-0.090541497 0.25482199 2.41028 1644569
-0.090304002 0.25496101 2.4104099 1644569
-0.087426797 0.25492701 2.40923 1710362
-0.0859496 0.25212699 2.4086399 2499621
-0.083028398 0.25212601 2.4073601 2565414
-0.080210701 0.25206101 2.4063499 2170656
-0.077042498 0.25207299 2.40622 1710361
-0.074038103 0.25209901 2.40534 2039326
-0.071065404 0.25208399 2.40396 1644567
-0.049121201 0.249975 2.3814001 2104860
-0.0463841 0.249909 2.38027 2170653
-0.039374702 0.25112501 2.3801501 2039068
-0.036047202 0.25115201 2.3803201 1973018
-0.032883301 0.25115499 2.38028 2039067
-0.026059 0.25122499 2.38011 2696998
-0.0228021 0.25125399 2.3798001 2565412
-0.0200966 0.25120199 2.3785999 2499362
-0.0133376 0.2493 2.3796699 2499361
-0.00728114 0.249239 2.3786099 2170653
-0.0041282498 0.249244 2.37817 2302239
-0.00091719499 0.249258 2.37802 2368033
0.0026728599 0.249329 2.3783 2960427
0.012541 0.249529 2.3784699 2828840
0.015805401 0.249584 2.3783 2828840
0.0216798 0.24944299 2.3779399 3026219
0.025096901 0.24947301 2.37831 2170910
0.030986801 0.24940801 2.3779399 2236447
0.033866402 0.249375 2.3771801 2499875
0.037562899 0.24954399 2.3775599 2631205
0.045020599 0.248925 2.37889 2763304
0.052657802 0.24944501 2.3805499 2236704
0.0611303 0.24957199 2.3831699 3223598
0.064415701 0.24955501 2.3833101 4407615
0.067669801 0.249558 2.38363 3815735
0.071272597 0.24957401 2.38451 3289391
0.074629299 0.24958099 2.38481 3684149
0.081853598 0.24975701 2.38677 3749942
-0.260589 0.269337 2.5404899 3289134
-0.25889701 0.271386 2.5383 3618100
-0.25161701 0.26993799 2.5246999 3157550
-0.24721099 0.26862901 2.52074 2631207
-0.243986 0.269467 2.5166199 2499621
-0.245306 0.267225 2.5188899 3091759
-0.24103799 0.26789001 2.51423 3025965
-0.23880801 0.26689401 2.51173 3157550
-0.23193599 0.26612499 2.5012901 3288880
-0.234081 0.26789901 2.50299 3420722
-0.229478 0.26765499 2.4998 3683894
-0.22713099 0.26601601 2.49789 2696998
-0.224981 0.26768199 2.4960599 2894121
-0.22323599 0.264878 2.4958501 2499620
-0.221485 0.26464501 2.4918399 2894377
-0.216529 0.26381001 2.4867699 2499105
-0.212708 0.264469 2.4823401 2828070
-0.208427 0.264047 2.4789901 1775382
-0.20297 0.265163 2.4743099 2565156
-0.200653 0.263928 2.4728301 2236702
-0.19857199 0.26265001 2.47088 3157549
-0.19335 0.26363 2.4662299 3026219
-0.190632 0.26282099 2.46471 3552307
-0.18861 0.26387 2.4622099 2960427
-0.186533 0.26372901 2.46085 2762792
-0.184587 0.26178899 2.4588101 2236705
-0.18200099 0.26316601 2.45732 1973276
-0.18001901 0.26121101 2.4556201 2236448
-0.173389 0.261859 2.4514 2499620
-0.176219 0.26014 2.45328 2104862
-0.167274 0.25982499 2.4470699 3223600
-0.164611 0.26142299 2.4456301 2104863
-0.16153701 0.259774 2.4441199 2236705
-0.159694 0.26158601 2.4421 3091758
-0.159802 0.261583 2.44227 3091757
-0.155577 0.258719 2.4399099 2433827
-0.156882 0.26158601 2.4405301 3354672
-0.156866 0.261599 2.44087 3354672
-0.15399399 0.26157501 2.4391301 3157807
-0.14722399 0.25954899 2.4354 2762791
-0.146152 0.25852501 2.4345801 2960170
-0.143143 0.258542 2.43314 2697255
-0.138612 0.25979301 2.4309499 3157807
-0.139328 0.260171 2.4314101 3157807
-0.136554 0.26013699 2.4297099 3289136
-0.13053399 0.26010999 2.4270401 2170912
-0.12627999 0.25728101 2.4245901 1841689
-0.12917501 0.25727499 2.4261 2104863
-0.123434 0.25727999 2.4230001 1578775
-0.12031 0.25725299 2.4219201 1775898
-0.11729 0.25724399 2.4205999 1841948
-0.114248 0.25723499 2.4193101 2170657
-0.111198 0.257227 2.4180801 2368035
-0.108032 0.25722101 2.41696 2697000
-0.105377 0.257164 2.4151299 2302242
-0.102034 0.25744101 2.4142499 1973277
-0.098624803 0.25751999 2.4135201 1973277
-0.095599703 0.25735399 2.4124801 1973277
-0.092046998 0.25768301 2.4109299 1512726
-0.086282402 0.25764599 2.40804 2039069
-0.089127198 0.257669 2.40942 1841691
-0.0843409 0.25494099 2.4082699 1710361
-0.082999997 0.25768301 2.40748 1973276
-0.081453301 0.25490499 2.40715 1644312
-0.079380497 0.25775599 2.4072499 2104863
-0.078577898 0.254879 2.4052899 1775898
-0.072455302 0.25498101 2.4047401 1907739
-0.063252099 0.25358799 2.3852301 3223084
-0.060394801 0.25358301 2.38361 3091498
-0.056729101 0.25367501 2.3834 3091498
-0.053479999 0.25370499 2.3822401 2236446
-0.047398701 0.25385499 2.38059 2105117
-0.044317801 0.25385201 2.3800299 2236703
-0.0408484 0.25385201 2.38029 2368032
-0.037719101 0.25385401 2.3799601 2170654
-0.034705799 0.25383499 2.3796799 2499618
-0.034366399 0.25387901 2.3800299 2565411
-0.031341601 0.253858 2.3798001 2631204
-0.028292101 0.25383601 2.3796301 3025962
-0.0241419 0.25398201 2.38041 3157549
-0.021312101 0.25395399 2.3794899 2894120
-0.018392701 0.253986 2.37905 2894119
-0.017974701 0.25396299 2.37904 2894120
-0.0118205 0.25194299 2.37872 2894119
-0.0086038196 0.251941 2.3784101 3486514
0.0046517602 0.252177 2.37887 3092013
0.0141261 0.252289 2.3784399 3684149
0.0175972 0.25233799 2.37854 3552564
0.0237024 0.25224599 2.37831 2697255
0.0268771 0.25223899 2.37835 2302497
0.0268475 0.25224 2.3782499 2302497
0.032564599 0.252119 2.3775599 2236447
0.035790902 0.252139 2.3773201 2039067
0.036465298 0.25223601 2.3779099 2039067
0.0431921 0.252056 2.3769 2170910
0.056322899 0.25239101 2.3819301 2039324
0.059643999 0.252395 2.3823299 2434082
0.066156998 0.25239 2.3828299 3749942
0.073098503 0.25243601 2.3842299 3026219
0.080254197 0.25263599 2.3863201 3881528
-0.24853 0.27336201 2.52121 2499364
-0.23541699 0.27045301 2.50422 3552564
-0.231738 0.269407 2.50126 3289392
-0.229313 0.27093101 2.4997001 2960427
-0.227266 0.269261 2.49775 2828585
-0.225279 0.27089599 2.49559 3091757
-0.221985 0.26773 2.49457 3157550
-0.221506 0.267811 2.4917901 3157293
-0.216498 0.26707301 2.4868701 3091499
-0.21317799 0.26765099 2.4828899 2894120
-0.20942099 0.26816899 2.47929 3288878
-0.21070001 0.26633599 2.4806099 2959656
-0.206072 0.267396 2.4772401 2433313
-0.19911499 0.26576599 2.4707601 3486770
-0.19760901 0.26797101 2.46896 2763047
-0.19369701 0.267077 2.4667599 2894633
-0.191386 0.26592001 2.4649301 3552307
-0.187141 0.26505899 2.4604299 3486515
-0.18427999 0.26504901 2.45871 3025964
-0.181317 0.26505601 2.4572001 2105118
-0.178313 0.265071 2.45574 2433826
-0.175934 0.264954 2.4530399 2499620
-0.170964 0.26283199 2.4495201 1907483
-0.17218199 0.265782 2.451 2499363
-0.16700301 0.263087 2.44717 2499620
-0.164424 0.26467699 2.4456799 1841690
-0.161946 0.26301801 2.44396 2302241
-0.15861 0.264433 2.4411199 2170656
-0.155662 0.26443401 2.4396 2368034
-0.151236 0.26154199 2.4377 2960171
-0.15276401 0.26441401 2.43835 2433827
-0.149755 0.264422 2.43694 1973532
-0.147129 0.262871 2.4354999 2828585
-0.14466199 0.26141101 2.43383 3223599
-0.140971 0.262997 2.4319699 3618100
-0.138025 0.26299599 2.4304399 3420722
-0.135271 0.262959 2.42871 3289136
-0.131697 0.262995 2.42781 2894378
-0.129108 0.26298699 2.4262199 2763049
-0.124409 0.26016399 2.4246099 1907740
-0.121258 0.26015401 2.42365 1710105
-0.118919 0.26009801 2.421 1776155
-0.115761 0.260115 2.4198799 1775898
-0.112766 0.260095 2.41851 2697000
-0.109516 0.26011601 2.4175701 2697000
-0.10687 0.260245 2.41573 2039070
-0.103656 0.26021701 2.4145701 2104863
-0.096954301 0.26031399 2.4131801 1973277
-0.090537801 0.26054499 2.4102399 2236706
-0.087412097 0.26045701 2.4093101 2499621
-0.084225297 0.260465 2.4082899 2302497
-0.080545299 0.26052099 2.40786 2302241
-0.081092902 0.26047999 2.4075201 2302241
-0.0775894 0.260506 2.40677 2170656
-0.074949399 0.26043701 2.4056101 1710361
-0.076897398 0.25770399 2.4057901 2039070
-0.073956303 0.257828 2.4054101 1776154
-0.0710954 0.257543 2.4040101 1381139
-0.069112703 0.258894 2.4018099 1841946
-0.064827003 0.255896 2.38747 3223340
-0.061478101 0.256479 2.38501 3552305
-0.0583129 0.256513 2.38381 2894375
-0.055067401 0.256556 2.3829601 2630947
-0.0523885 0.25650099 2.3808601 2368031
-0.0493076 0.256459 2.3798299 3223341
-0.046176799 0.25646001 2.3792901 3486513
-0.0429627 0.256681 2.3805499 3683892
-0.0392146 0.256722 2.3812799 3288878
-0.035996601 0.25656301 2.3801501 3157291
-0.0318023 0.25672799 2.3814399 3157548
-0.029296299 0.25662801 2.37994 3289135
-0.026660699 0.25656 2.3791499 3815222
-0.023097601 0.256625 2.3794899 4078394
-0.019806501 0.256686 2.37955 3881271
-0.0168941 0.25674999 2.37922 3025705
-0.0137915 0.256751 2.3787799 2762790
-0.0080843801 0.25743499 2.3786299 2828583
-0.0064262701 0.254666 2.37835 2960170
0.0031097599 0.25499099 2.3785 2499875
0.00629899 0.25498399 2.3787401 2960170
0.019127799 0.25508299 2.3785801 3026219
0.022058399 0.25503999 2.3782499 2762790
0.027783301 0.254861 2.3782301 2170910
0.031031501 0.254877 2.3781099 2434082
0.037433501 0.25498399 2.3777699 2039067
0.0418781 0.254875 2.37764 1973531
0.051002499 0.255279 2.38065 2368289
0.0579402 0.255247 2.38186 3815735
0.064436696 0.25519699 2.3821101 2828840
0.068047903 0.25523999 2.38271 3092012
0.071453698 0.25524801 2.3831799 2960426
0.076488301 0.25550199 2.3845601 2960427
0.0810716 0.255743 2.38588 2960426
-0.25832501 0.27763 2.5383999 3157292
-0.247015 0.27654901 2.52145 2631206
-0.23680601 0.272201 2.50649 3354928
-0.23413201 0.27358899 2.50402 2631206
-0.22948299 0.27455401 2.49999 2696998
-0.23140199 0.272724 2.50159 2499619
-0.22156499 0.27096799 2.4916601 2762535
-0.216204 0.27021 2.4855499 2564898
-0.218237 0.27206701 2.4877701 2499362
-0.20944101 0.271429 2.4794199 3091499
-0.211592 0.26974899 2.48119 2894120
-0.207127 0.270518 2.4770899 2565156
-0.204483 0.269602 2.4754701 2696742
-0.20180599 0.26950499 2.4728701 3749686
-0.19550499 0.269968 2.4672201 3683893
-0.190303 0.26951501 2.4630799 3552051
-0.18846899 0.267968 2.4614799 2763048
-0.185773 0.27014801 2.45997 3157549
-0.179876 0.26793399 2.4563501 2565412
-0.17511199 0.268444 2.4527099 2894377
-0.166859 0.26635301 2.4472001 2565156
-0.16918799 0.26798499 2.44873 2894377
-0.16184901 0.266289 2.4439399 2104862
-0.158473 0.26768601 2.4412501 2367777
-0.15416899 0.26729801 2.4389501 1710104
-0.15113799 0.26732001 2.43786 1644567
-0.148239 0.26730901 2.43625 2499876
-0.14486299 0.26471099 2.43396 3289136
-0.14169 0.26639301 2.43276 2170655
-0.138023 0.266085 2.4302399 2631206
-0.13508999 0.26610199 2.4287701 2499877
-0.13065401 0.26585701 2.4268601 2105119
-0.12747701 0.265892 2.4256699 2302499
-0.123065 0.263015 2.4237299 2302242
-0.121863 0.265827 2.42259 2170656
-0.117163 0.262997 2.4207799 1644568
-0.114147 0.26298699 2.41941 2170913
-0.111273 0.26298201 2.4177499 3223344
-0.11125 0.26297301 2.41768 3223344
-0.108318 0.263111 2.4164 2894379
-0.10514 0.263042 2.4152501 2697000
-0.101564 0.26312399 2.41467 2894379
-0.098621398 0.263111 2.4130599 2631207
-0.095578201 0.26318699 2.41256 2170913
-0.093568496 0.263071 2.4105201 2039070
-0.089103997 0.263298 2.40974 2302242
-0.086003497 0.263291 2.4085701 3025965
-0.082902201 0.26328501 2.4073999 2828843
-0.079682998 0.26320499 2.40677 2762794
-0.076836303 0.26306799 2.4049101 2368291
-0.070678003 0.26071 2.4031401 1578774
-0.062749103 0.25938499 2.3859301 3025705
-0.059756499 0.259352 2.3847101 2367775
-0.057004701 0.25928301 2.38309 2565154
-0.0503457 0.25949001 2.3822801 2630947
-0.046939999 0.25936899 2.38044 2499618
-0.038013801 0.25986999 2.38204 2696740
-0.035356302 0.25991499 2.3807099 2565154
-0.0219693 0.25994399 2.37974 3617586
-0.0187272 0.25996301 2.3790901 3354671
-0.0153696 0.25999999 2.3786299 2696997
-0.010143 0.260144 2.37848 2368289
-0.0048327898 0.25743899 2.3785999 2170654
0.00162238 0.25779101 2.37852 3092012
0.0049421499 0.25784799 2.3787301 3026220
0.0140323 0.25782099 2.37865 4539458
0.017496301 0.25787899 2.37867 4407872
0.020633999 0.257875 2.37854 3618356
0.026515599 0.25762501 2.3787701 2170910
0.029479999 0.257606 2.3782401 2170910
0.0321326 0.257916 2.3782401 2433825
0.035808299 0.25789899 2.37851 2170910
0.0535773 0.25818899 2.38236 2302240
0.0569431 0.258187 2.3826201 2499875
0.0598097 0.25813001 2.3822601 3683893
0.059960999 0.25813699 2.38235 3618099
0.062981203 0.258104 2.3822401 2763047
0.063103199 0.25810701 2.3823299 2763047
0.073719397 0.258147 2.3834701 2960682
0.078364 0.25835699 2.38466 3355184
-0.25666699 0.27961901 2.5364699 3354928
-0.255135 0.27849799 2.53373 3354928
-0.25041899 0.280451 2.52562 2170655
-0.25155801 0.27875501 2.5283401 2368034
-0.246526 0.27987 2.5204699 2368034
-0.23601 0.275383 2.5062201 2960171
-0.233722 0.27691999 2.50442 2696998
-0.231529 0.27592799 2.5020599 2170655
-0.22806901 0.276638 2.4986401 3683893
-0.22240999 0.27579001 2.4919801 2959914
-0.22018901 0.27413699 2.4896901 2236191
-0.215929 0.27349299 2.4855199 2367520
-0.213089 0.274591 2.48347 2828070
-0.20930099 0.27472001 2.4798701 2564899
-0.211688 0.27299601 2.4811699 2894120
-0.205277 0.272771 2.4758401 2499363
-0.203054 0.27453399 2.47383 3091757
-0.201193 0.27293399 2.47189 3354928
-0.196734 0.272903 2.4684801 3618100
-0.196087 0.27334201 2.46716 3947065
-0.19362 0.27179 2.4658501 3618100
-0.19291399 0.27390999 2.4651899 3683637
-0.19098701 0.27269599 2.46311 3486514
-0.188685 0.27153599 2.4611199 3025963
-0.186735 0.273285 2.45997 3289135
-0.18305101 0.27012599 2.4581101 3289135
-0.180222 0.27171099 2.4560699 2762535
-0.177623 0.27001399 2.45451 2828328
-0.175494 0.27175701 2.45274 2565156
-0.171648 0.26964101 2.4505899 3025707
-0.167179 0.26954499 2.4468999 2762536
-0.16936401 0.271146 2.44877 2236192
-0.162067 0.26950899 2.4437001 2433570
-0.15819199 0.27093601 2.4411399 1775640
-0.152619 0.270197 2.4386699 2302241
-0.149592 0.27018201 2.43715 2236448
-0.144789 0.26798901 2.43397 2762792
-0.142067 0.26994601 2.4327099 2302241
-0.139479 0.268967 2.43104 2170656
-0.136556 0.268967 2.4294701 2236705
-0.133636 0.26895499 2.4279799 2105119
-0.129171 0.26872399 2.4261601 2499621
-0.12608799 0.26873401 2.4247999 2631207
-0.123284 0.26871699 2.42328 2960429
-0.120306 0.26869601 2.42187 2565414
-0.117244 0.26872301 2.4205301 2236705
-0.11274 0.26585701 2.4184899 1841948
-0.109788 0.26586401 2.41698 2763049
-0.106768 0.265872 2.4156699 2828586
-0.103293 0.26594299 2.41501 2960172
-0.100191 0.26593101 2.4134099 2828843
-0.097553097 0.26589599 2.4117501 2104863
-0.094562203 0.26589701 2.4103899 1973277
-0.087493598 0.26616499 2.4093499 2433828
-0.084294602 0.266159 2.4082601 2894635
-0.081667498 0.266148 2.40716 2565671
-0.078428201 0.26617301 2.40644 1973278
-0.072389796 0.266002 2.40414 1776154
-0.068540499 0.26544699 2.4010701 2697256
-0.061853401 0.262712 2.38624 4473408
-0.061667498 0.262088 2.3849499 3749685
-0.058338899 0.26396701 2.38481 3552306
-0.055102699 0.26220101 2.38307 2762789
-0.051826999 0.26223201 2.38271 2894375
-0.0450872 0.26230401 2.3799 3289133
-0.041251399 0.26243201 2.3796401 3552049
-0.037103299 0.26259899 2.3801999 3617842
-0.034329101 0.262539 2.37959 3420207
-0.0305453 0.262647 2.3802099 3025706
-0.0121798 0.26283899 2.3782401 3025963
-0.0060262699 0.262999 2.3784699 2170654
7.5469499e-05 0.26302201 2.37851 2565668
0.00334395 0.263017 2.37886 2828841
0.0070289401 0.260575 2.37866 3092012
0.0125579 0.26068699 2.3785 3420977
0.015844701 0.26056001 2.37867 3947064
0.024938799 0.26046601 2.3782599 2630947
0.0278745 0.26044199 2.3789101 1907224
0.030849099 0.260391 2.37835 1973018
0.033963699 0.26078701 2.3791599 2104860
0.036749199 0.26068899 2.3782799 2039068
0.040770002 0.26078501 2.3790901 2104861
0.043916099 0.260699 2.3791399 2104861
0.050985299 0.26083401 2.3813701 1973274
0.0551125 0.261076 2.3827901 2170396
0.0608299 0.26093301 2.38182 3091755
0.060856599 0.26093301 2.3817101 3091755
0.064528197 0.260894 2.3821399 3354670
0.064391397 0.26087701 2.38184 3354670
0.076534703 0.26113001 2.38501 3487026
0.0763852 0.261067 2.3845401 3618612
-0.25770399 0.282709 2.5362799 3223341
-0.25386199 0.28333601 2.5309899 2105119
-0.25074601 0.28359801 2.52566 2302497
-0.25185701 0.28190699 2.52844 2105119
-0.2518 0.28191099 2.52842 2105119
-0.248557 0.281654 2.5223801 2104862
-0.24469 0.281486 2.5178299 3157549
-0.23509599 0.280114 2.50421 2697254
-0.232437 0.27902901 2.5021501 2894377
-0.22849 0.27973101 2.4983699 4078651
-0.222358 0.27905601 2.4921 2302240
-0.2202 0.27742299 2.4902301 2433313
-0.216865 0.27852601 2.48681 2696741
-0.213269 0.2782 2.4828899 2762534
-0.20894501 0.27783999 2.4793301 2368033
-0.205486 0.276016 2.47613 2367520
-0.203036 0.277742 2.4739699 2565157
-0.19904999 0.27452701 2.46999 3617844
-0.196972 0.276308 2.4684801 3552052
-0.194921 0.276196 2.4661901 3420465
-0.18930499 0.27472901 2.4612701 3025707
-0.18268301 0.27338201 2.45735 2630948
-0.180306 0.27494401 2.45574 3354671
-0.177857 0.27327099 2.4544401 2630949
-0.171627 0.27290201 2.45034 2104349
-0.16755401 0.27393401 2.44736 2959914
-0.165038 0.27386701 2.4451399 2367778
-0.157223 0.27314201 2.4412799 1775640
-0.14982501 0.27347299 2.4369199 2368034
-0.144834 0.27131101 2.43413 2828585
-0.140009 0.27216101 2.4312601 2236448
-0.135179 0.27179599 2.42856 2104862
-0.130329 0.271943 2.4258201 2499621
-0.118878 0.271575 2.42102 2170656
-0.1143 0.268718 2.4191101 2236449
-0.111308 0.26870099 2.4175899 2565414
-0.108158 0.26872799 2.41646 3223344
-0.108043 0.26875401 2.4165001 3223344
-0.101886 0.26876101 2.41435 2894379
-0.098577604 0.268785 2.4126999 2433827
-0.095447898 0.26880899 2.4114499 2236449
-0.089071997 0.269021 2.40994 2039070
-0.092040099 0.26886001 2.4109001 2104863
-0.085778303 0.26904801 2.4091301 2499621
-0.082808502 0.269016 2.40765 2828842
-0.076870903 0.26887101 2.4059501 2631207
-0.070730701 0.26888999 2.4036701 1710361
-0.068435997 0.26869801 2.40116 2434084
-0.061194699 0.26543099 2.3857601 3749685
-0.056884099 0.266734 2.3840599 3223341
-0.052923601 0.26709399 2.38429 3815221
-0.049872 0.26523101 2.3821001 3354926
-0.046315499 0.26520699 2.3812201 3354670
-0.029307101 0.26529101 2.3793199 2959914
-0.0255989 0.26528201 2.3787601 2960169
-0.021816 0.265443 2.3789101 3683893
-0.0104329 0.26574701 2.3791101 2697255
-0.0074912701 0.26572499 2.3778601 2631205
-0.00118021 0.26584801 2.37802 2434083
0.0019293 0.26581901 2.3781199 3223342
0.0138967 0.26346099 2.3778501 3354928
0.0144856 0.263304 2.3789001 3420464
0.017327299 0.26326099 2.3782001 3420464
0.021000899 0.26333699 2.37869 3025449
0.0257001 0.26327699 2.3787501 2893863
0.0280974 0.26355901 2.3789699 2367776
0.0321295 0.26361701 2.37956 2367519
0.035486199 0.26361501 2.3796 2301982
0.037992299 0.26386499 2.37871 2565154
0.038719401 0.263533 2.3792701 2433569
0.041590199 0.263843 2.3794701 2828327
0.044736002 0.26344499 2.38007 2630691
0.044909801 0.26381099 2.37991 2894120
0.047981001 0.26329201 2.3806701 2038811
0.051016901 0.26334399 2.3814299 2170396
0.0556098 0.263787 2.3814299 2367775
0.059622198 0.263726 2.3820901 3025706
0.059553199 0.263742 2.3820601 3091498
0.062784001 0.263724 2.3819001 2894119
0.0627378 0.26373899 2.38199 2894119
0.062751599 0.263735 2.3821299 2828326
0.066258997 0.26370901 2.38287 2565411
0.0669493 0.26379901 2.38307 2499618
0.069632001 0.26370299 2.3833301 2630947
0.0742746 0.26388401 2.3852201 2894376
0.078141503 0.26385099 2.3845401 3289134
0.079250202 0.263924 2.38556 3288878
-0.25245601 0.28548101 2.52859 3289392
-0.25425401 0.286706 2.53092 3618356
-0.246291 0.28335401 2.5206299 2696998
-0.244708 0.285833 2.5194499 2433825
-0.235649 0.28329399 2.5043299 3552307
-0.233199 0.28219199 2.50265 2894377
-0.228697 0.282933 2.49856 3486514
-0.227213 0.28140301 2.4953301 3289135
-0.22447801 0.280662 2.49406 3025963
-0.22348601 0.282253 2.4929199 3157549
-0.22230899 0.28232399 2.4923 3288879
-0.22011 0.28069499 2.4904101 2236190
-0.21601 0.281701 2.4867599 3157291
-0.21481401 0.279697 2.48457 2630949
-0.211097 0.27987701 2.4811399 2104861
-0.20726401 0.28148699 2.4777 2696743
-0.205064 0.279217 2.4762499 2696486
-0.19915999 0.27775499 2.4702001 2630950
-0.197455 0.27984601 2.4684 2104862
-0.19213501 0.27702901 2.4644799 2894122
-0.193776 0.27937999 2.4661901 1907483
-0.18963 0.27781099 2.46222 2696999
-0.18594199 0.27783099 2.4589901 2960171
-0.182633 0.276645 2.4572001 3683637
-0.18014701 0.27818599 2.45578 2762792
-0.176116 0.27665201 2.4533801 2433570
-0.172324 0.27812701 2.45067 2960171
-0.16964 0.27577099 2.44906 3157294
-0.164773 0.27712899 2.44525 2039069
-0.16268601 0.27539101 2.4435101 2367778
-0.159554 0.27539399 2.44206 2302241
-0.155384 0.274405 2.4389 2302240
-0.152789 0.27656499 2.4377999 3091757
-0.147706 0.27633399 2.4354801 2894378
-0.145244 0.274598 2.4344599 3091758
-0.142672 0.27341399 2.43274 2894378
-0.140609 0.27540201 2.4310901 3223343
-0.13678899 0.27463701 2.4289999 2696999
-0.13375001 0.27464801 2.4277 3552308
-0.12610599 0.27256399 2.4238801 2433828
-0.123649 0.27445701 2.4226601 2302242
-0.120456 0.27432901 2.4212501 2105119
-0.117258 0.274358 2.42028 1973277
-0.114158 0.27427399 2.4184201 2039327
-0.11115 0.27427 2.4170599 2236705
-0.107832 0.27432999 2.4162099 2697000
-0.103895 0.27153 2.4140999 2828586
-0.10008 0.271653 2.41346 2368035
-0.094033301 0.27165699 2.411 1973277
-0.090682 0.271759 2.4102001 1841691
-0.075043097 0.27181101 2.4058199 2104863
-0.071851 0.271718 2.40488 1776153
-0.068992898 0.27167499 2.4037499 2236705
-0.062959403 0.26838899 2.3858099 4012858
-0.060108699 0.26979101 2.3845201 3289134
-0.054456599 0.26979101 2.3845 2499617
-0.0513868 0.26979199 2.38395 2631204
-0.048254699 0.268002 2.3825099 3881014
-0.042972099 0.26812401 2.3812001 3683892
-0.037366599 0.26791701 2.3805301 3354927
-0.034197599 0.26795 2.3793499 3354927
-0.030921301 0.267977 2.3793099 2959914
-0.0270904 0.268051 2.3789899 2696998
-0.023463801 0.26813999 2.3791399 3552307
-0.020300001 0.26817799 2.3787601 3420721
-0.017064 0.268199 2.3785 3223086
-0.0086817099 0.26856399 2.3790801 2828840
0.00326086 0.26851299 2.3772199 4210493
0.0195735 0.266404 2.37832 3222828
0.022724601 0.266379 2.3784001 2828327
0.0261162 0.26638901 2.37886 2959912
0.0245168 0.26928201 2.3790801 3091241
0.030369701 0.26648799 2.3802099 3354414
0.032391001 0.26635399 2.3793001 3288621
0.033179399 0.26621601 2.37884 3157034
0.037110701 0.26636201 2.38012 3157291
0.036736902 0.26629499 2.37866 3157291
0.04067 0.26639101 2.38028 3354670
0.044112399 0.26641601 2.3808701 3485999
0.047100101 0.26637 2.38078 2959655
0.0500241 0.26630199 2.3808801 2959912
0.0544977 0.26671201 2.38165 3354669
0.061914898 0.26664299 2.3829601 3354671
0.0619408 0.26660299 2.3824601 3354671
0.064493597 0.26653701 2.3822 3617842
0.066241398 0.266761 2.38399 3749428
0.068421803 0.266628 2.3835001 3486513
0.069277599 0.26672599 2.3838899 3486513
0.0765948 0.26684999 2.3864801 3881271
-0.25314999 0.288598 2.52864 2499875
-0.24974801 0.28772101 2.52354 2433825
-0.247179 0.28675401 2.5217299 2302240
-0.243672 0.28858501 2.5174401 1841688
-0.23228499 0.28461301 2.5021701 3552306
-0.233595 0.28754801 2.5032899 2894120
-0.22885901 0.28616101 2.4986401 3025962
-0.225338 0.28371501 2.4948299 2762791
-0.223689 0.28538099 2.49283 2894377
-0.22103 0.28424299 2.48963 3157549
-0.21481 0.28354201 2.48387 3025707
-0.21671399 0.28483999 2.48648 2762534
-0.21199401 0.28295001 2.48276 3091500
-0.20876101 0.284453 2.4776001 1907484
-0.20630699 0.283676 2.4760001 2104863
-0.202068 0.28198701 2.4725299 3025965
-0.199826 0.280956 2.4704001 3091501
-0.19770899 0.283115 2.46961 2894379
-0.193174 0.282906 2.4659901 2631206
-0.194986 0.28308201 2.46767 2696743
-0.189383 0.28250599 2.4625399 2763049
-0.19143499 0.280132 2.4636099 2828585
-0.184159 0.28072801 2.45876 2565669
-0.180365 0.281369 2.4548099 2565670
-0.177559 0.279524 2.45421 2762792
-0.174806 0.279504 2.4523499 3025964
-0.172774 0.28138301 2.4505601 2170655
-0.171294 0.27838901 2.4493101 2762792
-0.167026 0.27880701 2.4470401 2631206
-0.162466 0.27864799 2.4435799 2434084
-0.15977401 0.280045 2.4417901 2368292
-0.155866 0.27760401 2.4391201 3025964
-0.148344 0.279488 2.43559 2894377
-0.150599 0.277345 2.43661 2762792
-0.14551599 0.27837101 2.4340501 2236448
-0.13828 0.277504 2.4296401 3223344
-0.141027 0.27866399 2.4310999 3683894
-0.135359 0.27751401 2.42817 3486772
-0.129068 0.27730101 2.42522 3223601
-0.12637299 0.275877 2.4239099 2894635
-0.123921 0.277762 2.4226899 2368035
-0.118872 0.27719399 2.42068 2302498
-0.118836 0.277179 2.4205501 2302498
-0.1127 0.27710199 2.41749 2104863
-0.109507 0.27716401 2.4165201 2368035
-0.104885 0.27430001 2.41485 2894379
-0.106626 0.277123 2.41504 2565413
-0.101936 0.27448201 2.4136801 2631207
-0.098579504 0.27451399 2.4126599 2433571
-0.095480002 0.27447599 2.4110899 2433828
-0.0923732 0.274535 2.4103701 2104863
-0.089110702 0.27456099 2.40975 1973277
-0.085998997 0.274564 2.40887 1907227
-0.083072796 0.27453601 2.40769 2236449
-0.079883203 0.27455199 2.40679 2565414
-0.076290697 0.274634 2.4066801 2236449
-0.073583104 0.274571 2.40518 1710104
-0.070308402 0.27460599 2.4042399 2434084
-0.062499899 0.27171701 2.3858399 2434083
-0.050317299 0.27257201 2.3824699 2302240
-0.0443906 0.27094701 2.3814099 2170653
-0.041554902 0.27088699 2.381 2368031
-0.038778 0.27082199 2.3803899 2828583
-0.032726198 0.270625 2.3788099 2434083
-0.029346 0.27066901 2.3789501 2499876
-0.028365601 0.27083299 2.3799601 2499876
-0.0251876 0.27084601 2.3793399 2894634
-0.0217913 0.27089399 2.3791001 3552307
-0.0156403 0.27096999 2.3782799 3618100
-0.0082197301 0.27107301 2.37674 3025963
-0.0040369299 0.271238 2.3780999 2960170
-0.00113226 0.271198 2.37761 3289391
0.0052549401 0.27129999 2.37766 3618099
0.0084413299 0.27130601 2.3775499 3289134
0.022711501 0.27215299 2.3791101 3288620
0.036702201 0.27060899 2.37939 3683378
0.040017299 0.27062199 2.3796599 3814707
0.047807202 0.27223399 2.3817 3091241
0.049674001 0.26935601 2.38133 3156778
0.056795999 0.26966301 2.3826599 3223084
0.060415398 0.26948801 2.3822899 3222828
0.063960202 0.26952001 2.3830099 3683892
0.066570699 0.26944301 2.38269 3881271
0.067629904 0.26955599 2.3833699 3947064
0.067765303 0.26961401 2.38362 3947064
0.070257597 0.269517 2.3836401 4276029
0.0709401 0.269595 2.38379 4276029
0.073888697 0.26956999 2.3848901 4144444
-0.252891 0.29320699 2.52665 2631204
-0.24259201 0.29047099 2.51512 2499362
-0.23962 0.291192 2.51071 2762533
-0.24079999 0.28926101 2.5127699 2302239
-0.233624 0.28845701 2.50348 2828327
-0.22930899 0.289399 2.4988101 3486770
-0.231152 0.28743801 2.50068 2959913
-0.22551601 0.287231 2.4953101 2960170
-0.221191 0.28751701 2.4902899 2894377
-0.21751399 0.28759301 2.4867301 3025707
-0.21349201 0.28637901 2.4818299 3223086
-0.21105801 0.28522301 2.4801099 2565413
-0.201886 0.28691301 2.4716101 2631207
-0.199121 0.286883 2.46963 3289393
-0.200443 0.28405201 2.4707799 2696999
-0.190998 0.28441501 2.46402 2499877
-0.186682 0.284143 2.4604199 2236705
-0.18861599 0.28567299 2.46246 2631463
-0.182464 0.282664 2.4568701 2039326
-0.177982 0.28337899 2.4539599 1973533
-0.17497499 0.28273901 2.45258 1907740
-0.17274199 0.284684 2.4512601 1710618
-0.17132699 0.281719 2.4494801 2236705
-0.168448 0.28169599 2.44787 3026221
-0.164177 0.28288099 2.4449 2236706
-0.159832 0.28331 2.4415801 2302755
-0.15757801 0.281519 2.4400001 2565671
-0.15393101 0.28053299 2.4386401 2499621
-0.15114 0.280514 2.4368701 2368291
-0.148986 0.28271699 2.43556 2105119
-0.146276 0.281564 2.4340899 1973276
-0.143636 0.28040799 2.43257 2302241
-0.139006 0.28074399 2.42946 2828842
-0.132636 0.27917999 2.42678 3552309
-0.126651 0.27917999 2.4239099 2762793
-0.124289 0.28105 2.4225299 1775898
-0.121263 0.28106001 2.42117 1775898
-0.118012 0.28073701 2.4194601 1973277
-0.113778 0.28077 2.4182501 1973533
-0.110665 0.28000599 2.4173701 2236705
-0.108002 0.279944 2.41557 2236449
-0.108042 0.279917 2.41557 2302242
-0.105273 0.27987501 2.4139199 1973277
-0.101825 0.27992499 2.4133999 2170656
-0.098975003 0.27988499 2.4123001 2302498
-0.097081602 0.27739999 2.41207 3157551
-0.093818098 0.277394 2.4108701 3025965
-0.093657598 0.27737901 2.4112501 2960172
-0.090654597 0.27736199 2.4101801 1907484
-0.090548202 0.277392 2.4100599 1907227
-0.090653203 0.27736199 2.4101601 1907484
-0.087450199 0.277385 2.4091599 1973277
-0.087617703 0.27735099 2.4091401 1973277
-0.0876 0.277345 2.4091599 1973277
-0.081477597 0.27738199 2.4071901 3486259
-0.078366101 0.277358 2.40624 3091758
-0.074978203 0.27737001 2.4057801 2302242
-0.0722197 0.27732801 2.40399 1578519
-0.071879402 0.277486 2.40481 1644311
-0.067758299 0.278052 2.39958 2960170
-0.062507503 0.274979 2.3859301 3289392
-0.046209801 0.27421501 2.3808601 3354929
-0.043016601 0.27422601 2.3808 2828328
-0.039847501 0.27361101 2.3806701 2368034
-0.031024801 0.273366 2.3787999 2828841
-0.026783301 0.273579 2.3797901 2697256
-0.026722301 0.273581 2.3798399 2697256
-0.0232368 0.273619 2.3795199 2762792
-0.0232969 0.27363399 2.3796501 2762792
-0.020650299 0.27353901 2.3782201 3091757
-0.0172663 0.27379599 2.37781 3486257
-0.0106758 0.273752 2.3761499 3617843
-2.4900301e-05 0.27392301 2.37711 3420721
0.0035959999 0.274012 2.3773501 2959913
0.0071485098 0.27415201 2.3772199 2894120
0.0100197 0.27408901 2.3769701 3289134
0.0132678 0.27410901 2.3768899 3223340
0.0209725 0.275038 2.3792801 3420462
0.0283977 0.27318901 2.3793499 3354413
0.0350517 0.27339801 2.3791001 3091240
0.0386605 0.27345499 2.3798101 2959654
0.044808902 0.27496701 2.38044 3091241
0.053932302 0.27249199 2.3830299 2828070
0.057940599 0.27261701 2.3838999 2894119
0.060831401 0.27257901 2.3829401 2894119
0.065977998 0.27246401 2.3831 3815221
0.0651953 0.2723 2.38168 3815221
0.064893603 0.27542001 2.38377 2630948
0.068065897 0.27540499 2.3836999 2894376
0.069476098 0.272493 2.3837299 3881271
0.0694336 0.27243701 2.3834701 3947064
-0.23982701 0.29448 2.5103199 2959913
-0.237096 0.293084 2.5067501 2696741
-0.23158 0.29067999 2.50091 3946808
-0.232879 0.29128 2.5023 3486257
-0.233876 0.29158199 2.50317 2894120
-0.230946 0.29284799 2.4999399 4210237
-0.226006 0.29036 2.4953799 4078907
-0.22789299 0.291657 2.4978199 4670787
-0.222808 0.29038301 2.49122 3223342
-0.218015 0.29129401 2.48698 3289135
-0.220679 0.29213199 2.4893701 2894377
-0.215877 0.28920901 2.4844301 3289136
-0.21178301 0.28837699 2.47999 3157551
-0.21394899 0.29064199 2.4821301 3618101
-0.20938601 0.28979799 2.4781001 2894635
-0.2079 0.28785601 2.47595 2565414
-0.20339 0.28980401 2.4723301 2697256
-0.19611201 0.28779799 2.4672699 3223601
-0.19310801 0.287774 2.4658999 2894635
-0.188821 0.28885901 2.4623001 2368292
-0.186831 0.287339 2.4603601 1973533
-0.184627 0.288688 2.4583001 2499876
-0.178791 0.286203 2.45403 1907997
-0.17478199 0.28746 2.45085 1842204
-0.17008799 0.28455999 2.4483199 2170913
-0.171124 0.285759 2.4488599 2170913
-0.16870899 0.287415 2.4472401 2697513
-0.169403 0.28744501 2.44767 2631720
-0.16475201 0.286163 2.4451001 2302755
-0.162028 0.284926 2.44333 2039583
-0.15285701 0.283351 2.4372399 2170913
-0.143792 0.283593 2.4322901 2302498
-0.14425801 0.28362799 2.43255 2433827
-0.139211 0.28406599 2.4296899 2368035
-0.136545 0.28267199 2.4283099 2170656
-0.13276 0.284897 2.4265599 3618102
-0.13413499 0.282047 2.4274299 1973277
-0.131161 0.282047 2.4260199 2104863
-0.12824 0.282038 2.42448 2104863
-0.122781 0.28392601 2.4218299 2368035
-0.116493 0.28323999 2.41819 2170913
-0.119238 0.28386199 2.4202399 2104863
-0.106927 0.282298 2.4145 1841691
-0.103296 0.28273201 2.41366 1644568
-0.099664502 0.28277501 2.4136701 1841690
-0.095326401 0.280285 2.4116399 2499621
-0.089101799 0.28024501 2.4095299 1775898
-0.083080798 0.280166 2.40763 2368035
-0.079967096 0.28016499 2.40678 2631207
-0.076784097 0.28016099 2.4058001 2039070
-0.073803298 0.28008899 2.4046299 1776154
-0.0707177 0.280119 2.4036701 1710104
-0.068358697 0.281223 2.3991101 2236704
-0.066843599 0.27972499 2.3966999 2170911
-0.065304004 0.27801999 2.39237 3289391
-0.0612358 0.278359 2.38677 3223599
-0.049376499 0.27733499 2.3812599 2828584
-0.0444296 0.276954 2.3809299 3486514
-0.039574999 0.277482 2.38041 2762791
-0.036358401 0.2775 2.3805699 3157805
-0.0340515 0.277336 2.3801401 3223598
-0.0309841 0.277338 2.37955 3092013
-0.018405801 0.276638 2.3789401 2960170
-0.0114938 0.27661401 2.3779199 4275773
-0.0067694001 0.27623901 2.3771701 4209980
-0.0034785799 0.277601 2.3764999 3354671
0.026418099 0.27602199 2.37886 3420206
0.0371431 0.27622801 2.37941 3551791
0.062661499 0.27826399 2.3833599 2894120
0.066240303 0.27829099 2.38392 3288878
-0.23985299 0.297746 2.51019 2499361
-0.23708101 0.296222 2.5064499 2104604
-0.23168799 0.29619801 2.4997499 2302496
-0.233991 0.294734 2.50314 2565155
-0.22927999 0.29460001 2.49773 3289391
-0.22469801 0.29532799 2.4933701 2697254
-0.222866 0.293663 2.4912 3223342
-0.218909 0.29431501 2.48698 3420721
-0.220808 0.29538199 2.4893799 3157805
-0.215682 0.29235399 2.48404 3354928
-0.213302 0.293742 2.4807799 3618101
-0.209061 0.29299399 2.4779899 3091758
-0.21122999 0.29162699 2.4800799 3355186
-0.205108 0.29199001 2.4741099 2960172
-0.207369 0.29107499 2.47595 2828842
-0.202158 0.29308999 2.47258 2828842
-0.200177 0.290966 2.4709301 3223600
-0.198033 0.29267099 2.46947 3223601
-0.19278499 0.29260299 2.46509 1052431
-0.194019 0.29074699 2.4673901 3025964
-0.19035099 0.29042399 2.46471 1841948
-0.186496 0.29051301 2.4602799 1381395
-0.187995 0.29222301 2.4625299 592137
-0.182601 0.28993899 2.4560399 2236704
-0.18514 0.29172599 2.45912 1249809
-0.179902 0.28916001 2.4544401 2236704
-0.17385501 0.29024899 2.44925 2039327
-0.17110001 0.28888401 2.4483099 2434342
-0.166227 0.28903499 2.44577 2763307
-0.163295 0.28896001 2.44345 2500134
-0.161199 0.28781199 2.4416001 2500134
-0.1584 0.28723401 2.4398601 2500134
-0.155367 0.28727099 2.4386799 2697256
-0.152473 0.28725699 2.4370301 2236706
-0.144502 0.288008 2.4323599 2302242
-0.146623 0.28637901 2.43431 2565670
-0.141763 0.28563699 2.43132 2696999
-0.142462 0.28588799 2.43156 2696999
-0.13935199 0.28736401 2.42946 4341825
-0.134362 0.28773001 2.4270201 3486260
-0.131421 0.287745 2.4256301 2499364
-0.126845 0.284863 2.42346 2565670
-0.121969 0.285768 2.4203601 2631206
-0.116536 0.28640401 2.4175701 2433827
-0.11337 0.28462699 2.41678 2105120
-0.109802 0.28620401 2.41609 1907740
-0.104172 0.28621599 2.4126 2302499
-0.106915 0.28619999 2.4144199 2105119
-0.095771097 0.28580001 2.4110701 2236705
-0.092292897 0.28589499 2.4105501 2236705
-0.090714402 0.283023 2.4100399 1907484
-0.087809399 0.28298301 2.40889 1644311
-0.084749401 0.28297299 2.40815 1578775
-0.078296699 0.28290501 2.4061999 1973534
-0.072145298 0.28294799 2.4040599 1447189
-0.069995001 0.28278601 2.4017601 2236448
-0.067291297 0.28390399 2.39902 3289135
-0.051128101 0.279971 2.3807499 2499876
-0.046365201 0.27958 2.38029 2499362
-0.0414881 0.28016901 2.38006 2302240
-0.0382687 0.28017801 2.3800001 2434082
-0.038590401 0.28008699 2.37988 2434082
-0.035699401 0.28002101 2.37955 2828841
-0.0280916 0.280265 2.3793499 3223342
-0.024581 0.280332 2.3796799 3026220
-0.0166176 0.27937901 2.3789699 3025706
-0.0132946 0.279425 2.37814 3683636
-0.0102515 0.27942601 2.3768499 3683636
-0.0068355598 0.279488 2.3761499 3354671
-0.00291433 0.28095299 2.3764999 2894120
0.00150129 0.279737 2.3764 2828326
0.0110309 0.278938 2.37902 3289134
0.016585 0.278945 2.3786299 3749428
0.024768 0.27884001 2.3789401 3354412
0.028123099 0.278855 2.37922 3617584
0.0340457 0.27884501 2.37831 4143928
0.038053699 0.27892801 2.37884 4275515
0.043859102 0.27835199 2.3801999 4078136
0.0460421 0.281315 2.3812599 3157034
0.0610101 0.28114301 2.38308 3223341
0.064579397 0.28112501 2.3834901 3354671
0.071844898 0.28064099 2.38569 2894119
0.074776202 0.28057799 2.38538 2894375
0.078603998 0.28065601 2.3865199 4275772
-0.244995 0.30097899 2.5159199 2499619
-0.24158899 0.30070999 2.51127 2828584
-0.24390499 0.29916701 2.51263 2762790
-0.238591 0.300612 2.50915 3091755
-0.236835 0.29940099 2.5067 2828583
-0.233805 0.29787701 2.5031099 2565412
-0.229508 0.29779401 2.49789 2894632
-0.225169 0.29841301 2.4930999 2565669
-0.227608 0.296354 2.4955299 2565668
-0.222946 0.29692301 2.4912801 3289135
-0.219348 0.29742101 2.48771 3289391
-0.21561199 0.29761401 2.4837 3552565
-0.213359 0.296785 2.47984 3552565
-0.20607699 0.29425201 2.47627 3092271
-0.204216 0.29522899 2.47417 2960685
-0.20023599 0.294438 2.4712 2960428
-0.196851 0.29581299 2.46889 920845
-0.194932 0.29388201 2.46703 986638
-0.191366 0.29577801 2.4654701 920845
-0.189878 0.29343 2.4636099 789516
-0.182539 0.29436201 2.45629 986894
-0.183229 0.29307699 2.4568501 1118223
-0.184958 0.294857 2.4587901 920845
-0.180765 0.29225099 2.4547999 2039582
-0.17131899 0.29210699 2.44837 2565671
-0.168762 0.290705 2.4470501 2829100
-0.162652 0.292274 2.4441099 2894892
-0.160117 0.29115999 2.44186 3026478
-0.156847 0.290158 2.43945 3092272
-0.15398 0.29013699 2.4377401 2565671
-0.14790601 0.28973699 2.43397 2499621
-0.150161 0.29143 2.4351001 2434085
-0.144982 0.28974599 2.43239 2433829
-0.141708 0.28914401 2.4310999 2236449
-0.139201 0.290665 2.4293001 1907741
-0.13608401 0.29060701 2.4275999 1841691
-0.136856 0.288982 2.42856 2762793
-0.13306101 0.29060701 2.4261601 2170656
-0.13005801 0.29058501 2.4246099 1315347
-0.12844899 0.28772399 2.42399 1841691
-0.12551001 0.28773701 2.42257 2368291
-0.120242 0.28866601 2.42013 2236706
-0.117429 0.28937599 2.4191899 1841947
-0.11461 0.28935701 2.41732 2039325
-0.111309 0.28908101 2.41681 1710361
-0.108373 0.28908601 2.41523 1841948
-0.105014 0.28911099 2.4138601 1710618
-0.101768 0.28913501 2.4132299 1579032
-0.098708801 0.28912699 2.4123399 1644568
-0.100626 0.28628901 2.41241 2104863
-0.100203 0.28628999 2.4125299 2039327
-0.093930498 0.28872001 2.41097 2236706
-0.0891698 0.28592801 2.4094 2039326
-0.087233 0.28564301 2.4079499 1973277
-0.079818703 0.285671 2.4067199 2104863
-0.082004197 0.288416 2.4067299 1578519
-0.076876797 0.28558099 2.40519 2697000
-0.073595501 0.28570899 2.40452 1578518
-0.070253499 0.286062 2.4017 2499876
-0.066237502 0.28599799 2.3964601 2960427
-0.057424098 0.28513899 2.3836601 3223598
-0.052404299 0.282837 2.38098 3420977
-0.049131099 0.28287399 2.3803301 2894633
-0.045938499 0.282875 2.3800499 2631204
-0.043277901 0.28280899 2.3790801 2696997
-0.040039402 0.28281799 2.3791299 2302496
-0.036660802 0.282837 2.37957 2499875
-0.030363301 0.28285801 2.3785 3881271
-0.026588401 0.28294501 2.37885 3289134
-0.018616499 0.28215501 2.37884 2894120
-0.0149015 0.28226599 2.37866 3157292
-0.0092178499 0.28286201 2.3779099 3025706
-0.0053819902 0.28298199 2.3775899 3486257
-0.0017737 0.28306299 2.3769 3617842
0.00070001098 0.28297099 2.37497 3420464
0.0059003299 0.281692 2.3778801 2565410
0.0095236804 0.28174999 2.37886 2630947
0.0125095 0.28171101 2.3787 2696483
0.0157957 0.281701 2.37901 2893862
0.017732101 0.284354 2.3780401 3814964
0.022910601 0.281683 2.37872 3222826
0.0298521 0.28163901 2.3791399 3749170
0.0327246 0.281587 2.37866 3880757
0.037179001 0.281829 2.3789101 3354412
0.0476842 0.28435099 2.38132 2762533
0.051454801 0.28440601 2.38182 2893863
0.055486701 0.28439599 2.3829899 3091755
0.062938496 0.284013 2.38326 2894377
0.0702473 0.28349501 2.3856299 2828326
-0.251847 0.303462 2.5282199 2894635
-0.251127 0.30476499 2.5243101 2894379
-0.248713 0.30463299 2.52174 2368035
-0.241284 0.304014 2.51156 3355184
-0.243154 0.30248299 2.51371 2960426
-0.236618 0.303873 2.5063801 3026219
-0.23359101 0.301045 2.5030401 3026219
-0.223179 0.300138 2.49123 2565668
-0.219552 0.30059999 2.4877601 3355185
-0.217591 0.299142 2.4856801 3552308
-0.20999201 0.298406 2.47682 3420980
-0.20698901 0.29841599 2.4754801 3354929
-0.203879 0.298462 2.4743099 2763049
-0.20208301 0.29676399 2.47245 2763049
-0.199184 0.297562 2.4702899 986639
-0.19674399 0.29905099 2.4686999 921102
-0.195218 0.297066 2.4663899 920846
-0.19435599 0.29743201 2.4672501 920845
-0.18827 0.29710799 2.4646101 855053
-0.183346 0.298388 2.4607 789259
-0.180197 0.29531899 2.45416 1184017
-0.18096399 0.29761201 2.4572101 986894
-0.178169 0.29510099 2.4512401 1907740
-0.17284399 0.29495901 2.4490499 2500134
-0.17562801 0.29501599 2.4500599 2236962
-0.167539 0.29373801 2.4458799 3092271
-0.16886599 0.293951 2.44733 2960686
-0.160276 0.29344299 2.4421999 3158064
-0.158134 0.29306099 2.4405601 3289650
-0.15537301 0.293035 2.4386599 3026479
-0.15280101 0.29296899 2.43643 2697001
-0.14743701 0.29474899 2.4334099 3355187
-0.15027501 0.29475901 2.4351499 3157808
-0.14446799 0.29475701 2.4319899 2499621
-0.142914 0.291908 2.43117 1907484
-0.137648 0.29351699 2.42822 2236450
-0.134487 0.293441 2.4265201 1907228
-0.131523 0.29348299 2.42536 1841691
-0.131467 0.29346699 2.4253299 1841691
-0.128543 0.29348201 2.4238701 1776155
-0.124403 0.29057401 2.4213901 1776154
-0.121603 0.29110301 2.4211199 1644825
-0.118789 0.29175901 2.4196899 1710617
-0.115935 0.29227901 2.4185801 1579032
-0.11262 0.29224801 2.41748 1513239
-0.106865 0.291697 2.4145801 1447446
-0.100567 0.29183301 2.41238 1578775
-0.096366704 0.29117101 2.41119 1710362
-0.092734098 0.29189199 2.4105999 1841948
-0.090549 0.28939399 2.40992 1644569
-0.087323599 0.289399 2.40872 1315603
-0.080198899 0.29135501 2.4065199 2105120
-0.078193702 0.28852701 2.40644 2302499
-0.075092703 0.288555 2.4052 2104863
-0.063614704 0.28876701 2.3865199 2894377
-0.0601147 0.28634101 2.38484 3026219
-0.058192901 0.28836501 2.3833599 2828840
-0.054355402 0.288495 2.38322 2828840
-0.0512903 0.28849301 2.3826301 2696998
-0.0482984 0.288472 2.3820601 2762790
-0.047294602 0.28566101 2.3808899 3355184
-0.043997001 0.28567901 2.38078 3289391
-0.037799299 0.28562099 2.3793299 3026219
-0.034908202 0.285561 2.3789301 3223342
-0.0317306 0.28557199 2.3787401 3552305
-0.033998098 0.285741 2.37989 3289134
-0.028214701 0.28564301 2.37905 3420462
