# .PCD v0.7 - Point Cloud Data file format
VERSION 0.7
FIELDS x y z rgb
SIZE 4 4 4 4
TYPE F F F U
COUNT 1 1 1 1
WIDTH 1249
HEIGHT 1
VIEWPOINT 0 0 0 1 0 0 0
POINTS 1249
DATA ascii
1.05323 0.333868 2.2794199 12494736
1.0563 0.33509499 2.27861 12034186
1.06308 0.33449501 2.2809401 12231565
1.10842 0.33211201 2.27753 12428687
1.11682 0.328071 2.2648699 12297357
1.19231 0.33390099 2.3066001 12033672
1.2309901 0.329739 2.2955501 11901829
1.2345099 0.32958099 2.2916901 12362636
1.23904 0.33043799 2.29421 12625809
1.24317 0.33225501 2.29739 13152153
1.24298 0.33145499 2.2936201 13283482
1.32895 0.32768399 2.2976999 13283995
1.3279901 0.32631499 2.2831199 13612959
1.33083 0.32514799 2.28158 13415580
1.3350101 0.32488501 2.2846701 13152152
1.342 0.32666999 2.28369 11573381
1.42879 0.325129 2.29182 13678753
1.4304 0.32385901 2.2895899 13744546
1.43496 0.32337499 2.2926199 13744546
1.44147 0.32406801 2.30282 13679009
1.62814 0.31468499 2.28021 13547424
-0.97791302 0.292512 1.65449 7760996
-0.67290902 0.29204899 1.711 5454630
-0.46991 0.30682701 1.82539 5916988
-0.56247401 0.379897 2.20083 2694937
-0.56116599 0.37955001 2.20748 2300179
-0.346643 0.294828 1.78262 2366229
-0.345231 0.295315 1.78783 1116938
-0.32169899 0.29518801 1.7889301 1314832
-0.32059199 0.297721 1.8051 2169880
-0.320243 0.29887599 1.80749 2564122
0.023127601 0.32059899 1.9865 1446414
0.0216396 0.31821299 1.98403 2432538
0.0218616 0.31816301 1.98138 3221796
0.0480881 0.31945899 1.9977 3879466
0.049778499 0.32128301 1.99933 4471089
0.0203906 0.36444399 2.2374599 5325623
0.0276276 0.36405 2.2347801 7364947
0.032435998 0.36513701 2.22931 8878183
0.033734798 0.364847 2.23193 10259321
0.0380667 0.36343801 2.23071 10785662
0.0390606 0.36416599 2.2437201 10522232
0.060337901 0.361936 2.2344699 8812392
0.0652586 0.363747 2.23195 5720638
0.070213802 0.363204 2.23487 4734258
0.23123799 0.36381501 2.2624099 4996657
0.25544399 0.362196 2.2701299 5260083
0.26008299 0.36331099 2.2679801 8022616
0.31755099 0.35708499 2.2508199 14007714
0.32007599 0.35871699 2.2593801 13678749
0.360836 0.35758999 2.26213 13152150
0.37624499 0.35986301 2.26736 12822672
0.385075 0.356612 2.2620399 12757391
0.42775601 0.356989 2.2736399 12033669
0.443391 0.354074 2.2485499 12757651
0.48402801 0.352238 2.2575099 11836549
0.50425601 0.351441 2.25056 11507584
0.52037001 0.34976599 2.2534699 11639169
0.52259803 0.352795 2.25442 11770755
0.52640098 0.35041401 2.2560799 11836548
0.52912301 0.351053 2.2588899 11770755
0.63064301 0.34872401 2.2693501 11770241
0.64116102 0.346984 2.2573099 11507068
0.65279698 0.34830999 2.2535 11572861
0.67135799 0.34475499 2.2551501 11507068
0.66855001 0.345797 2.25208 11572860
0.739402 0.34568599 2.26807 12888464
0.74382597 0.34598899 2.26912 12493706
0.74758601 0.34599701 2.26389 12098947
0.76729202 0.33857501 2.2307999 12559499
0.77379102 0.34250599 2.25507 12822415
0.77716702 0.34134299 2.25034 12954258
0.78456199 0.342365 2.2560201 13283224
0.78906798 0.34296399 2.2572801 13349273
0.87681597 0.34304401 2.27688 14072996
0.88799101 0.34184101 2.2674401 13612701
0.89048803 0.33928001 2.26296 13678494
0.91138798 0.34168899 2.27156 13480859
0.91554898 0.34103799 2.2772601 13481116
0.941401 0.341627 2.2792301 13481116
0.98494297 0.34416199 2.2961099 13086616
0.99013698 0.33996901 2.2841499 13283995
0.993635 0.338561 2.2769699 13349788
0.997881 0.33871099 2.26688 12954774
1.0022 0.33852699 2.26896 12757394
1.04471 0.33550501 2.27456 12494736
1.04942 0.336072 2.27614 12494993
1.05904 0.33542401 2.2737501 11902857
1.10273 0.33369699 2.2732799 12362637
1.1084599 0.331402 2.257 12231308
1.19427 0.335774 2.2946601 11901829
1.19718 0.334649 2.29125 11967878
1.33096 0.32836601 2.27877 13152408
1.33507 0.32800999 2.28143 12691602
1.33564 0.328394 2.2843599 12691858
1.33907 0.32767099 2.2845199 12165516
1.35194 0.32847199 2.2877901 10981756
1.37751 0.32864001 2.28654 13020567
1.38193 0.327923 2.2913599 12954773
1.38693 0.327425 2.2937801 13152152
1.38577 0.32861501 2.2848401 12823443
1.42309 0.32726699 2.2939501 13876131
1.42484 0.32552901 2.2888 13744289
1.43032 0.32715401 2.2857599 13876645
1.43941 0.325688 2.2909701 14008230
1.50621 0.321495 2.2751801 13744288
1.51027 0.32229701 2.2832401 13678752
1.62473 0.31737599 2.2838299 13415838
1.62354 0.315743 2.26563 13350045
-0.79188597 0.29040301 1.6584001 15327971
-0.46624601 0.31001899 1.82276 5522230
-0.46067199 0.30932501 1.83042 5522747
-0.45740101 0.318562 1.87832 2957594
-0.55676198 0.381329 2.19783 2431765
-0.348589 0.29760799 1.78268 2497557
-0.34582201 0.29769 1.78462 2168852
-0.345736 0.29999301 1.78947 1116938
-0.32257 0.29921201 1.80215 854279
-0.321668 0.30153501 1.80553 2038038
0.0208518 0.320438 1.97771 4207916
0.022223501 0.32253301 1.98133 3945258
0.0252349 0.32276899 1.9901201 1446674
0.0481163 0.32388401 1.99777 2893088
0.020141499 0.36712 2.2362499 5259830
0.0263878 0.367167 2.2293799 5720380
0.060399599 0.36430499 2.22895 10325114
0.0654644 0.36634699 2.2268 8023134
0.070585303 0.36591399 2.2295001 4668721
0.22033 0.36604801 2.2545199 5127987
0.25516301 0.36493701 2.2659199 7956823
0.259974 0.365962 2.26336 12363664
0.36074001 0.36015001 2.25897 12888977
0.36768699 0.361022 2.26634 12822928
0.391426 0.35752001 2.2504301 12362634
0.40596899 0.361406 2.2608299 12165512
0.438797 0.35550001 2.2511201 12099720
0.448172 0.356161 2.24699 12099979
0.46612999 0.35633901 2.2485099 11441792
0.46623001 0.357822 2.2683201 11639428
0.47727999 0.355131 2.24716 12033929
0.47918499 0.355901 2.24669 12297101
0.48447901 0.354451 2.2507601 11770757
0.48833701 0.35595 2.24931 11836549
0.496703 0.35454699 2.2520299 11441791
0.50435102 0.354101 2.24757 11770499
0.520302 0.35211399 2.2487299 11770755
0.63579202 0.35278901 2.2684801 11704447
0.73936301 0.348263 2.26333 12493706
0.74389398 0.34841201 2.2629399 12033155
0.748483 0.348773 2.2592101 12164741
0.75358599 0.347233 2.25758 12099204
0.76674801 0.34468499 2.2393 12954514
0.77130699 0.344244 2.23721 13217685
0.77244002 0.34264401 2.2381799 13020306
0.77666301 0.34286201 2.2412 13217429
0.78037 0.343068 2.24317 13415066
0.78347099 0.341712 2.23985 13480859
0.78908002 0.345337 2.25124 12691342
0.80279899 0.34636101 2.2620201 13349270
0.80279899 0.34634599 2.26193 13349270
0.88533401 0.34416601 2.2721901 13612701
0.89033997 0.34390301 2.26174 13546908
0.90185702 0.34373099 2.26548 13612958
0.90262401 0.34402299 2.26543 13678495
0.90614802 0.342852 2.27053 13612702
0.91116703 0.34321499 2.2613599 13875874
0.91504598 0.34203899 2.26367 13875874
0.99334502 0.34042901 2.26845 12955031
1.002 0.34085801 2.2620201 12691601
1.04055 0.33872801 2.2690001 12494480
1.04524 0.33897001 2.27492 12428943
1.04914 0.338256 2.2690101 11705221
1.0545599 0.33951199 2.26633 12231565
1.33401 0.33173999 2.2821 12757395
1.33176 0.331577 2.2765601 12955030
1.33538 0.33162501 2.2790799 12494480
1.33926 0.33098 2.28177 12033675
1.34316 0.33065099 2.2849901 11244161
1.35186 0.33109999 2.2828801 10784636
1.42887 0.328484 2.2883301 13810852
1.50297 0.328118 2.2939501 13810339
1.5061001 0.32756501 2.2827799 13678751
1.50913 0.32650101 2.2822199 13678494
1.51174 0.324927 2.2797899 13612702
1.62137 0.32132399 2.2764499 13021079
1.62237 0.318423 2.2714801 13283995
1.61365 0.31764001 2.2488599 12954773
-0.83291298 0.29408199 1.65351 12169394
-0.46521601 0.31321701 1.82174 5390644
-0.461752 0.312601 1.82654 5390902
-0.46037099 0.321789 1.87967 2957850
-0.55973899 0.384128 2.1939199 2826522
-0.55517203 0.38490501 2.20068 2234385
-0.34714201 0.30029199 1.78388 2431765
-0.330156 0.30226099 1.79137 986126
-0.32285401 0.29939401 1.78746 1183503
-0.32308501 0.301413 1.79793 986124
-0.32332501 0.30431199 1.8041101 854023
-0.32023701 0.303404 1.8073 2563867
0.0236079 0.32463101 1.98448 3090209
0.0244806 0.327097 1.98959 1578000
0.048161902 0.32835999 1.9983 2103573
0.0496484 0.325874 2.00052 4142638
0.052499801 0.329171 2.0059099 4536624
0.0254093 0.369903 2.2261801 5391416
0.0450132 0.36871001 2.22928 10785146
0.054037198 0.367219 2.22101 10784890
0.059944801 0.367174 2.2262599 10588029
0.059862699 0.36886299 2.2190599 10521722
0.065512903 0.36862499 2.22104 9864565
0.070591502 0.36824301 2.22401 5128758
0.44313401 0.35824701 2.2423699 11836805
0.45058301 0.35892901 2.24383 12099723
0.46759301 0.357757 2.23821 11507586
0.47640601 0.35849601 2.2470701 11639171
0.48436499 0.35694799 2.2456601 11639170
0.490338 0.35751 2.2397599 11178619
0.48967499 0.35780999 2.24229 11178618
0.49495801 0.35632101 2.2446899 11441791
0.50517899 0.35732299 2.2404699 11836291
0.635216 0.35569 2.27034 11638654
0.68993801 0.35262001 2.2574401 11704190
0.69315898 0.35110301 2.25403 11572604
0.69707102 0.350723 2.2409201 11507068
0.698991 0.347359 2.22878 11375482
0.71600401 0.35390601 2.27266 11638654
0.74187499 0.351322 2.25721 12625293
0.75358099 0.34947401 2.25245 12559756
0.76341802 0.348443 2.2448201 13151892
0.77590299 0.34661499 2.2394199 13349015
0.78106701 0.34537399 2.2355299 12427914
0.78170198 0.34675401 2.2347901 12099205
0.78479302 0.346351 2.23348 12625550
0.78724402 0.34546599 2.22998 12888722
0.80068803 0.34147501 2.2200899 13546650
0.89619601 0.345283 2.2623601 13678238
0.91121501 0.345698 2.25668 13941667
0.91504002 0.34399599 2.2509601 13744288
0.92104298 0.34550899 2.25875 13415322
0.93961501 0.34767899 2.27268 13546653
0.93868399 0.347202 2.2729199 13612446
0.94296801 0.34625301 2.27245 13612702
0.94265598 0.34709701 2.2764001 13678495
0.94625098 0.347873 2.2706101 13481117
0.94628698 0.34777099 2.2701299 13481117
0.946289 0.345871 2.2767899 13678494
0.99032003 0.344412 2.2767301 13020823
0.99844301 0.34263799 2.26051 12757650
1.00207 0.343887 2.2598901 12823701
1.04064 0.34236199 2.2694499 12165772
1.04528 0.34204799 2.27244 11837063
1.0447 0.34324899 2.2693999 11902600
1.04918 0.340648 2.2636199 11771014
1.05533 0.34296599 2.26719 12363407
1.3302701 0.33421901 2.27458 13020823
1.33147 0.33399701 2.2711899 12889494
1.33463 0.33463499 2.27262 12692116
1.33512 0.334842 2.2738199 12692115
1.34308 0.33506399 2.27951 11968139
1.34697 0.33410999 2.28283 11178881
1.35032 0.334097 2.28297 10982014
1.35373 0.33412501 2.28335 11837066
1.39305 0.33167699 2.2783899 13218202
1.39589 0.33121899 2.2792599 13218201
1.50841 0.33039901 2.2808499 13086358
1.51429 0.328437 2.28111 13086358
1.51364 0.32936701 2.28022 13086101
1.5199 0.32949701 2.2795801 13415068
1.61202 0.32007301 2.25108 12757394
1.61384 0.31853199 2.24951 12888980
-0.95172 0.29776099 1.64612 13880010
-0.47536901 0.312096 1.80959 5520939
-0.469163 0.31558901 1.82201 5653816
-0.46307701 0.316181 1.83209 5719868
-0.55520302 0.38582799 2.19191 2563606
-0.555677 0.38640499 2.18558 2892571
-0.55372798 0.38721201 2.19526 2300435
-0.34614399 0.30465999 1.79091 1182730
-0.333327 0.30652899 1.7958699 920334
-0.32370901 0.306128 1.7987 1052174
-0.322613 0.306532 1.80764 2103575
-0.32141501 0.30851999 1.8100801 2695454
-0.321123 0.308478 1.80969 2695454
0.023624601 0.32904401 1.9844199 3813930
0.0261457 0.328931 1.99155 1446673
0.026178 0.32934001 1.99177 1381136
0.0271053 0.33137801 1.99553 1446930
0.046452299 0.33108699 1.99727 1511953
0.0511044 0.331595 2.00319 4273968
0.045818701 0.371079 2.22387 10587768
0.0540266 0.37086299 2.2172899 10258292
0.0652273 0.37107801 2.21679 10127222
0.0704007 0.370653 2.2191801 7233875
0.076137103 0.37045801 2.2223899 4668721
0.26898301 0.36714101 2.24509 13283736
0.26952699 0.36682901 2.24371 13283736
0.26898301 0.36714101 2.24509 13283736
0.438508 0.360746 2.2378299 11902341
0.44316199 0.36076701 2.23947 11704963
0.44757399 0.36024401 2.24066 12297101
0.455814 0.36052901 2.24108 11704964
0.461072 0.35991701 2.24385 11507586
0.472913 0.35870999 2.2365401 11375742
0.478313 0.35832301 2.22773 10981242
0.48221001 0.35753399 2.2265601 10981241
0.488426 0.35584399 2.2225399 11178619
0.49998501 0.35899299 2.2465301 11704962
0.50501001 0.35963601 2.23579 11902084
0.63711601 0.355326 2.2386501 12033412
0.640369 0.35362899 2.2358301 11901826
0.64464903 0.353654 2.2346699 11638654
0.698268 0.353311 2.23715 12098947
0.70070601 0.34993699 2.2218001 12033411
0.71556801 0.356435 2.2637501 11441019
0.71866697 0.35465401 2.2601399 11506811
0.725155 0.355701 2.2616999 11769727
0.73891699 0.35395399 2.26333 12691086
0.74190098 0.35455501 2.2544 12756879
0.74489403 0.351338 2.2444201 12625293
0.74962801 0.35063401 2.2439799 12559500
0.753811 0.351358 2.2413001 12691087
0.75889897 0.35014799 2.2451 12822672
0.76338398 0.35135099 2.2423699 13809566
0.76906198 0.348607 2.23787 13744029
0.77261698 0.34966099 2.23543 11967363
0.77579999 0.34951401 2.237 12230534
0.77816302 0.34738499 2.23402 12098949
0.78707302 0.34790799 2.2251201 13809566
0.796552 0.34660199 2.22488 14138787
0.79899597 0.345312 2.21893 14204580
0.90592903 0.34649199 2.2539001 13875874
0.907902 0.34862 2.2518499 13547165
0.92125702 0.34806299 2.25506 13349530
0.92497402 0.34759599 2.2553599 13283737
0.94701302 0.34846401 2.2707901 13415324
0.95384198 0.34424999 2.2367301 13218201
0.95347703 0.34413201 2.23597 13218201
0.95816499 0.3441 2.2393601 13217944
0.960576 0.34456 2.2439699 13152152
0.99856502 0.345772 2.25897 12757907
1.00207 0.34628201 2.2546899 13021080
1.00599 0.34385401 2.25564 12889495
1.00695 0.345171 2.2571499 12692115
1.0059201 0.344212 2.2562499 12889495
1.0090801 0.34446299 2.25315 12428944
1.04957 0.34356001 2.2612801 12100236
1.27185 0.34355599 2.2941501 13151896
1.32974 0.337284 2.26846 13547424
1.33653 0.33527499 2.27106 13021081
1.3357 0.33561799 2.2633901 13679267
1.34461 0.33802199 2.2815101 13547426
1.34841 0.33802199 2.2835701 13613475
1.39388 0.33426201 2.27316 13744802
1.50647 0.33278099 2.28389 13020565
1.51223 0.33248401 2.2817099 13020564
1.51544 0.33105299 2.27631 13086358
1.51531 0.33131 2.27633 13086358
1.60917 0.321224 2.2412 12560016
1.61002 0.321457 2.23985 12560015
-0.94754499 0.29775101 1.6273 8551030
-0.94961703 0.30015901 1.6408499 14142925
-0.889458 0.30055901 1.65602 14735320
-0.83456701 0.29746601 1.65332 14143184
-0.825773 0.30092299 1.6626199 15196385
-0.46932501 0.31800199 1.81881 6114366
-0.466775 0.31711701 1.82386 5324850
-0.466912 0.32044601 1.83197 5390901
-0.464535 0.320963 1.83408 5588025
-0.55645901 0.38956699 2.1884 2892315
-0.55356801 0.38973901 2.1917601 2432021
-0.55455297 0.38920599 2.1935401 2366229
-0.34597799 0.306795 1.78672 2169108
-0.323901 0.30880401 1.80467 788230
-0.32307699 0.310976 1.80802 1840660
-0.32297799 0.310875 1.80822 1972246
0.0222027 0.33169401 1.9831001 4208172
0.024955399 0.331204 1.98807 2959138
0.0263885 0.333013 1.99203 1446415
0.047880601 0.33319101 2.0005801 1840658
0.049221098 0.33425501 2.00248 2695708
0.052643601 0.33359301 2.0059099 4536880
0.029913301 0.37486401 2.2207301 5917760
0.062133402 0.37327799 2.2116201 10324088
0.070807897 0.37308899 2.21402 9535857
0.076129802 0.37270999 2.2168 4865843
0.273536 0.369977 2.24295 13678750
0.38449499 0.36804 2.24828 12362377
0.433476 0.363471 2.2304699 12099720
0.447723 0.36266601 2.2351 11968136
0.447588 0.36263701 2.2363999 11968136
0.451372 0.36496699 2.2365 11375999
0.451736 0.36437801 2.2359099 11441791
0.48595199 0.359635 2.2274101 11968134
0.498716 0.36106199 2.2386799 11836291
0.63371199 0.358282 2.24686 12099205
0.64928102 0.35676399 2.2411799 11441275
0.64928901 0.35674301 2.24107 11441275
0.68953902 0.35803199 2.2435701 12230277
0.69639301 0.35545701 2.2411799 12164997
0.72010797 0.35832399 2.2597201 11704446
0.73030198 0.35731101 2.2493899 12230534
0.740641 0.35415 2.24316 12691086
0.74543899 0.355266 2.2390599 13020051
0.74960399 0.353497 2.2409501 12822672
0.754035 0.354307 2.2388301 13348760
0.75807101 0.352474 2.2400801 13546394
0.76363701 0.35292 2.2332799 12625293
0.76484102 0.351441 2.2347801 13217687
0.76912701 0.351441 2.2347901 11967363
0.78055799 0.35101801 2.23122 13809566
0.78312898 0.34944201 2.22504 13809822
0.78767997 0.35098299 2.2244101 14270117
0.79030198 0.350624 2.22364 14138531
0.91715199 0.350687 2.2476599 13020565
0.91407502 0.35027701 2.24453 13020566
0.91960698 0.350436 2.24577 13086615
0.929488 0.35104299 2.2616701 13086359
0.94359702 0.349767 2.2572401 12954772
0.95377302 0.34691101 2.2325599 12889237
0.95675898 0.34529299 2.2272 12757395
0.95790201 0.34496701 2.22662 12757395
0.95651603 0.345202 2.22699 12823188
0.96688998 0.347931 2.24898 12625808
0.96271503 0.346396 2.2371099 12691345
0.97072703 0.348836 2.24809 12625809
0.99645197 0.34802699 2.2511401 12823701
1.00597 0.34691799 2.2528801 12297615
1.00609 0.34746 2.25562 12363151
1.01247 0.347637 2.2611301 12100493
1.2618001 0.34190199 2.27596 12823188
1.2661099 0.34179699 2.27847 13020566
1.27021 0.34276599 2.2726901 13020310
1.30911 0.34358701 2.2801299 12888725
1.31531 0.33953801 2.2639 13349276
1.32359 0.33890799 2.26863 13612705
1.32617 0.33749199 2.26547 13678754
1.33417 0.33798799 2.2680199 14008231
1.39166 0.33684 2.26474 14139559
1.51359 0.334407 2.27283 13546652
-0.89478397 0.30295601 1.64437 14866651
-0.89343601 0.30112699 1.64729 14866907
-0.83359897 0.302434 1.65485 15130592
-0.82906801 0.30190301 1.65474 15130593
-0.481738 0.31928501 1.8169 5586217
-0.48455599 0.32006899 1.81829 5586216
-0.470781 0.31966299 1.82434 5719352
-0.47007999 0.322559 1.82735 5258801
-0.46610299 0.32347599 1.83283 5456438
-0.46041301 0.32120401 1.83341 6509641
-0.46000099 0.32326999 1.83582 6575691
-0.462275 0.32608601 1.84498 5983556
-0.55737901 0.39140499 2.18432 3023901
-0.552136 0.39209101 2.1856101 2629400
-0.55079401 0.392699 2.1907599 2300180
-0.34750801 0.30850801 1.78423 2432022
-0.34624901 0.31007501 1.79049 1840401
-0.332113 0.30884999 1.79187 789004
-0.32421499 0.31081399 1.79916 1117967
-0.32427099 0.31306601 1.80536 722694
-0.32193801 0.31292301 1.81151 2761245
0.0247373 0.33614999 1.9908299 3813931
0.0235913 0.33380499 1.98602 4142380
0.0274764 0.336757 1.9943 1380365
0.047856301 0.33779299 2.0015199 2235417
0.046275299 0.335848 1.99905 1840918
0.0522171 0.33859 2.0088301 4734260
0.032455299 0.37648401 2.21156 5786174
0.054248799 0.37708399 2.21049 10719099
0.058480799 0.37580201 2.2102699 10653305
0.070548601 0.37565199 2.2099299 10916738
0.0760644 0.37503299 2.2114899 6773068
0.081202097 0.37488601 2.2149 4800308
0.081020899 0.374457 2.21347 4800308
0.25479999 0.37446699 2.2406499 13349528
0.271927 0.37462199 2.2372799 13613215
0.37696901 0.37097701 2.2453201 12428171
0.42959201 0.367412 2.22632 12297100
0.43347499 0.36618599 2.2259901 12165514
0.43787599 0.36469299 2.22861 11770756
0.44290301 0.36597499 2.2265501 12231307
0.44792899 0.36489201 2.2304001 11902342
0.44791001 0.36495101 2.2296901 11902343
0.453293 0.366083 2.22542 11442048
0.454384 0.36624399 2.2337401 11507584
0.46808699 0.36408499 2.2172799 11573376
0.48414999 0.36466801 2.2356701 11836548
0.63323498 0.36091 2.2423501 12296583
0.63669598 0.359743 2.2394199 11967619
0.699637 0.35877401 2.2409301 11901568
0.71266299 0.36200699 2.25579 12362120
0.71581697 0.36250001 2.25647 12888464
0.73060399 0.35775399 2.23369 12362376
0.73612601 0.35693699 2.2374201 12822671
0.748887 0.35669899 2.2361801 13085843
0.75301099 0.35731301 2.2334399 13217429
0.75792003 0.354972 2.2351401 13414809
0.76079297 0.35655701 2.23067 12362376
0.76060402 0.35635301 2.22859 12427913
0.763928 0.35541001 2.22999 12625292
0.76631099 0.354065 2.2325001 12230535
0.76816499 0.35449299 2.2295799 13085843
0.77234298 0.355248 2.22802 14072736
0.77550203 0.35390601 2.23422 13875357
0.77826703 0.35417101 2.23017 14204322
0.78158301 0.35360599 2.22633 14336165
0.79273897 0.35430101 2.22665 13480857
0.92256898 0.356951 2.26407 13020566
0.92958701 0.35382199 2.2592499 13020565
0.95980102 0.34957299 2.2349701 12560016
0.96602398 0.34926501 2.24388 12625809
0.97078699 0.35104299 2.2421601 12428430
0.99627101 0.34993899 2.2432899 12560273
1.00205 0.34902 2.25087 12428944
1.00609 0.34992 2.25052 12034187
1.00927 0.351659 2.2500899 11836807
1.01773 0.35034099 2.25583 12231822
1.23049 0.34687999 2.2799101 11967622
1.25415 0.34689501 2.2751999 11638401
1.25981 0.346843 2.27776 11901829
1.26784 0.345743 2.2715399 12691345
1.27206 0.34575501 2.2718401 12888723
1.27148 0.347092 2.2748699 12757137
1.30738 0.34572801 2.2834699 12954517
1.31311 0.34270701 2.2693999 13218203
1.31631 0.34262401 2.2685699 13283740
1.3178999 0.34276399 2.2632599 13152411
1.32287 0.34157801 2.26033 13350046
1.3259701 0.339986 2.26139 13876645
1.32846 0.340139 2.2614701 14271404
1.35212 0.33869901 2.2448299 13349787
1.38017 0.33748099 2.25021 13547167
1.50623 0.33739901 2.2699699 13349274
1.50914 0.33497101 2.2697599 13349530
-0.88279098 0.30520901 1.65064 14932443
-0.88110399 0.30395401 1.64985 14932443
-0.87461901 0.30538601 1.64958 14866651
-0.845855 0.30313301 1.65039 15064799
-0.480508 0.322157 1.8147399 5586473
-0.47541299 0.32189599 1.8141299 5652270
-0.47259799 0.32054499 1.81083 5652269
-0.47226399 0.322355 1.81661 6048312
-0.47188801 0.32311901 1.82231 5982522
-0.46298999 0.32452101 1.834 5720124
-0.460219 0.32470101 1.83587 6378312
-0.46103799 0.32826 1.84815 5720641
-0.56119901 0.39540499 2.1874101 3089694
-0.55121899 0.39332899 2.17924 2892316
-0.54816902 0.39486501 2.1844101 2365972
-0.54540497 0.395417 2.1842699 2300436
-0.35031801 0.31263301 1.78615 2629142
-0.34766799 0.31373301 1.79234 1577743
-0.34338099 0.31150499 1.78973 1182730
-0.33940199 0.313667 1.7915601 393989
-0.336588 0.31281599 1.79689 657674
-0.325131 0.31426001 1.79634 1249552
-0.324799 0.314816 1.80097 1117710
-0.322853 0.314924 1.80793 1774867
-0.32339999 0.31518501 1.80915 1906452
-0.32158399 0.31693199 1.81091 2695709
0.028471 0.33974999 1.99551 1446157
0.0492968 0.339892 2.0048399 2301209
0.050536901 0.341342 2.00772 3616553
0.053854998 0.340489 2.0111301 4734003
0.0417803 0.379641 2.2111399 9732977
0.0760644 0.37739199 2.2063601 9470066
0.0808971 0.37697399 2.2091501 4997173
0.085807398 0.37889001 2.2064199 4931638
0.091444001 0.37974799 2.2144799 4997173
0.132269 0.382137 2.2344401 5391672
0.14898001 0.378676 2.2321301 5457465
0.290618 0.376598 2.23754 13481626
0.31232199 0.37478101 2.2423 13152149
0.31615499 0.376957 2.24193 12823184
0.41812199 0.36790299 2.2235601 13020823
0.42140099 0.36935601 2.2232599 12231051
0.42562401 0.36851901 2.2211101 12165515
0.43305501 0.36941001 2.22545 11441791
0.43787399 0.36739299 2.22405 10980984
0.44791701 0.36719701 2.2242801 11441791
0.54799801 0.364649 2.2235601 11704962
0.54629999 0.36371401 2.21895 11836291
0.550726 0.36361799 2.22738 11704705
0.55463302 0.36458901 2.22524 12165255
0.56048501 0.36357599 2.2264199 12099463
0.632146 0.36585501 2.23856 12033412
0.636994 0.36333099 2.24014 11901570
0.67022997 0.365863 2.24616 11835776
0.67550099 0.365031 2.24617 12296326
0.685709 0.36176699 2.23013 12296070
0.68978101 0.360367 2.2306001 12296326
0.69410998 0.360724 2.2342801 12296326
0.69840401 0.361258 2.2373099 12493705
0.713162 0.36567801 2.2553201 12690829
0.71633798 0.36608699 2.2555201 12625036
0.72171301 0.364133 2.25383 12888463
0.72535503 0.36223301 2.2479999 12625548
0.73557299 0.359429 2.23157 13217172
0.748891 0.35806099 2.2262399 13217429
0.756302 0.358376 2.2265301 12493707
0.76819301 0.356747 2.2234299 13941408
0.77236301 0.35758001 2.22229 14072738
0.77945602 0.357963 2.22667 13612443
0.78049499 0.35771301 2.2268901 13546650
0.78375602 0.354507 2.22205 13612186
0.78701103 0.354417 2.2223401 13283479
0.78884202 0.35699201 2.22085 13809565
0.94974703 0.35344699 2.2365201 12494479
0.95964599 0.353652 2.23769 12691858
0.96649599 0.35244599 2.2385299 12362894
0.96999002 0.35207999 2.2379301 12428687
0.973355 0.35235399 2.24019 12889238
0.99143302 0.35157001 2.2398601 12757653
0.99431002 0.349792 2.2351999 12494481
0.99518698 0.34998199 2.2251401 12100236
1.00172 0.35064599 2.24141 12099723
1.00725 0.35239401 2.24137 11902600
1.01376 0.352083 2.2484701 12034443
1.01727 0.352431 2.24875 12231566
1.25734 0.35000199 2.26982 11967366
1.26311 0.34863999 2.2709701 11901574
1.26735 0.349278 2.26897 12033414
1.26905 0.34880301 2.2714 12230794
1.27132 0.34908101 2.2680399 12428172
1.30953 0.34752899 2.2758999 13349532
1.31497 0.345653 2.2695899 13415839
1.32021 0.34619001 2.26546 13679268
1.32561 0.341941 2.25545 14008490
1.34885 0.339883 2.2375 13086615
1.35146 0.338725 2.2419701 13218201
-0.784275 0.30397701 1.64886 15393764
-0.48242599 0.325349 1.81554 5651753
-0.481336 0.326235 1.8184 5652011
-0.47355801 0.32558301 1.81873 6113848
-0.472752 0.32650799 1.82612 5653557
-0.47087801 0.32849401 1.82873 5390129
-0.46558699 0.32695499 1.8331 5522230
-0.46336499 0.32855701 1.83535 5785916
-0.46116999 0.33028299 1.83741 6246726
-0.461137 0.330661 1.84383 6180936
-0.55079597 0.39698201 2.1749201 3023901
-0.54883701 0.39715001 2.18009 2629143
-0.35028699 0.31609499 1.7892801 2497814
-0.34809399 0.31644401 1.79144 2169107
-0.34532601 0.31541601 1.79282 1051401
-0.33916599 0.316769 1.7919 393989
-0.32396501 0.31858799 1.8091201 1380109
-0.32031599 0.31894201 1.8139 2761244
0.0250879 0.34055999 1.99106 4208431
0.025952701 0.34271899 1.9931 4208431
0.0299905 0.34241101 1.99813 1512209
0.048975099 0.34467599 2.00775 2695711
0.0523335 0.34307301 2.00916 4537396
0.0539634 0.34497899 2.01161 4668724
0.053926501 0.34505901 2.0120399 4668468
0.034096599 0.38217199 2.19682 5326137
0.042576101 0.38161799 2.20485 9338477
0.045072898 0.38165301 2.2088001 10654333
0.066146202 0.380492 2.2038801 10916991
0.0679406 0.38198799 2.20293 11048579
0.075943902 0.37989199 2.2020099 10654082
0.080886103 0.37932101 2.2040901 6313031
0.085952997 0.380283 2.2016101 5129016
0.090949997 0.38135901 2.2056301 5128759
0.096422002 0.38183799 2.2068801 5194552
0.094130397 0.381078 2.2174101 5194552
0.100352 0.38113901 2.20344 5326137
0.181178 0.382258 2.2364199 7167308
0.271741 0.378346 2.23487 13547422
0.29087201 0.378654 2.23071 13415577
0.31120101 0.380564 2.2393601 12823185
0.42712101 0.37247899 2.2182801 11507328
0.42683899 0.371402 2.2206299 11638914
0.43886599 0.37235099 2.21911 11507584
0.442099 0.371517 2.2232399 11244412
0.447954 0.369865 2.22106 11375742
0.55079901 0.366292 2.22363 12297099
0.55534399 0.368572 2.2213099 11967877
0.56027597 0.368155 2.22156 12099719
0.63522398 0.365702 2.23704 11901826
0.639247 0.36558601 2.23682 11967618
0.66058701 0.36607501 2.2409401 11836033
0.66891497 0.36492699 2.2318299 11704190
0.68490303 0.36361301 2.22773 12559241
0.68160403 0.36300099 2.22418 12493705
0.689731 0.362737 2.2267799 12164740
0.68948197 0.36286801 2.2272 12230277
0.69414002 0.36278501 2.2288001 12493705
0.70038098 0.36368901 2.23474 12625292
0.72894299 0.36096901 2.22525 13151635
0.73192799 0.362818 2.2300799 13085842
0.74852598 0.36065599 2.22192 12822671
0.75137103 0.359422 2.2227199 12690829
0.75417697 0.36118799 2.2214 13546137
0.76055402 0.35888699 2.2239799 13612186
0.75764602 0.36114299 2.2206099 13612186
0.764961 0.35914099 2.2232201 13875614
0.76918501 0.35932401 2.22737 14072738
0.77306002 0.361563 2.2241299 13678236
0.785092 0.35782999 2.2221601 13744030
0.954059 0.356042 2.23422 12955287
0.95675099 0.35522601 2.2339001 12823444
0.96005201 0.35590401 2.2316401 12428686
0.963355 0.354918 2.23452 12297100
0.967857 0.35593501 2.2319701 13152411
0.97218102 0.354653 2.2363 12889495
0.97564399 0.35459399 2.23704 12691858
0.991418 0.35385299 2.23417 12297102
1.00062 0.35069799 2.2235301 12033930
1.0062 0.35335201 2.22594 11639684
1.01009 0.35352901 2.22925 11573634
1.26443 0.35101801 2.26881 11901573
1.29195 0.35054001 2.26841 12757395
1.3096499 0.35207 2.27755 13350302
1.3119 0.34984601 2.2736299 13876646
1.31747 0.34785101 2.2679999 13876904
1.31945 0.34589401 2.2471001 13811625
1.3492301 0.347435 2.2709301 13481888
1.3452899 0.34426901 2.23979 13020823
1.3473001 0.34156299 2.2365799 13020823
-0.79228699 0.30964601 1.65846 9011326
-0.69307703 0.305722 1.6667399 8748143
-0.69198799 0.31035101 1.68643 5126696
-0.48377001 0.33041599 1.8212399 5652010
-0.47938499 0.32796901 1.82063 5784113
-0.47360399 0.32928199 1.8236099 6048315
-0.46575299 0.33145899 1.8348 5522487
-0.55054301 0.39918101 2.1721301 3024157
-0.54530603 0.39845899 2.1649001 3024157
-0.54723799 0.40165001 2.1828401 2366228
-0.349471 0.31919 1.79128 2497814
-0.34735 0.31958601 1.79361 1643023
-0.332176 0.31786701 1.79485 854795
-0.32549399 0.31871399 1.7976201 1249552
-0.32242799 0.320517 1.8117501 2629916
-0.32064101 0.32247001 1.8134 2695708
0.025000799 0.34509599 1.9972 4142895
0.028239399 0.34541401 1.99806 2038035
0.0310106 0.34800801 2.00367 1512466
0.031103799 0.34549701 2.0028701 1512467
0.0468348 0.34784001 2.0088601 1906710
0.0521718 0.34795099 2.01143 4208176
0.036798202 0.38307199 2.1999199 5589051
0.0401868 0.38357699 2.20103 7167568
0.042053301 0.38533899 2.2057199 9535856
0.047130801 0.38451099 2.2038 10851712
0.047187801 0.384478 2.20364 10851712
0.046606898 0.38663599 2.2148399 10983041
0.055059601 0.38620001 2.2091601 10851199
0.055059601 0.38620001 2.2091601 10851199
0.057587601 0.38426399 2.2104599 10719612
0.069802597 0.38378701 2.1944599 11246215
0.0725279 0.382866 2.1984 11245960
0.0758247 0.38234901 2.1972001 11114374
0.081192702 0.38136899 2.1991 9010029
0.085859597 0.38288099 2.19732 5786945
0.087613396 0.38361901 2.2088699 5260601
0.096419796 0.38366801 2.20123 5260344
0.099464796 0.38213199 2.20263 5260345
0.104903 0.37956399 2.19449 5326138
0.104903 0.37956399 2.19449 5326138
0.20127399 0.385232 2.23104 12428427
0.275224 0.38216901 2.2281499 13613214
0.29428101 0.38083199 2.2283199 13086356
0.39128599 0.377832 2.23088 11967878
0.39620301 0.37653199 2.2155099 11441791
0.396963 0.37877801 2.2281301 11507583
0.42236 0.37218499 2.20945 11309949
0.42869899 0.37233299 2.2075901 11704707
0.43371901 0.37307501 2.21311 11836549
0.432569 0.37188399 2.2088399 11638914
0.55501598 0.368902 2.22083 11902084
0.55501598 0.368902 2.22083 11902084
0.56045198 0.36991501 2.2148099 11902083
0.63322502 0.368595 2.2318799 12033154
0.64110303 0.371032 2.2326601 12428170
0.65209699 0.36956 2.2423 12493961
0.65779698 0.36929899 2.2402699 12230790
0.66505998 0.36946601 2.2281401 12888463
0.66892803 0.36712301 2.2269599 12296583
0.67302501 0.36763799 2.2304101 12427912
0.67784202 0.366436 2.22488 12559498
0.68950403 0.365098 2.2216799 13085841
0.69417399 0.36499101 2.2230899 13348758
0.69866902 0.36534199 2.2269299 13085842
0.73081601 0.36278 2.21471 13085841
0.74077803 0.361606 2.20436 13151379
0.74583203 0.36388201 2.2179201 13217685
0.74518198 0.36196399 2.2148299 13020050
0.749116 0.36402699 2.2200799 13415064
0.75218201 0.36386701 2.22014 13546393
0.75556803 0.36371601 2.2188001 13612186
0.755404 0.36351699 2.2177401 13612186
0.75898802 0.363621 2.2177401 13875358
0.76877999 0.362353 2.22663 14007201
0.78513098 0.36013001 2.21083 13744028
0.92043501 0.35900599 2.2227199 12823187
0.945768 0.35847899 2.2335501 12757651
0.94994003 0.35960001 2.2306199 13086617
0.95680898 0.35800499 2.23035 12494736
0.96343797 0.35748601 2.2306099 13218459
0.97215599 0.35856801 2.23577 12428944
0.98870999 0.35830599 2.2353001 12297615
1.00921 0.35579199 2.2211499 12099721
1.01287 0.35449401 2.2255599 11639171
1.28587 0.35367501 2.26878 13350303
1.2886699 0.35190099 2.2672501 13218460
1.3097399 0.35405999 2.26827 13811368
1.3126301 0.352258 2.26952 13877161
1.33919 0.350714 2.2679801 13284765
1.33929 0.35214701 2.2619901 12955543
1.34278 0.34658 2.2412601 13020822
-0.82708597 0.31105199 1.64986 7365986
-0.68791002 0.31163001 1.6772799 5126952
-0.47902399 0.33136901 1.82012 5784112
-0.474556 0.33420399 1.82628 5916729
-0.46438199 0.33349401 1.83821 5983296
-0.46091601 0.33490399 1.8387001 6246726
-0.46096799 0.33385599 1.8399301 6246727
-0.473001 0.34101301 1.8752199 5128247
-0.550668 0.40226901 2.1693399 3089950
-0.54697597 0.40262601 2.1714001 2892315
-0.34813201 0.32216799 1.79272 2300436
-0.34197801 0.32027799 1.79138 854023
-0.33859801 0.32145599 1.79204 393989
-0.324736 0.32123101 1.80085 1314832
-0.323443 0.32438499 1.81244 2367002
-0.32183799 0.32648 1.81426 2761244
0.026406201 0.348656 1.9997 4077102
0.026152899 0.34702 1.99288 4537138
0.0292689 0.34960899 1.99958 2301207
0.031930599 0.34905899 2.00314 1512465
0.048886999 0.3493 2.0090001 2498590
0.0505445 0.35069299 2.0101299 2366748
0.053377699 0.35033801 2.0162101 4602932
0.039303899 0.38683799 2.19962 7233618
0.046668898 0.38868901 2.2036099 11049091
0.0516547 0.38772699 2.20209 11377544
0.055303801 0.388145 2.20224 11509387
0.058035199 0.38668501 2.20453 11048579
0.065252602 0.38579801 2.1960001 11245958
0.078097403 0.38426399 2.1865699 11312010
0.081058897 0.384018 2.19507 10786180
0.085615002 0.38528401 2.19291 8549735
0.088248499 0.38604 2.20263 5392188
0.101309 0.383993 2.1997199 5326138
0.21123099 0.38315201 2.2063701 12757391
0.29068601 0.38384601 2.2227099 12560271
0.29405099 0.38360301 2.2255001 12625807
0.299988 0.38289899 2.2270501 12626062
0.38818401 0.379834 2.22697 11770756
0.396357 0.37848899 2.2088399 10784117
0.40032899 0.37979001 2.22561 12231563
0.40455601 0.37985799 2.2182701 12560271
0.437004 0.372399 2.19117 11507327
0.438777 0.37244299 2.19821 11836549
0.465354 0.375256 2.2096 11639169
0.54199499 0.37291399 2.21506 12033668
0.54443997 0.371126 2.20945 11902340
0.55138999 0.37330499 2.2106199 11704961
0.55810702 0.37039399 2.2100699 11836290
0.56565499 0.370527 2.2128699 11836034
0.63484401 0.37085801 2.22381 12493705
0.63781703 0.371187 2.2294099 12296583
0.64730698 0.37368101 2.2311201 12296583
0.65215498 0.37214899 2.23421 12033411
0.65772998 0.36876899 2.2163501 12230534
0.660873 0.372457 2.22804 12822669
0.66913599 0.36888301 2.2188201 13283477
0.67300898 0.370083 2.2258201 13283220
0.68252599 0.36883599 2.2218699 13019792
0.68951899 0.36769399 2.21754 12888463
0.69358897 0.36685699 2.2119801 12756621
0.69876802 0.36727101 2.21977 12493706
0.75037998 0.36592099 2.21541 13480600
0.75614703 0.36656401 2.2147901 13941151
0.75563699 0.36625001 2.2153399 13941151
0.758802 0.36593899 2.21263 13875358
0.75805598 0.364669 2.2097001 13941407
0.76177597 0.365612 2.21206 13678236
0.76974601 0.365347 2.2214401 13546650
0.77304202 0.36486 2.2237301 13612443
0.78560102 0.36356401 2.2109799 14007202
0.91786498 0.3601 2.2138801 12757394
0.92384303 0.36057001 2.21489 12691344
0.94578397 0.361007 2.2293701 13020824
0.950001 0.36215499 2.22616 12231564
0.95360601 0.35998899 2.22856 12494736
0.956819 0.36073899 2.22633 13284509
0.96090502 0.35987401 2.2261901 13350302
0.96490097 0.360001 2.22521 12692116
0.96687299 0.35928601 2.2282 12560787
0.97157198 0.36110401 2.22752 12560786
0.97522801 0.361855 2.2338901 12297357
0.98306799 0.362822 2.2402599 12757909
0.98615998 0.36288801 2.2376599 12494738
0.98956198 0.36268601 2.2379301 12297358
1.0116 0.357209 2.2168 12099721
1.21867 0.35831401 2.26438 12757137
1.2222199 0.35806301 2.25508 12954516
1.30897 0.352539 2.24189 14008491
1.31135 0.35110599 2.23945 13745320
1.31209 0.34955001 2.2386401 13745319
1.31326 0.34968501 2.23774 13679270
1.31401 0.34794199 2.23422 13679525
1.3258801 0.34956601 2.2448699 13087130
1.34171 0.35253599 2.26196 12955286
1.33979 0.35056999 2.2394199 12889236
-0.80788499 0.31270301 1.64744 8615795
-0.78145599 0.31225801 1.65145 8945272
-0.48057699 0.335504 1.82147 5718318
-0.46637499 0.33650401 1.83727 5654074
-0.46422601 0.33804199 1.8416899 6115140
-0.46443099 0.33833 1.84228 6115140
-0.541623 0.40529701 2.1670699 2629142
-0.35196799 0.32412899 1.79243 2628885
-0.35205701 0.324112 1.79338 2563349
-0.34946099 0.32591501 1.79364 2432022
-0.34879899 0.32423601 1.79375 2300437
-0.34578899 0.32446399 1.79445 1445644
-0.34165999 0.32487401 1.79382 656646
-0.32551301 0.324536 1.8006099 1315088
-0.32443899 0.32819101 1.81244 1511950
0.027794201 0.35039401 1.9946899 4537139
0.028308701 0.35141799 1.99086 4931895
0.028072 0.35199499 2.0014501 3156260
0.031012001 0.352148 2.00137 1512207
0.031200901 0.35251099 2.0044501 1446671
0.032299802 0.35452199 2.00581 1512465
0.048433099 0.353921 2.01138 2104089
0.045564201 0.35328299 2.01524 1906967
0.0521474 0.35264099 2.0127399 3550761
0.047437198 0.391406 2.1991899 11509642
0.0806183 0.38685 2.19172 11509645
0.085536502 0.38790801 2.18858 10786181
0.090300702 0.38643101 2.19016 5852482
0.14173 0.39063999 2.2241099 5655100
0.17748301 0.38934201 2.21592 12362378
0.265071 0.38674101 2.2250199 13020307
0.38999099 0.380301 2.2125399 10915447
0.39041799 0.38081899 2.2109101 10783604
0.39652601 0.37816101 2.2068 10652275
0.40985599 0.378609 2.2081399 12362892
0.444897 0.37539399 2.19942 11507583
0.448484 0.37679601 2.19928 11638913
0.45163199 0.375698 2.19977 11638656
0.45398301 0.377112 2.20874 11573119
0.46085101 0.37754899 2.2025499 11901828
0.46487299 0.376688 2.20258 11836292
0.46831799 0.37738499 2.2121301 11836548
0.54212099 0.37455299 2.20473 11967877
0.54854703 0.37384099 2.20926 12033926
0.54553598 0.373842 2.2051401 12099463
0.55106401 0.37413099 2.20789 11968133
0.55379099 0.375442 2.20769 11902084
0.56569302 0.37295201 2.2079 12493963
0.63844103 0.375101 2.22965 12888720
0.64200097 0.374219 2.22912 12954513
0.65134901 0.37362501 2.22718 12230534
0.65582901 0.37244901 2.21538 12625292
0.66253299 0.37054899 2.21434 12888718
0.66171098 0.37275401 2.2129099 12888462
0.66559601 0.37057501 2.2160201 13151633
0.66711003 0.36926699 2.2081001 13217426
0.67364597 0.37018299 2.2100599 13151634
0.68266898 0.37060499 2.2140501 12888463
0.69363999 0.369652 2.20732 12559498
0.69621199 0.36934501 2.20454 12427912
0.71601897 0.366734 2.2056799 13020049
0.71594203 0.366855 2.20626 13020049
0.750489 0.36923999 2.2112701 13809822
0.76178902 0.36817801 2.20825 13744030
0.77093703 0.365982 2.2095001 13941408
0.77428401 0.36655399 2.2063601 14007202
0.80062002 0.369039 2.2172101 13941408
0.81594402 0.36588401 2.2135799 14139046
0.91290998 0.36365801 2.21558 12691601
0.91591698 0.36307299 2.2140801 12691600
0.91881502 0.36363399 2.2149 12428429
0.92224801 0.36339101 2.2132199 12296843
0.92562801 0.36327299 2.2139299 12362636
0.945948 0.36438501 2.22421 12099980
0.95403898 0.362578 2.2241499 13415838
0.97158003 0.36336899 2.22207 12034186
0.97413999 0.36319301 2.2193 11770758
0.98662001 0.366056 2.23564 11705221
0.991638 0.36261001 2.22983 11968393
1.2129 0.35944 2.25034 12099208
1.21706 0.35902801 2.2572401 12625807
1.2213399 0.35768101 2.2504201 12954772
1.21858 0.35953 2.24932 12625551
1.3111 0.35165 2.2293501 13283997
1.3096499 0.35328299 2.2321899 13481633
1.31433 0.35136899 2.23158 13020824
1.3175499 0.350903 2.2337699 12823958
1.33724 0.35196501 2.2430201 12823443
1.3405401 0.35388201 2.2396901 12823187
1.36861 0.354568 2.2471001 13152408
-0.94744802 0.31770799 1.63467 7168602
-0.933272 0.31712601 1.63021 7759703
-0.68664402 0.31598401 1.67079 4996137
-0.48181701 0.33684501 1.81826 5652522
-0.464533 0.34271801 1.84378 5983298
-0.465536 0.34299999 1.84551 5983298
-0.35092601 0.327382 1.79467 2563350
-0.34818301 0.32807699 1.7968 1643023
-0.34781 0.32751399 1.79524 1840401
-0.34186599 0.32710201 1.79439 656646
-0.32381999 0.330515 1.81626 2564122
-0.32050499 0.33187401 1.81671 2695194
0.0290769 0.35372299 1.99605 4471602
0.0308358 0.354853 2.00177 2235415
0.033933099 0.35649601 2.0084701 1512466
0.0507618 0.355055 2.00983 1775381
0.0522434 0.35713699 2.0129399 2761503
0.029471301 0.392618 2.1824601 5720638
0.037310101 0.39290899 2.18629 6049603
0.040929899 0.393112 2.1884 7957342
0.0458235 0.39501899 2.19964 11904401
0.0805519 0.390807 2.19187 11772816
0.085648797 0.39058799 2.18382 11575439
0.0901407 0.38862899 2.1861801 7957598
0.0900672 0.388643 2.18659 7826013
0.094683401 0.38947001 2.1839299 5523773
0.110615 0.39489201 2.2112701 5260344
0.14243101 0.39384899 2.2207899 11311750
0.236959 0.38969299 2.20965 12757136
0.24065 0.39042401 2.21034 12691343
0.3892 0.38316101 2.1981001 10783603
0.432879 0.37982899 2.2013199 11573376
0.436344 0.379448 2.19873 11573376
0.44849801 0.37981501 2.19713 11638913
0.45112699 0.379356 2.2009001 11704705
0.46538699 0.38005701 2.20153 11967878
0.50975102 0.37965301 2.20628 12231050
0.51046503 0.37873101 2.2030101 12231306
0.51478797 0.380326 2.2090001 12099463
0.53715402 0.37803701 2.2010601 11836033
0.54332799 0.37724099 2.2002101 12164999
0.54673803 0.376504 2.2005999 12296842
0.54968703 0.37684101 2.20612 12954772
0.55674398 0.37633699 2.2053699 12362378
0.57819402 0.37668201 2.20064 12099205
0.65188998 0.37329599 2.2098899 12954256
0.65739602 0.37379399 2.20419 12756620
0.67220598 0.37272301 2.20086 12493448
0.69345099 0.372693 2.20193 12690828
0.69660598 0.37270299 2.2012999 13019793
0.72493798 0.37176999 2.20278 13678235
0.73220998 0.37066501 2.20245 13151636
0.75491703 0.36992899 2.20982 13349528
0.75547898 0.36996901 2.20947 13349528
0.76067197 0.36994201 2.20281 14007201
0.76608402 0.36822701 2.20509 14007201
0.77214497 0.36938 2.20502 14007202
0.77478302 0.369526 2.2045701 13875616
0.814466 0.369178 2.2165201 14138789
0.90956801 0.36505401 2.2133701 12691344
0.914397 0.366074 2.21138 12165513
0.92040801 0.36618599 2.2126601 12362893
0.93283999 0.36597601 2.2107201 12625810
0.969814 0.36498001 2.2256601 12099980
0.98651803 0.36785901 2.2299199 12626065
0.989335 0.36465999 2.2282901 11902343
0.99154198 0.36445701 2.21524 12099978
1.22066 0.36078 2.2428899 12625551
1.23849 0.36119601 2.2521999 12823187
1.24473 0.360845 2.2543399 13020566
1.26552 0.35933799 2.2423 14535864
1.27236 0.356365 2.2311101 14601657
1.31259 0.355519 2.2298999 12955287
1.31722 0.354072 2.2297101 12757650
1.31402 0.35453999 2.22756 12823444
1.31866 0.35280699 2.22753 12691857
1.33372 0.35467401 2.23506 12691857
1.34032 0.35605001 2.2341199 12757394
1.34368 0.355966 2.23563 12954772
1.35829 0.35330501 2.22982 13152152
1.36238 0.35535699 2.2348199 13283737
-0.92665303 0.320741 1.6394399 8746084
-0.86546302 0.31703401 1.6289901 9141104
-0.80703598 0.31629801 1.64598 8023913
-0.80206603 0.316181 1.64495 7497570
-0.80074102 0.316888 1.64846 7102812
-0.349392 0.33049601 1.79545 2366229
-0.34764701 0.33109301 1.7992899 1116938
-0.34234899 0.33008799 1.7998199 459782
-0.32528499 0.33266601 1.81314 1051400
-0.32423401 0.33496001 1.8165801 2432794
0.0299139 0.35803801 1.99596 4800054
0.032094602 0.357869 2.0039301 1709330
0.0305181 0.35937101 1.9994 4405810
0.033448201 0.360311 2.0076699 1446929
0.047768299 0.35903499 2.0144999 1709845
0.050283998 0.35996699 2.0125401 2235674
0.053619798 0.35936901 2.0167699 4340274
0.055502102 0.361076 2.01877 5063482
0.0376078 0.39410701 2.1733601 6049602
0.039014898 0.395257 2.1805 6312774
0.042204801 0.39559001 2.18378 8483430
0.090112403 0.39138901 2.18172 10457218
0.094720401 0.39214 2.17904 6970704
0.11021 0.398031 2.2095799 5391928
0.23335101 0.39172101 2.20999 12822927
0.24526 0.38825199 2.1897199 12559757
0.25032499 0.3892 2.1874599 12691342
0.37822801 0.38735801 2.2021 11310204
0.39533499 0.384435 2.2021201 11112569
0.42427701 0.382763 2.19785 11704450
0.43067399 0.38432199 2.1948099 11573120
0.437186 0.37798601 2.1775401 11638912
0.43746701 0.38027301 2.1842599 11573120
0.448522 0.3831 2.1968 11573120
0.45134699 0.38218501 2.1983299 11902084
0.45476401 0.38252601 2.20082 12033670
0.50243402 0.38189301 2.20028 12231049
0.51076698 0.38180801 2.20034 12099463
0.51058298 0.381605 2.19999 12099463
0.51456398 0.38320199 2.20578 12033671
0.53580302 0.381459 2.2006199 12230791
0.54785103 0.379347 2.1970601 12428171
0.55429101 0.37987399 2.20771 12428170
0.573937 0.37747699 2.19714 12230791
0.61663097 0.378378 2.20152 12559755
0.62101299 0.376748 2.20242 12098949
0.62525898 0.37912101 2.2145901 12954257
0.62562299 0.37505999 2.1933 12493963
0.630279 0.37889501 2.2098 12954513
0.63492298 0.378012 2.20976 12888720
0.64078701 0.376544 2.20594 12757134
0.64667797 0.37609899 2.1972001 13152148
0.65190798 0.375328 2.20385 12954255
0.65729702 0.37571001 2.19785 12493704
0.67268801 0.373299 2.1866701 12625034
0.67765301 0.37318599 2.1977501 12493448
0.71388203 0.37367001 2.19679 12756621
0.72339201 0.373254 2.1965001 13414807
0.73176199 0.373642 2.20156 13677722
0.73560202 0.374066 2.20028 13809565
0.73935902 0.372042 2.2039299 13612186
0.74586397 0.37373099 2.2089901 13480857
0.74898398 0.373606 2.20875 13217428
0.75198299 0.37439501 2.20506 13875615
0.75216597 0.37301001 2.20608 13612443
0.75596499 0.37304401 2.20805 13941665
0.76618099 0.37052301 2.1997099 14006945
0.77508903 0.37206799 2.20046 13612445
0.77849901 0.37054601 2.20188 13480858
0.78387201 0.371768 2.2086301 13941409
0.795771 0.37276199 2.2172 14007201
0.798935 0.37242699 2.21679 13546650
0.80944598 0.373485 2.21048 13480859
0.812011 0.371245 2.2131 13678495
0.81446302 0.37354001 2.21626 13744031
0.90252203 0.36974999 2.2150199 12625551
0.90664202 0.368159 2.21451 12560014
0.91049898 0.369764 2.21297 12099464
0.91873199 0.369315 2.2139399 12626064
0.93019098 0.3671 2.21207 12626066
0.93139201 0.369535 2.2125199 12165772
0.94271201 0.37021601 2.2161901 12165772
0.98961997 0.36728501 2.21785 11968392
1.2758 0.363399 2.24385 13877421
1.2874 0.36484101 2.25226 14009261
1.29485 0.36183101 2.24246 14009259
1.30628 0.357216 2.22927 13679781
1.30995 0.358015 2.22208 13152153
1.31221 0.35742399 2.2218299 12954517
1.31375 0.35702199 2.21787 12757394
1.3221999 0.35579699 2.2272699 12691343
1.31866 0.35611299 2.2242701 12757393
1.3327399 0.35657901 2.2267499 12823442
1.34589 0.35907599 2.2349601 13086358
1.35902 0.357503 2.2332599 13349787
1.3578 0.35666701 2.2306499 13283994
1.36761 0.35849699 2.2463801 13349787
1.50221 0.35306299 2.24561 12625553
-0.87986398 0.318142 1.6263 9206638
-0.79088199 0.31864101 1.64623 6905430
-0.78648001 0.31873199 1.64578 7168344
-0.69826198 0.313979 1.63855 7496794
-0.48509899 0.34506899 1.8231 5717802
-0.484319 0.34614399 1.8267699 5783853
-0.46994299 0.34598601 1.8399 5719609
-0.47211301 0.34939599 1.85673 6246212
-0.468523 0.35076401 1.85756 6509385
-0.54000199 0.412723 2.14623 3418658
-0.53981501 0.41203099 2.1549201 3155487
-0.34966701 0.33396199 1.79967 1774352
-0.33491999 0.335641 1.80643 1117710
-0.32668301 0.336898 1.8149199 788486
-0.322043 0.337033 1.81695 2761500
0.031535398 0.36176199 2.00353 3551017
0.035122 0.36236101 2.0104599 1446931
0.050229501 0.36449701 2.0132301 1841430
0.051969301 0.36185199 2.0146899 2827553
0.053792 0.36356899 2.0160401 3156259
0.040541202 0.39767 2.1752701 6773069
0.044277102 0.397659 2.1772499 9338737
0.078340799 0.39974901 2.1963601 12167059
0.090071402 0.39416599 2.17735 11707024
0.094654001 0.39478499 2.1747501 9996922
0.24173 0.392158 2.18839 12362377
0.241754 0.39214399 2.1883399 12362377
0.25527099 0.390645 2.18577 12822928
0.274672 0.39422199 2.2085199 12823186
0.40974501 0.38910499 2.2061901 11902085
0.43502599 0.38259 2.1821799 11704706
0.45206201 0.38457099 2.19541 11704706
0.457041 0.38607901 2.1923599 11902084
0.478416 0.384965 2.19436 12033671
0.502316 0.38430899 2.19557 12033671
0.50768101 0.382624 2.19697 12033670
0.50788999 0.38223299 2.1949899 12033670
0.51071399 0.384597 2.1974299 11836291
0.51277399 0.38338 2.2013299 12033670
0.52439302 0.385005 2.20049 12362634
0.53641301 0.38215101 2.1942501 12625549
0.54008001 0.38108 2.19626 12362377
0.55201 0.38163099 2.19205 12165255
0.55639398 0.381576 2.19348 12230792
0.57347298 0.38065001 2.1945701 12362633
0.57715899 0.380766 2.1916101 12428426
0.60896999 0.380779 2.19467 12625547
0.62580401 0.378337 2.1990099 13217685
0.63102502 0.37902799 2.19437 13480857
0.63549399 0.37970501 2.19469 13414807
0.64124501 0.37737301 2.19313 13349270
0.64667499 0.37802699 2.18995 13151635
0.65205997 0.376636 2.1932299 12822670
0.67803103 0.37414199 2.1863501 13020048
0.69381499 0.376167 2.1993101 13020306
0.69675499 0.37630299 2.2017801 13020049
0.69928402 0.37882599 2.2013199 13085585
0.71284002 0.37309599 2.17644 13349270
0.72308302 0.37607801 2.19401 13743772
0.73158598 0.37654799 2.19892 13941151
0.73930401 0.37474 2.20017 13875358
0.74281698 0.37470999 2.1890299 14007201
0.74730998 0.37553501 2.198 13875616
0.75195402 0.37698501 2.20123 14204580
0.75599498 0.375368 2.2026899 14007202
0.77459902 0.374331 2.1948099 13809823
0.77972001 0.374174 2.2005501 13743773
0.78292 0.372767 2.1904199 13612444
0.79643399 0.374989 2.20839 13415065
0.81970298 0.376724 2.2121899 12888722
0.88740498 0.37252399 2.20803 12888723
0.89063901 0.371602 2.2056601 12691344
0.893511 0.37066799 2.20296 12560014
